# .PCD v.7 - Point Cloud Data file format
VERSION .7
FIELDS x y z rgb
SIZE 4 4 4 4
TYPE F F F U
COUNT 1 1 1 1
WIDTH 407
HEIGHT 1
VIEWPOINT 4295.115234 -4097.932129 158.123871 0.000044 -0.128632 -0.000432 0.991692
POINTS 407
DATA ascii
78.07128 -0.71307 179.57892 316
67.63494 -0.69184 182.04242 462
63.34473 -0.68720 186.44322 457
58.79274 -0.69120 190.99556 453
54.10487 -0.72297 195.75243 448
49.10300 -0.71526 200.78685 443
43.90299 -0.70243 206.08690 438
38.05011 -0.70811 211.66469 388
-141.30788 -0.68908 277.21738 284
78.22787 -5.17695 179.55313 316
67.19576 -5.51936 181.94104 461
62.83080 -5.64607 186.30237 457
58.30463 -5.80827 190.87186 452
53.50996 -5.96039 195.66434 447
48.52111 -6.07628 200.69753 442
43.24613 -6.26154 205.99728 437
37.16172 -6.45925 211.63121 280
-147.46010 -12.21786 278.15704 285
78.50631 -9.60908 179.57050 316
66.76494 -10.35824 181.77225 460
62.35999 -10.64184 186.13712 455
57.77494 -10.90262 190.71165 451
52.96880 -11.21745 195.55513 446
47.94061 -11.55147 200.58209 441
42.60635 -11.88825 205.95021 436
36.13630 -12.28466 211.54211 280
78.87979 -14.06229 179.55740 316
66.41365 -15.25898 181.56139 459
61.97565 -15.67710 185.97322 454
57.34411 -16.11480 190.57747 450
52.45748 -16.55650 195.39792 445
47.37909 -17.02521 200.47914 440
41.97436 -17.57448 205.85266 435
79.42525 -18.48085 179.56265 316
66.10507 -20.16735 181.35660 457
61.64295 -20.76635 185.78043 453
56.93527 -21.35348 190.38000 448
51.98731 -21.95243 195.25885 444
46.80281 -22.62758 200.36996 438
41.37140 -23.30386 205.73564 434
80.10373 -22.89291 179.54939 316
65.81314 -25.19007 181.09456 456
61.30527 -25.89861 185.55440 452
56.55535 -26.61293 190.19443 447
51.56891 -27.42419 195.06248 442
46.32607 -28.24984 200.23047 437
40.42173 -29.19430 205.60721 414
-182.24492 -64.47733 217.41656 425
80.90097 -27.28360 179.54779 316
65.39138 -30.27607 180.78758 435
60.45596 -31.21237 185.16420 431
55.29166 -32.15604 189.81709 426
49.83599 -33.23389 194.72200 421
44.08239 -34.33577 199.86505 416
37.72516 -35.54973 205.33891 404
-182.13284 -77.40374 217.35564 424
81.37600 -31.73698 179.39253 437
63.69786 -35.72173 180.10445 432
58.65063 -36.83171 184.57907 428
53.30750 -38.02901 189.29395 423
47.70121 -39.27660 194.26959 418
41.45902 -40.66396 199.47475 406
34.73593 -42.16533 205.03276 401
-190.79570 -92.56630 217.34576 296
80.07098 -36.70744 178.76598 434
61.96708 -41.34303 179.39551 429
56.74862 -42.67491 183.94807 424
51.26170 -44.08207 188.71370 420
45.17720 -45.67083 193.72324 408
38.60558 -47.35809 199.02794 403
31.61986 -49.12087 204.75572 397
-188.20578 -105.52621 203.54524 484
78.77483 -41.82225 178.03271 431
60.22087 -47.22478 178.63376 425
54.85251 -48.78748 183.23540 414
48.82687 -50.50499 188.01871 409
42.47064 -52.39187 193.09180 404
35.50613 -54.41001 198.55923 387
27.63268 -56.70501 204.30617 371
77.44570 -47.14075 177.25929 427
66.04909 -50.81944 179.65675 308
52.50680 -55.22783 182.38789 410
45.94574 -57.37487 187.22942 393
38.87977 -59.65516 192.38033 388
31.08105 -62.17563 197.88400 372
22.02173 -65.13767 203.78816 367
76.09838 -52.59920 176.43893 424
67.69035 -55.64823 179.64899 308
49.23696 -62.26420 181.32713 393
42.30924 -64.79778 186.22319 388
34.52378 -67.60414 191.44919 372
25.65686 -70.76503 197.09459 367
15.26189 -74.48962 203.17821 332
74.73637 -58.35286 175.50266 420
69.25330 -60.51785 179.57024 400
45.79647 -69.80678 180.09645 389
38.08827 -72.86008 185.09789 373
28.97218 -76.47729 190.32956 336
16.44415 -81.44846 195.82817 316
-1.14146 -88.40001 201.83011 311
72.17529 -64.82053 174.22044 386
66.05573 -67.45560 178.25742 395
41.60679 -78.01236 178.67934 340
30.60679 -82.78236 183.27043 336
17.48857 -88.44691 188.32445 315
-9.75957 -100.25626 192.71083 265
69.00022 -71.91343 172.63133 381
62.74240 -74.88766 176.82404 390
49.26354 -81.16095 179.80568 300
18.62107 -95.62495 180.61627 286
-32.97267 -119.90534 180.49707 284
68.87132 -77.90224 171.84938 316
59.13687 -82.82022 175.24387 385
49.24904 -87.88781 179.20726 325
19.00844 -103.28178 180.05090 292
71.33600 -82.59602 171.83192 316
49.82230 -94.42373 172.05000 308
36.64853 -101.68678 175.68480 319
-56.65265 -152.98198 165.15216 287
73.96851 -87.24081 171.79868 316
52.82832 -99.76235 172.02440 308
25.04670 -116.18661 172.24904 300
76.75265 -91.85316 171.77699 316
55.99776 -105.02179 171.97989 308
28.74738 -122.30326 172.21098 300
79.62827 -96.29819 171.78903 316
59.30604 -110.13718 171.97018 308
-0.66906 -150.90512 164.15253 382
82.66879 -100.72781 171.74622 316
62.80022 -115.16748 171.91920 308
11.63807 -152.36809 166.00844 295
85.87770 -105.02579 171.75124 316
66.41996 -120.08667 171.87384 308
16.74201 -158.65005 166.00909 295
89.20245 -109.19556 171.69026 316
41.87991 -148.33595 163.31783 300
92.64165 -113.29755 171.66173 316
51.89990 -149.24644 164.91570 404
96.20483 -117.28061 171.65717 316
61.00310 -150.36813 166.32344 306
78.81918 -142.27603 163.64510 308
65.88634 -155.16573 166.28883 305
82.97026 -147.05832 163.47871 307
90.72412 -147.75410 164.70738 425
99.10143 -147.31749 166.23225 419
104.31163 -150.34418 166.47591 314
109.06036 -153.85516 166.45114 314
126.68142 -148.30139 170.32104 449
-29165.96094 -46297.92188 11115.79492 1000
738.30402 -942.86023 75.11744 485
740.93201 -947.78625 110.17416 483
743.46393 -952.31500 145.51457 443
-0.00000 -80375095296.00000 0.00000 -86766821376
375.41870 -106.12702 167.62102 313
378.36584 -101.05817 167.67706 315
381.29031 -95.88470 167.70930 315
387.99664 -92.92495 166.49503 429
395.87921 -90.15517 164.90492 424
398.99200 -84.80513 164.76595 316
401.41476 -79.09641 164.75844 316
416.50751 -85.62292 167.78702 305
379.81787 -63.83750 171.59897 316
420.24304 -79.86977 167.49327 429
381.50760 -58.75206 171.61716 316
428.73245 -75.75144 165.89716 424
383.04053 -53.57873 171.62990 316
434.96399 -70.45815 164.87770 308
384.42484 -48.40077 171.62306 316
436.85080 -63.59288 164.89458 308
385.64264 -43.16172 171.66452 316
409.39078 -49.27257 171.86777 308
461.37958 -62.63092 167.93918 297
3656.23975 -882.76202 104.11303 492
386.68277 -37.87132 171.66357 316
410.60306 -43.24873 171.90688 308
463.99814 -55.20499 167.74760 452
387.55466 -32.60034 171.67471 316
411.63416 -37.17755 171.88084 308
471.10126 -48.57992 166.54187 448
270.65237 -8.66868 203.50848 314
412.42194 -31.13599 171.92140 308
478.55444 -41.58086 165.30888 443
270.72910 -7.07351 203.50626 314
413.06601 -25.06000 171.89958 308
444.85684 -29.09495 172.22661 300
270.73972 -5.47461 203.50922 314
413.56598 -18.97985 171.94406 308
445.39380 -21.95408 172.24744 300
270.71216 -3.87222 203.50775 314
413.80045 -12.88533 171.93079 308
445.71436 -14.88522 172.21706 300
270.62946 -2.28321 203.49800 314
413.90302 -6.78332 171.89607 308
445.82968 -7.79392 172.23936 300
270.49432 -0.70020 203.50389 314
413.83557 -0.69911 171.89839 308
445.72266 -0.69403 172.20761 301
270.30869 0.86936 203.50130 314
413.56317 5.37679 171.93712 308
445.36423 6.34112 172.22250 301
270.07986 2.42639 203.51003 314
413.08264 11.41025 171.91209 308
444.81134 13.40191 172.18915 301
269.79318 3.97732 203.50461 314
412.44235 17.44623 171.92662 308
444.08578 20.46339 172.20383 301
269.45819 5.50467 203.50470 314
411.61118 23.46281 171.86646 308
443.11395 27.41029 172.20013 300
4873.61621 587.44971 65.53377 487
269.08350 7.02182 203.50276 314
410.61877 29.42907 171.88115 308
477.27631 39.94973 165.09807 300
4842.94873 731.67200 65.14296 488
268.66394 8.51367 203.49870 314
409.42719 35.36478 171.87212 308
471.79532 47.24533 165.85593 448
4831.93506 878.67572 65.12337 481
268.19949 9.98912 203.50754 314
408.11542 41.22785 171.85081 308
464.68130 53.91670 166.91014 452
4822.79785 1027.79321 64.96746 460
267.67908 11.45292 203.50597 314
406.54065 47.07295 171.85674 308
457.73245 60.25708 167.96365 297
267.12341 12.88075 203.50166 314
404.86664 52.90099 171.81252 308
455.82971 67.65912 167.88902 297
266.52823 14.29636 203.51018 314
431.39661 67.87622 164.81267 308
378.21024 56.11520 171.56142 316
428.92480 74.34456 164.86569 308
376.26105 61.03326 171.54256 316
421.22601 78.80963 166.12518 430
374.17212 65.84048 171.52307 316
413.17667 82.72860 167.43452 435
394.98297 81.47006 164.67937 316
409.13425 88.13381 167.71162 305
392.09161 86.77866 164.69122 317
406.28525 94.00699 167.70950 305
389.03442 91.97116 164.70026 429
381.53506 94.56673 166.05228 434
374.42172 97.07413 167.32559 439
370.23709 101.13361 167.59264 315
366.92575 105.72667 167.59224 315
2760.52124 5870.08398 217.98326 479
2544.32788 5870.65674 218.73911 482
1324.88733 3068.22119 111.30425 415
1259.76343 3198.87842 107.77499 411
1216.00049 3426.31567 100.34460 304
119.07587 148.23830 167.40652 316
112.38746 147.83139 166.37115 314
106.27769 146.35939 165.66420 425
97.99125 147.18338 164.02831 419
92.20208 144.63098 163.50645 307
108.19575 118.69936 171.51056 316
76.28852 152.67868 166.30592 306
104.71828 114.87934 171.50691 316
71.32556 148.29396 166.19464 415
101.38015 110.99865 171.53471 316
61.27375 148.69232 164.35226 409
98.15144 106.99250 171.59795 316
53.49693 146.41246 163.33755 300
95.08939 102.90434 171.60796 316
76.91533 117.89691 171.77087 308
30.37365 156.49086 166.08273 297
92.14537 98.71363 171.60435 316
73.58432 113.11599 171.75928 308
25.75891 150.21889 166.07722 297
89.29131 94.47623 171.66559 316
70.35849 108.27934 171.82860 308
12.30584 150.46864 163.87320 389
86.64005 90.15087 171.67482 316
67.28973 103.32049 171.81186 308
41.83898 120.57831 172.01761 300
84.06390 85.74670 171.69507 316
64.37419 98.25204 171.84126 308
38.45802 114.71308 172.07701 300
-33.54344 160.38567 165.25369 286
81.65397 81.29157 171.71982 316
61.60785 93.17017 171.85811 308
35.26453 108.72153 172.10129 300
-38.13744 152.16943 165.24461 287
79.39424 76.78706 171.74318 316
59.01842 87.97605 171.93045 308
43.37378 96.55611 174.62335 319
24.33468 107.04864 177.89688 270
77.27020 72.15797 171.77701 316
62.50439 79.71179 173.45975 385
55.64687 83.19198 178.02045 324
32.29065 95.07548 179.91435 292
-12.80121 118.10352 180.31393 284
75.29759 67.51746 171.78450 316
66.20654 71.82356 175.00748 377
60.40946 74.55389 179.57823 386
26.78912 90.36916 179.39980 330
5.28146 100.52250 183.41495 282
76.05010 61.70258 172.53383 386
69.76876 64.42519 176.41412 381
59.03354 69.09397 179.71034 300
37.12583 78.59904 181.71930 336
25.26233 83.72703 186.64207 331
9.46609 90.53683 192.03107 310
77.81720 55.71038 173.52243 420
72.72701 57.73689 177.59579 415
49.71178 66.83791 178.09383 389
42.54718 69.65446 183.01822 384
34.21408 72.97638 188.27496 368
23.83218 77.06014 193.78862 332
8.82074 83.03461 199.66644 311
79.18098 50.08138 174.37192 425
74.27840 51.88436 178.37961 419
53.18414 59.45165 179.23906 393
46.43130 61.87831 184.05644 388
39.15469 64.49853 189.17853 383
30.69116 67.55678 194.68933 368
21.28027 70.98196 200.67244 362
7.65695 75.85359 207.17241 293
80.56832 44.70532 175.14288 429
75.80636 46.22853 179.07091 423
56.11303 52.64020 180.13988 410
50.02149 54.64548 184.94527 405
43.16227 56.84741 189.99840 388
35.76456 59.24347 195.37152 383
27.25410 62.02047 201.19839 367
17.60944 65.14567 207.49902 362
81.87907 39.48718 175.84160 432
76.61327 41.03466 179.57033 308
58.21073 46.39227 180.85825 421
52.54773 48.03831 185.62120 409
46.31908 49.85386 190.59615 404
39.71178 51.76221 195.91910 399
32.39628 53.89985 201.64766 382
23.79728 56.36496 207.75737 366
83.23548 34.47566 176.49086 435
75.64800 36.41416 179.57974 308
60.17104 40.39710 181.51837 424
54.79650 41.79003 186.19742 420
49.03418 43.28828 191.09737 408
42.66760 44.89803 196.33519 403
35.81741 46.66198 201.90251 397
28.49402 48.54182 207.91232 392
84.17648 29.70422 176.96240 458
74.78812 31.79852 179.57204 308
62.04403 34.67544 182.07375 428
56.82525 35.80421 186.71072 423
51.34082 37.05052 191.55658 418
45.45884 38.38130 196.71201 406
38.92153 39.82021 202.15099 401
31.85790 41.42117 208.02357 396
-184.52129 89.83372 214.36548 438
84.42049 25.20749 177.23793 459
68.34766 28.26479 178.20117 455
63.82893 29.12055 182.61949 450
58.83064 30.09228 187.15306 426
53.52432 31.08900 191.93822 421
47.86126 32.17283 196.99664 416
41.88115 33.33749 202.40900 411
35.14809 34.59125 208.14258 399
84.68643 20.77395 177.42975 461
68.64401 23.28302 178.43285 456
64.19650 23.99046 182.79485 452
59.55698 24.74316 187.37952 447
54.70361 25.51677 192.15340 442
49.52705 26.30662 197.22881 437
44.10056 27.18577 202.54491 432
38.17377 28.11613 208.19321 409
85.00439 16.37406 177.66103 462
69.02082 18.39007 178.63351 457
64.58845 18.94114 182.97968 453
59.98994 19.54459 187.49168 448
55.17157 20.15126 192.29240 443
50.10606 20.76404 197.32040 438
44.72104 21.43508 202.58598 433
39.05412 22.18143 208.19530 428
-186.28342 50.60336 227.61166 380
85.34345 12.03658 177.80484 463
69.39221 13.52880 178.80573 459
65.04261 13.95850 183.10759 454
60.46840 14.39894 187.63756 450
55.68853 14.84359 192.36739 445
50.66892 15.29318 197.37177 440
45.37020 15.79247 202.63943 435
39.80428 16.30862 208.23386 429
-186.03989 37.70776 227.55055 380
85.69240 7.75140 177.95007 464
69.77877 8.71224 178.89478 460
65.46098 8.99802 183.23997 455
60.95132 9.28457 187.72945 451
56.25382 9.60106 192.45985 446
51.27435 9.89925 197.41949 441
46.05318 10.23367 202.66733 436
40.49731 10.55225 208.20837 430
-185.99884 24.80306 227.40793 381
-182.76834 24.67211 267.22659 486
-186.85049 24.83962 281.43741 360
-186.83812 24.85782 295.25497 359
86.04440 3.48744 178.02353 466
70.20909 3.96351 179.02985 461
65.97442 4.08848 183.29921 457
61.48215 4.24375 187.81430 452
56.83255 4.38322 192.50902 447
51.90333 4.56207 197.42422 442
46.72774 4.71294 202.68140 437
41.26857 4.89741 208.17633 431
-185.81517 11.97783 227.35934 381
-182.82309 11.90399 267.19516 487
