# .PCD v.7 - Point Cloud Data file format
VERSION .7
FIELDS x y z rgb
SIZE 4 4 4 4
TYPE F F F U
COUNT 1 1 1 1
WIDTH 451
HEIGHT 1
VIEWPOINT 6870.836914 -3673.074951 143.025772 -0.565129 -0.138724 -0.019850 0.813014
POINTS 451
DATA ascii
84.92459 -3.26879 179.25264 466
69.01067 -3.18737 180.36768 462
64.68861 -3.14524 184.74823 457
60.10870 -3.13043 189.34796 453
55.36536 -3.08976 194.17862 448
50.31444 -3.03803 199.26955 443
45.04333 -3.02344 204.61269 438
39.43748 -2.96326 210.26924 432
-178.22392 -1.45981 229.59535 476
-152.27193 -1.67408 241.05350 418
-181.65981 -1.42996 269.70758 487
-136.27655 -1.76046 275.78134 495
84.52792 -7.54771 179.17891 465
68.56886 -7.92868 180.26215 461
64.11777 -8.02768 184.67986 457
59.56765 -8.16328 189.29570 452
54.73508 -8.28283 194.12636 447
49.71246 -8.38020 199.19412 442
44.38221 -8.55046 204.57993 437
38.71685 -8.65816 210.24580 431
-153.39363 -13.44330 241.05499 417
-181.58347 -14.15053 269.71643 487
84.14459 -11.79139 179.05142 464
68.12423 -12.71914 180.14226 460
63.68737 -12.94503 184.59756 455
59.03765 -13.23732 189.19301 451
54.16960 -13.47786 194.06537 446
49.08536 -13.78047 199.12968 441
43.70823 -14.11595 204.51270 436
38.04392 -14.38535 210.26778 430
-181.63542 -26.79550 269.78336 486
83.77867 -16.09384 178.91025 463
67.72147 -17.50510 180.00233 459
63.25220 -17.92406 184.42923 454
58.57179 -18.31838 189.07385 450
53.64314 -18.75352 193.96080 445
48.49300 -19.19768 199.09251 440
43.06222 -19.70193 204.50462 435
37.33577 -20.18265 210.19466 429
-181.60944 -39.58255 269.91953 486
83.47484 -20.45419 178.72678 462
67.37704 -22.37539 179.84674 458
62.86642 -22.90686 184.29997 453
58.13375 -23.47024 188.96365 448
53.18220 -24.06381 193.85266 444
47.95664 -24.70558 198.96962 438
42.42862 -25.36110 204.40244 433
36.62523 -26.07201 210.16942 428
83.18081 -24.81334 178.55656 461
67.06117 -27.29449 179.64194 456
62.46830 -27.96739 184.11931 452
57.72448 -28.69157 188.81804 447
52.48476 -29.48811 193.69101 425
46.87652 -30.34305 198.83411 420
40.91369 -31.29654 204.29074 415
34.22614 -32.30014 210.07159 403
82.91151 -29.26891 178.31107 459
66.01599 -32.38225 179.26057 436
61.08470 -33.29040 183.68416 431
55.88875 -34.23872 188.37860 427
50.40612 -35.24521 193.29967 422
44.58537 -36.37045 198.53113 417
38.10708 -37.54485 204.06703 405
31.12682 -38.86876 209.96585 399
-183.09361 -78.54221 216.47206 425
82.13600 -33.83380 177.90100 439
64.33025 -37.73828 178.65240 432
59.23866 -38.87424 183.11717 428
53.87502 -40.03770 187.88739 423
48.21268 -41.27689 192.86572 412
41.86196 -42.64110 198.14354 407
35.13472 -44.11459 203.78607 401
27.74360 -45.75312 209.81813 359
-189.20552 -93.13062 216.40303 297
80.83671 -38.68291 177.28751 436
62.60723 -43.29311 177.97070 429
57.37798 -44.59876 182.52574 425
51.79129 -46.02477 187.32648 413
45.63232 -47.58402 192.40414 408
39.03704 -49.21318 197.76248 403
32.01612 -51.02280 203.47871 398
23.16526 -53.23507 209.63272 263
79.49542 -43.70680 176.59355 431
70.66318 -46.23797 179.63211 308
55.36732 -50.62951 181.86339 414
49.33966 -52.33447 186.69174 409
42.92424 -54.17371 191.83611 404
35.71362 -56.23209 197.29002 388
27.67501 -58.53845 203.11060 372
78.17660 -48.91359 175.87831 427
71.96329 -50.90236 179.61511 308
52.90604 -57.00033 181.06174 398
46.24703 -59.13756 185.91090 393
39.12029 -61.41469 191.11328 388
31.21040 -63.94735 196.66185 372
22.09654 -66.89368 202.64182 367
76.83350 -54.28498 175.10150 424
71.77285 -56.07185 179.21127 419
49.59233 -63.96114 179.99069 394
42.60249 -66.43015 184.96495 389
34.71630 -69.23844 190.24121 373
25.81515 -72.42770 195.89334 368
14.51546 -76.44206 201.98466 317
75.45589 -59.88696 174.25000 420
69.42030 -62.23142 178.22087 387
46.12559 -71.39457 178.88199 389
38.32359 -74.40714 183.87276 373
28.52573 -78.29371 189.04451 337
15.61755 -83.33376 194.57896 316
-2.11021 -90.29364 200.66118 285
72.54446 -66.34422 172.92778 386
66.22549 -69.09267 176.96002 395
52.54863 -74.94669 179.80701 300
30.27547 -84.48219 182.05165 336
16.91200 -90.22679 187.10153 315
70.88223 -72.59850 171.84470 316
62.88504 -76.33947 175.57486 390
54.67441 -80.17366 179.75880 300
16.74866 -97.88848 179.11453 287
-26.02220 -117.84937 180.49301 284
73.01109 -77.27693 171.83919 316
58.49072 -84.62686 173.82706 328
48.47302 -89.65134 177.84659 325
24.80807 -101.68392 180.01379 292
75.25060 -81.84946 171.79199 316
54.13728 -93.39822 171.99617 308
35.31070 -103.67001 174.23459 273
-52.95927 -151.93851 164.86247 372
77.65087 -86.36591 171.77289 316
56.90359 -98.55687 171.97180 308
29.53222 -114.65611 172.22333 300
-46.66372 -159.49611 165.10089 286
80.22123 -90.77769 171.78531 316
59.80331 -103.65881 171.92432 308
32.98708 -120.59013 172.18808 300
82.89530 -95.13094 171.75714 316
62.86190 -108.67209 171.93832 308
0.58310 -150.88013 163.46564 382
85.72983 -99.38033 171.73805 316
66.12712 -113.57990 171.87706 308
15.12554 -150.49530 165.92854 389
88.69254 -103.53808 171.71780 316
69.52061 -118.38100 171.86806 308
20.49825 -156.33185 166.10933 295
91.79858 -107.62595 171.68254 316
45.11395 -146.21358 163.39290 300
95.04893 -111.63946 171.65904 316
52.37310 -149.19203 164.21458 403
88.86068 -114.22543 171.70848 315
50.08152 -149.27887 165.43628 406
92.65240 -118.17194 171.69653 315
57.77330 -151.79575 166.27914 305
75.36866 -143.76773 163.56371 307
62.88140 -156.60318 166.29372 304
80.11172 -148.16934 163.54570 422
88.93025 -147.86263 165.09724 427
97.01263 -147.79138 166.46329 314
101.96139 -151.40779 166.47432 314
107.01039 -154.86630 166.44406 314
-638.46118 -1298.41479 -90.57283 462
-648.23743 -1313.58142 -41.11850 350
125.23137 -148.58026 170.47932 316
-8931.29883 -26869.07227 3969.98047 1000
1043.24585 -1945.94470 -132.39322 431
1082.71021 -1870.36584 -123.47646 314
1125.74634 -1810.24231 -117.68149 432
1176.32446 -1768.94482 -115.73547 436
1228.18213 -1731.23315 -114.34341 437
1268.74377 -1801.70178 -58.21291 499
1283.35498 -1700.09119 -114.83643 436
1342.26465 -1674.10388 -116.68073 332
1388.87354 -1743.07520 -60.26067 497
1410.42712 -1658.89661 -120.84409 331
1525.78064 -1820.35168 -78.52254 295
1502.56567 -1672.87000 -61.12154 403
1535.60486 -1608.27930 -57.55522 294
1588.48499 -1568.13306 -57.89870 385
1646.40137 -1534.13489 -59.73246 456
1707.47314 -1501.22131 -62.10889 483
1778.96399 -1477.10852 -66.28676 445
378.01047 -101.63341 167.69051 315
381.19360 -96.75952 167.69498 315
386.86124 -93.27274 166.86427 429
394.58044 -90.64735 165.45752 424
399.72260 -86.37779 164.75679 317
402.46387 -80.89083 164.76266 317
416.86127 -87.13515 167.78445 305
405.07220 -75.35239 164.76462 317
419.37122 -81.01484 167.82576 305
383.29120 -60.97778 171.65582 316
426.79755 -76.69497 166.62628 424
385.19125 -56.03703 171.67551 316
435.53662 -72.41204 165.08763 419
377.86914 -54.78172 171.59821 317
428.51361 -70.52918 164.83966 308
379.51825 -49.77034 171.58009 317
430.65634 -63.93296 164.83183 308
452.06213 -69.83185 167.91277 298
380.96420 -44.79485 171.60789 317
403.80377 -50.27058 171.81815 309
453.84808 -62.45213 167.94588 298
382.29019 -39.72692 171.62364 317
405.27011 -44.49159 171.87132 309
462.59579 -56.52118 166.54068 450
383.46024 -34.62632 171.64384 317
406.54794 -38.67708 171.85400 309
469.71832 -49.81137 165.44264 445
267.51468 -12.66924 203.49788 315
407.63541 -32.81075 171.86136 309
472.86685 -42.21489 165.12138 300
267.89655 -11.24334 203.50534 315
408.60379 -26.95317 171.84865 309
439.03006 -30.36421 172.18756 301
268.23328 -9.81320 203.50589 315
409.28903 -21.04744 171.88803 309
439.84790 -23.46576 172.16782 301
268.52753 -8.38466 203.50705 315
409.90085 -15.16659 171.86865 309
440.53421 -16.61841 172.17438 301
268.78183 -6.95528 203.50125 315
410.25577 -9.21885 171.87398 309
440.94336 -9.71537 172.18336 301
508.71097 -10.77678 168.25652 289
5150.69824 -85.59692 207.54996 450
268.97192 -5.52695 203.50673 315
410.47617 -3.33667 171.86391 309
441.16351 -2.83821 172.16054 301
508.59583 -1.78359 168.33742 289
5523.82959 76.36633 207.25673 472
269.12643 -4.09268 203.50755 315
410.48529 2.61329 171.89886 309
441.12714 4.06697 172.18802 301
508.78091 7.25054 168.27856 288
269.22906 -2.67171 203.50658 315
410.38025 8.54075 171.86325 309
440.95932 10.91267 172.14571 301
269.29199 -1.24741 203.49814 315
410.03818 14.37636 171.89052 309
440.51358 17.77749 172.18079 301
269.30698 0.17221 203.50644 315
409.51093 20.28201 171.89438 309
439.92319 24.66228 172.17398 301
269.27527 1.58880 203.50609 315
408.82657 26.12300 171.84528 309
439.09204 31.42640 172.13234 301
269.20108 2.98148 203.50346 315
407.99078 31.97701 171.86559 309
472.66595 45.49325 165.08815 300
269.06726 4.37652 203.49770 315
406.93271 37.77766 171.82022 309
466.56064 52.14721 166.01401 454
268.90741 5.75440 203.49841 315
405.71362 43.49768 171.83519 309
458.91702 58.21197 167.24393 427
268.69443 7.12650 203.50664 315
404.33521 49.19337 171.78581 309
453.77814 64.58151 167.88988 298
268.43320 8.47546 203.50177 315
402.72815 54.87770 171.81105 309
451.94461 71.84247 167.84935 298
5424.18701 1788.12854 388.98407 417
268.12967 9.80704 203.50525 315
428.65305 70.99929 164.83781 308
5308.15771 1930.47937 388.00040 471
5399.08447 1965.47107 571.84607 315
267.79056 11.13361 203.49855 314
425.08438 76.87779 165.14122 433
5228.85889 2085.03198 386.72733 386
5246.78711 2092.38916 565.94678 499
51474.39062 21410.62891 7461.02051 1000
267.40631 12.43317 203.50346 314
417.25427 80.75328 166.54134 438
5182.62988 2252.82935 566.92328 499
266.97766 13.71140 203.50369 314
409.82291 84.36255 167.76878 305
393.74686 83.04600 164.66055 317
407.22583 90.23560 167.70148 305
390.97180 88.24092 164.71765 317
386.98526 92.70776 165.07373 437
380.06631 95.10983 166.33047 442
44974.29297 29689.43750 12684.01074 1000
373.42725 97.38767 167.46193 446
369.94571 101.69553 167.58926 315
3694.46704 2625.46411 497.48880 406
366.68088 106.20772 167.55284 315
2671.00488 2391.07056 438.00177 381
2494.22632 2363.37476 428.59882 373
28359.58203 29412.91211 4197.23633 1000
2346.84155 2354.64526 421.92572 405
2237.17676 2379.84302 418.52847 431
2139.34033 2415.14209 416.50717 447
38.50901 2087.06445 353.87683 429
39.71924 2076.87451 421.95261 497
40.32730 2067.78662 490.22760 496
41.12101 2060.06445 558.57605 422
134.63983 152.10388 166.38971 314
130.34123 147.80737 166.85385 477
124.33651 146.34270 166.42464 314
117.97177 145.15112 165.78259 432
-21438.58398 30758.94727 -7232.79980 1000
109.93073 145.98862 164.39462 427
102.74392 145.12967 163.44109 311
117.25380 118.64826 171.39293 315
86.80035 154.25241 166.34258 305
113.24778 115.26357 171.45940 315
81.51949 149.98720 166.32150 305
109.38222 111.72187 171.47966 315
73.88734 148.18552 165.45978 417
105.58766 108.04763 171.52966 315
63.57694 148.59862 163.73473 412
101.97073 104.28194 171.53195 315
83.91640 120.59705 171.70558 307
98.42787 100.40545 171.58037 315
79.87939 116.14359 171.72639 308
33.03921 155.94165 166.07307 296
95.00249 96.44508 171.58788 316
76.03589 111.52898 171.74992 308
27.79069 149.98926 166.08421 395
-39239.45312 31418.46094 8597.89453 1000
91.76574 92.33883 171.63966 316
72.33240 106.83135 171.81720 308
13.91995 150.41173 163.86292 391
88.62965 88.18312 171.67917 316
68.76981 102.01692 171.80132 308
42.60114 120.25803 172.03954 300
85.64500 83.94833 171.69891 316
65.35648 97.11126 171.86113 308
38.72718 114.49361 172.06512 300
82.78939 79.57262 171.69444 316
62.12415 92.11425 171.88197 308
34.92208 108.61408 172.09367 300
-40.05888 154.14169 165.18288 286
-3065.73804 1991.15051 345.83441 497
80.08012 75.13927 171.72792 316
59.02171 87.00910 171.89549 308
44.51284 95.22993 175.12299 316
25.95778 105.68560 178.61142 267
77.48294 70.63243 171.75568 316
63.18809 78.09955 173.76019 383
56.95435 81.39931 178.61081 379
-0.64963 111.58195 174.32433 296
-17.77170 120.52053 180.36392 284
75.07481 66.04551 171.76961 316
66.98223 69.99464 175.46388 375
59.02612 73.82945 179.72783 300
27.19023 89.22551 180.11920 328
5.01966 99.94918 184.25473 279
76.83250 59.60257 172.98837 415
70.56211 62.38438 177.01263 380
56.52616 68.63673 179.71475 300
37.79899 76.97324 182.59480 334
25.42615 82.50414 187.61171 329
8.88090 89.87720 193.08932 308
78.15012 53.64246 173.98715 418
72.90754 55.78131 178.16464 414
49.99336 65.11378 178.84094 387
42.59182 68.15376 183.91721 382
34.03055 71.63816 189.22621 366
23.83720 75.80639 194.98044 330
8.02541 82.25147 201.01741 309
79.51091 47.91435 174.89687 424
74.40398 49.79647 179.01746 418
53.49697 57.57146 180.04951 392
46.45026 60.17065 185.01588 387
38.94601 62.99826 190.27097 382
30.28219 66.17926 195.93898 366
20.49718 69.85919 202.09206 361
80.80492 42.40157 175.77856 427
74.88585 44.42281 179.59383 308
56.09752 50.70388 181.05716 409
49.81710 52.83345 185.93498 404
43.00327 55.10001 191.17500 386
35.32730 57.67260 196.69389 381
26.58374 60.64289 202.64014 365
82.05803 37.15224 176.56384 431
73.26797 39.79874 179.60828 308
58.10074 44.34321 181.81621 420
52.33894 46.10489 186.69847 408
45.89938 48.01431 191.84230 403
39.06990 50.07109 197.29584 398
31.71248 52.31900 203.13516 392
22.38425 55.13110 209.45784 261
83.34927 32.08444 177.30836 434
65.24607 36.88947 178.04160 428
60.00519 38.29709 182.54918 423
54.45166 39.76480 187.34830 418
48.58709 41.30441 192.43047 407
42.00073 43.05481 197.77197 401
34.97797 44.99094 203.50104 396
27.29060 46.98219 209.64658 354
83.68352 27.36383 177.72864 457
66.93506 31.27747 178.76532 431
61.82289 32.47022 183.23947 427
56.49396 33.71135 187.93120 422
50.82119 35.03441 192.93839 417
44.81096 36.40181 198.20255 412
38.06708 37.98278 203.83566 400
30.81153 39.69120 209.86378 394
-183.56152 89.57289 216.54645 295
83.81763 22.81428 178.09845 459
67.59656 26.03119 179.19014 454
62.99564 26.98789 183.72298 450
58.15114 27.91190 188.44456 445
52.95765 28.99558 193.38539 420
47.12974 30.12754 198.59079 415
40.98442 31.36057 204.13249 410
34.06174 32.72534 210.00195 398
-183.00470 76.05853 216.50890 424
84.04553 18.30946 178.39781 460
67.83488 21.01989 179.49121 456
63.24921 21.78921 184.00075 451
58.49188 22.57087 188.68152 446
53.45771 23.40226 193.62723 442
48.17841 24.29684 198.81447 436
42.60637 25.22919 204.29533 431
36.64489 26.21111 210.10333 426
84.25324 13.88872 178.67242 462
68.10423 16.05056 179.76820 457
63.59557 16.64867 184.25133 453
58.85234 17.29809 188.90120 448
53.90111 17.97205 193.78151 443
48.68136 18.66988 198.95453 438
43.15744 19.38824 204.39969 433
37.35303 20.21685 210.20227 427
84.52080 9.49960 178.90331 463
68.44382 11.15711 180.02115 458
63.91893 11.61875 184.45775 454
59.22655 12.09233 189.09503 449
54.38224 12.59919 193.97337 445
49.20826 13.12176 199.07018 440
43.79068 13.67955 204.49371 434
38.04978 14.28211 210.26433 429
84.78481 5.17976 179.11192 464
68.76330 6.30002 180.21211 459
64.31047 6.62369 184.63777 455
59.72184 6.96735 189.25122 451
54.86835 7.31605 194.10457 446
49.76076 7.65441 199.20261 441
44.37878 8.04467 204.57335 435
38.73050 8.42636 210.30205 430
-181.54936 23.98700 269.96066 486
-186.77641 24.34949 284.38586 496
85.10490 0.91079 179.30345 465
69.16035 1.51779 180.42191 461
64.75057 1.70906 184.81789 456
60.20811 1.87227 189.41876 452
55.37367 2.07338 194.23718 447
50.36987 2.25495 199.30029 442
45.04116 2.48049 204.67493 436
39.39225 2.65627 210.33179 431
-181.63780 11.24675 269.90317 487
