# .PCD v.7 - Point Cloud Data file format
VERSION .7
FIELDS x y z rgb
SIZE 4 4 4 4
TYPE F F F U
COUNT 1 1 1 1
WIDTH 423
HEIGHT 1
VIEWPOINT 6409.640625 -4075.540771 143.948807 0.006242 -0.128221 0.026774 0.991364
POINTS 423
DATA ascii
82.74898 -0.91689 179.53050 316
68.64262 -0.90654 181.03540 462
64.31623 -0.86756 185.39067 457
59.81223 -0.88488 189.95410 453
55.11644 -0.88715 194.69870 448
50.17417 -0.89825 199.70444 443
44.90902 -0.90335 204.98656 438
39.42165 -0.89739 210.58682 432
-152.69530 -0.72450 241.01059 419
-181.71227 -0.72763 269.55484 487
-147.27562 -0.73171 277.26010 284
82.67676 -5.19093 179.52553 316
68.13409 -5.65062 180.91183 461
63.79406 -5.74638 185.29039 456
59.27164 -5.92234 189.83488 452
54.51466 -6.05347 194.63051 447
49.55886 -6.22083 199.64085 442
44.27744 -6.35323 204.95180 437
38.71639 -6.55659 210.53284 431
-152.87352 -12.54331 241.05629 416
-181.73839 -13.42254 269.54169 487
-151.24599 -12.48559 277.97931 285
70.09663 -10.19211 178.47496 464
66.09258 -10.40367 182.46683 460
61.91941 -10.61537 186.57935 455
57.60044 -10.84604 190.91580 451
53.07840 -11.05105 195.46417 446
48.31198 -11.31107 200.25067 441
43.31134 -11.59333 205.27495 436
38.00179 -11.84932 210.59344 431
-182.27202 -22.87419 268.28995 487
69.80569 -14.68700 178.23885 463
65.77187 -15.01446 182.26462 459
61.57009 -15.37102 186.41873 454
57.19059 -15.74626 190.75420 450
52.58731 -16.12082 195.33089 445
47.76355 -16.51339 200.11305 440
42.70047 -16.93582 205.20337 435
37.31025 -17.40077 210.56459 430
-182.30383 -35.28600 268.43491 486
-186.80438 -35.67003 282.44083 496
-186.66568 -35.67803 295.88052 494
69.56208 -19.25393 177.97765 462
65.50782 -19.73833 181.99931 458
61.27752 -20.21521 186.18211 453
56.84474 -20.72238 190.54980 449
52.17675 -21.24334 195.15750 444
47.26986 -21.81700 199.98299 439
42.09443 -22.40864 205.08641 434
36.66427 -23.03816 210.49254 428
76.30187 -22.87139 179.59431 316
65.26009 -24.47942 181.72624 457
60.96046 -25.09109 185.95523 452
56.47885 -25.76149 190.36456 447
51.75800 -26.43962 194.97630 443
46.80581 -27.20290 199.83163 437
41.59189 -27.95035 204.98610 432
35.60160 -28.82317 210.41994 403
77.27141 -27.13337 179.58420 316
65.00119 -29.28622 181.43108 455
60.47940 -30.09581 185.61819 432
55.58005 -30.99101 190.04822 427
50.44456 -31.92089 194.65710 423
45.02459 -32.87502 199.54227 418
39.12523 -33.95614 204.76912 406
32.62188 -35.13346 210.31636 400
-183.06465 -73.41883 216.44485 425
78.33987 -31.35431 179.56525 316
63.51717 -34.48104 180.81953 433
58.74289 -35.48005 185.06451 429
53.73394 -36.56541 189.48944 424
48.40768 -37.68187 194.19891 419
42.64653 -38.92158 199.17522 407
36.30681 -40.23759 204.49603 402
29.32319 -41.73053 210.12320 359
-182.92499 -86.44959 216.41887 439
-16752.99219 -3578.32007 3089.37427 1000
79.54048 -35.55928 179.55466 316
61.90369 -39.87835 180.07460 430
56.99697 -41.06595 184.39529 425
51.82858 -42.35221 188.92406 421
46.13709 -43.72480 193.70691 409
39.96586 -45.27871 198.74161 404
33.36425 -46.87869 204.14406 399
25.54314 -48.78254 209.97710 269
78.44801 -40.42091 178.88318 432
60.29105 -45.45638 179.33640 427
55.18100 -46.90667 183.72499 422
49.58736 -48.44720 188.28375 410
43.55271 -50.12367 193.13367 405
37.11961 -51.92191 198.31062 400
30.05071 -53.89597 203.84534 383
77.23557 -45.48753 178.10149 428
58.58187 -51.31800 178.50925 423
53.08913 -53.02266 182.89746 411
47.15469 -54.89672 187.52928 394
40.52354 -56.99220 192.45087 389
33.33748 -59.19474 197.71500 384
24.95508 -61.85257 203.32211 368
75.98260 -50.77303 177.25903 425
65.27293 -54.48665 179.68631 308
50.25877 -59.70207 181.87766 395
43.67631 -62.01559 186.60670 390
36.66938 -64.42658 191.64162 385
28.35484 -67.34923 196.93576 369
19.20254 -70.52181 202.76462 364
74.69025 -56.27354 176.37874 421
67.18817 -59.17416 179.65320 308
46.95599 -66.92349 180.74783 390
39.94539 -69.57591 185.53067 374
31.72062 -72.74100 190.60120 369
21.83377 -76.56111 195.99953 333
7.23845 -82.15746 201.74854 313
72.80280 -62.27528 175.21234 388
67.08963 -64.67063 179.11635 397
43.31250 -74.61104 179.44720 375
34.56805 -78.33327 184.14771 338
23.19979 -83.08807 188.98433 333
7.85127 -89.57903 194.25433 312
69.78697 -69.06189 173.69571 383
63.86827 -71.79640 177.66699 392
36.18254 -84.46114 177.30826 337
24.70662 -89.71314 181.81834 332
4.61810 -98.90564 185.87704 284
66.55006 -76.39289 171.95897 378
60.46889 -79.43231 176.12430 386
50.49679 -84.38178 179.82602 300
-10.66534 -114.66791 174.72067 290
68.83881 -81.25663 171.87914 316
52.83390 -89.81174 173.40038 324
42.28332 -95.47800 177.28108 321
21.68557 -106.51257 180.03642 292
71.60172 -85.82430 171.85278 316
50.86113 -97.82973 172.03815 308
23.57018 -113.54762 172.24889 300
-53.00095 -157.80630 165.07549 288
74.50980 -90.33899 171.83221 316
54.11472 -103.00581 171.98485 308
27.38057 -119.59274 172.22845 300
77.52967 -94.80927 171.77881 316
57.55310 -108.07621 171.97223 308
-7.07116 -151.08470 162.98773 380
80.71378 -99.16140 171.77927 316
61.17067 -113.09186 171.91061 308
8.24710 -150.71367 165.48206 387
-1274.79871 -1063.14990 35.90824 462
84.01954 -103.42252 171.76196 316
64.91553 -117.98882 171.92140 308
15.37530 -155.59348 166.02466 295
87.44907 -107.62590 171.71898 316
68.80184 -122.73901 171.88158 308
91.04698 -111.70868 171.69949 316
47.41875 -149.42043 164.01123 402
94.72749 -115.65540 171.64922 316
58.58774 -148.96063 165.95013 408
98.54459 -119.54425 171.62068 316
64.61741 -152.82356 166.30157 306
81.69625 -145.04857 163.52895 307
69.79086 -157.55992 166.30515 305
87.80692 -147.89961 164.02327 423
96.36253 -147.55862 165.55548 428
103.41029 -148.69469 166.47818 314
108.33155 -152.24307 166.47906 314
125.33380 -148.35194 169.84737 440
9118.45605 -24837.53125 2806.84204 1000
375.23297 -103.16344 167.63545 315
378.54410 -98.32231 167.68642 315
383.59473 -94.42226 167.10419 430
391.28677 -91.78571 165.74075 425
397.44696 -88.00166 164.80174 317
400.40436 -82.57391 164.73537 317
414.60895 -88.86939 167.79941 306
403.13177 -76.97887 164.75880 317
417.39078 -82.82517 167.79771 306
381.75217 -62.47906 171.59816 317
423.87567 -78.09309 166.87230 426
383.80115 -57.50005 171.65828 317
432.52292 -73.88691 165.36591 420
385.67044 -52.49563 171.64272 317
436.89551 -67.90176 164.89531 308
387.37613 -47.41995 171.67416 317
439.10760 -61.19560 164.88287 308
461.03732 -67.04745 167.87085 298
388.94229 -42.30912 171.66779 317
412.07510 -47.68587 171.92572 309
463.01791 -59.55704 167.95480 298
390.34171 -37.18503 171.69102 317
413.63025 -41.79317 171.91577 309
466.93588 -52.42943 167.58839 449
391.59207 -31.96590 171.72191 317
415.00424 -35.91447 171.91641 309
474.12421 -45.77575 166.48500 444
392.67038 -26.77496 171.69547 317
416.20993 -29.92938 171.92802 309
481.64398 -38.76453 165.30540 439
393.61948 -21.53246 171.74678 317
417.25748 -23.97755 171.97588 309
448.17365 -27.16519 172.23828 301
394.40289 -16.28163 171.72278 317
418.11523 -17.97458 171.96738 309
449.12109 -20.19547 172.26869 301
395.02023 -11.02048 171.75581 317
418.75107 -11.97923 171.98036 309
449.85034 -13.17730 172.24554 301
395.44595 -5.75797 171.76469 317
419.22311 -5.95104 171.97821 309
450.39832 -6.14644 172.26683 301
395.74881 -0.49174 171.74789 317
419.52304 0.08690 171.95819 309
450.63339 0.86141 172.30962 495
395.86026 4.80179 171.75333 317
419.62988 6.10863 171.99753 309
450.80130 7.86015 172.28688 301
395.86807 10.04570 171.76134 317
419.58090 12.17185 171.95193 309
450.65778 14.89431 172.28032 301
395.67636 15.32958 171.72258 317
419.30972 18.18070 171.96089 309
450.32956 21.88209 172.23775 301
395.27820 20.55865 171.75002 317
418.88034 24.12951 171.97571 309
484.92426 34.15705 165.15994 461
394.79498 25.80392 171.70692 317
418.28076 30.14602 171.97195 309
478.29901 41.22593 166.34789 447
2805.42285 469.85919 130.08806 445
394.11627 31.01382 171.74359 317
417.48099 36.05452 171.96826 309
471.24420 47.74796 167.48361 451
2751.56104 543.20215 131.46368 486
393.28400 36.17439 171.70776 317
416.46857 42.01458 171.95396 309
467.66946 54.80951 168.00323 297
2722.55200 619.97272 131.78111 494
392.29901 41.31599 171.67984 316
444.21381 56.07811 164.93571 307
466.34766 62.36986 167.93077 297
2701.61353 698.21429 131.68492 337
2748.87891 711.44922 215.91479 492
391.10501 46.43256 171.69881 316
442.54562 62.80676 164.91010 307
2687.18579 778.70068 131.27277 335
2860.31030 833.35913 216.24854 386
389.81760 51.47395 171.68843 316
440.31134 69.32876 165.02133 438
2687.12524 865.08002 131.05602 470
388.35339 56.48643 171.65369 316
432.03412 73.49951 166.54051 429
2705.23657 960.05353 216.14053 486
386.72885 61.44513 171.62140 316
424.78751 77.66260 167.82692 305
2720.94434 1057.82227 216.39973 438
408.20966 77.10298 164.74046 316
422.62555 83.84244 167.76804 305
405.81824 82.67307 164.75163 317
402.13229 87.42693 165.11137 428
394.72964 89.98742 166.57004 433
388.57236 92.94194 167.67538 315
385.81851 97.81049 167.65135 313
382.93872 102.71731 167.60739 313
2557.59521 4765.69385 392.99072 434
2450.60278 4934.68018 397.79193 429
2401.42188 5266.85645 406.53708 362
1403.27539 3845.74121 351.09564 482
854.70020 5886.09473 416.95410 403
663.14111 5824.74023 414.18875 488
475.59216 5796.40234 412.60098 444
478.47665 5844.71729 606.79871 430
487.85068 6058.37451 820.41418 487
292.87463 5788.73047 411.73129 499
293.90930 5859.93750 607.51581 262
109.37695 5781.26660 411.75613 499
-79.90694 5881.04395 415.80411 499
-799.67169 3655.95679 345.29028 452
-796.45099 3242.33008 331.09354 454
-917.56403 3263.25366 333.53046 451
123.07773 148.84129 167.38177 316
116.49039 147.94081 166.58360 433
110.54981 145.90057 166.14848 426
102.13534 146.72311 164.60867 420
94.49347 146.14955 163.43692 307
89.98317 141.66797 163.57890 311
77.85876 154.75104 166.30063 305
106.19759 116.32248 171.51294 315
72.73907 150.18619 166.26353 305
102.44730 112.51878 171.55600 315
64.50156 148.51224 165.23647 410
98.82615 108.59401 171.56902 315
53.53200 148.96156 163.32819 404
95.29875 104.60078 171.61737 316
76.52336 120.29715 171.76855 308
91.89165 100.52163 171.63226 316
72.71590 115.57512 171.80255 308
23.79595 153.90027 166.03931 297
88.67534 96.31355 171.68077 316
69.00974 110.73776 171.79108 308
14.98678 150.36279 165.09282 390
85.52271 92.00304 171.66083 316
65.49294 105.77834 171.87488 308
39.09657 123.93874 172.09789 300
82.57164 87.64931 171.72913 316
62.13037 100.75807 171.88950 308
35.21642 118.01664 172.10811 300
79.73166 83.17857 171.71242 316
58.91545 95.60065 171.92101 308
31.46119 111.97527 172.13918 300
-44.52368 157.38995 165.10132 286
77.01923 78.64828 171.75740 316
55.85651 90.38731 171.91971 308
40.17176 99.07632 174.91379 318
11.22843 115.18634 176.58110 269
74.49317 74.02435 171.79189 316
61.20825 80.83846 174.13391 384
52.89447 85.12456 178.49539 324
25.98783 98.96414 179.98456 292
72.07544 69.33774 171.80626 316
64.82130 72.80489 175.76030 389
55.72065 77.08559 179.72748 300
23.43239 92.42129 180.12123 314
-26.28479 116.09668 180.27164 344
74.77448 62.42571 173.27673 385
68.26810 65.27523 177.23154 381
44.26259 75.74529 177.79041 372
34.26040 80.10222 182.61749 335
21.94222 85.49252 187.73383 330
3.11689 93.74646 192.98744 282
76.67864 56.18232 174.42686 419
71.44102 58.30319 178.58333 415
48.07615 67.62335 179.14980 388
40.68428 70.59875 184.16681 372
31.92246 74.10368 189.48439 367
20.43940 78.66122 195.09923 331
3.83646 85.31930 201.14423 310
78.03123 50.44568 175.35786 423
72.96690 52.28689 179.44888 419
51.58875 60.07095 180.37135 393
44.61568 62.61378 185.28685 388
37.13456 65.33890 190.57538 383
28.24395 68.54644 196.19350 367
18.51492 72.06412 202.31718 362
79.33904 44.97890 176.21437 427
71.88568 47.41911 179.58797 308
54.55557 53.07166 181.42007 410
48.24537 55.18021 186.29254 392
41.17735 57.45303 191.42830 387
33.57786 59.96033 196.99538 382
24.62903 62.92599 202.92389 366
80.64816 39.66814 176.97382 432
70.33015 42.71917 179.59442 308
56.68853 46.71056 182.21004 420
50.82655 48.43052 187.03317 409
44.48850 50.28193 192.15584 404
37.65816 52.26696 197.61055 399
30.06642 54.48907 203.39223 382
81.90929 34.57302 177.71544 435
63.80341 39.28625 178.41899 428
58.60803 40.61003 182.93315 424
53.12984 42.04298 187.69830 419
47.13870 43.58348 192.72743 407
40.58970 45.30207 198.05623 402
33.63945 47.12030 203.77519 397
25.76558 49.14898 209.89238 355
82.84949 29.74078 178.32614 457
65.52569 33.64877 179.14050 432
60.45908 34.80507 183.60806 427
55.11838 36.00265 188.30043 423
49.49739 37.26845 193.24614 418
43.45198 38.61836 198.52345 406
36.70584 40.13536 204.08420 401
29.37450 41.80864 210.07101 361
-184.63203 90.14041 216.60849 296
83.02715 25.16312 178.65071 459
66.83359 28.30292 179.71300 454
62.24574 29.17329 184.18982 450
57.11286 30.17370 188.83253 426
51.68186 31.21404 193.73212 421
45.90269 32.31302 198.89703 416
39.69374 33.53384 204.35904 404
32.76262 34.87341 210.20732 399
-182.89743 76.43730 216.54408 424
83.22522 20.67975 178.93965 461
67.07114 23.25084 180.00793 456
62.54018 24.00048 184.45695 452
57.80230 24.73484 189.11418 447
52.85241 25.51904 193.99252 442
47.59628 26.38433 199.13779 437
42.09007 27.25696 204.59439 432
35.89571 28.24097 210.37029 402
83.46875 16.24757 179.20099 462
67.35015 18.31644 180.27870 457
62.86034 18.88244 184.70326 453
58.18661 19.46458 189.33182 448
53.28551 20.10168 194.20673 443
48.06156 20.75713 199.28719 438
42.60560 21.46844 204.69011 433
36.84535 22.21134 210.41321 428
83.69804 11.88350 179.46773 463
67.66311 13.40319 180.52585 459
63.21759 13.81770 184.93118 454
58.55684 14.27826 189.50581 449
53.73045 14.76115 194.33157 445
48.62933 15.21054 199.42288 440
43.23368 15.75180 204.78346 435
37.55709 16.30766 210.46744 429
83.44633 7.59514 179.51855 316
67.99033 8.58440 180.71646 460
63.58217 8.85660 185.11502 456
59.02182 9.13767 189.70221 451
54.24115 9.44325 194.48413 446
49.21257 9.76049 199.55635 441
43.87125 10.11926 204.89273 436
38.25967 10.48423 210.53482 430
-181.69043 24.53968 269.69629 486
-186.87349 24.95063 284.10690 360
83.09232 3.29720 179.52940 316
68.38509 3.78589 180.90115 461
64.07160 3.93152 185.24773 456
59.51553 4.05825 189.81841 452
54.77149 4.21014 194.61931 447
49.76745 4.40892 199.64249 442
44.48096 4.53800 204.93771 437
38.89725 4.73501 210.56149 431
-181.70580 11.88345 269.59857 487
