# .PCD v.7 - Point Cloud Data file format
VERSION .7
FIELDS x y z rgb
SIZE 4 4 4 4
TYPE F F F U
COUNT 1 1 1 1
WIDTH 411
HEIGHT 1
VIEWPOINT 6182.698242 -4110.549316 141.059525 0.150169 -0.126144 0.007235 0.980553
POINTS 411
DATA ascii
71.51417 -1.86768 178.01140 466
67.45940 -1.85413 182.08998 462
63.29776 -1.82357 186.31329 457
58.89098 -1.83162 190.74010 453
54.33097 -1.79930 195.36453 448
49.50301 -1.77939 200.22748 443
44.43532 -1.77868 205.37408 438
39.03782 -1.75405 210.81180 432
-152.32738 -0.91077 240.64825 419
-182.01506 -0.88295 268.86325 487
-153.00272 -1.00302 277.42099 284
77.53778 -6.19277 179.55280 316
67.04780 -6.47359 181.93739 461
62.81532 -6.59730 186.16487 457
58.42608 -6.74834 190.61636 452
53.80189 -6.84844 195.28522 447
48.95991 -7.00933 200.16046 442
43.81413 -7.14478 205.32176 437
38.41680 -7.29933 210.75352 431
-152.61464 -12.44492 240.67867 417
-182.05833 -13.31747 268.91559 487
-154.85686 -12.58308 277.76489 286
77.95090 -10.50713 179.54475 316
66.70493 -11.15697 181.74905 460
62.41108 -11.44179 186.01614 455
57.94036 -11.68980 190.45749 451
53.31694 -11.99775 195.12967 446
48.40424 -12.28993 200.02408 441
43.20480 -12.60899 205.23044 436
37.73108 -12.91393 210.72658 431
-182.07556 -25.82702 268.90625 486
78.47876 -14.82213 179.56526 316
66.39135 -15.91417 181.54904 459
62.05844 -16.31849 185.81395 454
57.57185 -16.71581 190.26755 450
52.79758 -17.17556 194.97638 445
47.84586 -17.63052 199.93983 440
42.60716 -18.10206 205.11523 435
37.10113 -18.60105 210.67375 429
-181.94073 -38.42597 269.05725 486
79.15042 -19.08137 179.56647 316
66.12891 -20.67846 181.27330 458
61.76273 -21.23066 185.58673 453
57.16871 -21.81374 190.09137 449
52.40719 -22.38835 194.82550 444
47.35364 -23.03267 199.78450 439
42.04353 -23.65796 205.04852 433
36.41364 -24.39750 210.59270 428
79.92267 -23.38650 179.55923 316
65.86179 -25.52229 181.00099 456
61.42649 -26.23860 185.34328 452
56.85054 -26.94648 189.89087 447
51.97859 -27.70684 194.61916 442
46.83638 -28.53156 199.62221 420
41.05090 -29.40813 204.90160 415
34.73131 -30.37493 210.49538 403
80.86490 -27.61026 179.55383 316
65.37827 -30.51321 180.65601 436
60.60033 -31.42816 184.97760 431
55.57939 -32.33436 189.46906 427
50.26978 -33.33270 194.23547 422
44.66950 -34.40233 199.30331 417
38.44987 -35.60521 204.64320 405
31.61246 -36.89112 210.35886 364
-183.08733 -76.86407 216.37427 424
81.31573 -31.97459 179.37819 437
63.78291 -35.82982 179.99471 433
58.85169 -36.93517 184.35126 428
53.66279 -38.03751 188.94446 423
48.17741 -39.25397 193.77812 419
42.12937 -40.58042 198.87762 407
35.57858 -42.02940 204.35262 401
28.23201 -43.65645 210.15831 359
-184.33879 -90.21767 216.35945 297
80.11035 -36.78406 178.69154 434
62.12593 -41.34995 179.28375 429
57.05555 -42.61097 183.69453 425
51.69207 -43.99847 188.35643 420
45.74295 -45.50877 193.25844 408
39.35668 -47.14706 198.44826 403
32.53082 -48.87365 203.99358 398
-188.42404 -104.62240 202.64632 483
78.86010 -41.77694 177.98047 431
60.43615 -47.06963 178.49263 426
55.17006 -48.57364 182.97226 414
49.35689 -50.23639 187.65823 409
43.13166 -52.06234 192.63158 404
36.40366 -54.00561 197.96069 388
28.82867 -56.16434 203.61571 372
77.58704 -46.99075 177.17900 428
66.93340 -50.39044 179.66556 308
52.96604 -54.90068 182.14365 410
46.61768 -56.91302 186.84395 393
39.70237 -59.17882 191.90759 388
32.19173 -61.55249 197.32120 373
23.37423 -64.42856 203.07903 367
76.33160 -52.37918 176.30780 424
68.68736 -55.08158 179.63290 308
49.84399 -61.80664 181.04320 394
43.02943 -64.24345 185.87140 389
35.56223 -66.86734 191.02975 373
26.92490 -69.98018 196.50894 368
17.32212 -73.37146 202.52834 333
75.00922 -57.98402 175.42804 420
69.66865 -60.08488 179.40080 401
46.44206 -69.19485 179.84650 389
39.00305 -72.09244 184.78171 373
30.51541 -75.45587 189.95992 368
18.68309 -80.06603 195.39474 332
2.02067 -86.60082 201.23080 311
72.64902 -64.28088 174.13025 387
66.57124 -66.86982 178.05902 396
42.55696 -77.17468 178.49210 374
32.16122 -81.62492 183.05913 336
19.99344 -86.85928 188.07808 316
0.15658 -95.38777 193.08290 284
69.53542 -71.26278 172.53262 382
63.29656 -74.18637 176.63707 390
51.16210 -79.86990 179.81882 300
21.25047 -93.82774 180.54439 315
-28.90878 -117.14939 180.46910 284
69.73473 -77.03517 171.84590 316
59.83127 -82.03304 175.03807 385
50.88496 -86.56275 179.10619 326
21.78341 -101.24875 180.04723 292
72.28175 -81.63243 171.84273 316
51.27148 -93.13300 172.01852 308
38.62531 -99.98119 175.63992 319
10.14052 -115.53532 177.16595 271
75.02954 -86.21214 171.82526 316
54.33029 -98.34803 171.98973 308
27.13269 -114.25122 172.22609 300
-48.63604 -158.76102 165.08897 288
77.86151 -90.67255 171.79494 316
57.56083 -103.48801 171.94588 308
30.88489 -120.30257 172.19310 300
80.84811 -95.06507 171.78093 316
60.94057 -108.50401 171.94789 308
-1.94419 -150.94041 163.32201 382
83.95698 -99.38208 171.74454 316
64.48123 -113.46490 171.90221 308
13.00288 -150.59898 165.74458 388
87.21416 -103.60573 171.73679 316
68.16885 -118.27640 171.85501 308
19.26967 -155.94167 166.04671 295
90.62984 -107.71338 171.70587 316
44.08097 -145.97054 163.34836 300
94.15170 -111.76055 171.67149 316
51.38748 -149.26817 164.15672 403
97.78690 -115.69382 171.63098 316
62.26813 -148.86972 166.04941 409
101.54678 -119.49646 171.61455 316
67.99393 -152.87219 166.31406 306
84.93969 -144.90218 163.53160 308
90.87164 -147.76796 164.00676 424
99.42492 -147.26007 165.59564 419
106.28806 -148.39424 166.45522 314
111.14603 -151.85466 166.45923 314
-751.82184 -1333.34985 106.87064 376
120.22686 -149.21169 168.43192 489
127.48961 -148.54659 169.58475 486
-1417.80505 -2571.65063 214.02119 355
373.80002 -104.62366 167.66832 313
377.09702 -99.82036 167.64470 315
380.97974 -95.35295 167.45309 434
388.44241 -92.73338 166.11307 429
395.88605 -89.83742 164.75682 317
398.84204 -84.39497 164.77432 317
413.13144 -91.18639 167.73038 305
401.62079 -78.86208 164.75948 317
415.89929 -85.10946 167.81407 305
380.42627 -63.80586 171.61481 317
420.43744 -79.76295 167.34581 430
382.46085 -58.83347 171.64638 317
428.80676 -75.70441 165.93832 425
384.34225 -53.83395 171.63075 317
435.36569 -70.57581 164.92883 308
386.03690 -48.75966 171.65179 317
437.62720 -63.89497 164.90860 308
387.62357 -43.65593 171.65796 317
410.72049 -49.68038 171.92049 309
461.70560 -62.89544 167.91843 297
388.97818 -38.49271 171.70825 317
412.29666 -43.80265 171.92191 309
463.74249 -55.41558 167.91566 452
390.27191 -33.33387 171.69398 317
413.69687 -37.87334 171.89978 309
470.73703 -48.91272 166.88332 448
391.33322 -28.12161 171.68449 317
414.90387 -31.90048 171.94987 309
478.05832 -42.10818 165.74474 443
392.28070 -22.88613 171.69948 317
415.94617 -25.94845 171.95053 309
482.39294 -34.52629 165.17725 301
393.05865 -17.62843 171.73718 317
416.81155 -19.93466 171.93343 309
447.97098 -22.98202 172.22733 301
393.63019 -12.37681 171.73444 317
417.45990 -13.93699 171.97870 309
448.74521 -15.95629 172.24133 301
394.11383 -7.08211 171.74155 317
417.95847 -7.88471 171.95738 309
449.28113 -8.95753 172.25253 301
394.38550 -1.78681 171.73997 317
418.30334 -1.87492 171.98178 309
449.60089 -1.95013 172.27614 301
394.53357 3.48681 171.73515 317
418.39301 4.15282 171.98103 309
449.69830 5.09181 172.27448 301
394.47098 8.76768 171.73581 317
418.31241 10.20755 171.97841 309
449.60962 12.10354 172.26503 301
394.29855 14.04713 171.73279 316
418.08124 16.23261 171.96574 309
449.27670 19.14467 172.27837 301
393.90582 19.28645 171.69862 316
417.64313 22.25708 171.94762 309
448.80667 26.11071 172.22348 301
393.39484 24.53175 171.69524 316
417.02612 28.24221 171.91484 309
481.39658 38.31266 165.51317 443
392.71326 29.76819 171.72903 316
416.24841 34.17044 171.94560 309
474.07880 45.09252 166.74663 447
391.91592 34.94439 171.71634 316
415.27557 40.11867 171.91638 309
467.13486 51.61952 167.88480 452
390.91861 40.10281 171.68639 316
414.10220 46.04620 171.92767 308
465.43799 59.09787 167.90251 297
389.72156 45.21791 171.67850 316
441.66193 60.20671 164.87343 307
388.45657 50.29580 171.66530 316
439.82404 66.90196 164.90611 307
386.98413 55.33902 171.63043 316
434.44153 72.35695 165.70872 424
385.33435 60.32116 171.62180 316
426.13171 76.40133 167.22101 429
407.10828 75.40117 164.75677 316
421.59863 81.62406 167.76624 305
404.81235 80.95621 164.73534 316
419.28250 87.75251 167.70871 305
402.25763 86.40903 164.77856 317
2714.71558 1261.11230 125.70232 483
395.69141 89.67295 165.93616 429
18046.92969 9771.48926 -2453.49756 1000
2664.63159 1334.02563 126.60793 393
388.44727 92.21253 167.36035 434
2639.07715 1420.54150 125.22047 435
384.66415 96.54591 167.63324 315
381.76849 101.43185 167.62906 313
2615.48535 1616.46082 123.07302 489
2574.35474 1699.16626 122.46360 309
1257.00500 2347.97339 53.54095 497
1308.87854 5544.64795 43.09586 445
1132.63538 5573.56445 42.83562 372
-863.67456 5812.57568 31.75125 497
-1042.58301 5753.16943 31.78801 498
-1253.48108 5833.46289 224.12689 400
-1467.82898 5888.30615 24.37068 403
-1434.95691 3032.81348 -6.93209 329
-1447.74634 2839.27734 3.80271 382
-1496.31812 2722.04761 8.32495 299
120.73706 149.29176 167.87802 489
112.76849 150.44592 166.41360 314
107.93602 146.90875 166.38885 314
100.21574 146.94560 165.10695 420
91.60957 147.47536 163.54869 425
86.95545 143.30373 163.50281 307
74.78356 156.30527 166.30835 305
103.50951 117.80212 171.53682 315
69.81855 151.61832 166.23677 305
99.80399 113.92497 171.56444 316
63.02227 148.60503 165.66212 410
96.27868 109.96191 171.61177 316
52.10323 149.00331 163.71475 404
92.84319 105.89146 171.61313 316
74.08994 121.45356 171.75987 308
89.55825 101.70177 171.65578 316
70.31393 116.69942 171.77861 308
21.17912 154.87944 166.01151 297
86.37238 97.46120 171.66197 316
66.73158 111.75801 171.82649 308
13.69992 150.40053 165.35028 389
83.36205 93.09424 171.70804 316
63.26298 106.75313 171.84943 308
-1.32362 150.74805 162.94359 383
80.45047 88.64808 171.71777 316
59.98014 101.65920 171.86893 308
33.03441 118.83014 172.08479 300
77.70892 84.15090 171.75406 316
56.86017 96.50686 171.89745 308
29.43374 112.74657 172.15627 300
-46.80778 157.96481 165.10744 286
75.10468 79.55692 171.76195 316
53.90818 91.23550 171.93857 308
40.02263 98.88161 175.35756 318
12.76273 113.87468 177.20692 270
72.59053 74.91550 171.79712 316
60.81597 80.93089 174.52989 384
52.51684 85.14691 178.82457 325
24.13785 99.65076 179.99716 292
70.96207 69.87431 171.99271 381
64.38784 72.94801 176.12769 390
53.95228 77.86749 179.73827 300
23.08768 92.42458 180.39128 314
-27.12893 116.11345 180.38774 344
74.16399 62.78639 173.59874 386
67.73232 65.54213 177.55305 395
43.86323 75.90215 178.10582 373
33.88930 80.23492 182.81982 335
21.72001 85.47747 187.92975 331
3.33643 93.49757 193.17679 283
76.16975 56.51411 174.77870 420
70.99690 58.55658 178.89037 415
47.64009 67.80550 179.42398 388
40.29084 70.78894 184.40427 373
31.62177 74.20989 189.71962 368
20.25019 78.72825 195.27597 331
3.81603 85.22354 201.20638 311
77.54546 50.79733 175.65518 423
71.98222 52.83016 179.58937 308
51.13536 60.35449 180.60719 393
44.24731 62.79499 185.49776 388
36.79957 65.49804 190.76335 373
27.99846 68.67775 196.29857 367
18.41301 72.11436 202.44136 362
78.86974 45.30807 176.52095 427
70.35198 48.08412 179.60405 308
54.14670 53.35416 181.63478 410
47.86939 55.40535 186.49109 393
40.86906 57.69053 191.62630 388
33.34103 60.14817 197.08855 383
24.41974 63.06622 203.00691 367
80.18749 40.04744 177.28474 430
68.85024 43.34188 179.62798 308
56.31905 46.99833 182.46294 421
50.51760 48.68539 187.25601 409
44.15411 50.52753 192.32950 404
37.41590 52.47004 197.73320 399
29.83409 54.68394 203.49089 382
81.48676 34.97382 178.00368 435
63.41301 39.62049 178.64049 429
58.26290 40.92039 183.13779 424
52.80440 42.35167 187.90919 420
46.85145 43.88424 192.86710 408
40.38818 45.51744 198.19446 403
33.44875 47.30325 203.84825 397
25.29126 49.38116 209.91470 269
82.50709 30.11829 178.61038 457
65.10088 33.97829 179.34816 432
60.10724 35.12416 183.79674 428
54.81350 36.27970 188.45341 423
49.26187 37.55172 193.38594 418
43.18070 38.88031 198.59383 406
36.51247 40.36706 204.14076 401
29.24577 42.02287 210.11807 358
-183.65297 89.60427 216.49452 296
78.11958 23.87537 179.55421 316
65.42255 26.36940 181.33609 454
61.02290 27.23740 185.66788 450
56.43680 28.12653 190.12604 445
51.41060 29.08361 194.86293 421
45.88258 30.19175 199.76530 416
40.04324 31.29969 205.04205 411
33.33677 32.61509 210.61157 363
-182.85115 75.31067 216.69029 424
77.58742 19.62487 179.57654 316
65.70875 21.56990 181.56236 456
61.36467 22.28092 185.84341 451
56.83594 23.02710 190.29785 447
52.07095 23.76254 195.00275 442
47.02686 24.59918 199.96500 437
41.67607 25.43798 205.17711 431
36.06834 26.34394 210.73177 426
77.20540 15.33303 179.57973 316
66.07491 16.78338 181.77361 457
61.72993 17.34780 186.01689 453
57.24193 17.96049 190.47452 448
52.49025 18.55674 195.14844 443
47.54908 19.18682 200.05988 438
42.31216 19.89141 205.25395 433
36.76133 20.58821 210.72766 428
76.93535 11.01049 179.58539 316
66.43940 12.07399 181.90349 458
62.15579 12.50282 186.15527 454
57.66973 12.92734 190.58168 450
53.00954 13.39590 195.22205 445
48.11815 13.86998 200.14014 440
42.90950 14.38836 205.29330 434
37.44109 14.89470 210.75363 429
70.89372 7.12893 177.97992 464
66.81070 7.38547 182.04207 459
62.58403 7.68382 186.26993 455
58.16336 7.98480 190.66612 451
53.55321 8.29623 195.30647 446
48.66522 8.61220 200.18605 441
43.57116 8.95286 205.31953 436
38.14811 9.29624 210.77332 430
-181.99165 24.33418 268.93909 486
-186.81087 24.59841 282.94916 496
-186.62550 24.55384 296.60898 494
71.30803 2.58422 178.11049 465
67.29572 2.73639 182.15602 461
63.09635 2.88171 186.34566 456
58.72319 3.05773 190.76331 452
54.13053 3.20194 195.41350 447
49.29944 3.36785 200.26950 442
44.17871 3.53834 205.38058 437
38.81717 3.76421 210.80811 431
-182.07661 11.83614 268.81903 487
