# .PCD v.7 - Point Cloud Data file format
VERSION .7
FIELDS x y z rgb
SIZE 4 4 4 4
TYPE F F F U
COUNT 1 1 1 1
WIDTH 424
HEIGHT 1
VIEWPOINT 6272.811523 -4101.633301 141.384445 0.098920 -0.124708 0.019250 0.987062
POINTS 424
DATA ascii
71.25824 -2.07756 178.24268 466
67.26780 -2.04659 182.24379 462
63.15545 -2.03721 186.44824 457
58.82774 -1.98684 190.84042 453
54.28577 -1.99656 195.40115 448
49.51407 -1.96187 200.23430 443
44.49098 -1.91429 205.27943 438
39.17968 -1.88327 210.67041 432
-152.37645 -0.22161 240.46301 418
-182.17375 -0.10631 268.58835 487
-156.78844 -0.39191 277.60007 284
-111.74199 -0.81454 281.10147 494
70.92128 -6.52542 178.06351 465
66.84858 -6.63693 182.10049 461
62.70039 -6.74996 186.29463 457
58.36007 -6.88319 190.68446 452
53.74690 -6.98272 195.29852 447
48.95530 -7.10422 200.13058 442
43.89740 -7.27146 205.21849 437
38.55479 -7.36694 210.63855 432
-152.02663 -11.75569 240.41440 417
-182.18719 -12.60888 268.55334 487
-156.35806 -11.97103 277.57632 291
76.96481 -10.71683 179.56708 316
66.54044 -11.30488 181.92636 460
62.28577 -11.52834 186.12399 455
57.87686 -11.78498 190.51372 451
53.25525 -12.07878 195.14658 446
48.40962 -12.33780 200.02179 441
43.29647 -12.64842 205.12184 436
37.91089 -12.95448 210.56577 431
-182.13716 -25.05054 268.61020 486
77.53032 -14.99976 179.56670 316
66.23493 -15.97473 181.71237 459
61.94525 -16.36570 185.93895 454
57.47123 -16.76509 190.33914 450
52.79168 -17.15685 194.98293 445
47.89275 -17.59481 199.89398 440
42.73317 -18.09327 205.05591 435
37.22123 -18.57387 210.50066 430
-182.09935 -37.58613 268.72421 486
78.20113 -19.26476 179.55824 316
65.93067 -20.70806 181.45404 458
61.62946 -21.26226 185.72908 453
57.13403 -21.79247 190.14883 449
52.35410 -22.35057 194.83192 444
47.37979 -22.97805 199.75677 439
42.14264 -23.60585 204.95438 433
36.60040 -24.28169 210.45503 428
79.02153 -23.53399 179.56483 316
65.66821 -25.51800 181.19429 456
61.32425 -26.22007 185.46921 452
56.77917 -26.89627 189.92892 447
51.96548 -27.64517 194.65973 442
46.90817 -28.39165 199.60138 420
41.20158 -29.27763 204.80798 415
34.98763 -30.20735 210.32990 403
79.96128 -27.77404 179.55495 316
65.21554 -30.44452 180.84048 436
60.49034 -31.32603 185.08328 432
55.55781 -32.26340 189.54776 427
50.31130 -33.20085 194.26941 422
44.77203 -34.26067 199.23578 417
38.66056 -35.39820 204.52600 405
32.00247 -36.61154 210.21970 400
-183.24402 -75.90153 216.18831 425
81.02481 -31.96631 179.56126 316
63.65754 -35.70148 180.17682 433
58.75953 -36.76091 184.46991 429
53.66484 -37.90381 188.99242 424
48.25105 -39.07321 193.81941 419
42.25312 -40.37338 198.87639 407
35.78334 -41.78295 204.25441 402
28.68687 -43.32201 210.02563 359
-183.05995 -88.85802 216.18510 438
79.92365 -36.73729 178.89151 435
62.01049 -41.17619 179.44864 430
56.99872 -42.41534 183.81789 425
51.68268 -43.74723 188.43829 421
45.82750 -45.21960 193.26466 409
39.51470 -46.83406 198.40422 403
32.79428 -48.50784 203.90533 398
25.15455 -50.42613 209.85088 269
78.69301 -41.67844 178.18570 431
60.35342 -46.86920 178.66156 426
55.15823 -48.34315 183.12231 422
49.38868 -49.96578 187.75841 410
43.23116 -51.73817 192.67894 405
36.64251 -53.58756 197.92899 388
29.21049 -55.71304 203.57126 383
77.42287 -46.79863 177.37114 428
66.18544 -50.39221 179.65955 308
52.97120 -54.57405 182.26015 411
46.73673 -56.57915 186.95525 394
39.88912 -58.72951 191.94507 389
32.55410 -61.05778 197.31718 373
23.83705 -63.86555 203.04012 368
76.15061 -52.17091 176.55272 425
67.93461 -55.04868 179.63933 308
49.90626 -61.42433 181.20860 394
43.19151 -63.78641 185.98283 389
35.90955 -66.35551 191.06949 374
27.34990 -69.39191 196.52281 368
17.99340 -72.68690 202.45999 363
74.87295 -57.71137 175.63666 421
69.72019 -59.75240 179.61716 401
46.54933 -68.70611 180.02516 390
39.27938 -71.55197 184.87175 374
30.84968 -74.84081 190.04060 369
19.58487 -79.22298 195.43764 333
3.61893 -85.39413 201.24741 312
72.60294 -63.94708 174.38562 387
66.63667 -66.46164 178.30992 396
42.74229 -76.61655 178.68501 374
32.83770 -80.81055 183.28273 337
21.04125 -85.83249 188.23631 332
3.25749 -93.42951 193.36021 285
69.51226 -70.85469 172.81383 383
63.40329 -73.70698 176.86467 391
50.55128 -79.64799 179.78384 300
22.30301 -92.71358 180.80298 316
-7.06228 -106.28899 183.66812 265
68.83167 -76.97116 171.87657 316
59.96394 -81.46493 175.30414 386
51.60826 -85.65622 179.45477 326
0.00486 -111.48283 176.11075 291
71.43419 -81.60889 171.82959 316
50.56747 -92.87951 172.02432 323
39.60648 -98.82202 176.06013 320
15.53061 -111.85889 178.28864 272
74.15854 -86.15398 171.80257 316
53.54507 -98.16249 171.98798 308
26.52528 -113.89471 172.22473 300
-49.16226 -157.93436 165.14761 288
77.02177 -90.63490 171.81131 316
56.76968 -103.27936 171.95200 308
30.25806 -119.88895 172.19128 300
80.01472 -95.06210 171.76100 316
60.19914 -108.34639 171.94107 308
-3.44869 -150.96083 163.07919 381
83.14009 -99.38493 171.75998 316
63.71615 -113.28765 171.93629 308
11.67995 -150.62987 165.58849 387
86.42689 -103.60138 171.73436 316
67.41388 -118.14606 171.91032 308
18.58763 -155.52161 166.07797 295
89.81145 -107.73711 171.70290 316
43.33566 -145.72617 163.41621 300
93.32247 -111.79031 171.65347 316
50.23318 -149.25883 164.02216 402
96.97678 -115.73137 171.64885 316
61.25185 -148.86122 165.97768 408
100.70667 -119.56377 171.59915 316
67.16644 -152.72603 166.34608 306
-47041.30859 -46777.63281 15617.35547 1000
84.10885 -144.91345 163.52386 308
72.23921 -157.39479 166.33069 305
89.99989 -147.81270 163.98082 423
98.58504 -147.32382 165.54121 418
-1324.90417 -1850.32019 54.78951 412
105.45119 -148.47441 166.47015 315
110.36254 -151.97311 166.43839 315
127.06539 -148.20404 169.76068 440
373.00589 -106.37772 167.61626 313
376.37503 -101.59626 167.65804 315
379.63736 -96.72729 167.66045 315
42796.97266 -25590.69727 1767.28638 1000
386.01257 -93.58772 166.67548 430
393.76889 -90.88544 165.24919 425
398.42545 -86.32746 164.78314 317
401.28842 -80.83888 164.77431 317
415.60876 -87.10431 167.78606 306
380.35025 -65.71267 171.62560 317
418.30139 -81.03498 167.85335 306
382.45309 -60.80313 171.60803 317
426.34641 -76.86313 166.46616 425
384.41187 -55.76983 171.63692 317
435.16699 -72.56891 164.92020 420
1861.65771 -545.49481 101.89058 459
386.20331 -50.73768 171.65369 317
437.68082 -65.96822 164.89415 308
387.86584 -45.64019 171.70018 317
439.84839 -59.26152 164.94545 308
461.90927 -65.11813 167.94022 298
389.39499 -40.49876 171.67798 317
412.63669 -45.83311 171.91516 309
463.79025 -57.53090 168.00200 298
390.71631 -35.30370 171.71118 317
414.15179 -39.91715 171.95070 309
468.87531 -50.64359 167.32474 448
391.92395 -30.07918 171.70844 317
415.45190 -33.93473 171.93254 309
476.09671 -43.89349 166.19907 444
392.94824 -24.86534 171.70918 317
416.62762 -27.96274 171.96945 309
482.95624 -36.70794 165.13916 301
393.78943 -19.60632 171.74393 317
417.57758 -21.95323 171.94127 309
448.76959 -25.08384 172.29153 301
394.51346 -14.30939 171.72073 317
418.33563 -15.95265 171.98911 309
449.60480 -18.05156 172.29214 301
395.06027 -9.02039 171.73146 317
418.94550 -9.85113 171.96277 309
450.27637 -11.02619 172.27429 301
395.43063 -3.71000 171.74225 317
419.33487 -3.80618 171.96152 309
450.63388 -3.94398 172.28889 495
395.60742 1.60242 171.74429 317
419.58630 2.23441 171.99022 309
450.63086 3.10588 172.31042 495
395.67374 6.89542 171.76212 317
419.61713 8.33631 171.96448 309
450.97870 10.14842 172.29283 301
395.55121 12.20807 171.72292 317
419.45349 14.35798 171.99298 309
450.73248 17.18624 172.24692 301
395.28369 17.48776 171.71494 317
419.12680 20.41975 171.97351 309
450.33688 24.23478 172.29739 301
394.89059 22.76003 171.70944 316
418.61990 26.42661 171.93387 309
483.18021 36.41117 165.51382 461
394.27542 28.03170 171.72141 316
417.89209 32.46611 171.93542 309
476.04611 43.30423 166.75104 447
393.50107 33.24556 171.70157 316
416.99081 38.44547 171.91309 309
469.04019 49.88519 167.93738 452
392.60165 38.45331 171.71011 316
415.90091 44.38248 171.94183 308
467.38620 57.42755 167.97412 297
391.51099 43.60118 171.70459 316
443.60510 58.55758 164.92293 307
390.28601 48.76637 171.68813 316
441.84402 65.34511 164.87621 307
388.88089 53.83834 171.66676 316
437.11581 71.03760 165.58447 424
387.31772 58.87025 171.66823 316
428.76297 75.11788 167.11948 429
2784.72192 1000.22485 127.32483 446
409.25348 73.97797 164.77509 316
423.82599 80.23756 167.78920 305
2721.08740 1067.09949 128.90903 494
406.92761 79.54617 164.76585 316
421.60593 86.41085 167.76373 305
2678.79248 1141.47253 129.12323 338
404.49146 85.13640 164.76701 317
2635.84180 1215.14697 129.25639 338
398.47586 88.71818 165.77985 429
2608.32983 1296.66467 129.20714 435
2681.60962 1337.14795 217.40924 319
2716.11011 1355.98596 310.42990 467
391.18304 91.26060 167.26082 434
2591.05762 1385.62671 127.58015 332
2715.79297 1459.04468 217.58992 435
386.98273 95.40887 167.65109 315
2576.26489 1478.85339 126.65994 331
2720.52856 1569.41125 314.15045 473
384.16666 100.34308 167.61269 313
2561.64453 1574.38904 125.20420 330
2547.83057 1673.87354 124.13030 444
2646.81006 1745.04712 217.64264 479
1388.62036 2223.21924 140.98314 428
1778.10071 5169.03564 231.27539 396
1639.32629 5315.24072 231.08801 424
1535.48352 5632.73779 232.39404 363
1162.22705 4025.16162 363.30209 1000
8167.25830 39854.14062 1658.33667 1000
-106.85427 5943.97266 230.61453 471
-290.47372 5874.87646 230.92757 356
-473.18759 5836.28906 230.63194 498
-673.18945 5918.76025 426.66788 499
-1027.99634 5768.76709 229.10542 485
-1215.44714 3098.04102 110.27673 344
-1257.78540 2942.36182 114.37321 399
-1331.65186 2859.25684 115.07437 296
120.71739 150.30769 167.40862 316
115.08299 148.08272 167.03868 432
108.83159 146.49255 166.36694 314
100.81039 146.85948 165.01317 420
92.15269 147.45065 163.38908 425
87.76894 142.92276 163.57042 307
75.56857 156.04648 166.30440 304
104.23200 117.35402 171.51178 315
70.51544 151.32536 166.27734 305
100.54591 113.51418 171.54674 315
63.43184 148.60471 165.57362 410
96.97181 109.57342 171.60306 315
52.54421 149.03056 163.60583 404
93.51298 105.49405 171.63692 316
74.70703 121.18323 171.77980 308
90.17413 101.33284 171.66019 316
70.90646 116.41273 171.80515 308
21.75603 154.78294 166.04485 297
86.99886 97.11043 171.68643 316
67.29435 111.49700 171.84195 308
14.08607 150.39574 165.33922 389
83.97116 92.74831 171.69965 316
63.82150 106.48532 171.87531 308
-0.91722 150.79720 162.91965 383
81.02246 88.35341 171.70140 316
60.52528 101.39827 171.87936 308
33.55028 118.65233 172.08913 300
78.27709 83.84483 171.72852 316
57.40724 96.23254 171.94228 308
29.94472 112.55294 172.13153 300
-46.40332 158.01833 165.09435 286
75.63453 79.24412 171.79103 316
54.41906 90.97021 171.93246 308
40.10582 98.92497 175.26846 318
12.36595 114.22600 177.08980 269
73.12826 74.61877 171.80017 316
60.94439 80.82771 174.39270 384
52.68092 85.08987 178.79073 324
24.54277 99.51431 179.99019 292
71.16262 69.71478 171.93312 381
64.54231 72.83247 176.00377 389
54.37754 77.66654 179.73361 300
23.17586 92.38303 180.31244 314
-26.98107 116.12189 180.38507 344
74.36340 62.60717 173.49454 386
67.92084 65.40598 177.48071 381
43.99343 75.80279 177.99533 373
33.99397 80.13159 182.78725 335
21.79628 85.48862 187.86797 330
3.28060 93.51875 193.13724 283
76.31849 56.40022 174.65617 420
71.14477 58.46383 178.78922 415
47.79611 67.74332 179.35469 388
40.41628 70.68597 184.36339 373
31.69521 74.09908 189.69012 368
20.30303 78.66664 195.24940 331
3.81352 85.24846 201.21432 311
77.69315 50.69254 175.57129 423
72.42873 52.58426 179.58412 308
51.28984 60.24734 180.54095 393
44.33664 62.75299 185.47688 388
36.90916 65.43043 190.71762 372
28.08235 68.60161 196.28242 367
18.43927 72.08350 202.41905 362
79.02933 45.19527 176.41589 427
70.80890 47.86840 179.59166 308
54.28463 53.26763 181.60144 410
48.01761 55.31204 186.42827 393
40.97749 57.61660 191.56552 388
33.39961 60.05389 197.06876 383
24.48606 62.95502 202.96776 367
80.32487 39.91496 177.19868 430
69.28402 43.13715 179.62305 308
56.47172 46.88242 182.38028 421
50.58226 48.59838 187.17136 409
44.23684 50.44678 192.29106 404
37.51117 52.40907 197.66385 399
29.89244 54.58751 203.48384 382
81.62430 34.82130 177.93370 435
63.51651 39.50496 178.57527 429
58.37543 40.83947 183.09215 424
52.90637 42.24956 187.86879 419
46.93309 43.78155 192.86276 408
40.46360 45.44350 198.17226 403
33.50239 47.26126 203.83900 397
25.28609 49.34120 209.89064 269
82.60046 29.97798 178.52565 457
65.23959 33.89666 179.27411 432
60.18314 35.01315 183.73880 427
54.90033 36.18525 188.42220 423
49.30009 37.45196 193.37070 418
43.24532 38.79953 198.58759 406
36.60289 40.32787 204.15015 401
29.25567 41.95721 210.12358 358
-184.04539 89.83160 216.58846 296
82.79946 25.40778 178.84923 459
66.64807 28.52455 179.89223 455
62.00075 29.38478 184.32741 431
56.89284 30.37272 188.93747 426
51.47802 31.40870 193.82101 421
45.72923 32.54017 198.93712 416
39.54805 33.67967 204.42978 404
32.67131 35.04397 210.27063 399
-182.90112 76.28639 216.57248 424
83.01052 20.94026 179.10851 461
66.90129 23.50185 180.15886 456
62.38823 24.19854 184.62167 452
57.66215 24.95904 189.22673 447
52.71761 25.73910 194.12428 442
47.49249 26.57001 199.24055 437
42.01167 27.47241 204.67265 432
35.76873 28.44930 210.38885 402
83.27145 16.51059 179.40431 462
67.19563 18.55992 180.45253 457
62.71795 19.13075 184.85384 453
58.03604 19.70870 189.44962 448
53.12758 20.34757 194.25938 443
48.00233 20.98387 199.38857 438
42.57141 21.67328 204.74210 433
36.80513 22.38947 210.47241 428
83.15430 12.19317 179.50439 316
67.50458 13.64710 180.64624 459
63.08726 14.07473 185.02036 454
58.46032 14.52980 189.63515 450
53.59081 14.96842 194.44214 445
48.50754 15.47394 199.47049 440
43.19508 15.96737 204.83846 435
37.49169 16.52798 210.48572 429
70.68658 6.98095 178.18929 463
66.66125 7.23919 182.21097 459
62.50361 7.52505 186.40363 455
58.13294 7.85911 190.74269 450
53.55570 8.14436 195.33447 446
48.73740 8.49384 200.13501 441
43.65723 8.86837 205.22926 435
38.31562 9.23226 210.62766 430
-182.20242 25.15707 268.60123 486
-187.82608 25.48017 296.36261 357
71.09983 2.48572 178.31136 465
67.13121 2.62765 182.29526 461
62.96737 2.81393 186.49362 456
58.63999 2.98018 190.82043 452
54.09867 3.12816 195.41138 447
49.34867 3.31512 200.20732 442
44.28596 3.53183 205.24524 436
38.98877 3.74396 210.59831 431
-182.23210 12.75873 268.47845 487
