# .PCD v.7 - Point Cloud Data file format
VERSION .7
FIELDS x y z rgb
SIZE 4 4 4 4
TYPE F F F U
COUNT 1 1 1 1
WIDTH 415
HEIGHT 1
VIEWPOINT 6324.259766 -4093.119629 142.298981 0.065228 -0.125603 0.024580 0.989629
POINTS 415
DATA ascii
71.09211 -1.83960 178.44472 466
67.12289 -1.82225 182.46558 462
63.01423 -1.76681 186.59326 457
58.73386 -1.73228 190.94644 453
54.21987 -1.68840 195.52026 448
49.47776 -1.67718 200.27380 443
44.50881 -1.62924 205.33084 438
39.24618 -1.59031 210.64798 432
-152.74687 0.38821 240.38620 418
-182.29219 0.61298 268.41107 487
-111.78333 -0.16973 280.97043 493
70.72202 -6.29672 178.30278 465
66.70653 -6.39261 182.26730 461
62.56069 -6.48520 186.46979 457
58.25377 -6.59168 190.80273 452
53.71915 -6.67317 195.39082 447
48.92058 -6.78736 200.17902 442
43.91815 -6.91547 205.27637 437
38.58711 -7.04312 210.61229 432
-151.57181 -11.08239 240.30583 417
-182.23624 -11.80363 268.44620 487
-156.60710 -11.23273 277.38763 291
70.43063 -10.76707 178.09428 464
66.35867 -11.01382 182.08340 460
62.15945 -11.22694 186.29291 455
57.78653 -11.45019 190.66516 451
53.21915 -11.73637 195.26117 446
48.39153 -11.96341 200.07584 441
43.29024 -12.26911 205.18739 436
37.93100 -12.54546 210.59702 431
-182.17607 -24.28225 268.53305 486
76.54402 -14.78738 179.56253 316
66.08157 -15.66039 181.89325 459
61.83711 -16.03626 186.09946 454
57.35900 -16.40739 190.50758 450
52.69218 -16.82651 195.12955 445
47.85631 -17.23478 199.96568 440
42.72639 -17.67374 205.07901 435
37.26266 -18.17509 210.55136 430
-182.14394 -36.80254 268.54922 486
-187.65790 -37.27023 282.79492 355
-187.69307 -37.28400 296.38657 354
77.23343 -19.04034 179.56894 316
65.78799 -20.40424 181.66496 458
61.49164 -20.90943 185.87512 453
57.00470 -21.42214 190.30583 449
52.30459 -21.98248 194.92616 444
47.36961 -22.58655 199.81287 439
42.12604 -23.21180 204.99846 434
36.64454 -23.86886 210.47136 428
78.03748 -23.30406 179.58476 316
65.52941 -25.17244 181.39285 457
61.17458 -25.82439 185.63972 452
56.65707 -26.51031 190.09433 447
51.88916 -27.21100 194.75557 442
46.90805 -27.98478 199.70543 437
41.33599 -28.82854 204.86224 415
35.18247 -29.74525 210.37091 403
78.96777 -27.57893 179.55554 316
65.16121 -30.05278 181.07399 436
60.50299 -30.89425 185.26112 432
55.57750 -31.82531 189.71265 427
50.36459 -32.74404 194.42392 422
44.85574 -33.75522 199.36046 417
38.82050 -34.86721 204.63568 405
32.20953 -36.06374 210.21378 400
-183.18889 -74.98406 216.23524 425
80.03325 -31.76193 179.55328 316
63.60384 -35.30476 180.37842 433
58.77769 -36.32980 184.66527 429
53.67973 -37.43405 189.18384 424
48.31022 -38.56534 193.94034 419
42.38678 -39.85657 198.95691 407
35.96286 -41.22567 204.32881 402
28.94420 -42.77184 210.07242 359
-183.05347 -87.99234 216.22029 438
79.81638 -36.33398 179.13643 435
61.97678 -40.73660 179.67259 430
56.99980 -41.95720 184.02496 425
51.73681 -43.26155 188.61211 421
45.91085 -44.71341 193.40880 409
39.66092 -46.27008 198.53661 404
32.98700 -47.94397 204.00737 398
25.29275 -49.83307 209.88959 269
78.58484 -41.26436 178.42397 432
60.32601 -46.35117 178.91261 426
55.15397 -47.83128 183.33665 422
49.47309 -49.43809 187.95387 410
43.34543 -51.17134 192.85655 405
36.84586 -53.02392 198.06599 400
29.47908 -55.05907 203.65671 383
77.32951 -46.35422 177.64589 428
58.63440 -52.27069 178.06244 416
53.01294 -54.03019 182.52303 411
46.84997 -55.98409 187.19391 394
40.13641 -58.10844 192.12613 389
32.86686 -60.43466 197.44968 384
24.23723 -63.15739 203.16003 368
76.10354 -51.67091 176.79671 425
66.98989 -54.86607 179.65610 308
50.04483 -60.80526 181.46980 394
43.35610 -63.15621 186.18605 390
36.19312 -65.69448 191.27625 374
27.66521 -68.64560 196.69138 369
18.41504 -71.94529 202.54369 363
74.78963 -57.24078 175.91727 421
68.86240 -59.52414 179.63414 308
46.66304 -68.07377 180.28969 390
39.51939 -70.87446 185.10373 374
31.15516 -74.08585 190.23645 369
20.42743 -78.26910 195.63609 333
4.91164 -84.24467 201.39977 312
72.65735 -63.34298 174.68127 388
66.79031 -65.82775 178.60641 396
42.96937 -75.93344 178.97504 374
33.46295 -79.94977 183.56087 337
21.83466 -84.87946 188.54640 332
5.62328 -91.74144 193.76097 312
69.59719 -70.24129 173.10374 383
63.57670 -73.02159 177.14543 391
49.55654 -79.48103 179.83286 300
23.27346 -91.58083 181.22845 316
-1.06953 -102.76593 184.73740 266
67.89760 -76.87595 171.84636 316
60.11726 -80.75035 175.58406 386
52.20263 -84.71545 179.80630 300
-3.75743 -112.61045 175.60324 291
70.47193 -81.49745 171.85876 316
51.33212 -91.81840 172.53711 324
40.55795 -97.63093 176.48207 320
19.99655 -108.72296 179.36987 272
73.23815 -86.07459 171.82924 316
52.58218 -98.04379 172.01509 308
25.44834 -113.82382 172.20212 300
-50.51521 -157.90518 165.13705 288
76.08736 -90.57253 171.82301 316
55.82213 -103.20576 171.97980 308
29.19447 -119.78789 172.17369 300
79.11545 -95.00274 171.75725 316
59.24916 -108.26034 171.93062 308
-4.73052 -151.02126 163.07907 381
82.25328 -99.33775 171.76183 316
62.80649 -113.20676 171.91852 308
10.45678 -150.63742 165.56181 387
85.52702 -103.54233 171.73323 316
66.48203 -118.09392 171.87309 308
17.42049 -155.58047 166.04314 295
88.97134 -107.71789 171.71895 316
70.35159 -122.84659 171.88466 308
92.50443 -111.77900 171.65178 316
49.21524 -149.31351 164.02420 402
96.17152 -115.72356 171.63542 316
60.28354 -148.92798 165.96440 408
-1070.97974 -1196.14709 41.63446 418
99.92744 -119.58997 171.59587 316
66.27536 -152.79889 166.33340 306
83.23640 -144.96005 163.55882 308
71.35224 -157.44061 166.33644 305
89.23959 -147.83823 164.01381 423
97.80281 -147.40073 165.55292 418
104.71636 -148.57851 166.45293 314
109.60227 -152.09384 166.47964 314
126.48470 -148.25304 169.83492 440
376.10712 -102.39401 167.66728 315
379.39590 -97.48080 167.70251 315
385.04181 -93.92599 166.94620 430
392.78995 -91.25005 165.50224 425
398.26968 -87.08964 164.77798 317
401.15958 -81.60154 164.73882 317
415.43256 -87.95922 167.80264 306
1772.17493 -687.79645 103.68956 384
403.84726 -76.05022 164.75673 317
418.15372 -81.83832 167.81828 306
382.38895 -61.57915 171.64447 317
425.32138 -77.36163 166.71307 425
384.39386 -56.57377 171.63541 317
434.08810 -73.11873 165.20038 420
386.21954 -51.52485 171.66473 317
437.64737 -66.83599 164.92899 308
387.90952 -46.39962 171.68199 317
439.84058 -60.15023 164.92795 308
461.93802 -65.98560 167.91679 298
389.44998 -41.27239 171.71515 317
412.66412 -46.62025 171.92210 309
463.82974 -58.41874 167.98914 298
390.81024 -36.11153 171.72017 317
414.22025 -40.70621 171.93976 309
468.09729 -51.34925 167.52631 448
392.01511 -30.90859 171.72716 317
415.56036 -34.80507 171.92355 309
475.30981 -44.61035 166.42410 444
393.08575 -25.64357 171.71700 317
416.72705 -28.82049 171.95355 309
482.78104 -37.53008 165.18289 459
393.97034 -20.38177 171.74835 317
417.70090 -22.78155 171.96593 309
448.86115 -25.95647 172.24821 301
394.71225 -15.13522 171.72612 317
418.50552 -16.76391 171.98181 309
449.74759 -18.93735 172.26022 301
395.28708 -9.81763 171.72333 317
419.13324 -10.71715 171.95071 309
450.45093 -11.86280 172.25970 301
395.66138 -4.54128 171.75668 317
419.58163 -4.67389 171.98312 309
450.65756 -4.81520 172.31129 495
395.91141 0.76047 171.72902 317
419.82266 1.41159 171.99699 309
450.61224 2.16125 172.37068 495
396.00769 6.07519 171.76620 317
419.90356 7.46282 171.99435 309
451.23749 9.27268 172.29710 301
395.92465 11.38509 171.75049 317
419.80637 13.51608 171.95374 309
451.04318 16.30867 172.25601 301
5796.24756 493.61511 32.71930 1000
395.67111 16.68174 171.71841 317
419.46729 19.53400 171.95830 309
450.63629 23.34395 172.26822 301
395.28513 21.94628 171.71355 317
418.98087 25.57368 171.94122 309
483.83072 35.54095 165.42685 461
394.73523 27.18826 171.70523 317
418.30557 31.56931 171.94501 309
476.94629 42.44236 166.65874 447
393.96515 32.42610 171.73734 316
417.44077 37.53156 171.92455 309
469.92636 48.99520 167.84573 452
393.07788 37.58987 171.72595 316
416.39813 43.48630 171.93761 309
467.82047 56.42947 167.97971 297
392.03192 42.74803 171.71680 316
444.12906 57.65831 164.88559 307
390.84866 47.89534 171.70399 316
442.40186 64.41431 164.89622 307
2800.46191 820.20660 128.33383 447
389.48096 52.94519 171.65384 316
438.46420 70.38470 165.38452 424
2738.82642 888.81885 130.19475 488
387.94714 58.00747 171.64746 316
430.04639 74.50773 166.95340 429
2706.68994 966.39789 129.80954 490
409.94821 73.07428 164.73019 316
424.48273 79.36832 167.80298 305
2680.72388 1046.04578 130.28535 485
2728.25464 1066.36597 217.02675 337
407.63211 78.71653 164.78354 316
422.27377 85.54037 167.77553 305
2662.16528 1130.48462 129.81329 478
2717.80396 1156.10291 217.04135 489
405.23065 84.21411 164.77621 316
2650.28320 1219.62109 128.51955 470
2799.61328 1294.62585 217.22321 487
399.91757 88.17480 165.59203 428
392.59592 90.74541 167.06500 434
387.81287 94.53517 167.65039 315
385.03738 99.48711 167.64532 313
944.56653 2127.39795 -302.51392 1000
1026.81909 3975.80957 226.57643 487
-93.14954 5855.79492 421.90320 498
-277.14969 5833.81934 420.08527 499
-1018.70819 3526.14795 222.68054 337
-1030.93335 3230.54028 222.90872 351
-1075.62646 3056.32788 222.30609 431
-1140.51562 2947.27271 221.70889 443
121.41175 149.95230 167.38458 316
115.58205 148.02853 166.94301 432
109.50428 146.16753 166.39806 314
101.24990 146.81981 164.93008 420
92.78400 147.16718 163.42357 307
88.40113 142.59311 163.53656 307
76.15680 155.72667 166.30673 304
104.79021 117.10215 171.51746 315
71.13603 151.13673 166.28700 305
101.07503 113.25506 171.56282 315
63.82108 148.57475 165.49399 410
97.45367 109.33516 171.60349 315
52.84103 148.96178 163.55836 404
94.01169 105.29881 171.62601 316
75.16968 120.96737 171.75316 308
90.66971 101.12058 171.64493 316
71.40511 116.19652 171.79726 308
22.27292 154.55524 166.04167 297
87.44372 96.88614 171.67957 316
67.77319 111.33945 171.85387 308
14.35140 150.37265 165.29776 389
84.38801 92.54622 171.67400 316
64.24715 106.35369 171.84517 308
-0.61780 150.73524 162.86005 383
81.43008 88.14463 171.71489 316
60.96918 101.23509 171.87257 308
33.95438 118.49638 172.13704 300
78.66546 83.64374 171.76486 316
57.79035 96.07743 171.88800 308
30.31481 112.43538 172.14146 300
-46.01603 157.91077 165.12886 286
76.01188 79.07449 171.75293 316
54.80212 90.85049 171.93059 308
40.09460 98.95495 175.17331 318
11.90753 114.55437 176.89778 269
73.48419 74.42953 171.77623 316
61.02475 80.84298 174.36476 384
52.74159 85.07896 178.71317 324
24.86282 99.41862 180.01254 292
-1382.23853 821.17712 158.47002 428
-1381.65259 820.90082 217.27318 497
-1382.73877 821.54547 276.29117 496
71.25415 69.66590 171.83521 381
64.62366 72.82775 175.94543 389
54.73709 77.48765 179.75366 300
23.25336 92.42892 180.23447 314
-26.71440 116.10287 180.34308 344
74.46589 62.52828 173.46028 386
68.02576 65.37128 177.42551 381
44.02682 75.81920 177.98056 373
34.05457 80.13226 182.74132 335
21.84352 85.47086 187.85971 330
3.14797 93.60149 193.06636 283
76.43716 56.33068 174.58759 419
71.24885 58.39862 178.75079 415
47.89741 67.69851 179.28033 388
40.48883 70.65080 184.32590 373
31.75136 74.09148 189.65700 368
20.31907 78.64779 195.19312 331
3.79366 85.27870 201.18521 311
77.77781 50.58875 175.52861 423
72.73455 52.41590 179.61322 308
51.33123 60.15745 180.52649 393
44.42194 62.71169 185.42307 388
36.98553 65.37653 190.69588 372
28.11954 68.59770 196.30095 367
18.44881 72.09440 202.42862 362
79.13826 45.12020 176.37630 427
71.06853 47.71872 179.60347 308
54.33543 53.20016 181.56096 410
48.08408 55.24617 186.37750 392
41.02823 57.55917 191.53835 388
33.46510 60.02161 197.03915 383
24.50004 62.96013 202.98093 367
80.41078 39.82106 177.15749 432
69.57593 43.00023 179.60730 308
56.50664 46.80702 182.33531 420
50.67185 48.52694 187.14473 409
44.33447 50.40276 192.25723 404
37.53889 52.38046 197.65991 399
29.96646 54.55042 203.46124 382
81.71309 34.74235 177.87413 435
63.62752 39.42611 178.54204 429
58.40662 40.74446 183.02888 424
52.95386 42.17710 187.81737 419
47.01233 43.69265 192.80658 408
40.48794 45.38354 198.15489 402
33.52767 47.18512 203.80614 397
25.33138 49.29074 209.89835 269
82.65381 29.89108 178.44295 457
65.31175 33.78977 179.26219 432
60.25946 34.94022 183.71693 427
54.95622 36.10413 188.40977 423
49.39191 37.39397 193.35823 418
43.28949 38.72900 198.57265 406
36.60754 40.22445 204.15230 401
29.29024 41.91651 210.08638 358
-184.26611 89.92977 216.55943 296
82.87576 25.32853 178.76801 459
66.71389 28.42049 179.85367 455
62.08319 29.33274 184.31371 431
56.92652 30.29604 188.91269 426
51.50091 31.35935 193.78728 421
45.78179 32.44903 198.92546 416
39.55967 33.64828 204.41795 404
32.67692 34.94917 210.24582 399
-182.90082 76.38955 216.53862 424
83.06815 20.82875 179.08958 461
66.94760 23.40503 180.12965 456
62.45031 24.11731 184.55522 452
57.69948 24.89275 189.22649 447
52.76569 25.65696 194.10968 442
47.52174 26.49377 199.20723 437
41.98555 27.38539 204.64183 432
35.77259 28.38627 210.37193 402
83.33354 16.41334 179.34830 462
67.25887 18.47613 180.38817 457
62.78797 19.05975 184.79768 453
58.09298 19.64515 189.41110 448
53.16697 20.27416 194.25371 443
47.98880 20.91116 199.34534 438
42.55434 21.58061 204.72545 433
36.81371 22.33792 210.44987 428
83.37086 12.06781 179.49422 316
67.54191 13.58248 180.62009 459
63.12569 14.00576 185.01952 454
58.48553 14.43827 189.59134 450
53.61309 14.88168 194.40886 445
48.55685 15.38242 199.45718 440
43.21791 15.89946 204.80997 435
37.51141 16.41235 210.47220 429
82.92518 7.81031 179.52931 316
67.89515 8.74617 180.79213 460
63.48969 9.02725 185.19113 456
58.94307 9.29417 189.75356 451
54.17191 9.62144 194.56055 446
49.14896 9.93394 199.57063 441
43.80679 10.29439 204.89743 436
38.21991 10.61394 210.55960 430
-181.68102 24.53545 269.61557 486
-186.84433 24.95017 283.97162 360
82.64507 3.49105 179.51292 316
68.27953 3.97449 180.97717 461
63.97270 4.10243 185.31645 456
59.44206 4.26258 189.88113 452
54.69781 4.38541 194.68315 447
49.72156 4.56898 199.68701 442
44.46545 4.70053 204.98271 437
38.86546 4.91372 210.56038 431
-181.67009 11.87773 269.57944 487
