# .PCD v.7 - Point Cloud Data file format
VERSION .7
FIELDS x y z rgb
SIZE 4 4 4 4
TYPE F F F U
COUNT 1 1 1 1
WIDTH 445
HEIGHT 1
VIEWPOINT 6864.616211 -3396.166504 144.223343 -0.762335 -0.124755 -0.062563 0.631955
POINTS 445
DATA ascii
85.23813 -3.55472 178.93051 466
69.29008 -3.46641 180.06114 462
64.84820 -3.42821 184.52138 457
60.24727 -3.38615 189.16217 453
55.43338 -3.39019 194.04680 448
50.39373 -3.34110 199.19814 443
45.01411 -3.29885 204.59543 438
39.37624 -3.25770 210.28407 432
-178.32173 -1.87969 229.75073 476
-181.45004 -1.82403 270.10959 487
-129.12836 -2.20175 274.98029 288
84.82156 -7.88856 178.81715 465
68.81413 -8.27634 179.99745 460
64.35658 -8.38462 184.45439 457
59.71511 -8.52828 189.11371 452
54.82259 -8.65266 194.00739 447
49.73128 -8.74338 199.15196 442
44.36293 -8.91376 204.56462 437
38.67525 -9.05552 210.30798 431
-181.40907 -14.55206 270.11780 487
84.45745 -12.20722 178.71289 464
68.35394 -13.13841 179.85371 460
63.87690 -13.40959 184.31300 455
59.19037 -13.65862 188.98228 451
54.27738 -13.92382 193.92738 446
49.14211 -14.23399 199.07404 441
43.68416 -14.52128 204.52095 436
37.97405 -14.87129 210.25317 430
-181.42537 -27.29515 270.10013 486
84.09528 -16.57787 178.56596 463
67.96949 -18.00300 179.70424 459
63.46471 -18.42924 184.20743 454
58.70365 -18.85312 188.88702 450
53.76174 -19.28154 193.81819 445
48.52575 -19.75512 198.95993 440
43.04937 -20.24005 204.43550 435
37.22224 -20.74212 210.20946 429
-181.39767 -40.08282 270.18726 486
83.75979 -20.99566 178.40410 462
67.61402 -22.95368 179.55341 458
63.04583 -23.51247 184.03946 453
58.27461 -24.06260 188.73183 448
53.29047 -24.66042 193.70419 444
47.99104 -25.30561 198.88545 438
42.44241 -25.97541 204.38728 433
36.54013 -26.71221 210.21954 428
83.46146 -25.47814 178.20470 461
67.28857 -27.93003 179.35545 456
62.65143 -28.61931 183.83675 452
57.79967 -29.35900 188.57672 430
52.41464 -30.22727 193.50768 425
46.70362 -31.09572 198.66945 420
40.66243 -32.00986 204.22351 415
33.87955 -33.03365 210.08266 403
83.19492 -29.94194 177.95476 459
66.08276 -33.11470 178.87599 436
61.05198 -34.03087 183.37503 431
55.78899 -35.03561 188.12094 427
50.26306 -36.04787 193.08392 422
44.39017 -37.14453 198.39386 410
37.79231 -38.37272 203.97339 405
30.74411 -39.66640 209.96864 399
-182.89267 -79.20425 216.56744 425
82.21243 -34.65815 177.46973 439
64.35800 -38.58212 178.26648 432
59.19952 -39.69796 182.83852 428
53.78233 -40.87064 187.60030 423
48.02299 -42.15795 192.64693 412
41.61792 -43.54416 197.98912 407
34.77581 -45.04802 203.70831 401
27.23483 -46.69043 209.82596 359
-191.62456 -94.33761 216.58080 297
80.89995 -39.61141 176.87442 436
71.06387 -42.06562 179.61801 308
57.29330 -45.51437 182.20747 425
51.61259 -46.98481 187.06781 413
45.38559 -48.52697 192.18629 408
38.76233 -50.20150 197.58038 403
31.64963 -52.00843 203.40511 398
-188.36333 -107.32507 202.61771 484
79.55192 -44.68843 176.16917 431
72.16640 -46.81877 179.62277 308
55.23190 -51.65712 181.54314 414
49.15747 -53.37475 186.39496 409
42.49853 -55.25626 191.60934 393
35.21161 -57.35315 197.07402 388
26.94338 -59.71746 203.01863 372
78.18056 -49.94858 175.47328 427
73.24519 -51.55653 179.55499 423
52.57220 -58.17927 180.64561 398
45.84177 -60.30384 185.57768 393
38.64695 -62.60600 190.85681 388
30.51674 -65.24236 196.42844 372
21.25237 -68.14574 202.51970 367
76.84254 -55.41108 174.67859 424
71.68975 -57.24041 178.84569 419
49.21860 -65.24390 179.59311 394
42.16433 -67.74486 184.62411 389
34.06487 -70.57547 189.92816 373
25.01651 -73.79682 195.65903 368
12.33837 -78.35688 201.75835 317
75.26151 -61.17418 173.78024 391
69.00717 -63.59198 177.75175 387
45.73965 -72.73602 178.47772 389
37.70985 -75.85149 183.51894 373
27.03061 -80.03579 188.66602 337
13.46700 -85.33567 194.23650 316
-9.66182 -94.37414 200.06345 268
72.16180 -67.78533 172.33719 387
65.74022 -70.57749 176.44214 395
53.99093 -75.58010 179.75760 300
28.86960 -86.36293 181.51576 336
14.71641 -92.35123 186.57378 316
72.40660 -73.26669 171.84222 316
62.32249 -77.94875 175.03235 390
56.15694 -80.82008 179.74042 300
12.22519 -101.28670 178.01178 287
-24.74880 -118.50095 180.45386 284
74.48438 -77.91254 171.79832 316
56.63354 -86.95489 172.92682 329
46.44977 -92.10673 177.09274 326
26.15582 -102.35965 180.03044 292
76.73137 -82.54636 171.79797 316
55.57598 -94.09490 171.97804 308
27.74599 -109.27802 172.20534 300
-50.63393 -151.95732 165.00725 372
79.15701 -87.05650 171.78792 316
58.34363 -99.24641 171.95291 308
30.96438 -115.33387 172.16895 300
-45.31691 -160.08664 165.10625 286
81.67915 -91.47821 171.78003 316
61.26688 -104.34937 171.91895 308
34.34476 -121.28123 172.13905 300
84.36260 -95.86328 171.72664 316
64.29888 -109.36772 171.89841 308
2.92554 -150.82664 163.75151 382
87.17449 -100.12495 171.69307 316
67.57507 -114.28494 171.89372 308
17.06129 -150.73270 166.03505 295
90.13068 -104.31467 171.70773 316
70.90894 -119.12891 171.83202 308
21.87392 -156.96667 166.11119 297
93.19587 -108.39973 171.66534 316
46.38317 -146.97527 163.34418 300
96.40129 -112.38570 171.63974 316
54.57648 -149.10913 164.50235 403
99.75690 -116.32465 171.63245 316
64.88738 -148.88155 166.32893 305
103.21850 -120.07473 171.56645 316
69.53052 -153.63425 166.34558 305
86.20119 -145.61104 163.52109 307
92.51890 -147.68704 164.22568 424
100.78232 -147.11322 165.78767 419
106.80585 -148.85081 166.48705 314
111.35925 -152.31555 166.44505 314
120.38113 -149.30585 168.52794 489
127.40757 -148.50667 169.74876 486
-25559.04102 -46836.25391 218.21373 1000
-1821.84155 -4006.09180 -78.08476 1000
-324.22897 -2003.88049 -124.66283 294
-249.55223 -1971.72705 -116.55233 479
-182.36011 -1963.40161 -113.22966 487
-117.67988 -1960.73486 -110.88347 493
-131.07613 -2042.44019 -54.94177 499
-54.38173 -1963.22107 -109.92480 472
8.47333 -1970.10571 -109.87868 472
70.42689 -1977.58142 -109.97886 472
61.24621 -2111.63379 78.25249 353
133.13599 -1984.34131 -110.89707 471
131.29692 -2037.22485 -51.50793 499
196.33623 -1991.22876 -111.47484 471
259.37521 -1997.79529 -113.00909 470
323.09372 -2004.07544 -114.76204 469
387.57184 -2010.98633 -116.26626 493
400.22266 -2157.55029 -68.14375 494
452.98322 -2017.86328 -118.99214 465
522.15851 -2046.97461 -125.41898 438
1298.76624 -1162.16333 -45.91388 498
1308.38513 -1172.19727 5.32415 475
372.77237 -105.26174 167.66660 313
4141.93262 -2688.30981 -96.91163 444
376.11017 -100.48746 167.65981 315
4146.22119 -2513.59839 -90.58984 448
379.61060 -95.82587 167.62485 434
4530.45264 -2570.50732 -114.79202 444
386.95737 -93.27979 166.29924 429
394.77859 -90.56214 164.87656 424
398.07538 -85.36268 164.75089 317
412.32440 -92.10025 167.75554 305
400.91046 -79.89146 164.73154 317
415.13782 -86.08122 167.82176 305
379.79639 -64.85729 171.61308 316
418.93451 -80.49573 167.53755 430
381.85635 -60.00367 171.64076 317
427.25763 -76.48321 166.15903 424
383.79678 -55.03247 171.65739 317
434.76547 -71.72260 164.90082 308
385.57211 -50.06712 171.64642 317
437.07364 -65.17553 164.87224 308
387.16232 -45.00322 171.66977 317
410.23660 -50.99812 171.92041 309
461.14719 -64.18655 167.90054 297
388.62247 -39.97482 171.66309 317
411.84763 -45.22152 171.92245 309
462.91806 -56.72771 168.00861 297
389.97879 -34.87843 171.67198 317
413.35425 -39.34356 171.95059 309
469.36923 -50.13760 167.08188 448
5338.35791 -987.66968 44.64145 485
391.09924 -29.74411 171.68510 317
414.57800 -33.50798 171.94453 309
476.60187 -43.41392 165.93100 443
5322.00537 -818.54065 45.73285 495
5353.17676 -823.96088 215.55061 425
392.11951 -24.59159 171.68997 317
415.70370 -27.56764 171.93663 309
481.94144 -36.05193 165.17419 300
5329.98242 -655.28516 46.23306 498
5372.06689 -660.14594 215.76300 499
392.93051 -19.41167 171.71072 317
416.61288 -21.69707 171.94582 309
447.64502 -24.65052 172.24460 301
5358.91162 -494.45364 47.19714 384
393.60138 -14.19944 171.73787 317
417.35394 -15.73388 171.97093 309
448.47253 -17.75136 172.27385 301
394.12451 -9.03367 171.73409 317
417.90308 -9.77196 171.98575 309
449.10098 -10.81601 172.28069 301
5496.03369 -173.74231 215.76222 336
394.49731 -3.79757 171.74637 317
418.29031 -3.83030 171.98891 309
449.49368 -3.87064 172.28258 301
394.71350 1.39160 171.75056 317
418.46634 2.12087 171.98186 309
449.66190 3.11087 172.26689 301
394.75504 6.59615 171.71646 317
418.50821 8.08594 171.97040 309
449.63730 10.03591 172.27193 301
263.00430 -0.43096 204.44789 315
407.56384 11.55004 171.86194 309
438.11160 14.11761 172.15401 301
505.60257 19.67009 168.25871 288
263.13611 0.86637 204.44940 315
407.31082 17.40464 171.82921 309
437.75412 20.92382 172.14822 301
263.23407 2.17235 204.44661 315
406.82388 23.29641 171.83939 309
437.19205 27.74230 172.10751 301
263.28180 3.46238 204.44562 315
406.18530 29.10661 171.84270 309
471.08994 40.71912 165.08789 300
263.29654 4.74726 204.44467 315
405.38840 34.88886 171.82190 309
469.93494 48.57903 165.04225 300
266.65567 6.85734 203.50375 315
404.41916 40.69386 171.83675 309
463.33585 55.17672 166.12248 455
3396.06860 774.79370 210.88271 387
266.55817 8.23675 203.50157 315
403.23199 46.39204 171.79756 309
454.60632 60.78172 167.53993 428
3246.22437 840.72565 211.50778 391
266.41824 9.59024 203.50208 315
401.90506 52.06446 171.76448 309
451.26147 67.57961 167.88112 298
3111.64624 902.15497 211.37415 382
266.22803 10.93702 203.50232 315
428.35226 67.49100 164.84651 308
3006.08032 965.94910 212.12396 417
3033.55249 975.63062 309.20679 420
265.99109 12.27234 203.50325 315
426.20001 73.85910 164.85968 308
2933.63379 1037.83655 211.58670 431
3075.89795 1092.65613 311.85791 415
265.71915 13.58832 203.50406 315
420.89520 78.98679 165.58920 433
265.40262 14.90064 203.49988 315
413.14865 82.73244 166.94933 438
371.43283 69.13844 171.51158 317
407.68289 87.17068 167.76613 306
391.62378 85.74429 164.69345 317
405.21326 93.03800 167.68578 305
388.88666 90.93104 164.71602 317
382.96100 94.09409 165.71428 437
376.17206 96.46559 166.96176 442
53423.82422 35466.16406 8557.96777 1000
371.21829 99.72479 167.60219 315
368.20654 104.35938 167.55733 315
365.01938 108.84189 167.54828 313
26641.88477 31466.85547 -7991.09082 1000
2260.36304 4247.81641 -885.42981 1000
-1104.45850 2265.69897 389.46210 497
138.41487 149.43440 166.40602 314
133.79518 146.19888 166.40085 314
121.00570 144.84607 165.97647 432
112.96125 145.67268 164.59102 426
105.28262 145.40500 163.40791 311
100.66131 141.29521 163.52931 310
89.36760 154.35559 166.33949 305
115.90110 115.51562 171.43100 315
84.11533 150.03835 166.33517 305
111.99578 111.96270 171.46936 315
76.60574 148.07993 165.54131 417
108.22249 108.25585 171.48003 315
66.28867 148.44295 163.79767 411
104.58938 104.49388 171.51627 315
86.53367 120.68720 171.68381 307
101.04596 100.59552 171.56551 315
82.49001 116.23019 171.69748 307
35.60112 155.80560 166.10370 296
97.64940 96.54575 171.59566 315
78.62994 111.60680 171.71808 308
30.31441 149.83955 166.06189 394
94.39822 92.44560 171.59174 315
74.91575 106.89061 171.74759 308
16.25232 150.32199 163.88576 391
91.23283 88.28886 171.61655 316
71.38664 102.04501 171.78632 308
45.22867 120.21328 171.98375 300
88.26208 83.96958 171.68353 316
68.00243 97.11162 171.83714 308
41.29406 114.40842 172.07265 300
85.40573 79.60336 171.70958 316
64.75376 92.10490 171.87491 308
37.54205 108.54707 172.05864 300
-37.35266 153.69110 165.24951 286
82.68894 75.14911 171.73427 316
61.61894 86.95435 171.90297 308
42.77605 97.55637 174.13353 316
16.81360 112.11731 176.41217 268
80.10242 70.64001 171.72824 316
63.02934 79.55305 173.03145 370
55.82357 83.25633 177.76741 322
32.15417 95.60700 179.93271 292
-15.14843 120.27443 180.28726 284
77.64866 66.01453 171.74236 316
66.93665 71.20443 174.75682 375
60.69492 74.22107 179.47198 384
26.27303 90.77866 179.45209 328
1.31827 102.79499 183.28967 280
77.17226 60.57552 172.30692 415
70.56416 63.49745 176.32286 380
59.13467 68.54073 179.70705 300
37.08319 78.30344 181.96498 334
24.51348 83.89355 187.10687 329
7.43760 91.47279 192.62251 309
78.55344 54.48730 173.30792 420
73.20198 56.65337 177.55594 414
50.06281 66.03293 178.26541 387
42.55868 69.11462 183.37268 382
33.78855 72.61105 188.83191 366
22.93143 77.05333 194.56215 330
6.60016 83.66053 200.70699 309
79.85873 48.64215 174.25888 424
74.73421 50.54811 178.44231 418
53.56824 58.36523 179.53041 392
46.49439 60.98798 184.51726 387
38.84552 63.81289 189.86516 382
30.03974 67.08332 195.58340 366
20.08447 70.72196 201.84618 361
81.19587 43.07798 175.12534 428
76.22682 44.73708 179.25560 422
56.33532 51.38987 180.50688 409
49.99470 53.46795 185.48048 404
42.97641 55.80260 190.75955 387
35.21597 58.41131 196.38458 382
26.31303 61.38511 202.43707 366
82.51824 37.69116 175.96097 431
75.87967 39.68191 179.59094 308
58.38439 44.87940 181.33174 420
52.55832 46.66283 186.28700 408
46.02446 48.59285 191.45393 403
39.09010 50.68247 196.95901 398
31.61827 52.90733 202.92322 381
22.24887 55.70917 209.28847 333
83.79831 32.48789 176.69377 434
74.43471 35.00567 179.59160 308
60.28534 38.72014 182.06752 423
54.72297 40.22602 186.92967 419
48.73891 41.76815 192.06981 407
42.07773 43.53835 197.49220 402
34.97536 45.45631 203.27197 396
-165.00536 43.70142 -5.39313 391
84.20959 27.70897 177.16241 457
67.31256 31.62168 178.22234 431
62.17584 32.81710 182.74165 427
56.73402 34.06597 187.54153 422
51.02035 35.37021 192.59389 417
44.94667 36.79119 197.91014 412
38.11237 38.35469 203.57265 400
30.77884 40.05187 209.71793 395
-183.70872 89.74302 216.54070 295
84.36254 23.05536 177.50807 459
68.06820 26.28508 178.69821 454
63.42707 27.22571 183.24242 450
58.51373 28.19785 188.05795 445
53.20667 29.25154 193.03252 420
47.32791 30.38765 198.28952 415
41.06868 31.66913 203.91219 410
34.08594 33.04962 209.83827 398
-183.04065 76.13381 216.48700 424
84.57127 18.45950 177.82547 460
68.35219 21.14462 178.99048 456
63.72086 21.91743 183.53790 451
58.89412 22.74993 188.29051 446
53.77326 23.57074 193.29648 442
48.45687 24.44154 198.52774 436
42.77586 25.42733 204.08743 431
36.80322 26.40917 210.00479 426
84.80959 13.95700 178.11055 462
68.62974 16.11278 179.27728 457
64.05666 16.72828 183.80919 453
59.26144 17.37560 188.49236 448
54.22887 18.04543 193.45294 443
48.94343 18.76131 198.69193 438
43.38683 19.49794 204.18584 433
37.48947 20.25952 210.02295 427
85.06760 9.49216 178.35361 463
68.91772 11.16004 179.53552 458
64.39510 11.62260 183.98926 454
59.64807 12.10490 188.72990 449
54.70090 12.59762 193.61792 445
49.47479 13.12090 198.79996 440
44.00142 13.66766 204.30775 434
38.19539 14.28721 210.09575 429
85.34000 5.11905 178.59839 464
69.23392 6.23283 179.71870 459
64.78502 6.52517 184.18964 455
60.11549 6.87768 188.90759 451
55.18631 7.18992 193.78279 446
50.08093 7.57874 198.95483 441
44.63657 7.92705 204.38330 435
38.86827 8.36266 210.17493 430
-181.39818 23.71548 270.17282 486
-186.77043 24.03915 284.73679 496
85.63678 0.75600 178.77837 466
69.66430 1.34588 179.89919 461
65.22842 1.50919 184.39253 456
60.59191 1.68707 189.05344 452
55.75791 1.85513 193.93660 447
50.64694 2.07040 199.05666 442
45.26649 2.28392 204.44713 436
39.55127 2.48023 210.18573 431
-181.41333 10.87235 270.07486 487
