# .PCD v.7 - Point Cloud Data file format
VERSION .7
FIELDS x y z rgb
SIZE 4 4 4 4
TYPE F F F U
COUNT 1 1 1 1
WIDTH 417
HEIGHT 1
VIEWPOINT 5839.926758 -3994.500488 147.232758 -0.011914 -0.133375 -0.009834 0.990945
POINTS 417
DATA ascii
80.25906 -0.03325 179.55856 316
68.21989 -0.04925 181.52469 462
63.96804 -0.07301 185.83546 457
59.51317 -0.09484 190.34119 453
54.88596 -0.09559 195.04257 448
50.00034 -0.08804 200.00446 443
44.84187 -0.10280 205.21815 438
39.37274 -0.13876 210.71103 432
-152.52838 -0.78608 240.80093 419
-181.92419 -0.85579 269.20804 487
-150.16727 -0.72472 277.37549 284
80.57139 -4.36444 179.53952 316
67.80235 -4.80730 181.36755 461
63.51614 -4.97725 185.69504 456
59.03382 -5.12761 190.19568 452
54.35411 -5.27171 194.93799 447
49.38430 -5.42963 199.88359 442
44.19646 -5.61893 205.12018 437
38.66836 -5.81090 210.68866 431
-152.79771 -12.52509 240.91446 416
-181.84499 -13.40594 269.27011 487
-152.09244 -12.41558 277.73776 284
81.04163 -8.71433 179.53435 316
67.44543 -9.62657 181.18407 460
63.10525 -9.91440 185.52133 455
58.57377 -10.19204 190.03102 451
53.80365 -10.50802 194.79628 446
48.84248 -10.83132 199.79828 441
43.57947 -11.16267 205.08147 436
37.98362 -11.55418 210.63499 430
-181.84256 -26.08149 269.45142 486
81.65585 -13.07247 179.51743 316
67.15332 -14.50372 180.93280 458
62.72639 -14.89436 185.32303 454
58.13933 -15.37345 189.85902 449
53.27922 -15.84522 194.63545 445
48.27965 -16.33382 199.64586 440
42.91433 -16.82528 204.98756 435
37.30967 -17.36690 210.59650 429
-181.75214 -38.71024 269.58456 486
82.39317 -17.38753 179.54794 316
66.87564 -19.40721 180.67081 457
62.42590 -19.96450 185.05138 453
57.75103 -20.56820 189.65387 448
52.87339 -21.22211 194.44933 443
47.74998 -21.84455 199.55692 438
42.29154 -22.56124 204.86534 433
36.58988 -23.28495 210.56622 428
82.70840 -21.79302 179.38889 461
66.60664 -24.39165 180.38387 456
62.11583 -25.10691 184.79442 451
57.38166 -25.89864 189.41608 447
52.47208 -26.68225 194.29689 442
47.26240 -27.50003 199.38689 437
41.65308 -28.42591 204.79668 414
35.22938 -29.42319 210.47147 402
82.52622 -26.32146 179.02899 459
66.34608 -29.45525 180.06783 454
61.52119 -30.39619 184.45938 430
56.38515 -31.41208 189.06473 426
51.00200 -32.44171 193.94286 421
45.22862 -33.52691 199.05054 416
38.98817 -34.75215 204.54079 404
32.00974 -36.10312 210.34935 364
-182.93283 -77.84876 216.57748 424
82.35560 -30.96580 178.67346 457
64.77571 -34.92994 179.37669 432
59.73461 -36.06489 183.83463 427
54.41618 -37.27378 188.51608 423
48.83529 -38.53720 193.44887 418
42.70041 -39.90430 198.66386 406
35.97844 -41.44460 204.19553 400
28.56328 -43.13405 210.18336 358
-188.16789 -92.22680 216.60109 296
81.18010 -35.93202 177.97394 435
63.07961 -40.64869 178.62202 428
57.86193 -41.99033 183.16214 424
52.38091 -43.39851 187.90143 419
46.34644 -44.95729 192.92490 407
39.85831 -46.64606 198.19527 402
32.84509 -48.46633 203.90874 397
-188.40427 -105.94363 202.81889 483
79.92642 -41.11106 177.24297 430
68.85232 -44.35014 179.65405 308
55.99295 -48.16251 182.40625 420
50.03716 -49.87830 187.20084 408
43.65430 -51.75126 192.29327 403
36.79005 -53.73292 197.73106 387
29.05330 -56.03486 203.53831 381
78.59326 -46.51057 176.41270 427
70.52332 -49.13536 179.62567 308
53.69905 -54.63961 181.56239 409
47.22444 -56.80065 186.40765 392
40.12671 -59.07784 191.54884 387
32.45633 -61.60182 197.06647 371
23.35012 -64.58078 202.96471 366
77.28601 -52.10536 175.50270 423
72.21734 -53.94498 179.59280 419
50.51200 -61.80970 180.45618 393
43.52293 -64.34695 185.34138 388
35.85869 -67.11146 190.63515 372
26.91554 -70.35291 196.22351 367
16.79133 -74.02843 202.37947 332
75.93366 -57.93952 174.56967 419
70.47926 -60.11250 178.64738 386
46.96719 -69.50664 179.18532 388
39.34784 -72.50201 184.22557 372
30.39478 -76.07695 189.52405 336
18.10304 -80.99360 195.01828 331
0.40011 -88.02282 201.04530 310
73.51782 -64.46921 173.19781 386
67.10390 -67.30361 177.21210 394
52.28068 -73.76068 179.80853 300
31.91573 -82.59741 182.37007 335
18.95676 -88.25282 187.50209 314
-6.65930 -99.43073 192.03549 265
71.28987 -71.32668 171.83560 316
63.63662 -74.91078 175.67091 389
54.84732 -79.08970 179.74907 300
20.04498 -95.56966 179.69519 314
-26.06295 -117.43332 180.44930 284
-104.34081 -53.51628 -31.39650 316
59.97618 -83.15210 174.03633 384
49.90133 -88.32730 178.04315 324
25.24365 -100.93948 180.00337 292
76.45882 -80.73296 171.77809 316
55.28765 -92.44178 171.96472 308
36.82499 -102.62280 174.34076 318
-52.27639 -151.89653 164.76433 373
79.23978 -85.35916 171.80058 316
58.44286 -97.72676 171.96928 308
31.03863 -114.04072 172.20685 300
-44.94574 -159.21506 165.19891 286
82.19072 -89.87208 171.73952 316
61.72320 -102.94009 171.93065 308
34.85966 -120.08099 172.13107 300
85.30852 -94.34573 171.74260 316
65.23645 -108.00314 171.92603 308
2.52812 -150.79666 163.38039 383
88.50500 -98.66158 171.72559 316
68.87676 -113.00667 171.86137 308
17.50830 -150.46996 165.82590 389
91.87109 -102.92805 171.69548 316
72.66226 -117.91287 171.86697 308
23.76751 -155.97969 166.08838 297
95.38418 -107.13086 171.66148 316
48.82660 -145.75938 163.40366 300
98.98409 -111.21261 171.63763 316
56.16239 -149.04501 164.14275 404
102.71729 -115.14741 171.58980 316
67.18898 -148.67409 166.07739 410
-1858.30994 -1962.51660 124.08527 479
106.59592 -119.03125 171.56075 316
73.10822 -152.62531 166.33505 305
-814.22223 -1042.52026 120.55990 392
90.26579 -144.46100 163.55118 307
96.06514 -147.54153 163.93747 425
105.03436 -146.71559 165.61896 420
111.87181 -147.97990 166.44228 314
118.95377 -148.59344 167.41927 316
-134.83583 -13964.07715 -3006.94580 1000
383.11798 -101.75378 167.68581 313
386.36469 -96.81951 167.69969 315
389.98920 -92.21661 167.55708 433
397.48010 -89.63883 166.21515 428
405.10748 -86.76875 164.81491 317
408.02792 -81.30849 164.78922 316
54695.33203 -25480.90625 10181.42480 1000
410.74631 -75.84142 164.81802 316
425.41153 -82.14093 167.81247 305
389.25888 -60.78242 171.67937 316
428.08307 -76.06340 167.83801 429
391.26852 -55.83898 171.72411 316
436.42880 -72.01823 166.36348 424
393.14084 -50.85249 171.72763 316
444.50439 -67.43249 165.00078 433
394.82678 -45.84486 171.73358 316
446.90292 -60.84235 164.93488 307
396.38272 -40.76847 171.76080 316
448.92859 -54.19829 164.95772 307
471.27817 -59.86069 167.96501 297
397.78696 -35.68206 171.79097 316
421.17773 -40.84581 172.01909 309
472.92224 -52.34946 168.01305 297
399.00937 -30.56171 171.76918 316
422.53076 -35.02062 172.01056 309
474.97101 -44.96581 167.97810 447
400.06082 -25.40459 171.77223 316
423.76062 -29.09829 172.04665 309
482.13663 -38.29525 166.81422 443
401.02289 -20.24655 171.81573 316
424.76459 -23.20644 172.02991 309
487.95752 -31.11567 165.91403 458
401.80438 -15.06283 171.82013 316
425.58655 -17.26565 172.04137 309
456.77921 -20.15736 172.35432 301
402.39911 -9.87433 171.78795 317
426.24527 -11.33257 172.03035 309
457.52231 -13.27837 172.35078 301
402.86380 -4.63429 171.82857 317
426.72809 -5.35836 172.03116 309
453.47870 -6.18543 173.24654 295
403.16202 0.52946 171.83827 317
427.04166 0.57227 172.02879 309
453.81287 0.60378 173.26245 295
403.31973 5.73510 171.83568 317
427.17856 6.50263 172.05318 309
458.43646 7.50601 172.31911 301
403.30145 10.94189 171.80782 317
427.11273 12.48594 172.06720 309
458.31842 14.41535 172.31529 301
3350.47168 197.81183 114.44736 479
403.13962 16.14153 171.81544 317
426.89294 18.40212 172.04283 309
492.67905 24.65255 165.40442 454
3317.99536 292.95142 114.98278 462
402.80338 21.29799 171.79961 317
426.48111 24.30311 172.01805 309
486.79263 31.94255 166.44066 458
3310.88892 390.24155 115.45663 386
402.31577 26.45172 171.80579 317
425.90680 30.16031 172.01945 309
480.75751 38.91928 167.48163 443
401.70200 31.56208 171.79085 316
425.12708 36.04451 171.99832 309
477.08350 45.92465 168.05025 297
3368.10718 598.09222 112.02603 493
393.64264 39.99622 171.71283 316
417.14777 45.44394 171.96599 309
469.03015 57.40738 167.95561 297
3325.77417 716.06232 113.66458 491
392.19949 45.08458 171.67542 316
444.60675 58.85285 164.94002 307
390.62738 50.10178 171.65884 316
442.53925 65.51608 164.87306 307
388.90680 55.07788 171.65877 316
437.07828 71.05946 165.66133 420
387.01422 59.98048 171.66241 316
428.55759 75.24153 167.16098 425
408.80246 74.44218 164.74425 316
423.48111 80.33586 167.77206 305
406.18134 79.95433 164.75833 317
420.88211 86.41952 167.76479 305
403.47543 85.38351 164.77907 317
397.41101 89.05766 165.70050 425
389.83633 91.72318 167.12309 430
385.01483 95.61338 167.65541 315
381.90240 100.46999 167.65283 313
2314.95630 1745.96887 35.71464 406
3310.51929 4582.52930 28.31632 449
3229.55835 4778.27490 24.97282 364
3229.07422 5127.08594 14.19888 365
1678.83936 5739.75000 14.58077 438
1477.62744 5691.45752 18.34459 485
1290.46631 5682.78027 19.86687 495
1303.52734 5746.62646 208.97125 420
1106.93579 5682.77539 20.55834 497
1131.89832 5838.65234 209.10364 280
925.60315 5683.36621 21.98011 498
754.53424 5784.53564 19.12197 460
8.26962 3304.62256 104.98296 311
-84.26820 3186.98730 108.39655 471
-188.52156 3203.81958 107.63575 469
127.11208 147.94217 169.36722 441
118.20650 150.93404 167.41573 316
111.14610 150.68597 166.39709 314
106.30168 147.14944 166.37975 314
98.57383 147.09024 165.11693 419
89.99594 147.58081 163.56598 424
75.95507 143.90266 163.49791 308
63.95354 156.50716 166.19963 305
93.14629 118.51308 171.61409 316
59.35534 151.84781 166.23993 306
-1266.40295 1459.40601 74.94353 328
-1264.38794 1457.92273 143.20190 398
-1262.81042 1456.50928 210.95470 453
-1261.96167 1455.37671 278.70642 453
89.83003 114.63528 171.62593 316
52.75341 148.98119 165.51631 408
86.66752 110.71545 171.66924 316
42.09822 149.38423 163.59335 402
-38305.08594 33499.43359 -4948.25732 1000
83.56016 106.64264 171.69786 316
64.98131 121.82137 171.84785 308
80.62759 102.48107 171.71109 316
61.61858 117.06560 171.89038 308
12.29596 154.76958 165.88132 296
77.82986 98.25357 171.77029 316
58.35655 112.22351 171.90125 308
4.71385 150.65759 165.15933 387
75.11061 93.91253 171.75735 316
55.24236 107.26350 171.92062 308
-10.00164 150.96480 162.65086 286
72.57779 89.49295 171.81424 316
52.30567 102.18864 171.96162 308
25.68542 118.83947 172.14755 301
70.15182 84.95500 171.79230 316
49.47844 97.03133 171.96756 309
22.42351 112.81304 172.22279 301
-53.40735 157.00243 165.01662 288
67.87160 80.40962 171.84918 316
54.39881 87.71507 174.04456 323
43.91433 93.39940 177.86057 320
20.77968 105.95294 180.00150 292
67.02034 75.09361 172.21643 378
60.90154 78.16989 176.36874 386
49.80935 83.75154 179.79965 301
-12.96245 115.27940 174.26488 291
-28.81693 123.25792 180.39999 284
70.25359 67.99819 173.79541 382
64.26749 70.78549 177.78406 391
36.91749 83.44801 177.40868 336
25.38731 88.81402 181.93558 331
6.26785 97.69633 186.08714 283
73.28757 61.37409 175.21210 387
67.47167 63.86605 179.07335 396
43.71435 74.00099 179.39217 374
35.09084 77.67348 184.16100 337
23.56671 82.55572 189.05107 332
8.20281 89.11944 194.26115 312
75.06036 55.58640 176.20972 421
67.92558 58.36879 179.61638 309
47.27163 66.43224 180.59637 390
40.25315 69.16605 185.47919 374
31.91878 72.39762 190.57629 369
21.98379 76.29215 196.01447 333
7.17552 82.11793 201.81688 312
76.41151 50.17480 176.97041 424
66.45029 53.69364 179.63129 309
50.62553 59.29573 181.67941 394
43.91773 61.67312 186.45952 389
36.77497 64.19754 191.54092 384
28.39213 67.20101 196.91573 369
19.14484 70.47872 202.83617 363
77.72903 44.94021 177.72379 428
59.03279 50.93486 178.16362 422
53.45979 52.69633 182.60092 411
47.44414 54.61791 187.34749 394
40.64013 56.81429 192.30786 389
33.37656 59.14023 197.65939 384
24.85056 61.88127 203.34264 368
79.06866 39.92096 178.39134 431
60.78645 45.13521 178.90759 426
55.60162 46.58283 183.36922 422
49.89941 48.23687 188.00462 410
43.77122 49.98220 192.93283 405
37.19861 51.86995 198.21289 400
29.94714 53.97764 203.81746 383
80.39684 35.01953 179.03546 434
62.49481 39.49051 179.55806 429
57.44901 40.79787 183.99432 425
52.14367 42.15403 188.61031 420
46.34203 43.62109 193.44807 409
40.04546 45.20843 198.64807 403
33.30216 46.90269 204.15680 398
-197.93219 105.03920 202.26500 287
81.44830 30.31816 179.51680 316
64.21413 34.09644 180.18312 433
59.30146 35.17416 184.54668 428
54.15411 36.29993 189.12239 424
48.70750 37.49351 193.91960 419
42.79492 38.79414 199.05057 407
36.26522 40.22091 204.47539 402
29.03315 41.85655 210.26855 359
-182.92120 88.14754 216.26469 438
80.84026 26.07809 179.55081 316
65.72151 28.86000 180.76360 455
61.10572 29.73284 185.08875 432
56.08722 30.67118 189.56824 427
50.82795 31.65657 194.33817 422
45.21886 32.74094 199.37595 417
39.15803 33.88065 204.69119 405
32.38309 35.13041 210.42183 364
-183.15961 75.15610 216.33423 424
80.37204 21.77634 179.51845 316
66.04391 23.95969 180.95129 456
61.66339 24.64806 185.30066 452
57.00746 25.39565 189.84851 447
52.18272 26.14880 194.59724 442
47.08840 26.92895 199.63341 437
41.69176 27.75244 204.93658 432
35.43284 28.72256 210.53632 403
80.00615 17.46303 179.53769 316
66.41887 19.10776 181.13240 458
62.01825 19.64658 185.46280 453
57.45718 20.21617 189.98538 449
52.61156 20.80256 194.73743 444
47.56357 21.42346 199.75052 439
42.25288 22.12259 205.01440 434
36.61543 22.82013 210.62309 428
79.81353 13.14245 179.53784 316
66.77016 14.28314 181.31548 459
62.42318 14.68942 185.59436 454
57.89463 15.11912 190.10574 450
53.11512 15.54764 194.84337 445
48.13845 16.01207 199.84700 440
42.85473 16.50530 205.08418 435
37.26582 17.02072 210.66109 430
79.71185 8.79523 179.53539 316
67.19901 9.52764 181.43858 460
62.86119 9.78304 185.74040 455
58.37548 10.04453 190.25203 451
53.64746 10.33546 194.96645 446
48.72803 10.61982 199.93608 441
43.47503 10.96692 205.16779 436
37.97728 11.29245 210.72177 431
-181.88191 24.23026 269.21088 486
-186.75795 24.52391 283.40622 496
79.77271 4.45485 179.55708 316
67.62689 4.75004 181.51166 461
63.38470 4.87616 185.81375 457
58.88944 5.03014 190.33047 452
54.21854 5.14092 195.02504 447
49.32138 5.31789 199.96094 442
44.13741 5.44967 205.22827 437
38.63707 5.61969 210.75397 432
-181.94640 11.67381 269.13156 487
