# .PCD v.7 - Point Cloud Data file format
VERSION .7
FIELDS x y z rgb
SIZE 4 4 4 4
TYPE F F F U
COUNT 1 1 1 1
WIDTH 426
HEIGHT 1
VIEWPOINT 6109.556641 -4108.168945 140.561996 0.174141 -0.125759 -0.000811 0.976657
POINTS 426
DATA ascii
79.22169 -1.35978 179.54395 316
67.91638 -1.34488 181.70894 462
63.68711 -1.37000 185.95839 457
59.30717 -1.35195 190.41606 453
54.68185 -1.39702 195.10094 448
49.83447 -1.39187 199.97224 443
44.68543 -1.38804 205.14894 437
39.26890 -1.40596 210.60530 432
-178.12700 -1.43082 229.48633 476
-152.01445 -1.47380 240.71445 419
-182.02406 -1.48216 268.99448 487
-136.28636 -1.49283 274.78165 495
79.47406 -5.67053 179.55112 316
67.47574 -6.03935 181.54150 461
63.24470 -6.15561 185.83871 456
58.77862 -6.31576 190.30484 452
54.14754 -6.46725 194.98306 447
49.26702 -6.63228 199.88243 442
44.07948 -6.80924 205.11327 437
38.60180 -6.98908 210.61720 431
-152.95651 -13.07622 240.75914 416
-181.92181 -13.93820 269.02612 487
-157.08186 -13.21900 278.32034 285
79.80674 -9.95152 179.53004 316
67.13077 -10.72903 181.38409 460
62.78736 -11.03583 185.64708 455
58.29380 -11.33443 190.16769 451
53.60249 -11.61671 194.83682 446
48.65178 -11.93100 199.82712 441
43.46193 -12.27523 205.02754 436
37.94543 -12.60802 210.54088 430
-181.87286 -26.55668 269.16687 486
80.27845 -14.23944 179.53598 316
66.80392 -15.53371 181.15887 459
62.43253 -15.94746 185.48746 454
57.90363 -16.37568 189.99377 449
53.12347 -16.83024 194.71368 445
48.10688 -17.29159 199.70743 440
42.82983 -17.80602 204.93861 435
37.25693 -18.33909 210.53133 429
-181.89134 -39.14565 269.31070 486
80.90868 -18.52963 179.56084 316
66.49927 -20.33578 180.94751 457
62.11863 -20.90732 185.26709 453
57.49180 -21.47482 189.80536 448
52.69361 -22.08481 194.58586 443
47.59558 -22.71682 199.55748 438
42.23213 -23.40828 204.84441 433
36.59809 -24.13831 210.46896 428
81.64980 -22.79240 179.52823 316
66.22437 -25.24060 180.66910 456
61.77796 -25.94678 185.03717 452
57.12064 -26.65741 189.60751 447
52.27332 -27.41718 194.36661 442
47.14856 -28.25048 199.41957 437
41.31379 -29.17375 204.74152 414
34.95180 -30.18896 210.37941 402
82.05850 -27.11759 179.39920 459
65.81701 -30.19273 180.33963 435
61.00537 -31.10890 184.68336 431
55.94028 -32.11534 189.21513 426
50.56500 -33.10881 194.00394 421
44.93965 -34.20479 199.09113 416
38.67944 -35.38644 204.50310 404
31.84233 -36.69216 210.23601 364
-183.05058 -77.79138 216.52570 424
81.80843 -31.63228 179.06296 438
64.18431 -35.55399 179.70746 432
59.22197 -36.64528 184.07703 428
54.00381 -37.81969 188.69559 423
48.46336 -39.10761 193.58595 418
42.37210 -40.46396 198.72737 406
35.78945 -41.90334 204.20667 401
28.45496 -43.54716 210.06247 358
-187.20972 -91.80106 216.49228 296
80.56335 -36.45990 178.39389 434
62.52146 -41.09016 178.99797 429
57.39267 -42.44810 183.42395 424
52.02267 -43.82418 188.14523 419
46.00021 -45.37291 193.03603 408
39.58832 -46.99896 198.30862 402
32.71811 -48.78388 203.89009 397
-188.34592 -105.57479 202.68910 484
79.29240 -41.51488 177.66609 430
60.83619 -46.86417 178.20538 425
55.51968 -48.41354 182.72453 421
49.64875 -50.11317 187.42532 409
43.36055 -51.94973 192.47221 404
36.57147 -53.91415 197.78105 387
28.95941 -56.15215 203.50925 371
77.99990 -46.71748 176.89594 427
68.39246 -49.83648 179.63324 308
53.29170 -54.73783 181.90184 410
46.88931 -56.84255 186.63580 393
39.94726 -59.13269 191.73326 388
32.30302 -61.58276 197.14774 372
23.37811 -64.49596 202.97081 367
76.73315 -52.16334 176.03609 423
70.07824 -54.51999 179.65128 308
50.11385 -61.70889 180.82661 393
43.27085 -64.21238 185.67247 388
35.75682 -66.91104 190.84718 372
27.00051 -70.09940 196.36151 367
17.17925 -73.60025 202.39592 332
75.39645 -57.80721 175.13826 420
70.05690 -59.92698 179.13843 386
46.72116 -69.18151 179.61900 388
39.19926 -72.13760 184.55923 373
30.60811 -75.56792 189.78261 368
18.60694 -80.31761 195.25529 331
1.52643 -87.05605 201.12704 310
73.04234 -64.15506 173.87918 386
66.85712 -66.80343 177.81921 395
42.78954 -77.23695 178.29366 373
32.23773 -81.81106 182.85414 335
19.81177 -87.16721 187.87135 315
-1.10188 -96.22652 192.84140 283
69.87000 -71.16739 172.28226 381
63.54250 -74.15160 176.38107 390
52.34254 -79.45156 179.77342 300
21.05287 -94.19458 180.33357 314
-28.12697 -117.31299 180.44974 284
-11811.66016 -5665.81494 1526.51624 1000
70.92486 -76.53059 171.84364 316
59.98690 -82.10557 174.78905 384
50.87082 -86.74668 178.88344 325
22.76794 -101.04163 180.04010 292
73.45601 -81.16207 171.81070 316
52.33900 -92.74939 172.01837 308
38.43034 -100.41560 175.39917 319
-55.12799 -151.83669 164.71509 373
76.10582 -85.73383 171.80508 316
55.40079 -98.00597 171.95805 308
28.16875 -114.13041 172.20175 300
-47.95592 -159.14763 165.11667 288
78.92679 -90.21550 171.76233 316
58.58908 -103.10939 171.96902 308
31.78649 -120.11730 172.21277 300
81.89912 -94.61691 171.75529 316
61.92870 -108.18553 171.95424 308
-0.92367 -150.90422 163.32455 382
84.98521 -98.94490 171.73868 316
65.40475 -113.13388 171.88116 308
13.91064 -150.56067 165.80490 389
88.19656 -103.17540 171.72684 316
69.09270 -117.95734 171.89282 308
20.09798 -155.96519 166.06274 295
91.56462 -107.26326 171.65999 316
44.92728 -145.82066 163.38989 300
95.04876 -111.34271 171.66023 316
52.09126 -149.24089 164.07162 404
98.65838 -115.26716 171.60846 316
62.93488 -148.83887 165.98776 409
102.37558 -119.08408 171.59726 316
68.75141 -152.72125 166.31940 306
85.73981 -144.58540 163.55635 307
73.82203 -157.35553 166.36430 305
91.41039 -147.72176 163.92586 424
99.96569 -147.18343 165.46307 419
107.00732 -148.03964 166.48351 314
111.84032 -151.57182 166.45862 314
120.50640 -149.41119 168.23914 489
127.73700 -148.85609 169.42340 396
-634.38501 -1349.82446 163.96118 392
-942.57074 -1970.40063 216.37712 494
226.49097 -51199.17578 6952.80029 1000
371.28046 -107.13127 167.59999 313
374.65103 -102.41191 167.65193 315
377.94089 -97.59789 167.66391 315
383.83060 -94.31686 166.82480 434
391.37869 -91.75112 165.44936 429
396.60745 -87.59210 164.73772 317
399.53427 -82.19334 164.73602 317
413.79059 -88.90444 167.77377 305
378.83118 -66.53583 171.59747 316
416.50513 -82.80918 167.79408 305
380.94852 -61.62300 171.63171 317
423.29367 -78.35848 166.79686 429
382.89850 -56.65497 171.63014 317
431.74991 -74.28604 165.33150 424
384.73999 -51.67285 171.64088 317
435.87396 -68.27571 164.88577 308
386.41141 -46.62637 171.66370 317
438.07135 -61.61125 164.91618 308
387.94839 -41.50624 171.66328 317
411.12830 -47.49022 171.90331 309
462.11679 -60.57014 167.97133 297
389.32202 -36.38381 171.68578 317
412.68741 -41.59585 171.91721 309
465.84293 -53.44717 167.63179 452
390.54205 -31.22148 171.67981 317
414.03384 -35.69451 171.95284 309
472.89551 -46.91843 166.55997 448
391.61502 -26.02026 171.68855 317
415.22284 -29.71789 171.94978 309
480.24982 -40.06008 165.36841 443
392.50131 -20.77055 171.71144 317
416.21075 -23.75329 171.92415 309
447.32217 -27.69357 172.26381 301
393.24097 -15.55505 171.71318 317
417.00934 -17.78626 171.94968 309
448.25037 -20.76678 172.24527 301
393.82397 -10.29154 171.74649 317
417.66754 -11.78546 171.95941 309
448.94363 -13.75826 172.27147 301
394.21548 -5.00959 171.72139 317
418.14142 -5.73123 171.96304 309
449.46085 -6.76877 172.25052 301
394.47809 0.27087 171.74356 317
418.41156 0.26589 171.94919 309
449.79178 0.30320 172.25412 301
394.57837 5.57203 171.73979 317
418.52759 6.30128 171.95522 309
449.84528 7.28735 172.24855 301
394.53769 10.85607 171.72453 317
418.44757 12.31562 171.97191 309
449.75504 14.31898 172.25391 301
394.34650 16.10703 171.71123 317
418.17892 18.33549 171.96289 309
449.40164 21.29025 172.23781 301
393.96643 21.37778 171.73219 317
417.74316 24.34120 171.92419 309
484.25183 32.79115 165.13847 301
393.39322 26.59550 171.71912 317
417.07684 30.34808 171.92737 309
479.35715 40.24341 165.95699 443
392.73108 31.80045 171.70395 317
416.27219 36.31730 171.93782 309
472.11584 46.98039 167.20404 448
391.86575 37.00722 171.68259 316
415.29965 42.26089 171.90471 309
466.81525 53.73922 168.00153 297
390.85147 42.17487 171.70506 316
414.11807 48.15571 171.89389 309
465.53149 61.32895 167.88884 297
389.67062 47.30157 171.64789 316
441.58981 62.39873 164.89821 307
388.37689 52.37368 171.65843 316
439.76703 69.04261 164.86691 307
386.91013 57.42756 171.63148 316
431.82922 73.61996 166.34982 424
385.27319 62.38498 171.64929 316
423.78015 77.66463 167.79521 305
406.98236 77.48039 164.75383 317
421.64517 83.86342 167.75084 305
404.61652 83.04657 164.78448 317
400.81479 87.92703 165.15152 424
393.22339 90.52888 166.65802 429
2737.34448 1379.52747 123.11996 466
387.26407 93.77584 167.68544 315
2690.18652 1455.81860 122.80141 296
384.49158 98.74771 167.67004 313
2741.44287 1594.26172 118.95739 303
2618.45386 1735.35815 120.48265 490
2658.18848 1764.95825 216.52486 332
53275.23047 41146.00391 -6394.76855 1000
2595.88794 1835.93970 118.93881 487
2506.83911 1883.95996 22.98210 448
2558.02002 1926.22571 216.66115 426
2464.16528 1971.05737 20.73279 328
2423.81250 2061.25537 18.98206 327
1089.29041 5445.28027 -142.94701 417
939.74951 5651.65332 -154.02971 347
795.36035 6009.54346 -176.67598 359
-886.40924 5824.44873 -169.50797 456
-1053.26685 5721.33691 -164.36978 491
-1069.69751 5791.69629 25.47232 417
-1226.27075 5651.62305 -163.66476 498
-1244.00085 5725.03369 25.97608 418
-1398.74426 5588.65625 -162.54308 499
-1569.37244 5524.12598 -162.17932 499
-10659.56836 30254.49609 -7265.54150 1000
-1512.05884 3157.33740 -18.73665 320
-1474.45325 2870.69360 -1.31018 386
-1659.79980 2967.57739 -12.27046 400
120.49682 149.10985 168.09938 489
-1594.14136 2673.75586 5.54498 293
112.06413 150.92828 166.37581 314
107.28876 147.40642 166.39479 314
99.91203 146.98279 165.24495 419
91.32793 147.51157 163.68956 424
86.29175 143.74001 163.49747 307
74.14880 156.62206 166.30225 305
102.90051 118.21611 171.51343 316
69.18376 151.95518 166.23259 305
99.26618 114.31004 171.54671 316
62.77422 148.63211 165.73694 409
95.70493 110.34910 171.58147 316
51.80369 149.02463 163.80846 403
92.31120 106.22398 171.60165 316
73.52316 121.76832 171.77711 308
89.01659 102.05716 171.66498 316
69.81296 116.94810 171.79143 308
20.68874 155.11565 166.04092 295
85.88417 97.77927 171.69528 316
66.23150 112.03574 171.83032 308
13.40106 150.42143 165.40291 389
82.85245 93.39536 171.68347 316
62.77726 107.06447 171.87245 308
-1.55399 150.83035 162.98061 382
79.94679 88.95455 171.74704 316
59.52646 101.95902 171.91460 308
32.57940 119.01998 172.13066 300
77.23424 84.43182 171.73534 316
56.37263 96.73215 171.91058 308
29.01768 112.94217 172.17863 300
-47.33105 158.06551 165.03770 286
74.64017 79.77906 171.77220 316
53.43127 91.44685 171.94595 308
39.97673 98.86811 175.46690 319
13.09611 113.63637 177.35649 270
72.17722 75.11018 171.79053 316
60.71332 80.96035 174.62878 385
52.43216 85.16311 178.90523 325
23.70456 99.82356 179.99667 292
70.82142 69.92673 172.11198 381
64.32076 72.98435 176.20619 390
53.52487 78.06252 179.72668 300
23.02148 92.35376 180.43660 314
-27.41747 116.12652 180.38599 343
74.00961 62.77718 173.68677 386
67.67827 65.54385 177.63797 395
43.75251 75.90165 178.19003 373
33.84446 80.19167 182.92432 336
21.72234 85.46388 187.94557 331
3.46843 93.30920 193.24384 283
76.09723 56.53904 174.84518 420
70.94016 58.56928 178.98183 415
47.59669 67.85289 179.49107 389
40.23317 70.73907 184.47115 373
31.57494 74.12514 189.73964 368
20.26481 78.63232 195.29022 332
3.90337 85.13247 201.21605 311
77.45731 50.82948 175.76311 423
71.60217 52.92566 179.60458 308
51.05591 60.33180 180.68022 393
44.20588 62.78848 185.57472 388
36.77400 65.47567 190.81938 373
28.00114 68.63045 196.36906 368
18.41498 72.05064 202.45422 362
-1316.61450 552.79669 162.93936 492
-1318.24341 553.42572 216.61528 492
-1319.96545 554.05457 270.06525 498
78.44924 42.66706 177.93852 427
59.74754 48.78328 178.36476 421
54.29099 50.57222 182.81502 410
48.30806 52.46097 187.52553 405
41.86565 54.58486 192.51114 388
34.59314 56.95370 197.80075 382
26.35390 59.65998 203.50160 367
79.72868 37.65722 178.62198 430
61.46034 42.99905 179.13927 425
56.30177 44.47852 183.54214 420
50.76034 46.10528 188.20302 409
44.64060 47.89784 193.10410 404
38.12056 49.80468 198.30795 399
31.12183 51.83546 203.94127 393
81.02364 32.83408 179.25752 433
63.20570 37.41454 179.82430 428
58.15445 38.72352 184.17776 424
52.88820 40.07084 188.73537 419
47.22334 41.49321 193.62979 407
40.94561 43.15391 198.71521 402
34.23594 44.86404 204.21162 397
26.06365 46.97825 210.07771 268
81.12728 28.38618 179.54547 316
64.87550 32.05268 180.42291 432
59.99442 33.14895 184.75880 427
54.88096 34.26527 189.26808 423
49.46843 35.51192 194.07272 418
43.68667 36.80658 199.13019 406
37.21509 38.21440 204.49287 401
30.12745 39.81564 210.26639 358
-182.72180 87.67171 216.61989 438
80.45148 24.18663 179.54387 316
65.83728 26.96001 180.85580 454
61.38553 27.80650 185.20065 450
56.76114 28.69550 189.75204 445
51.53893 29.68306 194.43593 421
45.98640 30.77812 199.43031 416
40.07205 31.89752 204.75475 411
33.42438 33.17715 210.39418 399
-182.91321 74.66051 216.68961 424
79.88790 19.93325 179.54900 316
66.11265 22.12838 181.09857 456
61.75622 22.80618 185.41615 451
57.16288 23.52622 189.92418 447
52.34648 24.29441 194.67159 442
47.27284 25.12651 199.64951 437
41.89396 25.96331 204.90483 432
36.20187 26.84560 210.48383 426
79.43440 15.67659 179.53059 316
66.47739 17.31792 181.27751 457
62.10518 17.84837 185.58574 453
57.56757 18.43893 190.06573 448
52.79170 19.07152 194.79868 443
47.74841 19.69534 199.72798 438
42.47719 20.36523 205.00125 433
36.88348 21.03870 210.56589 428
79.15444 11.37630 179.53725 316
66.83443 12.58635 181.46866 458
62.50539 12.98013 185.73192 454
57.98068 13.42458 190.21092 449
53.25827 13.84542 194.92110 445
48.32714 14.33023 199.82961 440
43.08791 14.82465 205.03937 435
37.56933 15.31836 210.58868 429
78.96250 7.09340 179.55530 316
67.19925 7.87030 181.58682 460
62.94426 8.11450 185.85091 455
58.48705 8.42109 190.33458 451
53.83393 8.69377 194.98462 446
48.92522 9.00648 199.94498 441
43.71449 9.35740 205.11147 436
38.23525 9.65702 210.62274 430
-181.90582 23.68260 269.11722 486
-186.79164 24.05506 283.33508 496
78.94167 2.80839 179.53857 316
67.65804 3.19701 181.69289 461
63.42650 3.33197 185.95728 456
58.99578 3.43851 190.41850 452
54.36584 3.58819 195.09329 447
49.50823 3.77129 200.00476 442
44.34578 3.90222 205.14445 437
38.91072 4.07153 210.61124 431
-181.98351 11.20689 269.05157 487
