# .PCD v.7 - Point Cloud Data file format
VERSION .7
FIELDS x y z rgb
SIZE 4 4 4 4
TYPE F F F U
COUNT 1 1 1 1
WIDTH 432
HEIGHT 1
VIEWPOINT 6591.409668 -4005.051758 147.001770 -0.138147 -0.137345 0.030560 0.980366
POINTS 432
DATA ascii
83.96602 -1.51518 179.51180 316
68.82375 -1.49949 180.76151 462
64.49252 -1.47687 185.16591 457
59.95587 -1.47340 189.73792 453
55.22597 -1.47232 194.51637 448
50.22115 -1.44702 199.56947 443
44.96267 -1.47103 204.89607 438
39.39801 -1.43857 210.50879 432
-152.55615 -0.98809 241.00414 419
-181.68811 -0.94900 269.69492 487
-136.37964 -1.07216 275.69955 495
83.84235 -5.76158 179.49812 316
68.32784 -6.23714 180.69472 461
63.93439 -6.35621 185.06429 457
59.40123 -6.50989 189.65041 452
54.64235 -6.63287 194.44429 447
49.62320 -6.78345 199.51128 442
44.30520 -6.94825 204.85376 437
38.70052 -7.07756 210.47180 431
-153.07819 -12.78368 241.05688 416
-181.68872 -13.59578 269.67157 487
-152.43712 -12.73586 278.25436 267
83.85567 -9.98929 179.49889 316
67.90617 -11.00686 180.58275 460
63.48095 -11.26754 184.98174 455
58.85646 -11.52729 189.55478 451
54.05626 -11.83021 194.40286 446
48.99254 -12.16387 199.42624 441
43.64111 -12.47841 204.81450 436
38.01831 -12.83205 210.43466 430
-181.71698 -26.27897 269.73422 486
83.53389 -14.27701 179.36992 463
67.50409 -15.79698 180.42494 459
63.04869 -16.19155 184.83682 454
58.40035 -16.60860 189.44824 450
53.50926 -17.07949 194.27766 445
48.41679 -17.55327 199.36703 440
43.00061 -18.08496 204.75261 435
37.30398 -18.58598 210.40518 429
-181.60719 -38.94102 269.80991 486
83.20596 -18.61222 179.20288 462
67.14445 -20.63006 180.29155 457
62.64322 -21.15416 184.70360 453
57.98093 -21.76745 189.34209 448
53.05830 -22.39688 194.18398 443
47.84709 -23.03463 199.27257 438
42.40393 -23.73584 204.65181 433
36.62163 -24.44011 210.40622 428
82.90835 -22.94962 179.03522 461
66.77222 -25.51478 180.09348 456
62.25808 -26.21690 184.53786 452
57.54457 -26.95470 189.18619 447
52.56105 -27.72899 194.02356 442
47.29471 -28.57991 199.16313 420
41.37694 -29.52517 204.55249 414
34.84633 -30.54579 210.33542 402
82.63299 -27.36127 178.77277 459
66.26991 -30.45650 179.79610 435
61.39001 -31.38987 184.21519 431
56.23177 -32.40399 188.81009 426
50.78421 -33.40829 193.71805 421
45.04370 -34.50716 198.88750 416
38.68368 -35.73028 204.36684 404
31.75551 -37.00565 210.21510 364
-182.94026 -77.80256 216.51303 424
82.29669 -31.86716 178.47847 439
64.58131 -35.77464 179.18481 432
59.53855 -36.89935 183.67061 428
54.25036 -38.12976 188.35001 423
48.62220 -39.33797 193.31638 418
42.43666 -40.71103 198.51689 406
35.75441 -42.21841 204.10712 401
28.32631 -43.87965 210.07513 358
-187.56552 -91.99763 216.55653 296
75.86338 -35.08668 179.59149 316
61.63709 -38.45934 180.97919 430
56.78735 -39.61729 185.20273 426
51.72219 -40.86307 189.62431 421
46.21138 -42.16003 194.34581 409
40.16090 -43.63626 199.31653 404
33.72415 -45.16840 204.58743 399
77.30004 -39.27873 179.58354 316
60.02133 -44.00045 180.19762 427
55.05882 -45.33565 184.50093 423
49.61132 -46.83942 189.00899 411
43.72169 -48.46250 193.75128 406
37.44292 -50.21465 198.83905 401
30.70305 -52.06192 204.24815 395
-187.96686 -111.56979 203.12637 495
76.81979 -44.09027 179.00308 429
58.40251 -49.74678 179.38156 423
53.05079 -51.37860 183.69028 412
47.26777 -53.15743 188.25014 407
40.95537 -55.10495 193.12888 390
33.96481 -57.25822 198.25740 385
26.00962 -59.73931 203.80783 369
75.60673 -49.26934 178.15990 425
56.49460 -55.79316 178.45766 413
50.47891 -57.87899 182.74254 395
44.05349 -60.06186 187.33200 391
37.22320 -62.44743 192.27603 386
29.24554 -65.14661 197.56023 370
20.37982 -68.22649 203.22922 364
74.36194 -54.70002 177.27310 422
63.69947 -58.70343 179.67903 308
47.27080 -64.91816 181.62219 391
40.46952 -67.49364 186.32893 386
32.57176 -70.48315 191.31996 370
23.88496 -73.79244 196.71428 365
10.94755 -78.71004 202.41522 313
72.97281 -60.39503 176.26520 388
65.84230 -63.35486 179.69221 308
43.84538 -72.48849 180.33194 386
35.97268 -75.75337 185.06934 370
25.42557 -80.14293 189.89429 334
11.52642 -85.90087 195.09785 313
-19.64854 -98.80359 200.00943 264
70.00151 -67.09229 174.71709 384
64.30875 -69.65667 178.71309 392
37.94753 -81.56026 178.46295 338
26.83211 -86.56136 182.91599 333
12.27426 -93.19085 187.60046 312
66.82558 -74.24657 173.07237 379
61.01674 -77.12703 177.18427 387
47.09854 -83.93528 179.82849 300
7.06505 -103.59756 178.68568 283
65.65048 -80.86456 171.91028 316
55.37009 -86.28264 174.92351 325
45.29902 -91.67440 178.73285 322
18.25110 -105.98488 180.09560 292
68.46166 -85.46471 171.87770 316
47.66526 -97.34815 172.06949 308
20.78199 -112.69846 172.36954 269
-56.85367 -157.04300 165.12105 288
71.45689 -89.98860 171.86366 316
51.01837 -102.56783 172.00945 308
24.09880 -119.07550 172.24005 300
74.56579 -94.46201 171.82570 316
54.51019 -107.66026 172.01537 308
-11.63907 -151.17691 162.72047 379
77.80431 -98.81163 171.78224 316
58.17090 -112.67417 171.96109 308
4.03868 -150.80377 165.29897 386
81.14938 -103.09376 171.75183 316
61.95967 -117.54323 171.91754 308
12.03263 -155.17526 165.97533 295
84.65520 -107.30344 171.75697 316
65.94219 -122.34641 171.91376 308
88.30120 -111.37868 171.70784 316
43.82555 -149.50128 163.77055 401
92.04307 -115.37141 171.70070 316
55.16451 -149.07898 165.79041 407
95.92951 -119.25314 171.66718 316
61.82383 -152.45752 166.33235 306
79.01034 -144.72002 163.54919 308
67.02403 -157.18843 166.28719 305
84.77272 -148.00673 163.84790 422
93.46662 -147.66025 165.38644 428
100.86535 -148.40854 166.43893 314
105.90788 -151.93327 166.47768 314
122.69701 -148.59364 169.65881 439
1151.48853 -1194.85278 -32.84833 431
371.95187 -104.39357 167.63120 316
375.30618 -99.61117 167.67931 316
380.11166 -95.66431 167.18832 431
387.67551 -92.98639 165.80597 426
394.22534 -89.50889 164.75340 317
397.27643 -84.16109 164.73529 317
411.09628 -90.40409 167.75618 306
400.01962 -78.66522 164.74644 317
413.91147 -84.40466 167.79221 306
378.84247 -64.20637 171.57100 317
420.38538 -79.81049 166.85483 426
380.92722 -59.30658 171.61774 317
428.97256 -75.63016 165.42670 421
382.83865 -54.31450 171.61575 317
433.51443 -69.79479 164.87097 308
384.56393 -49.29937 171.64845 317
435.82788 -63.19079 164.87271 308
457.29605 -69.00056 167.92235 298
386.19202 -44.30688 171.65155 317
408.95193 -49.66019 171.90356 309
459.21771 -61.60944 167.96249 298
387.61237 -39.20248 171.64970 317
410.58395 -43.87990 171.87009 309
464.39352 -54.87361 167.33580 449
44507.14062 -9033.31445 -1335.16418 1000
388.90726 -34.07460 171.68651 317
412.04462 -38.02630 171.92113 309
471.47675 -48.22438 166.22087 445
390.05502 -28.95919 171.68582 317
413.27365 -32.16313 171.89473 309
478.65753 -41.24870 165.12572 300
391.02765 -23.75782 171.71124 317
414.31604 -26.28040 171.94073 309
480.01855 -33.22560 165.15363 300
2626.04321 -261.66516 54.44769 439
391.83722 -18.60429 171.69447 317
415.26599 -20.33073 171.92215 309
445.83472 -22.64542 172.22110 301
2601.97217 -183.44972 56.90279 483
392.49103 -13.38585 171.72612 317
415.94778 -14.38369 171.92126 309
446.60730 -15.72365 172.26067 301
2599.01196 -107.84950 57.98844 487
392.99466 -8.20604 171.72697 317
416.49582 -8.48893 171.96484 309
447.23987 -8.80659 172.21341 301
2604.71362 -32.28644 57.56050 484
2651.10254 -33.44959 134.38383 493
393.33319 -2.97719 171.70430 317
416.83124 -2.52845 171.96228 309
447.60574 -1.88244 172.24513 301
2721.65430 44.72081 132.25291 390
393.49051 2.20519 171.71486 317
416.96695 3.43217 171.92914 309
447.74100 5.02794 172.24500 301
2860.16357 131.30533 127.22375 380
2731.89355 123.96447 295.76489 433
393.55090 7.42235 171.72209 317
416.97186 9.38571 171.95065 309
447.66940 11.98642 172.24590 301
2639.36548 196.52708 135.19131 389
393.40030 12.63911 171.69720 317
416.79593 15.32320 171.94049 309
447.42032 18.86279 172.22675 301
2647.75220 274.15430 134.63528 456
2736.21362 284.50604 296.44638 354
393.07251 17.82076 171.72029 317
416.41144 21.22783 171.92558 309
446.93256 25.78588 172.24814 301
2662.12305 354.31509 133.80528 454
392.64328 22.96840 171.68439 317
415.82428 27.14272 171.92909 309
480.73135 38.90744 165.20050 446
2680.55371 436.88287 133.32732 476
2884.40967 473.86551 214.40092 477
391.98038 28.08015 171.68929 317
415.08340 33.05118 171.94997 309
473.60632 45.57473 166.42349 451
2702.36133 521.80603 131.72350 472
391.19485 33.21458 171.67130 317
414.16278 38.88545 171.93123 309
466.87009 51.91426 167.55154 455
390.27405 38.26170 171.67946 317
413.04343 44.66999 171.91805 309
463.42374 58.84791 167.95784 297
389.16928 43.29009 171.65826 316
440.32483 59.43367 164.91675 307
387.89935 48.27168 171.64189 316
438.54944 66.07516 164.85988 308
386.51312 53.23962 171.65213 316
435.08344 72.03591 165.25595 428
384.93475 58.11688 171.62985 316
427.04611 75.92216 166.73363 433
383.25201 62.95655 171.63106 316
420.49887 80.11150 167.79662 305
404.19757 79.16255 164.76221 317
418.20233 86.13835 167.72026 305
401.77658 84.50254 164.73267 317
397.65829 88.95897 165.18010 433
390.62036 91.44169 166.55243 438
384.31732 94.02383 167.64502 315
381.47485 98.76753 167.61816 315
378.49860 103.44997 167.60959 313
1928.59570 1470.22266 216.18109 491
1939.23425 1479.24231 290.27869 350
3691.23462 4135.64551 571.56189 448
3510.92822 4181.73877 565.46136 484
2248.36963 5549.88379 603.57233 388
2034.36548 5496.60498 595.26477 306
2058.27271 5571.19385 793.96484 307
1845.84375 5506.47363 592.90155 383
1848.86365 5513.53320 783.16620 499
1784.69775 5616.07861 804.68939 280
14352.22656 67543.33594 11785.46191 1000
594.27802 4575.18945 528.51202 498
171.20493 3669.46704 466.67865 354
65.29715 3446.40649 451.62442 350
-33.65902 3307.03540 442.07520 439
-132.08498 3233.71655 437.73315 451
128.74442 152.62788 166.38196 314
125.10174 147.30638 167.10368 446
118.55912 146.33070 166.42038 314
111.45325 145.79076 165.43112 426
102.96450 146.65154 163.89465 421
96.99523 144.02356 163.45854 310
112.42573 117.96693 171.47159 315
80.27737 152.84708 166.32872 305
-1583.56787 1958.52734 483.85095 420
108.51913 114.37862 171.49384 315
75.13625 148.34863 166.27338 305
104.71859 110.62808 171.49728 315
65.07347 148.51198 164.64777 411
101.05140 106.77320 171.52553 315
55.72615 147.43399 163.25769 299
97.46989 102.85209 171.58316 315
78.78997 118.60445 171.71294 307
31.35309 158.47682 166.08214 296
94.04533 98.81966 171.58960 315
74.89661 113.93096 171.74475 307
26.11377 152.42548 166.04906 296
90.77724 94.67332 171.63283 315
71.20000 109.13126 171.78856 308
15.38334 150.39153 164.61433 390
87.64554 90.41418 171.68289 316
67.61220 104.27142 171.80980 308
41.25367 122.50103 172.02675 300
84.62896 86.08879 171.67734 316
64.18580 99.25243 171.84238 308
37.30147 116.59254 172.06976 300
81.72005 81.71163 171.70129 316
60.96075 94.20401 171.86404 308
33.56937 110.65986 172.11967 300
-42.27008 156.23299 165.18616 286
79.03490 77.23078 171.75603 316
57.86743 89.04943 171.94098 308
41.40096 98.21387 174.71530 317
14.13938 113.42668 176.69182 268
76.44071 72.67752 171.76843 316
61.96635 80.14379 173.78012 383
54.20828 84.15511 178.34213 322
28.01284 97.73417 179.93126 292
-19.57836 122.34499 180.36874 284
73.96780 68.04357 171.79485 316
65.56127 72.05978 175.41467 375
57.71202 75.82584 179.71060 300
24.74717 91.58090 179.93274 329
-5.23210 105.87621 183.01140 263
75.67507 61.56219 172.96280 385
69.15703 64.44393 176.94798 380
55.22850 70.57427 179.72760 300
35.44378 79.28770 182.39410 334
23.05204 84.73615 187.51146 330
5.43133 92.44437 192.92828 282
77.36536 55.45289 174.05244 419
72.08488 57.53642 178.27191 414
48.83506 66.89748 178.91025 388
41.39273 69.89265 183.98140 383
32.67212 73.39535 189.32578 367
21.48531 77.91868 194.94643 330
4.96636 84.51948 201.00966 310
78.69968 49.67350 174.98991 423
73.61427 51.55326 179.13388 418
52.33287 59.36847 180.08568 392
45.28585 61.89751 185.04633 387
37.79779 64.62990 190.36353 382
28.97090 67.88851 196.02602 367
19.18753 71.43310 202.17310 361
80.00010 44.17165 175.88879 428
73.67265 46.29399 179.57303 308
55.17422 52.38282 181.13733 409
48.90205 54.44072 186.04224 404
41.85716 56.76885 191.25305 387
34.18425 59.29914 196.77959 382
25.24805 62.26243 202.73111 366
81.26976 38.90945 176.66240 431
72.06972 41.59264 179.60858 308
57.27374 45.96196 181.95047 420
51.43947 47.73793 186.79422 408
45.03607 49.60675 191.95227 403
38.21712 51.64339 197.41118 398
30.61679 53.84690 203.27187 381
82.53259 33.77221 177.42145 435
64.42352 38.51000 178.14745 428
59.19288 39.91556 182.69788 424
53.63807 41.35299 187.46468 419
47.69033 42.91743 192.53226 407
41.13016 44.59372 197.87782 402
34.12644 46.45524 203.63220 397
26.31255 48.45934 209.76971 355
83.27038 28.97878 177.96185 457
66.09943 32.89250 178.87549 432
61.00988 34.04310 183.35512 427
55.64959 35.28706 188.04597 422
50.03959 36.55461 193.04941 418
43.96398 37.95891 198.34175 406
37.20208 39.46774 203.91565 400
29.97083 41.14695 209.94667 360
-184.43233 90.07210 216.53250 295
83.43777 24.43460 178.32941 459
67.19135 27.61078 179.41830 454
62.61869 28.49724 183.93416 450
57.60405 29.45685 188.59210 426
52.16795 30.51465 193.49388 421
46.35863 31.64209 198.71461 416
40.18764 32.85188 204.20979 404
33.20640 34.23734 210.09955 399
-182.97839 76.43260 216.58534 424
83.62890 19.94847 178.64851 460
67.45207 22.58757 179.70970 456
62.87999 23.29219 184.18900 451
58.12555 24.08536 188.86694 447
53.11452 24.90444 193.77562 442
47.84912 25.75646 198.98558 437
42.29124 26.65154 204.46263 431
36.33587 27.58139 210.23445 409
83.85500 15.51676 178.92064 462
67.73066 17.63417 179.98015 457
63.21595 18.19099 184.42590 453
58.51517 18.80931 189.11874 448
53.52906 19.45884 193.99072 443
48.33695 20.12291 199.10255 438
42.86946 20.82932 204.56061 433
37.04923 21.56364 210.31238 428
84.09940 11.14904 179.14963 463
68.01929 12.74484 180.25781 458
63.57076 13.17363 184.65494 454
58.88747 13.62489 189.28636 449
54.01739 14.08864 194.12387 445
48.85676 14.59761 199.23315 440
43.45293 15.10444 204.63441 435
37.73957 15.65502 210.37651 429
84.34999 6.82315 179.37624 464
68.36874 7.90980 180.44525 460
63.91282 8.18633 184.85382 455
59.33231 8.49148 189.46576 451
54.52847 8.81098 194.28082 446
49.42224 9.15915 199.36409 441
44.07368 9.48333 204.72911 436
38.42394 9.84318 210.42126 430
-181.64987 24.32970 269.83115 486
-186.78604 24.73882 284.15164 496
84.43468 2.57373 179.49414 316
68.71557 3.10035 180.65547 461
64.36909 3.27034 185.04372 456
59.78484 3.41875 189.62408 452
55.01104 3.59913 194.42668 447
49.99874 3.73354 199.45964 442
44.69607 3.95295 204.80099 437
39.09691 4.09949 210.43727 431
-181.65196 11.62990 269.72458 487
