# .PCD v.7 - Point Cloud Data file format
VERSION .7
FIELDS x y z rgb
SIZE 4 4 4 4
TYPE F F F U
COUNT 1 1 1 1
WIDTH 424
HEIGHT 1
VIEWPOINT 6225.756836 -4107.842285 140.830048 0.127695 -0.124991 0.012584 0.983826
POINTS 424
DATA ascii
71.39236 -1.90800 178.14363 466
67.35948 -1.87100 182.18500 462
63.21798 -1.85113 186.38974 457
58.85176 -1.83004 190.80965 453
54.31131 -1.82750 195.39148 448
49.51600 -1.78060 200.26236 443
44.47482 -1.79395 205.35674 438
39.11510 -1.77047 210.75275 432
-152.40254 -0.47613 240.55441 418
-182.15205 -0.34355 268.70914 487
-155.03104 -0.56177 277.47510 284
-111.71749 -0.90180 281.42651 494
71.01735 -6.37960 177.95949 465
66.95271 -6.50246 182.03395 461
62.75754 -6.61003 186.24513 457
58.36092 -6.74650 190.67905 452
53.77193 -6.84870 195.27916 447
48.96700 -6.96538 200.15773 442
43.86488 -7.14103 205.30205 437
38.44823 -7.29061 210.70657 432
-152.21516 -12.02200 240.49973 417
-182.18330 -12.88348 268.76746 487
-155.26860 -12.18515 277.55142 290
77.41187 -10.54538 179.57599 316
66.60323 -11.17436 181.81792 460
62.36426 -11.39512 186.09230 455
57.92750 -11.67866 190.48889 451
53.29631 -11.96147 195.15379 446
48.40228 -12.23885 200.06694 441
43.24305 -12.53552 205.19350 436
37.81819 -12.87176 210.64413 431
-182.05048 -25.37153 268.82635 486
77.95438 -14.84891 179.57301 316
66.31738 -15.86680 181.63887 459
61.99170 -16.28585 185.87003 454
57.51524 -16.67571 190.32257 450
52.77211 -17.13034 195.00174 445
47.86088 -17.55117 199.92218 440
42.67585 -18.02477 205.12694 435
37.15150 -18.49932 210.62372 430
-182.04784 -37.93540 268.85297 486
78.62071 -19.12143 179.54506 316
66.01035 -20.63239 181.39275 458
61.69249 -21.19364 185.64859 453
57.12202 -21.75608 190.14313 449
52.36104 -22.34078 194.86061 444
47.36047 -22.91222 199.77866 439
42.04137 -23.56263 205.02306 433
36.50042 -24.25872 210.54750 428
79.41757 -23.39334 179.56288 316
65.76420 -25.49183 181.12872 456
61.38247 -26.16257 185.43729 452
56.80601 -26.87420 189.94670 447
51.95949 -27.60896 194.64001 442
46.91265 -28.39323 199.64845 420
41.17135 -29.28454 204.88190 415
-147.98073 -22.46605 -4.96883 403
80.34517 -27.65623 179.55606 316
65.30797 -30.41852 180.76990 436
60.54528 -31.31290 185.02983 432
55.53471 -32.25603 189.51688 427
50.27903 -33.22605 194.29500 422
44.71688 -34.24935 199.28276 417
38.53316 -35.40376 204.60524 405
31.79319 -36.66282 210.31706 365
-183.13463 -76.35505 216.31552 424
81.23420 -31.93144 179.48343 438
63.71885 -35.70576 180.08386 433
58.79937 -36.81579 184.45859 428
53.66202 -37.91713 189.00171 424
48.21416 -39.12219 193.79500 419
42.19833 -40.41998 198.89534 407
35.66441 -41.87370 204.33434 402
28.45918 -43.45235 210.10709 359
-182.95068 -89.34156 216.30649 438
80.00775 -36.73269 178.82784 434
62.06392 -41.20088 179.39725 429
57.02649 -42.47375 183.79326 425
51.70672 -43.84280 188.39522 420
45.77605 -45.30363 193.30324 408
39.44725 -46.90529 198.48082 403
32.68184 -48.63490 203.99010 398
-188.58545 -104.03174 202.58658 483
78.76539 -41.68287 178.07608 431
60.39079 -46.90427 178.62086 426
55.19504 -48.42225 183.08340 421
49.37886 -50.04353 187.72639 410
43.17326 -51.81905 192.68369 405
36.53215 -53.73191 197.96985 388
29.03145 -55.88200 203.62383 383
77.49393 -46.87642 177.30234 428
66.43933 -50.37697 179.69095 308
52.95874 -54.66984 182.23036 411
46.67087 -56.70013 186.96890 394
39.81141 -58.91982 191.95943 389
32.35746 -61.27181 197.33188 373
23.60792 -64.09972 203.06590 368
76.22025 -52.23288 176.44168 424
68.21545 -55.06143 179.67744 308
49.88660 -61.57439 181.17589 394
43.13758 -63.96134 185.95702 389
35.74403 -66.59211 191.10297 373
27.11550 -69.66681 196.56151 368
17.71832 -73.00793 202.51575 363
74.94988 -57.83976 175.53003 421
69.69626 -59.88237 179.53073 401
46.49630 -68.90816 179.97380 389
39.15437 -71.79285 184.82991 374
30.67512 -75.11449 190.02684 369
19.13760 -79.60080 195.40598 333
2.83360 -85.98226 201.27696 312
72.59058 -64.08011 174.26465 387
66.59464 -66.64275 178.21085 396
42.64171 -76.86601 178.62334 374
32.51028 -81.20795 183.20270 337
20.56190 -86.31917 188.18738 316
1.75853 -94.33574 193.26027 284
69.50581 -71.04495 172.70020 382
63.34698 -73.91441 176.75981 391
50.70560 -79.75658 179.81400 300
21.71934 -93.21411 180.71518 315
-29.22012 -116.84408 180.51274 284
69.18854 -77.03383 171.87860 316
59.85402 -81.71316 175.21660 386
51.23075 -86.08273 179.29121 326
21.41031 -101.07712 180.07446 292
71.75395 -81.64143 171.84744 316
50.71943 -93.08472 171.99869 308
39.11408 -99.38654 175.89977 320
12.84312 -113.64558 177.76064 271
74.47842 -86.20369 171.84151 316
53.78011 -98.28922 172.01707 308
26.69072 -114.17458 172.24028 300
-49.14526 -158.44815 165.08853 288
77.32272 -90.72315 171.80208 316
57.05203 -103.43016 171.98773 308
30.42905 -120.17729 172.19017 300
80.30995 -95.14668 171.79485 316
60.43926 -108.52501 171.92915 308
-2.73194 -150.99989 163.23759 381
83.46411 -99.44044 171.76479 316
63.94051 -113.45268 171.90495 308
12.31771 -150.62231 165.72310 388
86.69242 -103.69945 171.70522 316
67.65057 -118.31599 171.90205 308
18.76341 -155.88147 166.07387 295
90.07691 -107.80997 171.70898 316
43.52066 -145.96635 163.40605 300
93.60012 -111.86320 171.66397 316
50.80848 -149.28990 164.11078 403
97.24863 -115.83150 171.64305 316
61.78497 -148.84801 166.09795 408
101.01141 -119.66033 171.59457 316
67.46126 -152.92847 166.34369 306
84.36452 -145.09196 163.50764 308
90.43206 -147.75769 164.04355 424
99.02030 -147.32091 165.64520 419
105.78699 -148.56523 166.44936 314
-818.53772 -1330.93311 104.26161 285
110.63954 -152.05560 166.48393 314
120.04420 -148.99130 168.54376 489
127.26343 -148.36592 169.75545 486
-2433.63745 -7320.14844 1757.46265 1000
373.74469 -105.75349 167.64444 313
377.09833 -100.92274 167.64778 315
380.31784 -96.03611 167.67667 315
387.21387 -93.15594 166.50330 429
395.05777 -90.45754 165.07304 424
398.98038 -85.51151 164.76633 317
401.80237 -80.02771 164.78377 317
416.18521 -86.33197 167.81564 305
380.69827 -64.90919 171.60454 317
419.23163 -80.33525 167.75192 430
382.77621 -59.91325 171.60818 317
427.58350 -76.31863 166.30316 425
384.68570 -54.88450 171.65218 317
435.76721 -71.74667 164.92868 308
386.47867 -49.84621 171.64064 317
438.08813 -65.07086 164.94083 308
388.07950 -44.72132 171.69901 317
440.17014 -58.35265 164.93071 308
462.36026 -64.14841 167.92079 297
1923.52893 -445.80872 101.16583 492
1932.72107 -448.48795 158.07434 489
389.49094 -39.57145 171.67212 317
412.82336 -44.88894 171.91800 309
464.11725 -56.55708 167.98596 297
390.82144 -34.38285 171.70580 317
414.29590 -38.97821 171.93230 309
469.79526 -49.75875 167.19890 448
391.94901 -29.16300 171.73563 317
415.56717 -32.98431 171.95032 309
477.05212 -43.00503 166.04991 443
392.88458 -23.91143 171.69810 317
416.65277 -26.98408 171.97856 309
483.07330 -35.65535 165.12692 301
393.72580 -18.61801 171.73703 317
417.51642 -20.99271 171.96861 309
448.79910 -24.02818 172.27568 301
394.34695 -13.34685 171.72737 317
418.25226 -14.94158 171.96167 309
449.56628 -17.02341 172.26236 301
394.83008 -8.04220 171.72241 317
418.81241 -8.91201 171.99559 309
450.16629 -9.99966 172.26540 301
395.14999 -2.76652 171.74350 317
419.11313 -2.85709 171.96364 309
450.51758 -2.95173 172.29439 301
395.31592 2.56141 171.72383 317
419.27914 3.22411 171.99063 309
450.65878 4.12393 172.31361 495
395.32974 7.85196 171.74573 317
419.26785 9.25315 171.96744 309
450.64246 11.15012 172.26073 301
395.17722 13.12807 171.75047 316
419.06674 15.30936 171.99168 309
450.38419 18.19503 172.25493 301
394.86844 18.41322 171.73213 316
418.67975 21.38418 171.97960 309
449.93567 25.23092 172.28345 301
394.38519 23.71202 171.73442 316
418.11832 27.37593 171.97101 309
482.36749 37.35678 165.61676 462
393.70370 28.92131 171.73752 316
417.31927 33.34681 171.96146 309
475.09076 44.20385 166.82991 447
392.90942 34.12866 171.71608 316
416.39615 39.36367 171.91273 308
468.03574 50.76640 167.95929 452
391.93857 39.33100 171.71695 316
415.26160 45.26292 171.92682 308
466.75192 58.31434 167.92268 297
390.84723 44.48786 171.66451 316
442.90186 59.46195 164.87918 307
389.56866 49.59095 171.68170 316
441.06140 66.21599 164.86940 307
388.10306 54.63585 171.66304 316
435.78558 71.66881 165.68245 424
386.51410 59.63329 171.64265 316
427.45428 75.74525 167.21844 429
408.35785 74.74807 164.72876 316
422.93262 81.02061 167.81015 305
406.01337 80.35143 164.75941 316
420.61761 87.20882 167.73483 305
2712.90039 1160.63562 127.45261 433
403.51678 85.84834 164.74487 317
2661.34766 1231.83508 128.13786 497
397.09882 89.18339 165.95082 429
2622.23828 1307.54761 127.79694 496
389.75677 91.71757 167.36740 434
2589.03735 1387.86829 127.44019 493
385.94281 96.04697 167.67038 315
2563.87231 1473.81982 127.40408 457
2707.53491 1565.01453 313.14124 431
383.09546 100.99767 167.60027 313
2538.68774 1562.27295 126.26840 455
2513.41626 1652.17468 124.76220 453
2487.32227 1743.61023 123.93856 451
2460.71997 1838.04248 122.34838 476
2448.20410 1948.94678 120.46288 407
1328.75098 2295.98315 139.83023 425
15646.47070 34964.06250 -8590.93066 1000
1459.25427 5352.61279 49.47454 411
636.81378 4088.66895 91.83282 336
-493.73782 5932.45264 31.80704 423
-664.84778 5797.86084 34.88089 440
-671.68402 5838.81641 227.48439 498
-841.95862 5741.18164 36.61244 445
-849.42993 5781.58545 227.04582 498
-1019.73517 5691.29736 36.56457 445
-1196.93848 5641.57031 36.54050 450
-1345.69958 3368.19946 99.72429 336
-1321.74219 3058.72046 108.75603 355
-1356.53784 2896.60156 112.25111 403
-1510.41052 2953.77417 108.19302 499
120.89793 149.45297 167.75107 489
114.69131 148.13155 167.12125 441
108.28276 146.76402 166.40639 314
100.45467 146.91747 165.07288 420
91.85770 147.47639 163.48422 425
87.26066 143.14087 163.55653 307
75.10311 156.21579 166.26532 305
103.76569 117.64049 171.54465 315
70.05610 151.49985 166.25951 305
100.09756 113.77668 171.57927 315
63.21243 148.61012 165.59787 410
96.51556 109.79297 171.56720 316
52.28414 149.01427 163.69498 404
93.08075 105.72493 171.61891 316
74.31034 121.37817 171.77937 308
89.77425 101.55765 171.62306 316
70.52047 116.57668 171.82861 308
21.42677 154.86064 166.01604 297
86.62082 97.29564 171.65176 316
66.92859 111.67744 171.83788 308
13.86507 150.38596 165.37445 389
83.58926 92.98530 171.69548 316
63.48884 106.66433 171.87956 308
-1.14359 150.77374 162.86702 383
80.67297 88.54443 171.72787 316
60.18483 101.56707 171.87679 308
33.22499 118.75435 172.12688 300
77.93059 84.00533 171.75769 316
57.08083 96.41265 171.91643 308
29.65626 112.67151 172.14799 300
-46.69749 158.00427 165.05850 286
-33110.91797 19785.03711 2768.94556 1000
75.29703 79.45654 171.75201 316
54.07300 91.13552 171.97047 308
40.02638 98.89291 175.31096 318
12.58863 114.01210 177.17374 270
72.80396 74.79415 171.80754 316
60.88467 80.91021 174.50470 384
52.60064 85.11932 178.81233 325
24.30161 99.58810 179.99327 292
71.02937 69.77436 171.97997 381
64.46685 72.89860 176.09006 389
54.12996 77.77166 179.76321 300
23.12137 92.40345 180.36526 314
-27.08194 116.10689 180.40150 344
74.23960 62.71053 173.57124 386
67.83322 65.46957 177.51744 381
43.90217 75.89401 178.07584 373
33.94408 80.19685 182.79820 335
21.73105 85.44806 187.88347 331
3.27759 93.50665 193.12947 283
76.26570 56.44573 174.71844 420
71.08109 58.52723 178.87279 415
47.70815 67.81549 179.41000 388
40.33677 70.73790 184.39246 373
31.64293 74.18083 189.68008 368
20.26834 78.68008 195.24457 331
3.80788 85.20992 201.21222 311
77.59821 50.76658 175.63463 423
72.18775 52.69561 179.61682 308
51.21490 60.27689 180.57309 393
44.25983 62.78711 185.48038 388
36.84316 65.46466 190.71512 373
28.04602 68.66322 196.29359 367
18.38170 72.14046 202.40991 362
78.93421 45.24879 176.48520 427
70.54870 48.00996 179.60822 308
54.19512 53.29888 181.61232 410
47.93085 55.38705 186.45671 393
40.93135 57.63805 191.60358 388
33.36939 60.09897 197.07671 383
24.41242 63.02113 202.95345 367
80.24876 40.00332 177.23888 430
69.04199 43.24080 179.62164 308
56.37399 46.95065 182.43349 421
50.56610 48.62802 187.20667 409
44.19132 50.48903 192.29802 404
37.47220 52.47805 197.70432 399
29.86355 54.66689 203.47337 382
81.54263 34.89476 177.95010 435
63.48397 39.54307 178.61882 429
58.28806 40.91074 183.13217 424
52.81549 42.27916 187.89336 419
46.87236 43.84706 192.85777 408
40.40523 45.50781 198.15182 403
33.45809 47.29622 203.86621 397
25.27919 49.37926 209.88980 269
82.53815 30.07234 178.54486 457
65.17435 33.94283 179.31248 432
60.14025 35.06747 183.79628 428
54.84402 36.27307 188.44118 423
49.26195 37.48462 193.39798 418
43.22934 38.88490 198.61032 406
36.53109 40.32914 204.14250 401
29.22141 42.00107 210.11026 358
-183.80624 89.77370 216.50204 296
82.72953 25.49547 178.87233 459
66.57034 28.60107 179.94789 455
61.96703 29.47028 184.37654 431
56.84122 30.46572 188.96252 426
51.41139 31.50230 193.83632 421
45.71137 32.58375 198.98639 416
39.48674 33.77932 204.41692 404
32.61633 35.08031 210.24078 399
-182.97563 76.24268 216.52802 424
82.96834 20.99884 179.19113 461
66.86559 23.59378 180.21344 456
62.33338 24.27250 184.63818 452
57.63474 25.02409 189.25880 447
52.66990 25.82566 194.15858 442
47.49190 26.66213 199.23596 437
41.96508 27.48303 204.66481 432
35.71878 28.52048 210.39992 402
76.65804 15.11680 179.56036 316
65.98421 16.54776 181.87675 457
61.70446 17.13011 186.09508 453
57.18954 17.70206 190.51978 448
52.51019 18.33963 195.15916 443
47.54417 18.98628 200.05215 438
42.36842 19.67365 205.19424 433
36.83277 20.36417 210.69235 428
70.43034 11.42780 177.94989 462
66.34792 11.84502 182.02470 458
62.08242 12.29036 186.20981 454
57.66774 12.72571 190.60974 449
53.02317 13.20455 195.23804 445
48.12826 13.65328 200.10759 440
43.00274 14.20949 205.26050 434
37.51694 14.73220 210.68092 429
70.79059 6.93238 178.11380 464
66.73126 7.17873 182.12625 459
62.52818 7.47915 186.32356 455
58.15745 7.77289 190.74377 451
53.56330 8.08147 195.36055 446
48.71454 8.40067 200.20154 441
43.63789 8.79565 205.27879 436
38.23382 9.16307 210.72493 430
-182.07391 24.62489 268.69366 486
-186.91171 24.89517 282.75720 358
-186.69429 24.89645 296.33380 358
71.20219 2.44821 178.22456 465
67.21115 2.58389 182.25212 461
63.04409 2.73375 186.43277 456
58.67891 2.87981 190.80641 452
54.12005 3.05673 195.41548 447
49.29629 3.23910 200.24129 442
44.25756 3.42614 205.33765 437
38.90715 3.61178 210.69511 431
-182.19685 12.16248 268.62717 487
