# .PCD v.7 - Point Cloud Data file format
VERSION .7
FIELDS x y z rgb
SIZE 4 4 4 4
TYPE F F F U
COUNT 1 1 1 1
WIDTH 422
HEIGHT 1
VIEWPOINT 6531.369141 -4034.661865 146.774673 -0.086292 -0.134528 0.029068 0.986717
POINTS 422
DATA ascii
83.51844 -1.27751 179.53302 316
68.74257 -1.26571 180.89580 462
64.43957 -1.25352 185.24600 457
59.91943 -1.25498 189.80423 453
55.17156 -1.25363 194.60553 448
50.20782 -1.24031 199.61931 443
44.97742 -1.22405 204.93158 438
39.39316 -1.19737 210.55736 432
-152.67245 -0.90566 241.00299 419
-181.68959 -0.89894 269.56778 487
-146.31378 -0.95447 277.26352 284
83.41315 -5.53409 179.51572 316
68.25650 -5.98775 180.77632 461
63.87942 -6.11666 185.18391 457
59.33095 -6.24668 189.72081 452
54.60832 -6.42965 194.53107 447
49.58335 -6.54799 199.58722 442
44.29555 -6.73112 204.89883 437
38.70269 -6.86371 210.53622 431
-152.96397 -12.63842 241.10155 416
-181.73006 -13.55580 269.64655 487
-151.84688 -12.64242 278.16653 285
83.43067 -9.80633 179.53076 316
67.82256 -10.73391 180.68692 460
63.40621 -11.01733 185.04633 455
58.83763 -11.31133 189.65736 451
54.00688 -11.59723 194.45540 446
48.96898 -11.93010 199.51755 441
43.65570 -12.26165 204.84212 436
38.02925 -12.58834 210.46922 430
-181.61598 -26.14151 269.66626 486
83.47860 -14.03371 179.47774 463
67.43551 -15.54787 180.55293 459
62.98436 -15.94549 184.93573 454
58.35846 -16.40413 189.52219 450
53.47298 -16.84615 194.32710 445
48.39763 -17.32744 199.40544 440
43.01542 -17.81561 204.77330 435
37.29058 -18.39298 210.45015 429
-181.60999 -38.91299 269.78357 486
83.14790 -18.34811 179.29289 462
67.09398 -20.36936 180.36560 457
62.60041 -20.94840 184.76541 453
57.90945 -21.52049 189.39098 448
53.00738 -22.16726 194.23955 443
47.82930 -22.78692 199.34207 438
42.38568 -23.47965 204.73729 433
36.61481 -24.18990 210.44295 428
82.84885 -22.70484 179.09360 461
66.74612 -25.25213 180.15112 456
62.21680 -25.99010 184.57893 452
57.51750 -26.71436 189.22183 447
52.56517 -27.53681 194.10275 442
47.34084 -28.32349 199.23293 437
41.43438 -29.29220 204.60457 414
34.93426 -30.27247 210.35121 402
68.64639 -27.92589 177.95193 459
64.58689 -28.64251 181.98196 455
60.23428 -29.42052 186.14276 432
55.45116 -30.26782 190.46413 428
50.37522 -31.16186 195.04771 423
45.03299 -32.10349 199.88023 418
39.26459 -33.13163 205.02039 406
32.76735 -34.30017 210.47771 365
-182.91864 -71.86060 216.63240 425
75.87778 -31.11670 179.58089 316
63.27959 -33.73119 181.35210 434
58.57673 -34.73891 185.53207 429
53.60445 -35.76378 189.94193 424
48.40598 -36.86647 194.57861 420
42.74944 -38.04234 199.51106 408
36.51551 -39.37566 204.70946 402
29.55648 -40.82902 210.32986 359
-182.92996 -84.83291 216.53419 439
77.14571 -35.35001 179.57312 316
61.68937 -39.07986 180.65195 430
56.83028 -40.22964 184.90266 426
51.75003 -41.47836 189.39066 421
46.14249 -42.82177 194.09795 409
40.06738 -44.32442 199.07068 404
33.60324 -45.89477 204.40729 399
-212.79242 -105.11503 202.28311 291
78.14876 -39.64079 179.43541 432
60.08176 -44.58825 179.88957 427
55.09859 -45.97377 184.18958 422
49.59571 -47.52239 188.72238 411
43.67422 -49.15683 193.47551 406
37.30480 -50.88292 198.58046 400
30.49857 -52.76688 204.08186 384
-187.66501 -112.61784 202.91740 495
76.93671 -44.64482 178.67458 429
58.42701 -50.34314 179.04587 423
53.04021 -52.03168 183.39166 412
47.22968 -53.85709 187.98677 407
40.76475 -55.86992 192.83629 390
33.71951 -58.05549 198.03229 385
25.61774 -60.55367 203.60321 369
75.72783 -49.86408 177.85060 425
56.46863 -56.48249 178.07115 400
50.39854 -58.58971 182.44118 395
43.90867 -60.84162 187.06447 390
37.01066 -63.24311 191.98555 385
28.93341 -66.01543 197.25963 369
19.98445 -69.13441 202.99742 364
74.46452 -55.31792 176.92715 422
65.01688 -58.93017 179.69995 308
47.14259 -65.70846 181.27881 391
40.28843 -68.27825 185.99521 386
32.28933 -71.36481 191.00862 370
23.28402 -74.76859 196.42857 334
9.58741 -80.01715 202.08876 313
72.87730 -61.13017 175.86943 388
67.12951 -63.54912 179.66226 308
43.70039 -73.27765 179.99207 386
35.70181 -76.62799 184.70686 370
24.59448 -81.24057 189.53500 333
10.18881 -87.25175 194.72797 313
69.90692 -67.83763 174.36137 384
64.17819 -70.49109 178.28641 392
37.30486 -82.62453 178.02097 337
26.08521 -87.75246 182.44633 332
9.83839 -95.12936 186.98236 284
-1556.41248 -804.58081 25.16374 482
-1563.98340 -807.95459 88.88491 498
66.72716 -75.08711 172.64384 379
60.81942 -78.00774 176.77818 387
48.44153 -84.06832 179.85226 300
4.02606 -105.93880 177.83708 283
66.88261 -80.98559 171.88834 316
54.45459 -87.61919 174.37042 325
44.21010 -93.05680 178.20143 321
19.74796 -106.11434 180.08791 292
69.67708 -85.56429 171.86800 316
48.95843 -97.49801 172.04048 308
21.67761 -113.10069 172.27385 300
-55.02495 -157.06735 165.09106 288
72.63982 -90.10139 171.81689 316
52.25761 -102.63293 172.02702 308
25.52313 -119.16759 172.23517 300
75.72684 -94.55098 171.80635 316
55.75387 -107.71406 171.97868 308
-9.94405 -151.16496 162.75212 380
78.91588 -98.91465 171.77513 316
59.38819 -112.73315 171.94762 308
5.62037 -150.76511 165.29584 386
-33.36808 -25.18270 -11.22494 316
63.15806 -117.61873 171.94666 308
13.49867 -155.13889 165.97670 295
85.76834 -107.33707 171.74312 316
67.09529 -122.41094 171.91258 308
89.40591 -111.41269 171.69374 316
45.14154 -149.50514 163.83772 401
93.14769 -115.40846 171.66458 316
56.44150 -149.05383 165.80621 407
96.99810 -119.26231 171.62474 316
63.04668 -152.44197 166.31711 306
80.17297 -144.68968 163.51935 308
68.19475 -157.11665 166.34319 305
85.89069 -147.93251 163.88943 422
94.56287 -147.64549 165.40594 428
101.90572 -148.35876 166.48206 314
106.89671 -151.88687 166.46638 314
123.68639 -148.52098 169.66368 440
1290.69312 -1109.52454 8.81658 474
1296.81323 -1116.11462 58.84259 470
373.05185 -103.91162 167.64822 315
376.35876 -99.08357 167.65762 315
381.30905 -95.18353 167.14029 431
388.92548 -92.57638 165.78548 426
395.31964 -88.94146 164.75372 317
398.34088 -83.56900 164.76587 317
412.29306 -89.84937 167.78796 306
401.10150 -78.10194 164.74535 317
415.03445 -83.78957 167.80597 306
379.87796 -63.57465 171.60352 317
421.58511 -79.21317 166.85692 426
381.95377 -58.67398 171.60849 317
430.19992 -74.98271 165.40028 421
383.85004 -53.68860 171.64964 317
434.70203 -69.13934 164.92033 308
385.59808 -48.66197 171.64326 317
436.97034 -62.51495 164.91022 308
458.54675 -68.33031 167.89977 298
387.21750 -43.62597 171.67265 317
410.09204 -49.03115 171.87177 309
460.52774 -60.85957 167.95967 298
388.67007 -38.51389 171.69617 317
411.67972 -43.17527 171.91051 309
465.24255 -54.03915 167.43340 449
389.94525 -33.39254 171.69304 317
413.14352 -37.31717 171.92776 309
472.39633 -47.40958 166.36458 444
391.09396 -28.23511 171.72723 317
414.41608 -31.45034 171.93417 309
479.84842 -40.41723 165.18802 440
392.08231 -23.06404 171.70395 317
415.48737 -25.53592 171.96161 309
481.34653 -32.44933 165.12564 300
392.87369 -17.85532 171.71153 317
416.36395 -19.57518 171.96779 309
447.11368 -21.82341 172.24409 301
393.56934 -12.61714 171.71405 317
417.09381 -13.63507 171.97241 309
447.89395 -14.86014 172.26245 301
394.05188 -7.40957 171.75090 317
417.61917 -7.60771 171.94180 309
448.44928 -7.91012 172.27438 301
2675.16479 -29.83616 133.51634 482
394.39359 -2.16037 171.71024 317
417.93292 -1.66370 171.93372 309
448.85205 -0.99945 172.27007 301
2652.58447 47.52596 134.72745 469
394.53934 3.06843 171.75229 317
418.13568 4.29554 171.93645 309
449.00427 5.95959 172.23473 301
2642.72192 123.37423 134.90788 469
394.58081 8.27356 171.72827 317
418.08167 10.28981 171.96475 309
448.93817 12.90801 172.25397 301
2638.92188 199.78055 135.47786 395
394.44217 13.51561 171.73521 317
417.91165 16.28033 171.95761 309
448.65036 19.88923 172.27312 301
2638.12720 276.64258 135.13986 466
394.11972 18.71417 171.74319 317
417.50656 22.17980 171.95073 309
483.34634 32.04139 165.13963 301
2643.43604 355.01257 134.85753 461
393.66284 23.88089 171.71977 317
416.93839 28.11427 171.95399 309
480.01016 39.64665 165.61531 446
2651.20190 435.19794 134.39618 459
392.99667 29.02680 171.69858 317
416.18506 34.02306 171.91034 309
472.92749 46.24369 166.87787 451
2661.35522 516.63892 133.84222 482
2837.30518 554.36499 215.07445 330
2843.31909 555.49396 302.28406 471
392.21420 34.17597 171.71695 317
415.25742 39.90212 171.92038 309
466.12619 52.53268 167.96100 455
2672.98291 600.63025 133.04704 478
391.27643 39.25293 171.67703 317
414.16174 45.72590 171.88612 309
464.77216 60.04679 167.95758 297
2686.53931 687.19147 131.60156 475
390.19873 44.31320 171.69481 316
441.44595 60.59030 164.91193 307
2705.99805 777.79028 130.65736 413
388.92023 49.36266 171.68584 316
439.61786 67.19666 164.91893 307
387.48932 54.30431 171.67142 316
434.21844 72.47026 165.75284 428
385.92365 59.23398 171.65413 316
426.21536 76.37232 167.20255 434
407.49551 74.81924 164.76884 316
421.66428 81.41628 167.76953 305
405.17804 80.32732 164.77164 317
419.35306 87.42634 167.75215 305
402.70972 85.70628 164.75397 317
396.95062 89.22840 165.70312 433
389.94012 91.64474 167.09216 438
385.30862 95.33263 167.67236 315
382.47186 100.12312 167.65143 313
1777.34497 5639.06250 613.44391 423
1592.78528 5659.85938 611.63831 484
1404.38928 5663.34619 610.03406 499
1266.63049 5941.25049 626.01483 499
1242.05078 5802.02539 811.36847 256
866.79230 5799.36426 614.30652 489
-262.58295 3375.37402 448.54526 403
-372.63651 3376.56226 449.74054 446
124.67781 147.59222 167.34886 315
117.67666 147.30396 166.39612 314
111.27340 145.82634 165.77748 426
102.79403 146.68269 164.20367 421
96.05737 144.95001 163.44382 310
111.58350 118.84315 171.45634 315
79.38161 153.72043 166.28809 305
107.70414 115.18465 171.51176 315
74.20593 149.21983 166.26122 305
-2132.76465 2391.24341 331.35742 426
103.91805 111.43658 171.51424 315
64.98121 148.49980 164.93416 411
100.24443 107.54197 171.55099 315
54.76273 148.21901 163.26146 299
96.66751 103.55347 171.60649 315
77.90778 119.30957 171.76019 307
-1264.71411 1246.92468 219.11365 437
-1263.55029 1245.61438 282.32315 304
93.28788 99.50144 171.60930 315
74.05025 114.63651 171.80164 308
25.20609 153.11189 166.03697 296
89.98609 95.34198 171.63235 315
70.37950 109.78805 171.82826 308
15.27876 150.35895 164.85390 390
86.88896 91.07632 171.66956 316
66.80347 104.88663 171.81459 308
40.37430 123.12656 172.07265 300
83.87640 86.73236 171.68404 316
63.39954 99.89922 171.84886 308
36.42865 117.20074 172.11441 300
80.99084 82.29420 171.74460 316
60.17812 94.77473 171.90836 308
32.74442 111.24575 172.13301 300
-43.27959 156.77676 165.12857 286
78.27293 77.79097 171.74519 316
57.11192 89.55620 171.92538 308
40.87365 98.60684 174.78136 317
12.60483 114.36557 176.56549 269
75.69521 73.17325 171.77336 316
61.66950 80.45011 173.90430 383
53.68787 84.59290 178.38145 323
27.20074 98.26360 179.96858 292
73.27374 68.51953 171.78497 316
65.28268 72.35063 175.50934 389
56.95259 76.35184 179.72971 300
24.25155 91.94231 179.98958 313
-26.36686 116.08849 180.05133 345
75.33071 61.93277 173.06128 385
68.85403 64.76132 177.05833 381
54.48532 71.07198 179.73276 300
34.95241 79.65337 182.49646 335
22.59138 85.06194 187.57832 330
4.42089 93.01501 192.95039 282
77.12189 55.76180 174.17961 419
71.85365 57.85430 178.35945 415
48.54294 67.18708 178.96800 388
41.14055 70.18048 184.07816 372
32.32673 73.67798 189.39075 367
21.06894 78.19948 195.03596 331
4.47986 84.91766 201.06653 310
78.44592 50.01582 175.11511 423
73.35474 51.86314 179.25232 418
52.00269 59.62784 180.17863 392
45.02906 62.17622 185.14954 388
37.54297 64.91888 190.45624 383
28.65753 68.16705 196.11411 367
18.92186 71.73817 202.23109 361
79.73270 44.47359 175.99028 428
72.97982 46.72006 179.59435 308
54.94748 52.68327 181.24532 409
48.66004 54.73074 186.12947 405
41.56755 57.03854 191.31938 387
33.96435 59.57524 196.87393 382
25.00311 62.52273 202.84940 366
81.05758 39.18323 176.77446 432
71.42808 42.00430 179.60744 308
57.09166 46.27095 182.07031 420
51.21024 47.98195 186.90103 408
44.83030 49.87494 192.00188 403
37.99197 51.88208 197.48668 398
30.41794 54.08178 203.34204 381
82.28879 34.10007 177.54735 435
64.17995 38.81068 178.21013 428
58.96679 40.19587 182.76645 424
53.42907 41.60555 187.57097 419
47.46860 43.14936 192.60222 407
40.92595 44.86114 197.94762 402
33.92368 46.67952 203.70328 397
26.07858 48.74364 209.83842 355
83.11321 29.26197 178.10829 457
65.88660 33.19775 178.98250 432
60.80894 34.35089 183.43582 427
55.44426 35.54916 188.13998 423
49.80976 36.85142 193.15512 418
43.73184 38.21335 198.41048 406
37.00940 39.73380 203.97546 401
29.72473 41.40372 210.00648 360
-184.64066 90.09377 216.58492 296
83.25426 24.71513 178.43095 459
67.06851 27.84219 179.51471 454
62.47947 28.76607 184.03091 450
57.40392 29.72254 188.70358 426
51.94462 30.80197 193.60945 421
46.19165 31.90985 198.76878 416
39.97984 33.11467 204.28560 404
33.06250 34.44458 210.14342 399
-182.88757 76.41901 216.58116 424
83.46828 20.21110 178.76547 460
67.30705 22.82078 179.82472 456
62.75259 23.55709 184.28938 451
58.03239 24.32518 188.96860 447
53.02264 25.14590 193.90042 442
47.77592 25.97797 199.06491 437
42.19565 26.88246 204.49413 432
36.17032 27.83757 210.28998 402
83.70898 15.80020 179.02446 462
67.59307 17.89644 180.08914 457
63.10031 18.44808 184.53577 453
58.35696 19.06534 189.18021 448
53.44139 19.71362 194.07613 443
48.25137 20.36048 199.20067 438
42.78130 21.07926 204.59338 433
36.97948 21.84288 210.34438 428
83.93480 11.44123 179.27557 463
67.91418 12.98935 180.33267 458
63.45025 13.41610 184.76547 454
58.77628 13.85088 189.38557 449
53.87225 14.34825 194.22835 445
48.78146 14.84385 199.31970 440
43.38972 15.37739 204.68793 435
37.66972 15.89445 210.39915 429
84.21841 7.09127 179.47359 464
68.23447 8.16094 180.54169 460
63.82194 8.44888 184.94379 455
59.22313 8.72541 189.54092 451
54.41665 9.03026 194.37347 446
49.33862 9.38079 199.42195 441
43.98321 9.73757 204.80368 436
38.34222 10.10978 210.47292 430
-181.64404 24.43164 269.72864 486
-186.76140 24.72805 284.12582 496
83.94921 2.84357 179.51164 316
68.60433 3.38710 180.75316 461
64.24863 3.50112 185.11513 456
59.69761 3.68340 189.68283 452
54.91397 3.85162 194.48233 447
49.89418 4.01447 199.55025 442
44.60751 4.15648 204.87401 437
39.01379 4.37666 210.49277 431
-181.59264 11.79167 269.72153 487
