# .PCD v.7 - Point Cloud Data file format
VERSION .7
FIELDS x y z rgb
SIZE 4 4 4 4
TYPE F F F U
COUNT 1 1 1 1
WIDTH 447
HEIGHT 1
VIEWPOINT 6875.122070 -3651.940674 142.346481 -0.587010 -0.137149 -0.023967 0.797518
POINTS 447
DATA ascii
84.84264 -3.32731 179.31400 466
68.95148 -3.23162 180.43013 462
64.59431 -3.18170 184.81337 457
60.04552 -3.15085 189.41896 453
55.27238 -3.11103 194.26865 448
50.23999 -3.09879 199.33350 443
44.93661 -3.05399 204.69743 438
39.34346 -3.01136 210.33289 432
-178.20190 -1.44390 229.67519 476
-152.36011 -1.65392 241.15199 418
-181.55171 -1.50520 269.81729 487
-136.31819 -1.75685 275.86719 495
84.45589 -7.56785 179.23030 465
68.46693 -7.96260 180.31815 461
64.08466 -8.07668 184.71855 457
59.49272 -8.18882 189.34802 452
54.67425 -8.30897 194.17516 447
49.63642 -8.45519 199.28854 442
44.31600 -8.57318 204.65523 437
38.65464 -8.71388 210.31433 431
-153.48824 -13.45101 241.21208 417
-181.62524 -14.21143 269.75284 487
84.09570 -11.82946 179.09882 464
68.07357 -12.75909 180.21333 460
63.61946 -13.00637 184.64313 455
58.94687 -13.28948 189.27275 451
54.12434 -13.53246 194.11949 446
49.02061 -13.84554 199.22661 441
43.64061 -14.13721 204.62509 436
37.95176 -14.47800 210.30801 430
-181.54103 -26.86099 269.79886 486
83.74570 -16.14404 178.98158 463
67.67490 -17.55970 180.07837 459
63.22091 -17.98457 184.50507 454
58.48605 -18.37865 189.14247 450
53.59961 -18.79513 193.99969 445
48.42499 -19.28515 199.13791 440
42.99106 -19.78296 204.55339 435
37.25441 -20.29008 210.28586 429
-181.53146 -39.59556 269.95688 486
83.41426 -20.48895 178.80017 462
67.30905 -22.45333 179.86800 458
62.81520 -22.96950 184.35971 453
58.08287 -23.55030 189.02046 448
53.12319 -24.12705 193.91600 444
47.88928 -24.75994 199.02077 438
42.41114 -25.44752 204.48715 433
36.54651 -26.14181 210.23752 428
83.15042 -24.89504 178.58018 461
66.98251 -27.34465 179.67612 456
62.42991 -28.04370 184.15178 452
57.68805 -28.78518 188.84804 447
52.40533 -29.56453 193.73405 425
46.78066 -30.45424 198.86418 420
40.80392 -31.33366 204.35387 415
34.14193 -32.33798 210.13133 403
82.88598 -29.33412 178.33745 459
65.98131 -32.45984 179.28654 436
61.01197 -33.38017 183.72400 431
55.81984 -34.30930 188.39197 427
50.32326 -35.35327 193.31920 422
44.49531 -36.42310 198.57332 417
38.03887 -37.63826 204.09163 405
31.02569 -38.90842 210.04485 399
-183.03233 -78.53632 216.57344 425
82.08078 -33.93938 177.90173 439
64.25794 -37.82299 178.65935 432
59.15679 -38.93173 183.18484 428
53.82037 -40.07619 187.89772 423
48.16454 -41.35110 192.91605 412
41.80162 -42.72677 198.20900 407
35.03830 -44.17339 203.81766 401
27.58769 -45.84998 209.88681 359
-189.44839 -93.19262 216.50633 297
80.77046 -38.77659 177.31093 436
62.51465 -43.37152 177.99774 429
57.28147 -44.70100 182.57602 425
51.70249 -46.10814 187.37521 413
45.54952 -47.64655 192.39507 408
38.99882 -49.32927 197.79807 403
31.91275 -51.08744 203.52904 398
-188.45261 -106.55716 202.70312 484
79.43346 -43.80345 176.62695 431
70.54281 -46.36712 179.64125 308
55.32045 -50.70246 181.91156 414
49.28189 -52.40240 186.71649 409
42.88305 -54.26931 191.88428 393
35.59367 -56.33006 197.28218 388
27.52727 -58.65471 203.17027 372
78.11031 -48.98888 175.93251 427
71.81956 -51.02819 179.63350 308
52.80306 -57.09167 181.06136 398
46.17516 -59.24793 185.94432 393
39.06718 -61.53485 191.11436 388
31.09378 -64.06673 196.68939 372
21.93951 -66.96670 202.63783 367
76.76925 -54.38560 175.13718 424
71.69321 -56.18186 179.25903 419
49.51154 -64.09107 179.99493 394
42.51289 -66.58339 185.00372 389
34.59999 -69.35154 190.23100 373
25.72819 -72.55444 195.88818 368
14.25081 -76.59254 201.99438 317
75.41264 -60.00863 174.27507 420
69.34955 -62.36163 178.23199 387
46.03122 -71.48007 178.88261 389
38.25251 -74.53822 183.89807 373
28.33168 -78.45182 189.09924 337
15.40958 -83.51383 194.58156 316
-2.58400 -90.54276 200.61562 285
72.48205 -66.47773 172.90588 387
66.10269 -69.21136 176.95117 395
52.44978 -75.09579 179.77722 300
30.09992 -84.66492 182.00337 336
16.65927 -90.38656 187.09554 315
70.84731 -72.76039 171.83971 316
62.77234 -76.48109 175.55609 390
54.59508 -80.33636 179.76089 300
16.30479 -98.17575 179.02171 287
-26.21746 -118.01727 180.48363 284
72.94983 -77.38538 171.83160 316
58.29346 -84.82303 173.76578 328
48.25558 -89.91174 177.82974 325
24.64122 -101.80212 180.03862 292
75.23093 -81.95447 171.83447 316
54.06402 -93.50110 172.00993 308
34.53195 -104.18006 174.09340 273
-52.80597 -151.90067 164.90781 372
77.67641 -86.45874 171.79610 316
56.88476 -98.69704 171.99083 308
29.50989 -114.76328 172.22581 300
-46.74158 -159.64470 165.15680 286
80.23783 -90.89185 171.78940 316
59.79605 -103.80643 171.93671 308
32.92542 -120.77997 172.14696 300
82.90250 -95.22543 171.76590 316
62.91512 -108.79823 171.90524 308
0.74418 -150.86331 163.51520 382
85.78386 -99.50542 171.74214 316
66.17593 -113.70412 171.91615 308
15.32115 -150.54587 165.92415 389
88.76668 -103.67730 171.67766 316
69.58078 -118.48264 171.84267 308
20.51766 -156.43663 166.05960 295
91.85539 -107.75669 171.65381 316
45.14281 -146.33604 163.35339 300
95.08818 -111.73267 171.62689 316
52.52636 -149.19621 164.23636 403
98.48118 -115.60150 171.64624 316
63.03898 -148.81322 166.16110 409
92.12838 -118.51839 171.67207 315
57.14067 -152.20999 166.27917 305
74.83968 -144.19023 163.53947 307
62.32609 -157.05829 166.27350 304
79.96362 -148.14223 163.65822 422
88.77123 -147.83321 165.21823 427
96.57418 -148.13545 166.42723 313
101.53134 -151.73267 166.48686 314
-727.21722 -1252.42712 -93.10764 491
-737.14197 -1266.02209 -42.56371 490
106.59470 -155.21887 166.45549 314
118.04177 -148.98576 169.53717 439
124.86165 -148.93262 170.44809 316
13900.80176 -48738.89453 210.22571 1000
915.46240 -1985.99475 -130.87679 430
954.15918 -1902.07068 -120.03795 421
1004.69464 -1854.45544 -116.02914 431
1057.15295 -1815.99146 -113.88873 436
1111.26599 -1782.56677 -112.37231 497
1149.91455 -1859.34753 -57.23426 499
1167.75134 -1753.77869 -113.02489 437
1226.75317 -1730.23193 -114.26662 435
1272.28064 -1807.95410 -59.06391 497
17211.94336 -29196.87695 -3119.58374 1000
1289.19373 -1709.83008 -116.36672 434
1416.35559 -1913.92371 -80.93505 496
1357.43091 -1697.29346 -121.07298 331
1389.38049 -1744.73975 -60.35534 336
1424.73157 -1680.08203 -124.90182 454
1564.62219 -1874.43506 -87.38046 446
1496.16040 -1665.37305 -59.76097 445
1545.03333 -1619.84338 -59.03146 384
1604.79309 -1587.83154 -61.03077 454
1676.39758 -1567.21692 -65.21998 419
374.17081 -106.21864 167.65019 313
377.40924 -101.39926 167.64301 315
380.55292 -96.49940 167.67160 315
386.77557 -93.31662 166.73724 429
394.49152 -90.65470 165.25880 424
399.05325 -86.11537 164.79552 317
401.79367 -80.66314 164.73807 317
416.08615 -86.84818 167.77399 305
380.57117 -65.68735 171.61615 316
418.58936 -80.75212 167.85275 305
382.57327 -60.75917 171.65103 316
426.74860 -76.72736 166.47321 424
384.43744 -55.82111 171.62151 316
435.35214 -72.45411 164.90675 308
386.08002 -50.81336 171.63785 316
437.62259 -65.80837 164.91655 308
379.16153 -49.56123 171.58307 317
401.78391 -55.78495 171.78719 309
451.67764 -69.54359 167.88338 298
380.61322 -44.52048 171.59268 317
403.39612 -50.02569 171.82823 309
453.38666 -62.12717 167.92375 298
381.91171 -39.46227 171.60846 317
404.86887 -44.22866 171.84273 309
462.77005 -56.34057 166.43935 450
266.67044 -13.82825 203.50232 315
406.09879 -38.42355 171.84938 309
469.88315 -49.65047 165.32890 445
267.08557 -12.41557 203.50708 315
407.18967 -32.58371 171.87776 309
472.38287 -41.93644 165.07755 300
267.44931 -10.99346 203.50978 315
35.22164 -3.93036 -8.32613 309
438.55881 -30.10345 172.14433 301
267.77078 -9.57199 203.50093 315
408.80276 -20.81327 171.89853 309
439.31561 -23.23838 172.14023 301
268.04037 -8.15596 203.50500 315
409.34390 -14.90026 171.87651 309
439.91550 -16.35408 172.19987 301
268.27527 -6.72470 203.50027 315
409.73386 -8.97805 171.86035 309
440.33038 -9.48198 172.15321 301
507.90665 -10.59494 168.28448 289
268.45892 -5.30289 203.50916 315
409.93747 -3.09516 171.90379 309
440.51901 -2.64603 172.18434 301
507.83841 -1.54276 168.32007 289
268.59924 -3.88737 203.50844 315
409.93433 2.81367 171.86707 309
440.53729 4.25104 172.16005 301
508.01410 7.47485 168.33044 288
268.68353 -2.46322 203.50014 315
409.77951 8.73603 171.87535 309
440.29745 11.12864 172.17549 301
268.73538 -1.06085 203.50771 315
409.43329 14.61425 171.88986 309
439.83047 17.97472 172.17986 301
268.73141 0.34701 203.50171 315
408.87573 20.41301 171.88147 309
439.22131 24.82816 172.17885 301
268.68137 1.74323 203.50946 315
408.16364 26.29438 171.84048 309
438.36346 31.58616 172.14957 301
268.58615 3.13761 203.50467 315
407.28137 32.08569 171.86107 309
471.89828 45.60746 165.05359 300
268.45264 4.51255 203.50478 315
406.22946 37.86243 171.83626 309
466.27280 52.41060 165.89626 454
268.27948 5.88403 203.50354 315
405.02042 43.58207 171.80298 309
458.56314 58.40904 167.10342 427
5521.95898 1455.01575 387.95270 477
268.05106 7.22677 203.49973 315
403.57309 49.30652 171.78677 309
452.94547 64.60108 167.88016 298
5413.64844 1603.51746 385.60974 490
267.77899 8.56414 203.50970 315
402.02133 54.91439 171.80952 309
451.13068 71.86386 167.81920 298
5324.92725 1755.50256 385.62811 497
5354.72852 1765.61011 564.25842 423
267.46875 9.88614 203.50105 315
427.90411 71.05557 164.86217 308
5258.77002 1912.34509 384.88974 480
5294.55371 1927.06165 564.35065 499
267.12054 11.18536 203.49754 315
424.71417 77.10188 165.01508 433
5220.14990 2081.86963 386.64380 318
266.72604 12.46877 203.50793 315
416.89093 80.88754 166.42320 438
266.28506 13.73619 203.50397 315
409.45349 84.52050 167.66182 442
5117.52246 2413.14648 567.41766 466
265.80640 14.97415 203.49904 314
406.40359 90.17696 167.74048 305
390.26306 88.17645 164.67117 317
386.55878 92.81561 164.92381 437
379.65994 95.24907 166.22302 442
373.02347 97.51589 167.32454 446
369.14917 101.56979 167.59938 315
365.90640 106.03622 167.55606 315
2848.26562 2258.97363 439.49170 392
2665.33228 2239.53662 430.53940 398
2498.39380 2222.21045 422.07919 436
2377.80811 2241.39282 416.96085 467
2281.65649 2282.17676 414.94778 437
-598.98889 28682.97852 5923.57031 1000
135.28130 151.12640 166.42053 314
130.41084 147.88406 166.54367 477
125.03806 145.50073 166.38547 314
118.11394 145.14412 165.52426 432
110.05880 145.96774 164.11722 427
103.51653 144.36877 163.47217 311
117.97546 118.04082 171.41817 315
87.67316 153.35109 166.37021 305
113.96281 114.66640 171.42279 315
82.45726 149.17087 166.29918 305
110.05279 111.15205 171.48524 315
74.06170 148.18452 165.20399 417
106.28979 107.54096 171.49509 315
63.78313 148.54813 163.52344 412
102.66518 103.79948 171.55060 316
84.75014 120.01387 171.69516 308
99.13691 99.96537 171.55775 316
80.75670 115.56296 171.71011 308
34.15118 155.14003 166.09099 297
95.72205 96.03452 171.59364 316
76.90000 111.03564 171.73048 308
27.95799 149.93860 165.88025 395
92.44843 91.97158 171.61440 316
73.17606 106.36934 171.79373 308
14.07098 150.43079 163.66986 391
-1774.30640 1483.79077 299.30594 457
89.32793 87.87901 171.65022 316
69.58882 101.63957 171.80707 308
43.61445 119.71424 172.05618 300
86.33951 83.61042 171.65712 316
66.18736 96.74446 171.81943 308
39.65480 114.02976 172.06316 300
83.45788 79.32409 171.69965 316
62.94408 91.76308 171.84604 308
35.88389 108.14803 172.06053 300
-38.61212 153.44312 165.19667 286
80.71938 74.92200 171.72882 316
59.83810 86.70211 171.91547 308
44.55685 95.34363 174.92104 315
25.87654 105.88456 178.39893 267
78.14295 70.42776 171.75986 316
63.32124 78.20551 173.61044 383
57.08744 81.44949 178.44336 379
30.61522 95.30747 179.94557 292
-16.32632 119.87033 180.32695 284
75.72748 65.85722 171.77118 316
67.10152 70.00384 175.32127 375
59.87492 73.55034 179.67885 300
27.30187 89.31091 179.91179 328
5.18906 100.01433 184.05031 279
76.96556 59.69630 172.80698 415
70.69771 62.44997 176.83195 380
57.33784 68.41803 179.71223 300
37.93635 77.07600 182.38748 334
25.51966 82.61619 187.45039 329
9.02321 89.91603 192.91647 308
78.29848 53.69614 173.83153 418
73.03292 55.83836 178.01767 414
50.13187 65.16502 178.69960 387
42.70932 68.20308 183.72426 382
34.16061 71.68748 189.09264 366
23.88502 75.91273 194.81062 330
8.13802 82.37555 200.84848 309
79.62360 47.96122 174.78912 424
74.55077 49.88003 178.86176 418
53.60551 57.62984 179.94293 392
46.55447 60.26105 184.87100 387
39.05911 63.08248 190.12253 382
30.40857 66.28584 195.76422 366
20.62900 69.92466 201.93542 361
80.89426 42.48854 175.65015 427
75.50548 44.28613 179.56439 308
56.20815 50.77625 180.89281 409
49.92997 52.90333 185.80067 404
43.08416 55.19061 190.98959 386
35.42412 57.77246 196.55321 381
26.69873 60.74345 202.53746 365
82.17521 37.20576 176.45741 431
73.93346 39.71188 179.59882 308
58.21441 44.41869 181.69733 420
52.44376 46.15165 186.56856 408
46.03761 48.09024 191.67142 403
39.14819 50.17573 197.16687 398
31.82939 52.36772 203.01073 392
22.69748 55.14047 209.28813 336
83.45238 32.14150 177.18848 434
72.44390 35.07095 179.59543 308
60.11051 38.35489 182.42429 423
54.55726 39.81500 187.20830 418
48.71601 41.39682 192.31110 407
42.11287 43.13662 197.64430 401
35.08734 45.02333 203.35744 396
27.48045 47.07247 209.53273 391
83.78118 27.44734 177.63835 457
67.03046 31.35896 178.61710 431
61.94556 32.50677 183.09639 427
56.56842 33.76638 187.79861 422
50.92667 35.07933 192.79697 417
44.88234 36.49886 198.08035 412
38.18702 38.07173 203.69705 400
30.88563 39.75233 209.69000 394
-183.25600 89.72050 216.39761 295
83.94473 22.87013 177.98798 459
67.70667 26.11715 179.10054 454
63.10762 27.05254 183.58066 450
58.26425 28.02087 188.32713 445
53.06247 29.02692 193.28050 420
47.26571 30.19176 198.48740 415
41.08838 31.44400 203.96111 410
34.14128 32.81494 209.88483 398
-183.07503 76.24293 216.34003 424
84.12868 18.34584 178.28441 460
67.96147 21.05754 179.38608 456
63.39926 21.85795 183.86037 451
58.60680 22.62268 188.58228 446
53.57661 23.48462 193.52504 442
48.31076 24.36809 198.70911 436
42.69984 25.28185 204.17386 431
36.76574 26.29857 210.01840 426
84.34807 13.91578 178.57861 462
68.23206 16.09883 179.65535 457
63.68518 16.73389 184.12213 453
58.97284 17.38604 188.78444 448
53.97397 18.02624 193.69461 443
48.74943 18.72768 198.82182 438
43.28545 19.46758 204.31201 433
37.44464 20.29119 210.07887 427
84.60273 9.57841 178.80109 463
68.54360 11.19380 179.92813 458
64.04697 11.65919 184.33057 454
59.33765 12.16330 188.97943 449
54.46257 12.67423 193.87904 445
49.29840 13.19130 199.00906 440
43.89240 13.74980 204.39462 434
38.15774 14.32705 210.15350 429
84.89410 5.25065 179.04504 464
68.85332 6.36278 180.10931 459
64.43152 6.68863 184.53017 455
59.81696 7.02087 189.18402 451
54.96711 7.37463 194.02159 446
49.86627 7.71831 199.12866 441
44.50301 8.11972 204.49484 435
38.83359 8.49797 210.18457 430
-181.54367 24.09439 269.81415 486
-186.75900 24.48816 284.32294 496
85.16687 0.95894 179.19681 466
69.27166 1.55914 180.32362 461
64.87636 1.75204 184.72551 456
60.27496 1.90491 189.32353 452
55.48515 2.11486 194.16232 447
50.44418 2.31407 199.21407 442
45.10146 2.51276 204.55338 436
39.46024 2.72787 210.25307 431
-181.55650 11.36259 269.77032 487
