# .PCD v.7 - Point Cloud Data file format
VERSION .7
FIELDS x y z rgb
SIZE 4 4 4 4
TYPE F F F U
COUNT 1 1 1 1
WIDTH 425
HEIGHT 1
VIEWPOINT 6661.041016 -2722.177002 149.180099 -0.823956 -0.072928 -0.116165 0.549803
POINTS 425
DATA ascii
86.43950 -0.36992 178.04091 467
70.45057 -0.35667 179.26633 462
65.95322 -0.37676 183.84761 457
61.24965 -0.34854 188.60480 453
56.29463 -0.34376 193.57220 448
51.11292 -0.34130 198.80882 443
45.64652 -0.36935 204.35738 438
39.86850 -0.31075 210.16129 432
-139.05356 -0.30100 277.18481 284
86.01264 -4.87521 177.94067 466
69.90367 -5.40543 179.17253 460
65.38426 -5.55003 183.72925 457
60.64688 -5.67696 188.50388 452
55.69174 -5.82315 193.49860 447
50.44412 -5.99981 198.74146 442
44.92726 -6.13181 204.29245 437
39.13475 -6.33666 210.18092 431
-145.76543 -12.08732 278.27277 266
85.61198 -9.44184 177.82806 464
69.45033 -10.46005 179.07587 460
64.85059 -10.73052 183.62216 455
60.04336 -11.04148 188.42188 451
55.07159 -11.35202 193.41367 446
49.78528 -11.65068 198.72630 441
44.23809 -11.97709 204.26672 436
38.39032 -12.34419 210.16905 430
85.24053 -14.01009 177.68555 463
69.04445 -15.53144 178.92809 459
64.41800 -15.97349 183.49828 454
59.54302 -16.42866 188.32268 450
54.50247 -16.87842 193.31488 445
49.18422 -17.37638 198.62894 440
43.58262 -17.92039 204.22791 435
37.62633 -18.48631 210.11063 429
84.91824 -18.59866 177.51068 462
68.66607 -20.68522 178.73618 457
63.99228 -21.26959 183.34947 453
59.10664 -21.86693 188.17732 448
53.97536 -22.48456 193.22963 443
48.59055 -23.18873 198.51590 438
42.90680 -23.91207 204.12189 433
36.91054 -24.65408 210.12787 428
84.57210 -23.26290 177.29152 461
68.28053 -25.85304 178.54022 456
63.57837 -26.56210 183.17439 452
58.64536 -27.35061 187.98615 447
53.50335 -28.16900 193.07407 442
47.86539 -29.07781 198.42467 419
41.66787 -30.03272 204.05559 414
34.88896 -31.10659 210.01505 402
84.30564 -27.95616 177.08093 459
67.59739 -31.14874 178.23413 435
62.47135 -32.13522 182.81424 431
57.09949 -33.16013 187.63264 426
51.48131 -34.22388 192.71913 421
45.44861 -35.35934 198.08267 416
38.84298 -36.58738 203.82063 404
31.60489 -37.99692 209.91559 399
-183.02145 -78.98240 216.42778 424
83.74564 -32.80305 176.71059 438
74.22832 -34.92562 179.58672 308
60.54772 -37.99763 182.21283 427
55.03048 -39.22618 187.10915 423
49.20301 -40.49857 192.26094 418
42.68736 -41.92520 197.73868 406
35.74317 -43.51217 203.51743 401
28.15861 -45.19890 209.75795 361
-191.01001 -94.22441 216.47566 296
82.35072 -37.94531 176.08289 435
75.18572 -39.75393 179.58060 308
58.58776 -44.04790 181.60616 424
52.85018 -45.50248 186.55182 419
46.52504 -47.11022 191.77940 407
39.73699 -48.87508 197.28917 402
32.47683 -50.70713 203.24251 397
24.04511 -52.90828 209.58568 341
80.96551 -43.23166 175.40582 432
76.04579 -44.67363 179.52646 426
56.52529 -50.32091 180.92586 413
50.33045 -52.12670 185.92102 409
43.67694 -54.01790 191.18681 404
36.25525 -56.23356 196.80759 387
27.93270 -58.63907 202.82732 371
79.57559 -48.70942 174.64867 429
74.49071 -50.36398 178.85318 422
53.94978 -57.02854 180.07930 397
47.04856 -59.25533 185.08916 393
39.73188 -61.64482 190.40297 388
31.52456 -64.33121 196.12248 372
22.06604 -67.34991 202.29089 367
78.13773 -54.39812 173.84683 423
72.88924 -56.29869 178.08115 419
50.44651 -64.37656 178.98903 393
43.26107 -66.94878 184.11757 388
35.09659 -69.90016 189.51134 372
25.86244 -73.17934 195.38393 367
13.47923 -77.64931 201.55533 316
76.65313 -60.28480 172.97757 420
70.40742 -62.74841 177.06651 386
55.96719 -68.47521 179.77171 300
38.75809 -75.31298 182.94788 373
28.14320 -79.51007 188.23692 336
14.42628 -84.91908 193.93294 316
-8.65117 -94.05636 199.86157 267
74.48863 -66.72820 171.82280 316
66.82941 -70.04581 175.67720 381
57.94103 -73.90091 179.73329 300
29.84293 -86.07246 180.96916 335
15.53359 -92.26054 186.09348 315
76.44105 -71.54982 171.78488 316
63.20470 -77.78993 174.21188 390
57.18379 -80.61133 179.07877 386
12.77982 -101.48444 177.35202 286
-20.90184 -117.40862 180.38789 284
78.48543 -76.32033 171.79564 316
57.36280 -87.08540 172.06578 328
46.82029 -92.43701 176.27431 325
29.98349 -101.06755 179.99484 292
80.70583 -80.99818 171.74869 316
59.51754 -92.66453 171.94194 308
31.62975 -107.99587 172.16447 300
-48.38378 -152.02177 164.66843 373
83.06956 -85.61922 171.74789 316
62.21049 -97.96735 171.92833 308
34.80571 -114.17755 172.18393 300
-40.83670 -158.89201 165.23306 286
85.57482 -90.15781 171.70584 316
65.09774 -103.14802 171.88153 308
38.16047 -120.22441 172.12465 300
88.20953 -94.60211 171.70070 316
68.12476 -108.23340 171.89566 308
5.64723 -150.76141 163.40408 383
91.00084 -98.94364 171.69839 316
71.33700 -113.27348 171.87093 308
20.22607 -150.39351 165.89954 389
93.91525 -103.26627 171.66927 316
74.67759 -118.19375 171.84430 308
25.79193 -156.12988 166.11729 297
96.97828 -107.43929 171.64867 316
50.40020 -145.99634 163.42650 300
100.12193 -111.52814 171.59637 316
57.66280 -149.00525 164.28239 404
103.46008 -115.51257 171.59544 316
68.22023 -148.59277 166.17647 409
106.89008 -119.35452 171.55084 316
73.33056 -152.94009 166.32628 305
90.07294 -144.85913 163.55774 307
-1414.14966 -1746.94568 138.99591 422
95.77480 -147.57118 164.09041 425
-1322.05554 -1756.17603 141.32350 462
104.30244 -146.77083 165.74008 420
-1240.45337 -1773.36707 142.49153 450
110.40967 -148.45767 166.48158 314
-1167.35278 -1796.47437 143.59660 457
117.10230 -148.99911 167.46999 316
-1097.68921 -1822.16516 144.02045 460
124.11004 -148.73251 168.59480 489
-1029.66528 -1847.57788 144.35834 391
-963.28558 -1873.24158 145.09013 392
-897.69592 -1898.26807 145.67917 393
-1000.48145 -2072.28906 217.76802 312
-980.45599 -2038.99670 295.05792 499
-832.31995 -1922.97607 145.91652 393
-767.62354 -1947.59375 146.07713 394
-799.68835 -2177.23755 138.94922 470
304.95078 -1328.08545 85.92560 476
305.78040 -1343.89502 128.51381 284
23854.10547 -34769.71094 -3866.86401 1000
2605.64014 -3290.46655 88.48347 433
2761.35571 -3282.35303 86.19909 401
2979.28223 -3341.73218 80.42719 372
365.70538 -108.55614 167.59518 315
369.26471 -103.75865 167.62381 315
372.60504 -98.88118 167.67702 315
379.28720 -95.93684 166.57785 434
386.95111 -93.27538 165.21477 429
4233.63818 -2206.58423 70.48548 426
391.66348 -88.70579 164.72690 316
4248.39160 -2052.57495 72.02756 487
394.70670 -83.27617 164.70146 316
409.12115 -90.07117 167.79120 305
4272.88232 -1908.15222 73.36597 494
4311.84229 -1926.19653 219.38918 499
373.99884 -67.49662 171.55728 316
411.93262 -83.93127 167.81021 434
4317.79395 -1773.86938 73.27437 474
4357.62793 -1791.18555 219.89027 499
376.22772 -62.56561 171.57164 316
420.08646 -79.94112 166.49466 429
4369.86279 -1643.03711 73.20888 474
4414.62646 -1660.44226 219.54924 499
378.26874 -57.59478 171.60478 316
428.68716 -75.73781 164.99248 424
4698.94824 -1611.98462 63.92922 499
380.18896 -52.55915 171.58853 316
431.63446 -69.23483 164.86493 308
4472.86865 -1381.23889 72.55067 477
381.99283 -47.45948 171.63626 316
433.93997 -62.55812 164.88101 308
456.23401 -69.02722 167.87009 297
4607.47217 -1274.00476 69.84313 447
268.14240 -12.71178 203.50027 314
406.98230 -48.34043 171.86493 308
458.14395 -61.50476 167.97118 297
268.77505 -11.22021 203.50256 314
408.56470 -42.48949 171.90256 308
464.31213 -54.91402 167.13060 452
269.35919 -9.70508 203.50555 314
409.98068 -36.50850 171.89517 308
471.46564 -48.23700 166.03566 448
269.89496 -8.18997 203.51009 314
411.21228 -30.57207 171.89259 309
477.67126 -41.11650 165.15533 300
270.38620 -6.66940 203.50679 314
412.28607 -24.59930 171.89833 309
443.59256 -28.58402 172.19371 301
270.83942 -5.15448 203.50069 314
413.15091 -18.58557 171.93390 309
444.52560 -21.57073 172.24733 301
271.23428 -3.62816 203.49815 314
413.84924 -12.56662 171.90141 309
445.32120 -14.58913 172.22392 301
271.58804 -2.09210 203.49918 314
414.38879 -6.59467 171.93973 309
445.84906 -7.58104 172.19897 301
271.87497 -0.56483 203.50061 314
414.69620 -0.58251 171.94052 309
446.20148 -0.60098 172.20461 301
272.13092 0.95878 203.50568 314
414.87912 5.43681 171.93701 309
446.31073 6.45973 172.24385 301
2847.94458 82.02879 44.82446 372
272.34164 2.47408 203.50250 314
414.85297 11.41869 171.93230 309
446.24628 13.42952 172.24779 301
2740.10693 158.36272 51.47121 391
272.52222 3.99976 203.50052 285
414.62830 17.42770 171.93535 309
445.96048 20.37720 172.19461 301
2638.09814 227.61775 57.99155 390
390.46933 20.40266 171.67461 316
414.29196 23.39406 171.89119 309
445.48071 27.32372 172.20386 301
2540.98364 292.26910 63.72806 385
390.03522 25.59553 171.66101 316
413.74152 29.35303 171.92363 309
479.78021 39.83951 165.20215 443
2464.05591 354.23288 68.22366 413
2483.51294 357.44864 141.67557 491
389.40250 30.77709 171.65082 316
412.99881 35.24730 171.88380 309
472.52127 46.57481 166.38896 448
2412.64160 416.92297 70.53615 430
2525.24585 438.43680 139.87558 410
388.64929 35.90459 171.65709 316
412.06119 41.16483 171.89000 309
465.58170 53.07952 167.53688 452
2372.44360 479.82404 72.15674 394
2586.51587 526.88409 137.54442 405
387.71762 40.99769 171.66646 316
410.98575 46.97018 171.89880 309
462.16931 60.12347 167.94858 297
2338.78687 542.16779 73.77671 496
386.64407 46.09499 171.62083 316
438.49667 61.10863 164.88591 307
2317.79321 607.01697 73.70347 406
385.42648 51.08723 171.62927 316
436.71008 67.74731 164.90015 308
384.04523 56.08386 171.63327 316
432.23901 73.38795 165.51610 424
382.51923 60.98764 171.60960 316
424.01749 77.44390 167.02933 429
404.33972 75.99334 164.74889 317
418.71915 82.23853 167.78647 305
402.09851 81.51800 164.75703 317
416.53494 88.29973 167.75912 305
399.64862 86.92651 164.72501 317
393.68719 90.35741 165.78656 429
386.56723 92.85119 167.20459 434
382.40302 96.84816 167.64995 315
379.63373 101.66649 167.60419 313
626.09015 1789.11523 215.26503 389
625.42090 1786.70825 275.08780 446
-1250.19153 4115.33008 -958.70630 1000
127.26595 147.23372 167.33728 316
120.90723 146.49869 166.38620 314
114.43230 145.51239 165.48903 419
106.07239 146.35666 163.76823 414
101.11111 142.95583 163.50211 311
89.37634 155.41235 166.37114 306
117.80506 117.79701 171.40244 316
84.85767 150.78081 166.35423 306
114.59162 113.96358 171.44858 316
78.28629 148.03574 165.64519 409
111.42666 109.96662 171.44717 316
67.84589 148.42093 163.70639 403
108.39480 105.91422 171.48618 316
62.70315 143.75407 163.42050 300
105.52961 101.76187 171.50766 316
86.39037 116.57822 171.67821 308
38.42524 153.83258 166.09052 297
102.78100 97.49950 171.54913 316
83.22368 111.69434 171.69279 308
30.72068 149.87450 165.32011 386
100.14385 93.17284 171.55463 316
80.16246 106.71976 171.74042 308
17.11570 149.53813 163.10181 285
97.67518 88.72302 171.56909 316
77.30235 101.62763 171.76671 308
50.51862 118.67406 171.99857 300
95.29934 84.20953 171.62169 316
74.56177 96.48241 171.79953 308
47.34208 112.60370 171.98901 300
-26.24557 156.08174 165.33990 286
93.09452 79.61225 171.61874 316
72.04366 91.20759 171.81606 308
44.29152 106.46474 172.05533 300
-37.97837 151.70604 164.02237 363
91.02975 74.95764 171.66609 316
69.64652 85.87419 171.81258 308
41.89737 100.03616 172.15417 324
18.01719 112.17619 175.21597 277
89.13647 70.25136 171.68268 316
67.39437 80.47488 171.85225 308
54.16535 86.71661 175.45279 330
40.35891 93.19766 179.84056 292
-7.46681 115.73190 180.28674 284
87.37840 65.43771 171.67371 316
67.56686 74.04077 172.43567 381
60.81923 76.93189 177.36987 391
27.34349 91.38468 177.97307 336
6.32558 100.54816 182.67041 288
85.72085 60.58644 171.67760 316
71.39693 66.29117 173.87204 386
64.69913 68.91628 178.66954 396
37.78001 79.60375 180.25949 341
25.46694 84.45789 185.77144 336
9.54652 90.78816 191.78401 316
84.28139 55.70108 171.70979 316
74.78015 59.13375 175.13741 419
67.58865 61.69418 179.65247 300
43.66109 70.28839 181.62344 388
34.81562 73.52077 187.38443 373
23.77049 77.47086 193.52559 337
8.40037 83.03286 200.00612 317
82.97763 50.73280 171.70747 316
76.48392 52.81113 175.88551 423
66.10904 56.18655 179.64673 300
47.75250 62.18115 182.65614 393
39.89436 64.71412 188.40332 388
30.93724 67.60810 194.46048 372
20.88525 70.87220 201.05138 367
81.60600 43.02650 174.76324 432
76.62704 44.44971 178.97940 426
57.08913 50.14690 180.40953 421
50.79728 51.97554 185.41917 409
44.08556 53.92289 190.81131 404
36.55256 56.10980 196.45331 387
28.24572 58.55104 202.51901 372
82.95281 37.60505 175.53065 436
77.53322 38.99381 179.56630 309
59.08537 43.69458 181.15726 424
53.30584 45.18847 186.19429 420
46.92592 46.85920 191.42955 408
40.11298 48.62479 197.01463 403
32.75784 50.52138 203.02695 398
24.43236 52.67632 209.42839 341
84.29053 32.32925 176.28972 439
76.25044 34.11606 179.58334 309
61.03580 37.56250 181.86931 428
55.45755 38.76765 186.79008 423
49.56095 40.12628 192.00981 418
43.05498 41.59093 197.49129 406
36.05206 43.14373 203.31898 401
28.44774 44.82921 209.63483 396
-188.62106 93.39064 216.10945 296
84.69090 27.40633 176.71910 459
75.09812 29.27694 179.59258 309
62.94361 31.59779 182.49828 431
57.53833 32.60857 187.35603 426
51.84843 33.71741 192.47008 422
45.78276 34.85349 197.92358 417
39.15739 36.16271 203.66792 405
31.92208 37.53853 209.82333 399
-183.30473 78.57894 216.12602 424
84.89104 22.64495 177.03014 461
68.61869 25.22921 178.29836 456
63.88473 25.96707 182.93871 452
58.91020 26.78018 187.78647 447
53.70697 27.57993 192.90862 442
48.17992 28.46238 198.26167 420
41.96967 29.46082 203.94365 415
35.17601 30.56621 209.94847 403
85.14982 17.93956 177.31522 462
68.90666 19.95249 178.57640 458
64.18329 20.56194 183.18559 453
59.31258 21.19191 188.04250 449
54.13227 21.85620 193.08614 444
48.72738 22.57254 198.44992 439
43.00335 23.29023 204.10091 433
36.99986 24.06485 210.09053 428
85.40577 13.25381 177.57878 463
69.21906 14.79206 178.80280 459
64.56784 15.24191 183.41127 454
59.69399 15.69145 188.20805 450
54.59558 16.20556 193.29398 445
49.28440 16.67785 198.56171 440
43.65991 17.22145 204.20583 435
37.72446 17.79635 210.15042 429
85.69975 8.65516 177.78207 464
69.55997 9.65981 179.05014 460
64.95882 9.99105 183.62601 455
60.13563 10.29712 188.40857 451
55.13995 10.59012 193.42491 446
49.86044 10.91726 198.69711 441
44.31145 11.28661 204.26775 436
38.39706 11.65776 210.17480 431
86.02470 4.08374 178.00284 467
69.92684 4.60560 179.24098 461
65.42004 4.76846 183.76917 457
60.64449 4.89947 188.57242 452
55.68163 5.07637 193.58492 447
50.45967 5.22491 198.84183 442
44.97943 5.43346 204.38248 437
39.12397 5.58330 210.22032 432
