# .PCD v.7 - Point Cloud Data file format
VERSION .7
FIELDS x y z rgb
SIZE 4 4 4 4
TYPE F F F U
COUNT 1 1 1 1
WIDTH 401
HEIGHT 1
VIEWPOINT 5621.955566 -3984.087402 151.074341 -0.057203 -0.139140 0.000808 0.988619
POINTS 401
DATA ascii
82.24271 -0.79749 179.53572 316
68.53569 -0.79797 181.15007 462
64.26518 -0.82160 185.48160 457
59.75869 -0.83134 190.00311 453
55.04374 -0.82099 194.75731 448
50.09925 -0.84968 199.77818 443
44.88655 -0.83368 205.05794 438
39.34800 -0.81266 210.63533 432
-152.54166 -0.87639 241.00098 419
-181.71721 -0.92762 269.40808 487
-147.56143 -0.91726 277.31726 284
82.73576 -5.16198 179.52832 316
68.14698 -5.61561 180.94356 461
63.79459 -5.73353 185.30232 457
59.29433 -5.90207 189.84969 452
54.51239 -6.04935 194.62396 447
49.53463 -6.21386 199.67351 442
44.25598 -6.39610 204.93806 437
38.71514 -6.54616 210.57037 431
-152.94679 -12.62553 241.05931 416
-181.69637 -13.58763 269.54303 487
-152.26775 -12.65125 278.09161 285
83.34400 -9.47828 179.52522 316
67.82903 -10.47493 180.70988 460
63.41009 -10.75678 185.08481 455
58.82627 -11.03146 189.66743 451
54.03537 -11.35912 194.49199 446
48.99087 -11.67902 199.53819 441
43.63462 -11.99563 204.86565 436
38.02603 -12.35705 210.53206 430
-181.66809 -26.24286 269.62637 486
83.57949 -13.85975 179.38010 463
67.53998 -15.38210 180.46590 459
63.06512 -15.80935 184.83691 454
58.43364 -16.25328 189.46509 450
53.52915 -16.71872 194.29436 445
48.40073 -17.22372 199.37860 440
43.04811 -17.72705 204.75781 435
37.32473 -18.27475 210.47194 429
-181.65332 -39.09484 269.84457 486
83.37074 -18.33709 179.10590 462
67.26638 -20.38891 180.15529 457
62.78204 -20.96159 184.62067 453
58.05744 -21.52723 189.26262 448
53.13926 -22.16094 194.12685 443
47.93948 -22.85561 199.24918 438
42.43287 -23.53232 204.65675 433
36.67283 -24.25359 210.36823 428
83.19798 -22.85426 178.74989 461
67.02446 -25.43638 179.85648 456
62.50673 -26.13684 184.31792 452
57.71057 -26.91001 188.97005 447
52.74529 -27.72650 193.89471 442
47.39772 -28.56725 199.04916 419
41.43839 -29.53033 204.49361 414
34.92530 -30.54737 210.29034 402
83.01213 -27.49809 178.41399 459
66.57228 -30.61323 179.42342 435
61.64269 -31.58916 183.88712 431
56.41106 -32.58304 188.55055 426
50.94674 -33.60583 193.49403 421
45.14285 -34.71824 198.68614 416
38.71758 -35.95745 204.21092 404
31.74360 -37.27076 210.14461 399
-183.07504 -78.36707 216.40225 424
82.68859 -32.20173 177.94756 439
64.93623 -36.21050 178.69673 432
59.79847 -37.34923 183.23062 428
54.43618 -38.52126 187.97282 423
48.75786 -39.83024 192.98103 418
42.50917 -41.25563 198.24088 406
35.69582 -42.73566 203.89641 401
28.23191 -44.42773 209.93646 358
-188.92107 -93.00688 216.39401 296
81.45451 -37.29293 177.20242 435
70.38929 -40.14036 179.63905 308
57.98411 -43.33347 182.47208 424
52.42871 -44.77414 187.29834 420
46.21208 -46.35214 192.38695 408
39.59172 -48.05948 197.75339 402
32.51187 -49.90158 203.56822 397
24.28337 -52.02591 209.74467 263
80.17313 -42.58003 176.40874 432
72.03435 -44.96635 179.63161 308
56.05414 -49.62277 181.70961 414
49.94505 -51.39719 186.56876 409
43.51466 -53.23218 191.72620 404
36.31709 -55.36743 197.25392 387
28.27921 -57.66238 203.09631 371
78.90009 -48.05532 175.54652 427
73.86407 -49.70041 179.62883 308
53.65303 -56.27674 180.79964 397
46.89877 -58.46485 185.65575 393
39.70225 -60.79363 190.90486 388
31.71801 -63.41438 196.54068 372
22.49461 -66.43752 202.53860 367
77.57462 -53.78086 174.59402 423
72.42196 -55.65052 178.77139 419
50.26780 -63.64165 179.57373 393
43.19469 -66.18748 184.63266 388
35.23835 -69.06124 189.96649 372
26.17019 -72.31358 195.66179 367
14.73464 -76.44014 201.81935 316
76.21890 -59.76930 173.60690 420
70.19407 -62.14367 177.62057 386
46.68655 -71.42236 178.30870 388
38.77148 -74.57243 183.35675 373
28.65587 -78.58070 188.61647 336
15.46929 -83.83915 194.23376 316
-3.59190 -91.39132 200.34363 284
73.30472 -66.65434 172.06122 386
66.71367 -69.52017 176.14735 381
56.09832 -74.11935 179.77586 300
30.23534 -85.31229 181.31427 336
16.31683 -91.31281 186.45880 315
75.02905 -71.76511 171.79053 316
63.13135 -77.35821 174.52089 390
57.19710 -80.14804 179.37184 386
13.97886 -100.51541 177.76303 286
-21.61343 -117.29856 180.40617 284
77.60860 -76.51791 171.79395 316
57.50655 -86.79324 172.33194 328
47.00228 -92.08450 176.42484 325
29.48651 -101.05180 179.97122 292
80.42659 -81.15314 171.75560 316
59.34445 -92.77478 171.93536 308
31.63429 -108.02379 172.20396 300
-48.40695 -152.00273 164.63580 373
83.32066 -85.72535 171.72418 316
62.61259 -98.02786 171.94135 308
35.33474 -114.10014 172.15662 300
-39.76125 -158.50334 165.24316 286
86.36279 -90.24777 171.74275 316
66.02408 -103.19315 171.88644 308
39.23891 -120.12786 172.13380 300
89.57362 -94.66305 171.70833 316
69.61900 -108.25273 171.84560 308
7.10685 -150.70598 163.38676 382
92.88553 -98.99210 171.66522 316
73.35719 -113.18648 171.81953 308
22.21013 -150.35313 165.78026 386
96.31907 -103.25949 171.65712 316
77.21268 -118.09780 171.82362 308
28.75702 -155.71196 166.15060 297
99.93369 -107.38833 171.59448 316
53.69975 -145.65126 163.42480 300
103.65432 -111.46426 171.56932 316
61.23136 -148.88916 164.18370 404
107.49255 -115.41471 171.52505 316
72.29527 -148.44580 166.09288 409
111.44550 -119.26820 171.49777 316
78.23188 -152.50931 166.36427 306
95.27503 -144.57265 163.56989 311
101.71088 -147.05055 164.12781 414
-644.36737 -993.32324 85.90486 437
-644.35541 -993.28119 129.52563 439
110.73592 -146.13492 165.84073 419
117.16875 -148.02974 166.45815 314
124.26286 -148.72871 167.39925 316
391.44629 -98.09190 167.67648 313
394.60336 -93.13864 167.73169 313
399.26410 -88.99154 167.31691 429
406.96381 -86.31034 165.91251 442
413.41580 -82.70611 164.84953 316
416.29303 -77.19984 164.85504 316
430.86365 -83.53270 167.81206 305
418.98505 -71.70057 164.84108 316
433.46747 -77.40021 167.85919 305
397.05588 -57.25051 171.79262 316
437.08841 -71.70412 167.59657 424
399.00284 -52.31923 171.80318 316
444.87744 -67.22881 166.26962 433
400.82077 -47.33781 171.80276 316
452.63043 -62.35413 164.95256 307
402.50684 -42.30593 171.83775 316
454.79688 -55.73062 164.95532 307
403.96597 -37.26574 171.84091 317
456.69397 -49.03244 164.97832 308
405.31296 -32.16642 171.83740 317
428.56189 -36.62506 172.07298 309
480.41086 -46.51433 168.02896 297
406.50287 -27.04199 171.85187 317
429.90271 -30.76417 172.05432 309
481.70395 -38.97076 168.12346 298
407.55820 -21.93171 171.85080 317
431.01831 -24.88990 172.06444 309
487.30936 -31.98310 167.29184 458
408.42667 -16.75796 171.85689 317
431.99097 -18.97185 172.09407 309
493.14435 -24.77135 166.32056 454
409.15085 -11.61614 171.89609 317
432.71542 -13.10506 172.09088 309
463.61728 -15.03051 172.38065 301
409.71063 -6.45544 171.88013 317
433.29880 -7.15388 172.10367 309
464.25751 -8.11269 172.40797 301
400.12195 -0.76864 171.78256 316
424.00317 -0.73853 172.02554 309
450.84546 -0.72762 173.21797 485
399.90466 4.45862 171.78081 316
423.81308 5.26294 172.01117 309
450.81894 6.12999 173.17940 485
399.50052 9.70054 171.75433 316
423.35760 11.24399 171.99590 309
454.72748 13.24165 172.33932 301
398.92908 14.92386 171.79079 316
422.76041 17.22905 171.99884 309
454.01785 20.19672 172.28545 301
3657.39526 326.65817 218.02675 470
398.21243 20.17417 171.74275 316
422.02054 23.18318 172.01161 309
487.11002 31.48979 165.49611 458
3593.70923 427.73349 107.01479 492
397.34442 25.34183 171.76935 316
421.03909 29.14087 171.97514 308
480.99997 38.72419 166.49081 443
396.31522 30.55933 171.72673 316
419.88004 35.08962 171.97711 308
473.78500 45.42102 167.59798 448
395.13690 35.70909 171.74597 316
418.59106 40.99363 171.95319 308
470.31210 52.56713 167.96114 297
393.76794 40.85312 171.69994 316
446.29333 54.36316 164.94023 307
468.65295 60.15312 167.95253 297
392.30338 45.93776 171.70367 316
444.35013 61.08973 164.90746 307
390.60498 50.97929 171.65935 316
442.11456 67.76560 164.89287 307
388.82745 55.97316 171.65292 316
434.28577 72.42282 166.21553 424
386.83090 60.92999 171.64162 316
425.98413 76.49127 167.71445 430
408.31491 76.08701 164.74779 316
422.95163 82.40349 167.77428 305
405.57266 81.58730 164.76743 316
402.70880 87.07163 164.74173 316
53915.75391 27426.88086 -11733.39160 1000
395.05157 89.88664 166.16573 429
387.66653 92.43942 167.51674 434
384.02643 97.12189 167.63007 315
2671.47754 1550.95801 123.69881 438
380.81882 101.98661 167.60258 313
18591.62305 39085.65234 -6883.41455 1000
2438.90869 5594.43945 220.69592 452
2241.73389 5606.45850 220.60741 261
2036.55896 5581.33594 220.18768 492
1867.13733 5658.83154 220.34756 302
1878.45630 5696.30811 414.29559 492
1491.72949 5677.29736 220.22934 471
419.77844 3120.48608 115.52592 340
423.02777 3172.32837 218.10988 474
318.74423 3052.42334 118.02590 294
323.85498 3197.13965 218.03680 471
-12941.68555 51231.91016 5437.47461 1000
119.40564 149.33153 170.50328 316
97.88303 152.56694 166.38022 314
93.49629 148.96097 166.34593 313
87.20250 147.66290 165.49004 429
79.27286 147.97029 163.99643 424
73.64342 145.24638 163.39915 307
91.28964 119.08196 171.62125 315
56.89490 153.47017 166.18442 305
88.07685 115.14553 171.67827 316
51.90984 149.02451 166.01024 409
84.99017 111.08300 171.70540 316
41.44110 149.40872 164.08463 403
82.03381 106.93450 171.73302 316
63.10284 122.59962 171.85347 308
79.24581 102.70998 171.73299 316
59.85629 117.73492 171.91707 308
9.44769 156.68221 165.83859 295
76.55645 98.37852 171.74275 316
56.71547 112.75383 171.92853 308
4.41567 150.62804 165.74251 389
73.98154 93.94495 171.75845 316
53.74281 107.66527 171.92618 308
-10.15492 150.99373 163.21872 382
71.57410 89.42988 171.78719 316
50.94999 102.51167 171.95877 308
23.85953 119.66576 172.20105 300
69.32066 84.84698 171.81917 316
48.33267 97.20961 172.01892 308
20.73240 113.53903 172.18907 300
-56.65099 159.15134 164.96135 288
67.16732 80.18484 171.85704 316
54.93194 86.91682 174.43654 322
44.31134 92.73930 178.25903 319
18.88898 106.68794 180.00792 292
67.20004 74.45065 172.44563 376
61.06541 77.53298 176.63773 385
48.80217 83.80061 179.80176 300
-13.37908 115.36996 174.59837 293
70.49951 67.34621 173.97101 381
64.49411 70.12881 178.01178 390
37.14116 82.95863 177.70335 335
25.43603 88.44805 182.19728 330
6.11802 97.55170 186.39713 282
73.59938 60.66061 175.38104 386
67.70175 63.21391 179.25003 395
43.86334 73.52328 179.57214 373
35.33382 77.17620 184.38135 336
23.72053 82.19981 189.26775 331
8.18891 88.91594 194.55721 310
75.23183 54.95322 176.24739 420
67.71705 57.92403 179.61205 308
47.45386 65.90507 180.75099 389
40.35207 68.72250 185.59624 384
32.01494 72.00504 190.76909 368
22.16373 75.85724 196.27374 332
7.21456 81.81197 202.03587 311
76.66270 49.54112 177.00961 424
66.42778 53.18809 179.62346 308
50.84926 58.76597 181.79190 393
44.10534 61.17499 186.56171 388
36.92381 63.73903 191.64674 383
28.49123 66.79581 197.08382 368
19.15847 70.14648 203.03659 362
78.01673 44.27506 177.72966 427
59.27556 50.38634 178.18088 422
53.64180 52.16433 182.67841 410
47.64939 54.12481 187.42578 405
40.87198 56.32626 192.39536 388
33.52045 58.67132 197.75177 383
24.95471 61.44436 203.54662 367
79.39649 39.23136 178.37022 431
61.06934 44.55487 178.87257 425
55.83608 46.07378 183.34673 421
50.12263 47.72137 188.05125 409
43.95980 49.47126 192.97801 404
37.34243 51.37937 198.31543 399
30.12653 53.46669 203.94296 382
80.74955 34.34390 178.95132 434
62.81759 38.93183 179.50406 429
57.76827 40.22616 183.95050 424
52.40415 41.58165 188.58339 420
46.60886 43.03960 193.50011 408
40.22110 44.70593 198.70186 403
33.46135 46.42419 204.23402 397
-188.61790 103.25989 203.03622 483
81.76276 29.65170 179.37779 458
64.56647 33.45604 180.11186 432
59.65361 34.58379 184.48378 428
54.45233 35.72140 189.05597 423
48.95475 36.93892 193.94751 418
43.00168 38.23660 199.07622 406
36.49672 39.69218 204.52740 401
29.15633 41.33800 210.33466 358
-182.66335 88.45343 216.68861 438
81.81248 25.26352 179.51353 316
65.97379 28.26126 180.56656 455
61.49004 29.10851 184.96147 450
56.45826 30.05436 189.49416 426
51.12167 31.04987 194.31665 421
45.48143 32.12832 199.34082 416
39.40107 33.28986 204.76660 405
32.53064 34.60865 210.46710 364
-182.81203 75.51196 216.65196 424
81.47350 20.95002 179.51685 316
66.32645 23.34863 180.77232 456
61.88195 24.05173 185.12143 452
57.21364 24.75304 189.69984 447
52.33626 25.54984 194.53000 442
47.20700 26.35366 199.57674 437
41.73097 27.18744 204.90523 432
35.69564 28.12317 210.57040 403
81.31815 16.62307 179.52451 316
66.72678 18.44159 180.89503 457
62.29718 19.01505 185.28896 453
57.65676 19.59143 189.81956 448
52.82636 20.19745 194.63237 444
47.70728 20.83021 199.64034 438
42.33227 21.51754 204.99040 433
36.68863 22.22875 210.62575 428
81.23590 12.28244 179.53447 316
67.11859 13.63269 181.02477 459
62.71663 14.02166 185.37067 454
58.15271 14.45103 189.91934 450
53.34398 14.89476 194.68541 445
48.30550 15.36648 199.74199 440
42.99842 15.86733 205.00729 435
37.38222 16.36964 210.61920 429
81.31573 7.96605 179.52058 316
67.56089 8.81367 181.14381 460
63.21649 9.07567 185.48074 456
58.69831 9.35424 189.99330 451
53.95051 9.62341 194.77220 446
48.92953 9.93490 199.75034 441
43.68834 10.25475 205.02861 436
38.12132 10.63419 210.62407 430
-181.78502 24.26034 269.44263 486
-186.74635 24.51499 283.73663 496
81.54657 3.61854 179.53850 316
68.06840 4.01719 181.20535 461
63.77349 4.13586 185.54889 457
59.26822 4.27614 190.06029 452
54.55484 4.41364 194.79474 447
49.59455 4.55639 199.83044 442
44.35994 4.72920 205.09677 437
38.78893 4.90204 210.67311 431
-181.80838 11.60903 269.39166 487
