# .PCD v.7 - Point Cloud Data file format
VERSION .7
FIELDS x y z rgb
SIZE 4 4 4 4
TYPE F F F U
COUNT 1 1 1 1
WIDTH 423
HEIGHT 1
VIEWPOINT 6126.184570 -4109.829590 141.122162 0.171252 -0.126395 0.000906 0.977085
POINTS 423
DATA ascii
79.04218 -1.49646 179.56183 316
67.84721 -1.47659 181.75749 462
63.65192 -1.45996 185.99608 457
59.25211 -1.44882 190.43727 453
54.63506 -1.47134 195.08972 448
49.78472 -1.48138 200.01851 443
44.68626 -1.45844 205.15675 437
39.27037 -1.48315 210.62804 432
-152.17197 -1.30411 240.72295 419
-181.97633 -1.29864 269.06305 487
-136.33829 -1.36143 274.80640 495
79.24436 -5.79539 179.56044 316
67.44000 -6.12646 181.57280 461
63.17361 -6.27581 185.85124 456
58.75611 -6.42886 190.32245 452
54.07620 -6.55912 195.02443 447
49.21210 -6.72831 199.94531 442
44.03601 -6.88606 205.09993 437
38.59474 -7.04041 210.59210 431
-152.90140 -12.94475 240.76634 416
-182.00565 -13.77235 269.02292 487
-156.14127 -13.01467 278.14041 285
79.62346 -10.08292 179.56317 316
67.05590 -10.86093 181.41251 460
62.73296 -11.11931 185.68279 455
58.25192 -11.40590 190.20171 451
53.57828 -11.68946 194.86790 446
48.63766 -12.01008 199.84799 441
43.43486 -12.35120 205.03838 436
37.91649 -12.67173 210.54590 430
-181.90440 -26.32879 269.11710 486
80.10211 -14.36482 179.54922 316
66.75291 -15.60994 181.20157 459
62.38664 -16.00280 185.53484 454
57.85009 -16.46455 190.04097 449
53.09112 -16.90746 194.76378 445
48.09323 -17.36313 199.73473 440
42.83740 -17.86711 204.94563 435
37.26266 -18.38433 210.53528 429
-181.84001 -38.92727 269.28021 486
80.72198 -18.61079 179.55711 316
66.43197 -20.42696 180.98654 457
62.07756 -20.97835 185.31322 453
57.46850 -21.53425 189.84256 448
52.63512 -22.18125 194.58820 443
47.59784 -22.81752 199.56818 438
42.21825 -23.45875 204.85332 433
36.55060 -24.18635 210.49036 428
81.46142 -22.87908 179.53557 316
66.15229 -25.29473 180.74182 456
61.72726 -25.99815 185.09406 452
57.10087 -26.73790 189.62331 447
52.21568 -27.51691 194.43152 442
47.08782 -28.30478 199.46748 437
41.28019 -29.22203 204.76721 414
34.94073 -30.24984 210.37418 402
82.02517 -27.20421 179.46431 459
65.74106 -30.27163 180.37585 435
60.93400 -31.21081 184.70322 431
55.89679 -32.16337 189.26657 426
50.53345 -33.20354 194.05118 421
44.87547 -34.28286 199.13467 416
38.66706 -35.45734 204.47124 404
31.85262 -36.73913 210.25615 364
-182.97478 -77.54807 216.52615 425
81.74254 -31.69472 179.09686 439
64.11469 -35.63581 179.71646 432
59.18345 -36.73153 184.09590 428
53.97351 -37.90581 188.71614 423
48.44041 -39.14903 193.60721 418
42.33680 -40.47688 198.71576 406
35.75408 -41.95234 204.21101 401
28.42443 -43.59649 210.07710 358
-186.63550 -91.48800 216.46214 296
80.51440 -36.53695 178.39583 434
62.47837 -41.14561 179.00429 429
57.34697 -42.50626 183.45433 424
51.96357 -43.88713 188.15733 420
45.95538 -45.40136 193.06168 408
39.54799 -47.03442 198.28651 403
32.67430 -48.82985 203.88680 397
-188.40511 -105.30325 202.70012 484
79.22353 -41.59512 177.68082 431
60.75716 -46.91619 178.25098 425
55.50871 -48.46684 182.74028 421
49.61147 -50.16079 187.47408 409
43.36306 -51.98363 192.45782 404
36.58457 -53.92630 197.79655 387
28.93172 -56.15107 203.51256 371
77.92818 -46.78135 176.92601 427
68.21169 -49.95280 179.63651 308
53.24831 -54.79218 181.93893 410
46.81258 -56.88876 186.68129 393
39.88724 -59.13854 191.75821 388
32.30595 -61.62456 197.17038 372
23.41191 -64.49477 203.02638 367
76.64882 -52.21613 176.05742 424
69.92941 -54.62552 179.66101 308
50.08885 -61.76324 180.83580 393
43.24419 -64.20943 185.67986 388
35.70053 -66.93159 190.87186 372
26.96312 -70.09050 196.38028 367
17.23514 -73.57069 202.40259 332
75.32917 -57.86690 175.14825 420
69.97576 -59.99276 179.17894 386
46.64497 -69.18548 179.66159 389
39.18488 -72.15781 184.55899 373
30.59853 -75.52028 189.82431 368
18.61396 -80.29062 195.25061 332
1.64544 -86.99370 201.12080 311
73.00784 -64.18645 173.90479 386
66.81022 -66.84870 177.85123 395
42.74319 -77.26608 178.27086 373
32.23309 -81.76708 182.90984 336
19.82735 -87.14662 187.91379 315
-0.86191 -96.06496 192.89389 283
69.85152 -71.21361 172.29411 381
63.47794 -74.20437 176.41306 390
52.21298 -79.49914 179.81061 300
21.07676 -94.10154 180.34372 314
-28.31213 -117.33126 180.48134 284
70.76992 -76.62578 171.86809 316
59.96517 -82.10172 174.83652 385
50.88054 -86.74774 178.90448 325
22.62345 -101.06647 180.07401 292
73.27836 -81.23540 171.82079 316
52.20905 -92.78670 172.02910 308
38.46032 -100.36441 175.43895 319
-55.42089 -151.82523 164.71252 373
75.94112 -85.79050 171.79781 316
55.21460 -98.02926 171.98814 308
27.93754 -114.14033 172.20555 300
-48.20032 -159.08293 165.12883 288
78.76427 -90.26949 171.79596 316
58.42048 -103.20052 171.96695 308
31.63209 -120.15363 172.15831 300
81.72009 -94.68995 171.77744 316
61.79053 -108.21249 171.95227 308
-1.16676 -150.93799 163.34039 382
84.82670 -99.02873 171.75333 316
65.27718 -113.18681 171.88406 308
13.73869 -150.59546 165.77417 389
88.06677 -103.22650 171.71906 316
68.95315 -118.06087 171.86713 308
19.98139 -155.96687 166.12129 295
91.41435 -107.37395 171.66223 316
44.81216 -145.84308 163.40588 300
94.90234 -111.41899 171.65062 316
51.91092 -149.23811 164.13472 403
98.49464 -115.34986 171.64265 316
62.78947 -148.81985 166.02126 409
102.20953 -119.16565 171.60172 316
68.64828 -152.69812 166.33929 306
85.62946 -144.63284 163.55586 307
73.68542 -157.39430 166.36409 305
91.32084 -147.73491 163.94820 424
99.89406 -147.23769 165.51651 419
106.90289 -148.12695 166.45341 314
111.72755 -151.58928 166.43620 314
120.44724 -149.39757 168.27295 489
127.66792 -148.75914 169.43430 486
-636.64185 -1351.54358 163.63481 490
-639.01038 -1355.83899 216.37256 401
1256.22974 -10919.28613 215.67024 1000
370.94128 -107.59917 167.63249 313
374.31985 -102.88806 167.65930 315
377.60254 -98.07755 167.66338 315
383.13855 -94.57595 166.95299 434
390.63452 -91.99738 165.56122 429
396.31183 -88.05799 164.76990 317
399.22131 -82.65540 164.73450 317
413.43396 -89.35962 167.78587 305
401.95706 -77.12907 164.71597 317
416.15765 -83.33631 167.79497 305
380.68207 -62.12173 171.59685 317
422.54758 -78.72964 166.90964 429
382.68115 -57.12722 171.62346 317
431.01630 -74.59337 165.43535 424
384.51520 -52.12907 171.64713 317
435.59158 -68.78252 164.88332 308
386.21207 -47.06918 171.68283 317
437.81070 -62.12667 164.91512 308
387.72919 -42.02126 171.65498 317
410.86624 -47.95484 171.92093 309
461.77768 -61.06837 167.97043 298
389.12997 -36.86465 171.68471 317
412.39853 -42.12723 171.89510 309
465.35352 -53.97355 167.62206 452
390.33197 -31.71270 171.68521 317
413.78732 -36.18571 171.91080 309
472.29837 -47.39520 166.54544 448
391.41418 -26.50012 171.68542 317
415.00290 -30.26094 171.93344 309
479.71332 -40.52267 165.39430 443
2057.82080 -291.88644 155.37892 360
392.29108 -21.29981 171.73325 317
415.99838 -24.30368 171.96077 309
482.35663 -32.68356 165.16409 301
393.06647 -16.04242 171.70935 317
416.84766 -18.29848 171.92531 309
447.94037 -21.25124 172.26926 301
393.63443 -10.75311 171.71761 317
417.47516 -12.31270 171.97586 309
448.69644 -14.29229 172.28397 301
394.07983 -5.51643 171.70757 317
417.93344 -6.27563 171.94656 309
449.23141 -7.27653 172.23712 301
394.33624 -0.24048 171.73148 317
418.21857 -0.24278 171.93991 309
449.56400 -0.25135 172.25700 301
394.45657 5.08050 171.74246 317
418.33423 5.78225 171.96703 309
449.63269 6.78052 172.23653 301
394.40390 10.34275 171.71539 317
418.26825 11.82248 171.96744 309
449.53918 13.75017 172.26297 301
394.21564 15.59021 171.73334 317
417.98853 17.83464 171.95264 309
449.22946 20.78424 172.26671 301
393.84024 20.86591 171.71529 317
417.58017 23.84081 171.92480 309
484.07047 32.18928 165.17265 301
393.30212 26.08942 171.73178 317
416.94995 29.83927 171.94717 309
479.86600 39.73120 165.84497 443
392.62021 31.32063 171.72565 317
416.14575 35.79533 171.91049 309
472.59482 46.56607 167.07809 448
391.75302 36.50850 171.68758 316
415.16940 41.70109 171.92421 309
466.60449 53.18957 168.00012 297
390.77994 41.66018 171.70010 316
414.00189 47.61867 171.89294 309
465.35446 60.79845 167.88499 297
389.61932 46.77895 171.68117 316
441.47910 61.80162 164.89961 307
388.27197 51.86945 171.65050 316
439.65512 68.55490 164.89441 307
386.81964 56.90340 171.63127 316
432.46753 73.30133 166.13808 424
385.20282 61.90583 171.61526 316
424.21494 77.31198 167.65138 429
406.91061 77.01320 164.73524 317
421.47522 83.29807 167.75224 305
404.55930 82.54105 164.75308 317
401.38205 87.67633 164.96696 424
393.73288 90.34227 166.46184 429
2725.00879 1370.85828 123.09705 460
387.20239 93.22685 167.65105 315
384.44104 98.22060 167.64224 313
2713.82471 1575.79260 120.07222 304
381.57971 103.13017 167.62938 313
2642.22217 1751.99036 216.77037 331
2547.38037 1797.31299 120.54129 436
2495.37476 1873.18787 24.20673 447
2525.97437 1899.21606 119.31594 434
2544.24951 1913.41992 216.69803 473
2454.75000 1960.60913 22.31182 327
2412.62354 2043.47534 22.47979 326
1096.85242 5458.16650 -140.33360 407
950.40778 5682.89404 -153.00789 351
-889.76611 5875.36230 -170.68153 424
-1050.63696 5726.50195 -162.27026 442
-1060.81860 5771.43457 28.32601 470
-1223.07703 5655.15283 -160.57718 448
-1236.66455 5713.64111 28.26976 498
-1395.23926 5591.56494 -160.50111 448
-1566.53882 5527.03857 -159.90276 448
-1510.98889 3157.82715 -17.73422 330
-1474.52209 2874.91504 -0.15329 399
-1507.78857 2729.69238 6.70046 432
120.51415 149.13681 168.03450 489
-1563.67859 2631.64648 9.97522 283
112.19316 150.84798 166.37634 314
107.37313 147.30374 166.41243 314
99.94324 146.98985 165.21594 419
91.41033 147.48470 163.61948 424
86.36688 143.65271 163.50662 307
74.29308 156.58221 166.27644 305
103.03700 118.12022 171.54813 315
69.27319 151.87000 166.29362 305
99.34158 114.21813 171.55507 316
62.78314 148.62236 165.75005 409
95.80454 110.24902 171.59435 316
51.89081 149.05234 163.80042 403
92.40987 106.15057 171.62679 316
73.60644 121.73022 171.76692 308
89.09320 101.98907 171.66039 316
69.86892 116.93443 171.81447 308
20.79356 155.03960 166.02010 297
85.95619 97.71465 171.67038 316
66.29290 111.98101 171.86143 308
13.47516 150.38498 165.45003 389
82.93831 93.36018 171.69138 316
62.87663 106.97059 171.85892 308
-1.53370 150.76730 162.93446 382
80.05064 88.88977 171.71570 316
59.58878 101.88278 171.89771 308
32.67525 118.98786 172.10265 300
77.33540 84.34285 171.74901 316
56.49284 96.68639 171.94885 308
29.08912 112.93929 172.17952 300
-47.26875 158.04306 165.09169 286
74.71577 79.76698 171.75873 316
53.53063 91.43172 171.94044 308
39.98299 98.90294 175.40770 319
13.02147 113.66420 177.33072 270
72.27612 75.07070 171.78134 316
60.74443 80.94420 174.57896 384
52.47409 85.17395 178.88156 325
23.75761 99.78021 179.98924 292
70.85780 69.91692 172.08524 381
64.34389 72.96880 176.17963 390
53.61121 77.99856 179.75539 300
23.05780 92.43678 180.42464 314
-27.36833 116.13390 180.42775 343
74.06268 62.78860 173.65611 386
67.68542 65.55386 177.61743 395
43.78262 75.89671 178.13385 373
33.81555 80.24140 182.85536 336
21.67490 85.47922 187.96155 331
3.38655 93.37598 193.17621 283
76.09526 56.56219 174.85118 420
70.93307 58.59792 178.95062 415
47.59083 67.83261 179.47043 389
40.23229 70.76185 184.46094 373
31.59642 74.16634 189.77048 368
20.22548 78.65791 195.29800 332
3.86656 85.14561 201.26115 311
77.47537 50.84630 175.74828 423
71.68725 52.93381 179.60709 308
51.09206 60.35047 180.64685 393
44.18981 62.79457 185.53941 388
36.78703 65.49697 190.80942 373
27.99668 68.67050 196.37314 367
18.39546 72.10607 202.44653 362
-1330.24146 557.80084 162.60490 462
-1332.11023 558.29913 216.51483 462
-1334.13953 559.22095 270.44647 492
78.81930 45.34274 176.57538 427
70.04710 48.19064 179.61058 308
54.11334 53.35593 181.70374 410
47.82307 55.38196 186.52080 393
40.81652 57.68624 191.61838 388
33.31448 60.14374 197.12646 383
24.41218 62.98426 202.99701 367
79.69154 37.31712 178.81477 430
61.45669 42.68365 179.30421 425
56.27887 44.17352 183.70810 420
50.76219 45.80343 188.31107 409
44.62918 47.60767 193.23776 404
38.13943 49.49681 198.45433 398
31.15150 51.53097 204.02480 393
80.96912 32.48932 179.42509 433
63.15841 37.11382 179.97090 428
58.14939 38.42500 184.30873 424
52.86174 39.76459 188.91557 419
47.24131 41.21557 193.73146 407
40.98148 42.83244 198.83603 402
34.25657 44.55860 204.34567 397
-188.73735 102.53160 203.05902 483
80.53088 28.20750 179.52826 316
64.83852 31.76723 180.59737 432
59.98209 32.84405 184.87645 427
54.86098 34.01019 189.41843 423
49.44475 35.21397 194.18965 418
43.73587 36.49540 199.23160 406
37.27693 37.93551 204.58191 401
30.12149 39.58827 210.31993 358
-182.61552 87.66476 216.74661 438
79.85139 23.99352 179.53549 316
65.74117 26.69326 181.00832 454
61.31345 27.54738 185.32826 450
56.67847 28.42517 189.86186 445
51.54508 29.41759 194.57446 421
46.00166 30.49128 199.53276 416
40.11625 31.62431 204.85265 411
33.47266 32.89268 210.47679 363
-182.87875 74.72713 216.65837 424
79.30025 19.74276 179.55391 316
66.02431 21.83945 181.22514 456
61.65852 22.54364 185.51080 451
57.07871 23.31494 190.04645 447
52.28953 24.04222 194.74309 442
47.21143 24.89022 199.72026 437
41.84406 25.73633 204.98009 431
36.14466 26.61967 210.58809 426
78.89098 15.47490 179.54352 316
66.37923 17.07572 181.39502 457
62.03689 17.64941 185.69919 453
57.48124 18.22573 190.18510 448
52.73335 18.82019 194.88814 443
47.70993 19.45013 199.81456 438
42.41040 20.13596 205.04288 433
36.88585 20.81759 210.62260 428
78.59595 11.18452 179.54971 316
66.71912 12.32892 181.58591 458
62.41810 12.75783 185.83377 454
57.91624 13.18677 190.30847 449
53.22102 13.61604 194.98442 445
48.24757 14.10233 199.90572 440
43.06068 14.59066 205.11955 435
37.55960 15.10857 210.64497 429
78.43494 6.87925 179.53699 316
67.09532 7.63012 181.70047 460
62.87838 7.88585 185.95462 455
58.41824 8.19463 190.41910 451
53.77406 8.48250 195.07040 446
48.87193 8.80101 199.99057 441
43.68071 9.14012 205.15573 436
38.21472 9.47990 210.67690 430
-181.93114 23.76950 269.06842 486
-186.74605 24.10235 283.23254 496
-186.69234 24.09531 296.84586 494
78.39948 2.60551 179.54245 316
67.58641 2.93662 181.80583 461
63.35726 3.08372 186.07935 456
58.92789 3.21585 190.49852 452
54.32129 3.37500 195.18181 447
49.44938 3.52118 200.04744 442
44.34009 3.70185 205.21486 437
38.87515 3.87673 210.66881 431
-181.99821 11.24142 269.00027 487
