# .PCD v.7 - Point Cloud Data file format
VERSION .7
FIELDS x y z rgb
SIZE 4 4 4 4
TYPE F F F U
COUNT 1 1 1 1
WIDTH 420
HEIGHT 1
VIEWPOINT 4296.462402 -4098.458008 149.554001 0.000123 -0.125418 -0.001508 0.992103
POINTS 420
DATA ascii
86.34740 -0.76158 178.07161 467
70.59191 -0.73751 179.07407 462
66.35577 -0.74324 183.36475 457
61.91722 -0.75242 187.83876 453
57.27544 -0.73217 192.51859 448
47.25412 -0.74365 202.64951 438
41.82052 -0.74445 208.12761 432
-185.71237 -0.74912 227.28490 381
-151.32593 -0.76002 238.35577 473
-182.90376 -0.73236 267.03275 487
-111.76447 -0.73695 280.03397 494
82.87402 -4.95208 179.51434 317
68.25359 -5.38535 180.84346 461
63.93626 -5.54660 185.18631 457
59.45070 -5.66247 189.72462 452
54.70081 -5.78812 194.49956 447
49.74717 -5.94386 199.47984 442
44.51633 -6.13647 204.71954 437
39.00455 -6.28359 210.29512 432
-152.16550 -12.23992 240.28233 416
-182.12071 -13.15565 268.77710 486
-153.73009 -12.33029 277.63943 290
83.30006 -9.23132 179.53043 317
67.88624 -10.19301 180.67395 460
63.54266 -10.47727 184.99527 455
58.98877 -10.74268 189.56158 451
54.20214 -11.04357 194.32504 446
49.21045 -11.36770 199.32178 441
43.96120 -11.66475 204.60478 436
38.35649 -12.02207 210.20045 431
-182.04283 -25.83548 268.75516 486
83.58353 -13.54681 179.44324 463
67.59271 -15.06347 180.44998 459
63.17155 -15.47499 184.78877 454
58.57470 -15.89879 189.34505 450
53.75746 -16.35380 194.12836 445
48.66785 -16.83571 199.16731 440
43.39408 -17.29714 204.47748 435
37.73312 -17.81695 210.13206 430
-182.01685 -38.60403 268.89706 486
83.31385 -17.91092 179.19577 462
67.30806 -19.91552 180.18867 458
62.85888 -20.49916 184.58374 453
58.19959 -21.07427 189.15150 449
53.34815 -21.67974 193.96826 444
48.23523 -22.32289 198.98953 439
42.78081 -22.99800 204.36166 434
37.07537 -23.73476 209.98953 428
-39998.06250 -5077.26514 4138.38965 1000
83.10331 -22.34401 178.90959 461
67.05985 -24.87589 179.88567 456
62.55277 -25.59491 184.29189 452
57.89637 -26.33910 188.92065 447
52.96188 -27.08446 193.72217 442
47.78744 -27.92742 198.83086 437
42.08253 -28.81578 204.16765 415
35.70712 -29.80984 209.85301 402
82.92666 -26.81047 178.55800 459
66.77830 -29.89743 179.55920 435
61.89269 -30.79431 183.94402 431
56.79805 -31.77451 188.50894 426
51.42125 -32.78699 193.34804 422
45.74432 -33.87217 198.43703 417
39.50635 -35.08461 203.87056 405
32.66902 -36.36772 209.65460 399
-183.97787 -77.64546 215.54146 424
82.77354 -31.35173 178.24176 458
65.12727 -35.27312 178.86549 432
60.15631 -36.38823 183.28893 428
54.88775 -37.57486 187.93437 423
49.35685 -38.78299 192.83034 418
43.26885 -40.13878 198.01025 406
36.61658 -41.63033 203.52220 401
29.48695 -43.21549 209.44466 396
-183.53499 -90.82391 215.50302 438
81.54373 -36.21844 177.55141 436
63.48601 -40.86988 178.12195 429
58.35762 -42.17377 182.59407 424
52.92488 -43.55091 187.32471 420
46.97400 -45.07453 192.29652 408
40.52287 -46.73275 197.56145 403
33.58741 -48.50877 203.16425 397
26.19540 -50.37865 209.23618 392
80.30590 -41.25343 176.77921 432
71.19395 -43.89907 179.61781 309
56.48470 -48.19068 181.88596 421
50.66084 -49.84815 186.61862 409
44.35986 -51.70508 191.67009 404
37.62559 -53.63043 197.03622 387
29.99431 -55.87667 202.75386 382
20.70618 -58.52973 208.90939 337
79.04671 -46.50938 175.99400 427
72.78243 -48.49747 179.62125 309
54.31588 -54.48559 181.03375 410
47.95779 -56.56288 185.83972 393
41.02470 -58.84276 190.87469 388
33.49320 -61.27802 196.34430 383
24.60099 -64.14739 202.19777 367
77.73954 -51.90213 175.13385 424
72.78048 -53.68792 179.15941 419
51.29328 -61.42333 179.94124 393
44.39501 -63.89599 184.80972 388
36.97627 -66.57538 189.99229 373
28.22255 -69.69415 195.51727 367
18.68690 -73.13950 201.56290 362
76.44392 -57.56343 174.20451 420
71.24215 -59.58132 178.27284 386
47.90965 -68.85706 178.70645 389
40.51210 -71.74206 183.68756 373
31.95312 -75.13557 188.91612 368
20.26362 -79.73368 194.39131 332
3.77672 -86.31509 200.29749 311
74.33251 -63.77544 172.97302 386
67.98573 -66.52874 176.88695 382
55.13577 -72.05089 179.75703 300
33.98132 -81.22202 181.98323 336
21.89809 -86.40259 187.04306 331
2.76656 -94.68376 192.12747 283
72.73164 -70.02767 171.81293 316
64.59885 -73.86899 175.36772 390
57.66296 -77.11495 179.73912 300
23.41825 -93.25215 179.54295 314
-25.22018 -116.13405 179.63817 344
75.11912 -74.54754 171.83168 316
61.07782 -81.72900 173.78438 385
52.54295 -86.02773 178.00314 324
29.19453 -97.95412 180.00209 292
77.64937 -79.02699 171.79256 316
57.09884 -90.28423 171.94324 308
40.32483 -99.52159 174.47290 319
12.66484 -114.73351 176.19525 270
80.29892 -83.37906 171.75949 316
60.17480 -95.28519 171.95329 308
33.72414 -110.93757 172.18863 300
-39.87811 -154.48601 165.26265 286
83.10482 -87.66414 171.74918 316
63.33211 -100.21706 171.92639 308
37.38332 -116.66095 172.10805 300
86.01272 -91.86112 171.74426 316
66.62490 -105.00973 171.86674 308
41.19294 -122.26919 172.07632 300
89.04672 -95.97918 171.69229 316
70.11030 -109.68868 171.85214 308
13.90531 -150.53682 164.36203 389
92.17863 -99.96810 171.69351 316
73.68816 -114.28265 171.82906 308
26.07920 -151.28050 166.14949 297
95.49168 -103.87302 171.64365 316
77.46603 -118.74751 171.80994 308
31.13963 -157.10426 166.16272 297
98.87753 -107.64692 171.62988 316
54.41090 -146.88701 163.35788 300
102.38285 -111.32372 171.58296 316
62.44479 -148.84325 164.40321 409
105.99934 -114.87045 171.55028 316
72.46241 -148.44849 166.06128 415
109.75277 -118.34776 171.51735 316
78.19275 -151.91541 166.35068 306
94.04324 -143.82379 163.59798 311
83.22462 -156.07193 166.39078 305
98.95925 -147.33377 163.63737 419
107.12757 -146.50665 165.15891 425
114.82671 -145.82841 166.46921 314
120.24277 -147.88042 166.77412 436
126.18527 -148.89397 167.36687 316
737.03119 -940.49084 71.00819 485
739.69464 -944.95032 106.01012 485
742.35059 -949.89911 141.26974 448
361.42715 -110.26073 167.59651 314
364.81796 -105.77600 167.61681 314
368.09290 -101.16749 167.63231 314
373.44748 -97.92326 166.94608 439
380.50436 -95.48192 165.71840 434
386.65546 -92.18755 164.73480 316
389.56042 -86.96938 164.69418 316
403.41452 -94.02883 167.73636 305
369.17886 -70.78197 171.50554 316
406.10818 -88.14751 167.79396 305
371.31290 -66.05530 171.52907 316
412.23718 -83.78490 166.93817 434
261.64731 -17.08491 203.50143 314
420.23746 -79.87633 165.59108 429
262.22845 -15.80022 203.50473 314
425.58615 -74.62068 164.90007 307
262.77347 -14.50402 203.50754 314
427.95563 -68.19868 164.82596 307
263.27219 -13.17831 203.50380 314
401.21799 -53.24205 171.81694 308
451.60455 -67.89549 167.92522 297
263.72934 -11.84351 203.50096 314
402.79697 -47.54570 171.83307 308
455.25647 -61.04853 167.55991 424
3652.87671 -882.41211 104.65377 492
264.14325 -10.48152 203.50813 314
404.17288 -41.79698 171.81668 308
464.02393 -55.17904 166.15334 452
264.51678 -9.11733 203.50287 314
405.41141 -36.02121 171.85817 308
471.09998 -48.52335 165.07918 448
261.35022 -7.17377 204.44820 314
406.48093 -30.17272 171.86491 308
472.63312 -40.65663 165.11571 299
261.61932 -5.89669 204.44933 314
407.34885 -24.31925 171.86372 308
438.29630 -28.21074 172.14191 300
261.85187 -4.59394 204.44205 314
272.15836 -5.56689 203.50421 306
439.09097 -21.37242 172.14265 300
262.04050 -3.28934 204.44110 314
272.37366 -3.94991 203.50340 306
439.64078 -14.51304 172.15190 300
262.18900 -1.97699 204.44177 314
272.55652 -2.31228 203.50212 306
440.03262 -7.58790 172.18300 300
509.13757 -9.73971 168.25766 288
262.29675 -0.65924 204.44298 314
272.67566 -0.66396 203.50319 306
440.26614 -0.70104 172.17148 300
509.00687 -0.66544 168.32915 288
262.36230 0.66306 204.44183 314
272.74716 0.98650 203.50296 306
440.24493 6.25789 172.16983 300
509.30704 8.43355 168.26462 288
262.39560 1.98507 204.44337 314
272.86383 2.64231 203.47533 276
439.97992 13.12349 172.14694 300
262.37042 3.31433 204.44156 314
408.44736 17.13057 171.85147 308
439.52832 20.03125 172.14671 300
262.31616 4.64267 204.44365 314
407.93607 23.02913 171.84508 308
438.91876 26.95617 172.14438 300
262.21292 5.97145 204.44983 314
407.16220 28.94184 171.87302 308
473.32535 39.40816 165.05615 299
265.52664 7.96383 203.50002 314
406.29074 34.77773 171.81284 308
471.80508 47.25459 165.12276 448
265.32233 9.39957 203.50644 314
405.16724 40.63358 171.82716 308
464.68405 53.96581 166.23940 452
265.07114 10.82366 203.50587 314
403.89651 46.44983 171.79616 308
456.11142 59.87569 167.61665 424
264.77011 12.25095 203.50650 314
402.49759 52.21729 171.81514 308
452.94678 66.89586 167.88060 297
264.42505 13.66582 203.49977 314
429.28171 67.20067 164.82126 308
264.03210 15.07642 203.50743 314
427.09750 73.73168 164.81798 308
263.58804 16.46102 203.50446 314
421.15030 78.84078 165.74963 430
372.94974 65.36008 171.50055 316
413.10587 82.71460 167.11563 435
394.04306 81.07425 164.68265 316
408.02881 87.65902 167.73639 305
391.41116 86.48596 164.69438 317
405.45764 93.61568 167.66901 305
388.53702 91.76125 164.72102 317
381.50858 94.61285 166.00114 434
374.38300 97.09103 167.29105 439
370.34814 101.23451 167.60992 315
367.16254 105.98014 167.58173 315
2760.43066 5870.05127 221.16504 479
2544.72632 5869.99756 219.92345 482
1321.75171 3058.85400 113.04031 438
1257.72070 3191.39917 108.80711 355
1223.69666 3452.84692 101.14351 292
125.84420 148.05885 169.57458 441
116.90225 151.36684 167.41515 316
110.08514 150.91563 166.39987 314
105.55898 147.12088 166.41463 314
97.95659 147.15916 165.02936 419
89.57563 147.55231 163.38536 424
85.57185 142.71100 163.55562 307
73.54061 155.54100 166.29488 305
102.38373 117.21667 171.53558 316
68.91943 150.67903 166.24565 306
99.02660 113.15718 171.56316 316
61.23709 148.67751 165.19777 409
95.83092 109.04276 171.61670 316
50.49720 149.00197 163.19017 300
92.73805 104.80293 171.62756 316
74.29124 120.08698 171.75241 308
89.82381 100.50837 171.63577 316
70.91007 115.13193 171.80254 308
22.58884 152.67035 166.03502 297
87.00108 96.14540 171.68950 316
67.76100 110.13762 171.85266 308
12.28149 150.45547 164.60461 389
84.33588 91.69168 171.68471 316
64.69437 105.03661 171.83434 308
38.92223 122.57326 172.08293 300
81.84015 87.15533 171.72786 316
61.82778 99.83553 171.88028 308
35.56888 116.51263 172.10023 300
79.47018 82.58456 171.74425 316
59.13714 94.60172 171.88622 308
32.45854 110.42341 172.12404 300
-41.86630 154.34705 165.16573 286
77.24200 77.95526 171.76868 316
56.62800 89.30555 171.90248 308
42.31558 97.15671 175.08324 319
21.21752 108.73051 177.92624 270
75.18904 73.23319 171.79344 316
61.89547 80.00386 173.94295 385
54.65720 83.70205 178.43172 324
29.02681 96.76695 179.97153 292
-16.72382 120.04839 180.29704 284
73.27393 68.48880 171.80959 316
65.47331 72.17536 175.41553 390
58.24811 75.55096 179.70184 300
25.74197 90.86819 179.77625 330
2.83531 101.60410 183.63757 282
75.41479 61.98048 172.94698 386
69.09471 64.70645 176.83549 382
56.40352 70.23571 179.70345 300
36.15770 78.96536 182.12869 336
24.23025 84.13701 187.10538 331
8.10342 91.10713 192.46280 310
77.25702 55.91569 173.98497 420
72.17889 57.95104 178.04022 415
49.09686 67.09035 178.53111 389
41.89599 69.90269 183.46669 384
33.45401 73.29224 188.68422 368
22.87940 77.47146 194.25099 332
7.50290 83.54773 200.16418 311
78.68283 50.29432 174.78676 424
73.74680 52.05641 178.78813 419
52.61462 59.64284 179.61909 393
45.81715 62.11628 184.49405 388
38.52748 64.72922 189.66289 383
29.97102 67.83548 195.18794 368
20.49130 71.23840 201.18015 362
80.07493 44.84014 175.52267 429
75.28596 46.41724 179.47850 423
55.57386 52.82932 180.58069 410
49.47106 54.78899 185.34869 405
42.56144 57.03143 190.42352 388
35.16128 59.43690 195.81335 383
26.54586 62.23158 201.63141 367
16.86346 65.38206 208.01253 362
81.45804 39.61258 176.19841 432
74.61641 41.62091 179.58076 308
57.75790 46.49888 181.25948 421
52.06889 48.17198 186.02386 409
45.83988 49.99441 190.99797 404
39.15786 51.90353 196.35742 399
31.82628 54.03909 202.08249 382
23.08689 56.59611 208.19608 366
82.83413 34.57013 176.85672 435
73.71998 36.91202 179.60210 308
59.73418 40.50818 181.86507 424
54.31126 41.89307 186.58133 420
48.53186 43.39670 191.52940 408
42.12148 45.04815 196.75703 403
35.30268 46.76488 202.32149 397
27.90889 48.66617 208.36288 392
83.81615 29.80287 177.33165 458
66.57635 33.62193 178.08510 432
61.64479 34.73492 182.44321 428
56.40526 35.91513 187.05701 423
50.89685 37.12518 191.93568 418
45.01670 38.43771 197.10138 406
38.45930 39.93013 202.55983 401
31.37579 41.50706 208.46233 396
-184.28856 89.71097 214.70926 438
84.07935 25.23974 177.56172 459
67.99776 28.30927 178.54295 455
63.51143 29.17686 182.96858 450
58.46279 30.14090 187.49789 426
53.11102 31.19178 192.29253 421
47.46399 32.23009 197.39195 416
41.45134 33.40082 202.76320 405
34.67593 34.69127 208.54990 399
84.38121 20.78608 177.77570 461
68.33078 23.32432 178.76965 456
63.88008 24.06341 183.13000 452
59.23063 24.79374 187.70192 447
54.33254 25.56566 192.49586 442
49.17810 26.38858 197.57289 437
43.73050 27.23204 202.92563 432
37.79077 28.19443 208.61418 409
84.72246 16.39411 177.95200 462
68.70677 18.41880 178.92680 457
64.31406 18.96399 183.26109 453
59.70000 19.57006 187.84474 448
54.84673 20.16519 192.61685 444
49.75726 20.79016 197.62689 438
44.37192 21.51465 202.92802 433
38.73055 22.22934 208.54976 428
85.05793 12.05005 178.09364 463
69.09406 13.57247 179.08037 459
64.72099 13.98356 183.38652 454
60.14506 14.39120 187.91248 450
55.37804 14.87339 192.66418 445
50.35274 15.31870 197.67645 440
45.08150 15.84865 202.93520 435
39.46281 16.36806 208.55997 429
85.42830 7.74419 178.17183 464
69.52088 8.73932 179.15506 460
65.20422 8.99626 183.46822 455
60.67778 9.29550 187.97177 451
55.97981 9.58166 192.71970 446
51.00020 9.91331 197.71907 441
45.74509 10.24049 202.95279 436
40.24424 10.56184 208.47787 430
-182.70569 24.57347 267.59000 486
-186.81657 24.92772 281.70673 360
-186.75430 24.90837 295.52151 359
85.82597 3.45749 178.26369 466
70.01335 3.95267 179.24866 461
65.69943 4.08907 183.55174 457
61.24076 4.22966 188.03467 452
56.59258 4.41314 192.77934 447
51.66224 4.53353 197.72522 442
46.45260 4.72220 202.91832 437
40.95746 4.87436 208.44058 431
-182.80264 11.86538 267.36353 487
