# .PCD v.7 - Point Cloud Data file format
VERSION .7
FIELDS x y z rgb
SIZE 4 4 4 4
TYPE F F F U
COUNT 1 1 1 1
WIDTH 424
HEIGHT 1
VIEWPOINT 6649.768066 -2693.845703 148.036560 -0.824047 -0.070470 -0.116044 0.550013
POINTS 424
DATA ascii
86.33180 -0.42510 178.13187 467
70.34480 -0.44153 179.39633 462
65.83572 -0.42841 183.92502 457
61.11458 -0.40076 188.69597 453
56.18760 -0.39056 193.68144 448
50.98794 -0.40038 198.89973 443
45.56881 -0.38632 204.43752 438
39.77155 -0.39564 210.29141 432
-138.99220 -0.32748 277.19836 284
85.91354 -4.96200 178.05724 467
69.80885 -5.45438 179.26901 461
65.26090 -5.56628 183.85611 457
60.52582 -5.74092 188.58723 452
55.57360 -5.87966 193.59926 447
50.34560 -6.04166 198.84990 442
44.83455 -6.19540 204.41560 437
39.03649 -6.39510 210.27359 431
-146.09247 -12.17250 278.35632 266
85.53529 -9.49325 177.93301 464
69.35871 -10.50284 179.14034 460
64.77064 -10.78267 183.70639 455
59.95342 -11.07201 188.49712 451
54.97426 -11.40388 193.53116 446
49.70876 -11.69398 198.79292 441
44.18256 -12.05674 204.35777 436
38.29163 -12.39368 210.24680 430
85.16456 -14.04447 177.78064 463
68.97369 -15.58193 179.03194 459
64.34070 -16.01941 183.59453 454
59.46281 -16.45567 188.37860 450
54.39130 -16.95393 193.40839 445
49.07416 -17.44380 198.70497 440
43.46718 -17.97721 204.31082 435
37.52434 -18.52728 210.19521 429
84.81042 -18.67913 177.61064 462
68.58188 -20.69672 178.84108 457
63.90733 -21.27845 183.44829 453
59.00942 -21.90031 188.23070 448
53.88120 -22.54325 193.30734 443
48.51026 -23.19654 198.63214 438
42.80343 -23.93160 204.23239 433
36.78581 -24.68748 210.16919 428
84.47542 -23.31320 177.40356 461
68.23032 -25.89784 178.63066 456
63.52369 -26.63561 183.25821 452
58.58442 -27.39139 188.10004 447
53.42572 -28.24383 193.16681 442
47.76051 -29.07937 198.49178 420
41.57492 -30.05873 204.07758 414
34.81032 -31.16069 210.10075 402
84.21727 -28.01451 177.14301 459
67.51542 -31.19223 178.27979 435
62.41187 -32.17982 182.85500 431
57.05328 -33.18130 187.67596 426
51.34758 -34.25740 192.79730 421
45.36240 -35.40458 198.16843 416
38.75365 -36.66182 203.87680 404
31.53166 -38.00875 209.93919 399
-183.14944 -79.01115 216.38036 424
83.65708 -32.82358 176.79359 439
73.86134 -35.03261 179.60178 308
60.45741 -38.04673 182.29031 428
54.91696 -39.25409 187.18976 423
49.09686 -40.54759 192.35298 418
42.62228 -41.98011 197.75737 406
35.63085 -43.55489 203.58000 401
28.03943 -45.24006 209.78487 361
-190.79488 -94.11308 216.38335 296
82.25378 -37.99622 176.15538 435
74.83768 -39.90369 179.60092 308
58.49741 -44.10968 181.67889 424
52.78568 -45.52254 186.63579 420
46.40366 -47.17096 191.80476 408
39.62304 -48.89022 197.33440 402
32.36630 -50.75057 203.30345 397
23.89375 -52.93303 209.63625 338
80.86495 -43.29044 175.45343 432
75.90630 -44.73201 179.58000 308
56.46776 -50.36512 180.98706 414
50.20590 -52.16134 185.93858 409
43.60933 -54.06403 191.25238 404
36.15946 -56.27230 196.88014 387
27.84169 -58.64938 202.87015 371
79.49212 -48.75761 174.69565 429
74.41124 -50.40826 178.91655 423
53.83643 -57.09490 180.13440 397
47.00292 -59.29187 185.11070 393
39.65073 -61.66518 190.46002 388
31.44991 -64.36746 196.18330 372
22.00136 -67.39828 202.37306 367
78.05341 -54.46225 173.90874 423
72.80035 -56.32047 178.11974 419
50.38899 -64.38262 179.03316 393
43.17134 -66.98129 184.16280 388
35.04992 -69.90102 189.57382 372
25.80626 -73.24184 195.42561 367
13.32564 -77.68373 201.60757 316
76.58376 -60.34890 173.03325 420
70.31770 -62.84878 177.10406 386
55.67029 -68.62907 179.77837 300
38.68884 -75.34057 182.99707 373
28.06477 -79.53362 188.31096 336
14.31289 -84.99403 193.97064 316
-8.81069 -94.09523 199.91476 267
74.27818 -66.86816 171.80267 316
66.73788 -70.08350 175.74323 381
57.63248 -74.02763 179.77354 300
29.72516 -86.11623 180.97069 336
15.46240 -92.29039 186.15147 315
76.17839 -71.67905 171.82275 316
63.13298 -77.82423 174.25114 390
57.08467 -80.66231 179.16502 386
12.70656 -101.58152 177.38812 286
-21.01572 -117.43254 180.41278 284
78.29095 -76.41945 171.79356 316
57.26103 -87.12858 172.11195 328
46.70758 -92.48550 176.29779 325
29.81425 -101.12411 180.00375 292
80.51955 -81.10987 171.78384 316
59.30539 -92.76907 171.93570 308
31.51095 -108.05624 172.20468 300
-48.42144 -151.98662 164.65715 373
82.91954 -85.71771 171.72481 316
62.03014 -98.05067 171.94171 308
34.69829 -114.25507 172.15211 300
-40.78352 -158.94310 165.19948 286
85.39762 -90.26335 171.70685 316
64.95146 -103.27538 171.87801 308
38.07376 -120.30965 172.11079 300
88.06310 -94.71970 171.68375 316
67.97737 -108.37382 171.85951 308
5.65082 -150.76175 163.43114 383
90.88641 -99.08056 171.70360 316
71.19301 -113.38017 171.83897 308
20.20977 -150.43611 165.90172 389
93.77469 -103.37283 171.66638 316
74.53802 -118.27858 171.82751 308
25.75908 -156.14607 166.13181 297
96.83031 -107.53749 171.64584 316
50.28265 -146.08183 163.40382 300
100.04542 -111.65849 171.59425 316
57.68189 -149.00299 164.31233 404
103.34935 -115.62530 171.57704 316
68.25941 -148.60722 166.20088 409
106.78555 -119.47685 171.54231 316
73.25054 -153.01636 166.34067 305
-1573.50745 -1799.65161 134.06680 352
90.00664 -144.98047 163.57332 307
-1416.85596 -1749.58289 138.44736 387
95.82536 -147.56361 164.12764 425
-1325.37195 -1760.18298 140.33640 459
104.30529 -146.80701 165.79681 420
-1244.87927 -1778.19788 141.66571 474
-1295.70447 -1839.41284 217.12384 365
110.35572 -148.50677 166.48392 314
-1171.62830 -1801.72791 142.41316 459
117.04943 -149.05251 167.44507 316
-1101.64307 -1826.87268 143.30455 461
-1186.65442 -1943.56750 217.42014 429
-1171.75989 -1922.93164 294.97443 498
124.14368 -148.72356 168.62903 489
-1033.58582 -1852.21179 143.75232 463
-965.72943 -1876.91772 144.22206 464
-899.31506 -1901.18384 145.03957 465
-833.64001 -1925.02368 145.06776 467
-768.38654 -1948.06995 145.38745 468
-805.52374 -2188.24292 138.25023 491
1384.01013 -1905.22498 -73.58450 422
2776.36768 -3304.62891 86.40135 369
2999.90308 -3368.61279 80.18985 382
2094.44727 -1880.06262 132.99712 398
25949.49805 -19964.72070 -1879.14380 1000
365.86270 -108.95560 167.60146 313
369.38617 -104.09325 167.63435 315
372.73312 -99.22413 167.63010 315
378.96634 -96.01932 166.75009 434
386.68643 -93.35551 165.32135 429
4244.55664 -2214.74902 71.24905 496
391.78564 -89.04964 164.74789 316
4216.17480 -2037.94653 74.67844 464
394.78659 -83.55835 164.73616 316
409.28671 -90.36243 167.74657 305
4244.36963 -1895.66125 74.85034 494
4284.23730 -1913.62183 220.63593 499
374.08841 -67.78996 171.54460 316
412.03506 -84.22288 167.80423 305
4292.76172 -1764.32727 74.65228 499
4330.12109 -1779.94116 220.80225 499
376.27136 -62.82279 171.58263 316
419.85153 -80.04324 166.54778 429
4340.95752 -1632.84570 75.09097 499
378.33047 -57.77755 171.56316 316
428.44345 -75.85230 165.08572 424
4394.65527 -1504.14978 74.58559 499
380.24713 -52.76007 171.60451 316
431.77335 -69.47919 164.88914 308
4446.26172 -1374.11218 74.24966 499
381.95346 -47.63966 171.59889 316
434.02267 -62.79995 164.87527 308
456.44119 -69.25586 167.87817 297
4591.12354 -1270.13159 71.22121 430
268.05920 -12.83616 203.50275 314
407.00372 -48.51860 171.85408 308
458.40344 -61.72959 167.92972 297
268.67557 -11.32342 203.49794 314
408.57629 -42.63824 171.85475 308
464.15091 -55.03705 167.17351 452
269.24976 -9.80079 203.49820 314
409.97711 -36.68663 171.90904 308
471.30344 -48.39455 166.10689 448
269.76578 -8.27190 203.50772 314
411.22366 -30.70830 171.88869 308
477.79257 -41.25436 165.09212 300
270.24384 -6.74671 203.50645 314
412.28085 -24.71381 171.88484 308
443.68503 -28.65134 172.20233 301
270.68036 -5.20715 203.50249 314
413.12918 -18.69674 171.91849 309
444.62433 -21.65883 172.19411 301
271.05280 -3.66865 203.49791 314
413.82584 -12.70891 171.90402 309
445.35925 -14.65478 172.20442 301
271.39127 -2.13460 203.50562 314
414.31775 -6.67640 171.90891 309
445.87158 -7.67073 172.26207 301
271.66486 -0.59522 203.50021 314
414.64301 -0.60142 171.92960 309
446.22620 -0.61586 172.20613 301
271.90784 0.92979 203.50381 314
414.80374 5.40109 171.90428 309
446.29144 6.39878 172.26266 301
2828.38086 81.13505 46.95024 380
272.08865 2.45443 203.50146 314
414.72653 11.44111 171.90404 309
446.17764 13.39380 172.20067 301
2716.32788 156.07327 53.99331 391
272.22980 3.98637 203.50272 314
414.52216 17.41985 171.90137 309
445.89377 20.34373 172.24686 301
2615.89966 225.11751 59.57668 389
272.40030 5.50173 203.48160 284
414.13220 23.40245 171.91806 309
445.40094 27.35136 172.22330 301
2520.38062 289.35080 65.61304 385
389.77969 25.56505 171.69122 316
413.51837 29.35812 171.89136 309
479.79321 39.83083 165.12657 443
2441.36987 350.68576 69.99314 412
2451.44385 352.03256 143.41939 491
389.13712 30.76820 171.69427 316
412.77081 35.28896 171.90288 309
472.49634 46.64376 166.40961 448
2388.39014 411.97626 72.77311 426
2485.51270 430.53683 141.58772 411
388.36472 35.88696 171.66048 316
411.85690 41.16446 171.89906 309
465.50546 53.11224 167.55333 452
2348.58936 473.64679 74.48892 442
2545.69067 517.76080 139.38428 406
387.43527 40.99712 171.66478 316
410.74368 47.01202 171.88208 308
461.93274 60.11633 167.90532 297
2314.72021 535.55927 75.53610 447
386.32739 46.07262 171.63274 316
438.18005 61.14206 164.91177 308
2287.12671 598.13672 76.07416 469
385.08008 51.10971 171.61609 316
436.42221 67.79182 164.88396 308
383.67685 56.08392 171.60167 316
432.05447 73.49418 165.43324 424
382.15506 61.04179 171.57707 316
423.80618 77.54551 166.94873 429
403.92691 76.03770 164.74258 316
418.33896 82.28590 167.79573 305
401.70874 81.55751 164.72011 316
416.06622 88.33434 167.71086 305
399.26337 86.95711 164.72379 317
393.36267 90.48646 165.74521 429
386.23691 92.97863 167.11897 434
381.86319 96.85889 167.62315 315
379.07233 101.64976 167.60139 313
-1748.13623 3886.49976 71.31516 473
126.49582 147.28305 167.31935 441
120.14967 146.44978 166.40797 314
113.60040 145.57021 165.39319 419
105.19031 146.41682 163.73203 414
100.35167 142.89107 163.50069 311
88.63023 155.36874 166.37141 306
117.11408 117.71619 171.42354 316
84.09038 150.77480 166.30602 306
113.81549 113.88835 171.43889 316
77.44520 148.01122 165.57877 409
110.70182 109.92967 171.45554 316
66.99501 148.45120 163.68860 403
107.68770 105.85598 171.51736 316
61.92378 143.66245 163.46396 300
104.77568 101.66524 171.52448 316
85.65107 116.52324 171.66898 308
37.66589 153.73918 166.11420 297
101.98718 97.42225 171.56868 316
82.46563 111.64321 171.72359 308
29.80175 149.88287 165.24626 386
99.39348 93.09946 171.56943 316
79.41846 106.65708 171.72581 308
16.46055 149.49992 163.09015 285
96.90445 88.64462 171.60783 316
76.54683 101.56608 171.73872 308
49.78956 118.56931 171.97826 300
94.54758 84.13182 171.59235 316
73.84441 96.41888 171.78030 308
46.62743 112.52535 172.01082 300
-27.01388 156.00087 165.34460 286
92.34952 79.57463 171.62155 316
71.25674 91.16438 171.79723 308
43.56023 106.34921 172.02885 300
-38.88262 151.68144 163.97137 363
90.25088 74.89407 171.65031 316
68.90278 85.82349 171.82405 308
42.45648 99.28551 172.44969 324
20.37476 110.55134 175.79395 277
88.37579 70.19170 171.67076 316
66.66113 80.39368 171.83167 308
54.64299 86.03520 175.72833 330
39.64738 93.10121 179.83247 292
-8.10238 115.60217 180.21513 284
86.58220 65.39535 171.66200 316
67.59803 73.57912 172.64972 381
60.90644 76.47489 177.56024 391
27.74438 90.85826 178.18051 336
7.58547 99.58336 182.95888 288
84.96450 60.54122 171.69577 316
71.39862 65.92905 174.07730 386
64.80040 68.54195 178.85965 396
38.05368 79.07820 180.44313 341
25.86384 83.91497 185.95358 336
10.15963 90.19176 191.88048 316
83.48461 55.62067 171.69214 316
74.67867 58.80536 175.31508 419
66.82426 61.61041 179.65707 300
43.72980 69.97118 181.79820 388
34.92294 73.14459 187.50294 373
24.20041 77.01487 193.63307 337
9.06450 82.43356 200.08435 317
82.14534 50.69943 171.73801 316
76.41737 52.53202 176.06429 423
65.35116 56.13814 179.67027 300
47.78370 61.87966 182.79649 393
40.01901 64.40133 188.49440 388
31.13018 67.24374 194.53448 372
21.11956 70.54448 201.10414 367
83.27572 45.02952 172.37115 432
78.10791 46.54510 176.81827 426
58.09433 52.34856 178.42802 414
51.54102 54.26842 183.68819 409
44.24355 56.37339 189.29591 392
36.31551 58.69491 195.24698 387
27.29655 61.30252 201.61397 372
16.73064 64.37568 208.49725 334
83.04850 37.28050 175.56198 435
77.68305 38.65955 179.53467 308
59.19067 43.41047 181.15948 424
53.47666 44.88396 186.18243 420
47.10487 46.53132 191.43724 408
40.24150 48.29692 197.00650 403
32.93303 50.18071 202.95239 398
24.78906 52.24848 209.37140 341
84.41515 32.03166 176.27451 439
76.42657 33.84502 179.57413 308
61.17923 37.26503 181.84062 428
55.59919 38.47190 186.79024 423
49.72514 39.78813 191.98738 418
43.24601 41.27018 197.46602 406
36.21425 42.86007 203.29721 401
28.68617 44.49779 209.59172 396
-188.27423 93.09941 216.15919 296
84.75024 27.15186 176.65215 459
75.30312 28.96792 179.55650 308
63.04481 31.29274 182.48732 431
57.64515 32.32681 187.36476 426
51.97066 33.44141 192.49312 422
45.94319 34.57504 197.91064 417
39.33419 35.82693 203.64359 405
32.11882 37.22069 209.77779 399
-183.32166 78.41298 216.21039 424
84.97404 22.39589 176.98758 461
68.68304 24.95710 178.24561 456
63.93557 25.69813 182.91891 452
59.00352 26.49620 187.78824 447
53.78287 27.33549 192.84686 442
48.33752 28.21013 198.26237 437
42.12971 29.16237 203.87546 414
35.38895 30.24304 209.91103 403
85.21055 17.65580 177.29903 462
68.97150 19.71740 178.53252 458
64.25140 20.32265 183.17226 453
59.39038 20.92512 187.98665 448
54.24902 21.58380 193.07268 444
48.81773 22.29847 198.39587 439
43.08563 23.02184 204.05467 433
37.10435 23.77075 209.99275 428
85.48830 13.02074 177.53133 463
69.29050 14.52834 178.76192 459
64.62707 14.98650 183.38634 454
59.78235 15.44928 188.20465 450
54.66223 15.93647 193.22415 445
49.36359 16.46993 198.51941 440
43.76931 16.98701 204.16080 435
37.78248 17.55713 210.07912 429
85.80526 8.42228 177.76352 464
69.62214 9.46646 179.00789 460
65.02190 9.75133 183.55470 455
60.25069 10.03594 188.37079 451
55.20195 10.37108 193.37856 446
49.93890 10.68809 198.65808 441
44.40588 11.01132 204.23849 436
38.49196 11.41257 210.14070 431
86.09107 3.85162 177.96228 467
70.03389 4.39119 179.19284 461
65.49624 4.49766 183.75700 457
60.74457 4.65201 188.49373 452
55.76463 4.81645 193.49496 447
50.57653 5.01180 198.74054 442
45.04580 5.17452 204.29774 437
39.24671 5.37538 210.16060 431
