# .PCD v.7 - Point Cloud Data file format
VERSION .7
FIELDS x y z rgb
SIZE 4 4 4 4
TYPE F F F U
COUNT 1 1 1 1
WIDTH 447
HEIGHT 1
VIEWPOINT 6859.189941 -3715.651367 143.325348 -0.518637 -0.140993 -0.012124 0.843202
POINTS 447
DATA ascii
84.96992 -3.18070 179.23781 466
69.05647 -3.09501 180.31538 462
64.68392 -3.03404 184.74661 457
60.14019 -3.03924 189.32970 453
55.36603 -2.96231 194.15599 448
50.37133 -2.96409 199.22508 443
45.08563 -2.89058 204.58963 438
39.47471 -2.90937 210.26764 432
-178.15875 -1.52028 229.60693 476
-152.28983 -1.63450 241.06596 418
-181.58723 -1.48071 269.68799 487
-136.32495 -1.71471 275.71814 495
84.57114 -7.42124 179.14580 465
68.58483 -7.82747 180.24106 460
64.18946 -7.93655 184.66130 457
59.59350 -8.03183 189.27592 452
54.76124 -8.15936 194.09665 447
49.73385 -8.27422 199.22012 442
44.39989 -8.45935 204.55713 437
38.79229 -8.56050 210.23175 431
-153.35957 -13.40797 241.08725 417
-181.60518 -14.15618 269.74326 487
84.18198 -11.66358 179.05316 464
68.14543 -12.59108 180.14827 460
63.72716 -12.84877 184.55095 455
59.04881 -13.08415 189.16730 451
54.18936 -13.39660 194.03021 446
49.13001 -13.66998 199.11208 441
43.76665 -13.96639 204.53401 436
38.08324 -14.29666 210.19739 430
-181.60980 -26.82885 269.81369 486
83.83690 -15.95683 178.88458 463
67.74895 -17.41035 180.00003 459
63.28952 -17.78622 184.44423 454
58.59550 -18.20602 189.06628 450
53.70121 -18.66049 193.94191 445
48.50683 -19.11811 199.07043 440
43.12148 -19.60186 204.48969 435
37.36125 -20.07591 210.18155 429
-181.55717 -39.49529 269.86493 486
83.49605 -20.31704 178.73184 462
67.42716 -22.25619 179.84947 458
62.86531 -22.80828 184.29858 453
58.19080 -23.37484 188.95886 448
53.21419 -23.97186 193.83833 444
47.96317 -24.59008 198.97301 438
42.45056 -25.26349 204.39526 433
36.66332 -25.96038 210.15736 428
83.18935 -24.66379 178.52081 461
67.04369 -27.15257 179.65144 456
62.49129 -27.83660 184.10022 452
57.76653 -28.57287 188.77800 447
52.55964 -29.35455 193.68163 425
46.92715 -30.24013 198.79115 420
40.97236 -31.16333 204.28564 415
34.30942 -32.18758 210.10585 403
82.95409 -29.10823 178.27985 459
66.06618 -32.23201 179.23492 436
61.16179 -33.15635 183.70895 431
55.94436 -34.09097 188.35805 427
50.48063 -35.13869 193.29073 422
44.66934 -36.23237 198.50847 417
38.17812 -37.41803 204.05617 405
31.18519 -38.69761 209.95711 399
-183.02219 -78.49363 216.43806 425
82.19713 -33.70121 177.89064 439
64.37331 -37.57561 178.62328 432
59.27291 -38.69585 183.12668 428
53.91971 -39.87064 187.89613 423
48.31107 -41.12303 192.86301 412
41.93905 -42.49565 198.14586 406
35.18955 -43.98940 203.76764 401
27.81363 -45.57411 209.83401 359
-189.18266 -93.07452 216.48683 297
80.89317 -38.54108 177.29060 436
62.67906 -43.12828 177.98763 429
57.41983 -44.44434 182.53705 425
51.87989 -45.88092 187.34283 413
45.69540 -47.44495 192.36621 408
39.14008 -49.05797 197.75539 403
32.10653 -50.82436 203.48540 398
23.58627 -53.00367 209.63734 263
79.57134 -43.53034 176.63068 431
70.66402 -46.10607 179.61081 308
55.43499 -50.46533 181.88261 414
49.43150 -52.15710 186.73161 409
43.03391 -53.99835 191.86462 404
35.79962 -56.06335 197.29254 388
27.78755 -58.33480 203.11932 372
78.23523 -48.72602 175.89545 427
71.90909 -50.75994 179.64458 308
52.97632 -56.80004 181.08459 398
46.31624 -58.94434 185.92847 393
39.23084 -61.24726 191.08759 388
31.29268 -63.76414 196.66385 372
22.17344 -66.68346 202.61328 367
76.88174 -54.10337 175.12000 424
71.80650 -55.90986 179.22995 419
49.69736 -63.76683 180.01161 393
42.71928 -66.26209 184.99843 389
34.85467 -69.07294 190.28123 373
25.92728 -72.21961 195.93581 368
14.81263 -76.23328 201.95938 317
75.51623 -59.68065 174.27879 420
69.56326 -62.02233 178.25615 387
46.22199 -71.16949 178.91223 389
38.48454 -74.22358 183.86902 373
28.73397 -77.99221 189.08412 337
15.95469 -83.02557 194.63066 316
-1.70508 -89.95589 200.66127 311
72.64276 -66.11166 172.94885 386
66.28529 -68.85532 177.00787 395
52.46491 -74.81408 179.80237 300
30.51199 -84.22686 182.06891 336
17.20026 -89.90322 187.12003 315
-13.71579 -103.17542 191.18069 266
70.78763 -72.45634 171.86800 316
62.98725 -76.12371 175.61931 390
54.63372 -80.03611 179.78401 300
17.43915 -97.41378 179.21529 287
-26.04181 -117.74994 180.42921 284
72.90040 -77.09964 171.82568 316
58.80655 -84.25243 173.92607 328
48.80935 -89.27254 177.93068 325
24.66916 -101.55709 180.01395 292
75.14013 -81.68822 171.78729 316
54.00834 -93.21720 171.99625 308
36.37337 -102.87795 174.53180 319
-53.19415 -151.90039 164.82016 372
77.53622 -86.18718 171.80565 316
56.78680 -98.40973 171.95012 308
29.44922 -114.47431 172.18303 300
-46.73848 -159.34506 165.11684 286
80.05841 -90.58866 171.75320 316
59.65884 -103.52231 171.96454 308
32.85497 -120.45507 172.18330 300
82.72372 -94.94785 171.75752 316
62.76899 -108.53252 171.92749 308
0.27325 -150.85805 163.45520 382
85.57528 -99.21726 171.71709 316
65.98248 -113.44554 171.89558 308
14.81224 -150.54243 165.88124 389
88.50710 -103.39545 171.71550 316
69.37682 -118.24142 171.87875 308
20.32060 -156.22015 166.10870 295
82.11871 -105.91915 171.77669 315
63.02055 -121.12282 171.91597 307
85.66319 -110.04797 171.71347 315
38.91272 -149.70802 163.32948 400
89.33994 -114.14310 171.70752 315
50.44200 -149.29553 165.38002 406
93.13036 -118.07441 171.68755 315
58.35503 -151.64241 166.30275 305
75.90388 -143.64877 163.54276 307
63.45342 -156.41373 166.30586 304
80.50498 -148.13779 163.45302 421
89.30372 -147.80112 165.04973 427
97.55915 -147.61650 166.42740 314
102.48657 -151.20589 166.44234 314
107.55511 -154.65390 166.47162 314
125.73445 -148.46867 170.41347 451
1281.27991 -1820.51233 -61.46466 416
1333.05920 -1777.32922 -130.24538 408
1322.71545 -1760.46094 -57.82128 387
1370.68848 -1714.53467 -124.96527 487
1372.98608 -1717.36548 -56.34118 298
1417.92334 -1667.37988 -123.16552 486
1420.02612 -1670.53735 -54.74569 441
1466.66345 -1624.61731 -122.37627 485
1471.38611 -1630.08960 -54.98436 420
1520.36426 -1587.19568 -54.47636 294
1567.48413 -1542.37744 -53.91605 388
1656.42590 -1644.68176 0.55002 408
1648.54309 -1635.58459 72.84931 496
1617.59521 -1501.61914 -54.13587 462
1671.70764 -1463.93176 -55.58112 461
1727.20605 -1426.20056 -57.00859 488
1791.12122 -1486.97168 3.07226 275
1784.37134 -1388.81665 -58.95020 486
1843.82251 -1352.59253 -61.92857 485
1907.28809 -1316.89880 -65.53225 425
378.42981 -101.58275 167.68407 315
381.58957 -96.69788 167.69801 315
387.21222 -93.17336 166.90152 429
394.93130 -90.51978 165.50125 424
400.18118 -86.33218 164.78226 317
402.95181 -80.88677 164.77124 317
417.27457 -87.09294 167.80095 305
405.55362 -75.31805 164.77690 317
419.82828 -80.97547 167.84085 305
373.44147 -64.56004 171.56091 317
417.25940 -81.32316 166.17195 427
375.39966 -59.72809 171.56792 317
425.07748 -76.88683 164.85997 308
377.19110 -54.81307 171.59018 317
427.48862 -70.46595 164.88176 308
378.81189 -49.85527 171.57722 317
401.23383 -56.03858 171.82143 309
450.66608 -69.69809 167.90155 298
380.32040 -44.87239 171.61089 317
402.88409 -50.34263 171.83299 309
452.82260 -62.46763 167.85252 422
381.62344 -39.85913 171.63139 317
404.36334 -44.60286 171.82619 309
462.35529 -56.71851 166.31914 450
266.64655 -14.31875 203.50441 315
405.69763 -38.80481 171.86530 309
469.44495 -50.08648 165.23347 445
267.09827 -12.93731 203.50693 315
406.86060 -33.02178 171.84625 309
471.66037 -42.33138 165.10664 300
267.49484 -11.53853 203.50232 315
407.79733 -27.15778 171.84468 309
437.96854 -30.58671 172.16885 301
267.85098 -10.14289 203.50755 315
408.57346 -21.32913 171.88130 309
438.84482 -23.74635 172.17278 301
268.16586 -8.73960 203.49899 315
409.18677 -15.45247 171.90497 309
439.53485 -16.89515 172.20551 301
268.43121 -7.33822 203.50607 315
409.59903 -9.58639 171.86893 309
439.96222 -10.06606 172.17102 301
507.13571 -11.13740 168.31145 289
268.65134 -5.93928 203.50172 315
409.82297 -3.72925 171.90385 309
440.24997 -3.24749 172.15015 301
507.17642 -2.21865 168.32326 289
268.81790 -4.54213 203.50424 315
409.92444 2.15496 171.90408 309
440.27243 3.59772 172.17184 301
507.39578 6.76077 168.31752 289
268.95004 -3.14911 203.50594 315
409.78339 8.03732 171.85452 309
440.12466 10.45608 172.20154 301
507.39178 15.77146 168.27504 288
5016.08301 372.16000 207.62721 448
269.02820 -1.74334 203.50005 315
409.53360 13.88384 171.86487 309
439.77536 17.26012 172.19165 301
5116.91797 536.72821 207.63933 388
269.07288 -0.35748 203.50348 315
409.05151 19.73647 171.88991 309
439.18509 24.08364 172.16371 301
5406.60400 736.91449 206.59377 357
269.05954 1.02365 203.50464 315
408.40704 25.54925 171.84583 309
438.43024 30.87367 172.15871 301
269.01648 2.39960 203.50356 315
407.55017 31.34981 171.86502 309
471.95029 44.82047 165.06047 300
268.91245 3.77554 203.50632 315
406.57730 37.11877 171.81653 309
467.00833 51.75584 165.78047 454
268.77234 5.12405 203.50423 315
405.34195 42.84460 171.85172 309
459.54468 57.79765 166.99199 427
268.58914 6.47182 203.50562 315
404.00623 48.53119 171.78595 309
453.23422 63.82372 167.89479 298
268.35449 7.80366 203.50560 315
402.47699 54.14655 171.79015 309
451.43723 71.09325 167.82118 298
268.08771 9.12140 203.50629 315
428.47339 70.29392 164.85419 308
267.77032 10.41863 203.50935 315
425.83334 76.57380 164.92203 433
4427.33936 1749.65027 358.77109 467
267.41724 11.69762 203.50473 314
417.97894 80.38375 166.28667 438
267.00809 12.95958 203.50020 314
410.51627 84.01109 167.55576 442
266.57169 14.20648 203.49821 314
407.14697 89.41837 167.69713 305
5065.07178 2579.47559 569.64941 499
391.08139 87.49064 164.69130 317
4978.26611 2731.21948 569.95227 499
387.84518 92.41667 164.83499 437
4999.30371 2947.02441 763.40009 438
380.89352 94.82722 166.06332 442
4813.67334 3037.63525 571.26544 499
374.29941 97.09603 167.25140 446
4748.69775 3205.67163 574.89227 492
370.12088 100.89862 167.58798 315
366.94073 105.40199 167.55956 315
363.55612 109.78873 167.55333 313
2502.94189 2694.96509 445.79636 379
2324.54175 2649.63989 436.01025 378
2163.15112 2610.54980 427.48810 374
2039.18469 2612.99268 423.26401 414
2092.06812 2689.99365 537.20361 426
1956.69666 2670.51587 423.36578 281
-124.10398 2050.16846 491.64777 371
-122.15258 2038.39209 559.37762 476
135.31017 151.27890 166.39285 314
130.45836 147.96866 166.55479 394
125.02386 145.60278 166.40367 314
118.22321 145.11565 165.53452 432
110.18331 145.93732 164.16025 427
103.46851 144.50356 163.43102 311
117.94014 118.09873 171.41054 315
87.57940 153.56273 166.31357 305
113.95112 114.71348 171.42574 315
82.28389 149.37578 166.33345 305
110.04221 111.21019 171.45856 315
74.07518 148.17455 165.28024 417
106.28238 107.56458 171.51671 315
63.79307 148.55481 163.58316 412
102.61523 103.82640 171.53795 315
84.65246 120.13902 171.66177 307
99.09322 100.01990 171.59064 315
80.60328 115.68501 171.71964 307
33.83073 155.43019 166.11853 296
95.68661 96.05821 171.61584 315
76.78976 111.11580 171.74591 308
27.92409 149.96248 165.95412 395
92.41014 92.00903 171.63687 315
73.04242 106.44096 171.76204 308
14.10124 150.38719 163.75975 391
89.24858 87.88865 171.63673 316
69.48099 101.67807 171.81323 308
43.37120 119.86305 172.04892 300
86.23161 83.64880 171.67052 316
66.02069 96.81841 171.82642 308
39.42663 114.11881 172.04738 300
83.39844 79.32668 171.69843 316
62.80643 91.83273 171.86835 308
35.68541 108.29449 172.10822 300
-39.24152 153.71840 165.24150 286
80.62840 74.93248 171.73689 316
59.65860 86.76264 171.91957 308
44.55606 95.31495 174.94472 315
25.88922 105.80597 178.41647 267
78.06503 70.45269 171.76375 316
63.28771 78.15194 173.64934 383
57.06630 81.43515 178.47713 379
30.32575 95.43310 179.93439 292
-16.84045 120.07876 180.32602 284
75.61934 65.88300 171.75963 316
67.09766 70.01247 175.33432 375
59.74051 73.57433 179.69011 300
27.27970 89.27103 179.98647 328
5.19000 99.96170 184.10199 279
76.93786 59.67814 172.86662 415
70.69474 62.44696 176.86932 380
57.21046 68.41470 179.73573 300
37.90362 77.06229 182.47028 334
25.52704 82.57680 187.50798 329
9.02585 89.88935 192.94377 308
78.29178 53.67337 173.86081 418
73.05454 55.82761 178.00992 414
50.11162 65.18851 178.74980 387
42.69911 68.20196 183.76907 382
34.12381 71.65802 189.09256 366
23.88684 75.85190 194.87122 330
8.13351 82.26174 200.88213 309
79.63202 47.96307 174.79265 424
74.55242 49.84966 178.91766 418
53.56354 57.61546 179.94852 392
46.57772 60.26081 184.86902 387
39.05316 63.04008 190.17409 382
30.41205 66.24571 195.83780 366
20.56225 69.90005 201.96062 361
80.88966 42.48500 175.67166 427
75.44266 44.31685 179.56201 308
56.21938 50.75944 180.94684 409
49.94985 52.88252 185.81430 404
43.11227 55.16372 191.02649 386
35.44730 57.75644 196.55875 381
26.64184 60.69041 202.52957 365
82.17004 37.21760 176.44858 431
73.83060 39.70026 179.60515 308
58.20723 44.41518 181.71429 420
52.44680 46.17031 186.62126 408
46.00513 48.08585 191.73587 403
39.16277 50.12244 197.18173 398
31.81943 52.33746 203.04904 392
22.62389 55.10321 209.32944 336
83.42923 32.12536 177.19829 434
65.32764 36.96719 177.89572 428
60.07135 38.36127 182.45081 423
54.55552 39.83354 187.24200 418
48.69806 41.39950 192.30580 407
42.11149 43.15788 197.66736 401
35.06384 45.04210 203.41728 396
27.49212 47.05342 209.57669 391
83.77531 27.45459 177.63753 457
66.97931 31.34385 178.66246 431
61.91562 32.53727 183.14438 427
56.52271 33.77761 187.84602 422
50.88725 35.11888 192.82994 417
44.88004 36.48764 198.10449 412
38.13634 38.08204 203.69765 400
30.86487 39.73959 209.73605 394
-183.32957 89.63200 216.40219 295
83.91868 22.89234 177.99989 459
67.69448 26.11409 179.10040 454
63.05659 27.03324 183.63336 450
58.22614 28.01684 188.36409 445
53.03561 29.03366 193.28400 420
47.22570 30.19536 198.48129 415
41.06233 31.43123 204.00858 410
34.10003 32.83674 209.87617 398
-183.08968 76.09272 216.44389 424
84.12383 18.42539 178.29442 460
67.92339 21.09281 179.39113 456
63.35014 21.87647 183.89323 451
58.57874 22.67072 188.58162 446
53.58200 23.50608 193.52589 442
48.26878 24.37609 198.71001 436
42.68919 25.33942 204.21175 431
36.75451 26.27905 210.00032 426
84.35262 13.96014 178.58438 462
68.21566 16.16637 179.67001 457
63.67904 16.73493 184.13321 453
58.93457 17.36883 188.81529 448
53.95433 18.07482 193.69217 443
48.76265 18.74373 198.85864 438
43.25144 19.46317 204.32890 433
37.44333 20.25125 210.11247 427
84.58221 9.62008 178.82419 463
68.49659 11.23379 179.91924 458
64.00430 11.72099 184.37813 454
59.32444 12.18922 188.98140 449
54.42527 12.69153 193.86568 445
49.30077 13.21912 199.00169 440
43.86428 13.77202 204.42990 434
38.13100 14.37060 210.16064 429
84.85644 5.30219 179.04922 464
68.81871 6.42748 180.13805 459
64.39372 6.74314 184.58261 455
59.78413 7.08182 189.18523 451
54.93347 7.36753 194.01427 446
49.84985 7.73980 199.11414 441
44.48032 8.14301 204.52599 435
38.81517 8.54387 210.18379 430
-181.55502 24.02121 269.92825 486
-186.71266 24.33249 284.32742 496
85.17360 1.01012 179.21078 465
69.19539 1.63933 180.32762 461
64.85144 1.78929 184.71063 456
60.24017 1.97522 189.32349 452
55.47048 2.18135 194.15811 447
50.42204 2.37758 199.24390 442
45.08138 2.57516 204.58629 436
39.46936 2.76153 210.25949 431
-181.56187 11.23146 269.79745 487
