# .PCD v.7 - Point Cloud Data file format
VERSION .7
FIELDS x y z rgb
SIZE 4 4 4 4
TYPE F F F U
COUNT 1 1 1 1
WIDTH 418
HEIGHT 1
VIEWPOINT 4295.167969 -4099.903320 136.218506 -0.001564 -0.116814 -0.002187 0.993150
POINTS 418
DATA ascii
83.14454 -0.78508 179.52083 316
68.74599 -0.77152 180.94183 462
64.47274 -0.78758 185.26286 457
59.99052 -0.76985 189.82091 453
55.29177 -0.78193 194.53680 448
50.32072 -0.75738 199.52562 443
45.14371 -0.78742 204.77596 438
39.63982 -0.79032 210.37370 432
-152.43761 -0.73492 240.73181 419
-181.86514 -0.71842 269.16678 487
-149.66129 -0.80006 277.32648 284
83.26960 -5.10240 179.52097 316
68.29137 -5.55704 180.80746 461
63.97943 -5.67452 185.12656 456
59.45550 -5.81621 189.67920 452
54.70333 -5.97132 194.44650 447
49.74375 -6.13281 199.46982 442
44.49392 -6.27815 204.73865 437
38.96824 -6.49285 210.33900 431
-152.57381 -12.52727 240.75563 416
-181.93950 -13.36980 269.24417 487
-152.53638 -12.49783 277.81967 285
83.51017 -9.36900 179.51122 316
67.91962 -10.35390 180.63397 460
63.52652 -10.65352 185.00545 455
58.95856 -10.92726 189.53477 451
54.17092 -11.22741 194.34377 446
49.18181 -11.56655 199.34929 441
43.85494 -11.88675 204.66728 436
38.25490 -12.25188 210.26680 430
-181.87674 -26.02944 269.27414 486
83.57196 -13.72965 179.43813 463
67.54168 -15.20711 180.44533 459
63.11869 -15.66220 184.81390 454
58.52813 -16.09895 189.40311 449
53.65051 -16.54145 194.17824 445
48.58823 -17.03649 199.24757 440
43.27237 -17.54131 204.60161 435
37.58610 -18.06961 210.24039 429
-181.76817 -38.79954 269.44720 486
83.27986 -18.11598 179.18741 462
67.23406 -20.13030 180.23451 457
62.75382 -20.68315 184.65002 453
58.11258 -21.29556 189.23332 448
53.19997 -21.89969 194.06799 443
48.05904 -22.55807 199.14407 438
42.63184 -23.21791 204.49123 433
36.91283 -23.93427 210.15347 428
83.02714 -22.52588 178.94992 461
66.92487 -25.09598 179.99123 456
62.45100 -25.79149 184.40245 452
57.74629 -26.55610 189.00449 447
52.78182 -27.34158 193.85664 442
47.61123 -28.12983 198.97459 437
41.78883 -29.06647 204.36328 414
35.36773 -30.08267 210.05757 402
82.80258 -27.00864 178.67816 459
66.55516 -30.13327 179.70895 435
61.65627 -31.05040 184.06320 431
56.53042 -32.05326 188.65439 426
51.11567 -33.08324 193.49405 421
45.42202 -34.16705 198.64171 416
39.11332 -35.37958 204.12227 404
32.25174 -36.67234 209.94122 399
-183.27928 -77.76653 216.19139 424
82.56136 -31.61291 178.36732 438
64.86835 -35.52443 179.01752 432
59.84229 -36.65887 183.46707 428
54.55549 -37.83209 188.11440 423
48.99666 -39.11694 193.04185 418
42.87725 -40.46783 198.25822 406
36.18524 -41.95910 203.83308 401
29.01996 -43.54536 209.77608 395
-185.90031 -91.61556 216.15376 296
81.27153 -36.51397 177.70604 435
63.16325 -41.15837 178.32655 429
57.99903 -42.47131 182.82768 424
52.56897 -43.86264 187.57632 420
46.53415 -45.43451 192.53542 408
40.04179 -47.09874 197.84369 402
33.08622 -48.87709 203.46939 397
25.43436 -50.83397 209.59613 355
79.95739 -41.57812 176.98117 430
69.96324 -44.48676 179.63400 308
56.10568 -48.52156 182.12981 421
50.16848 -50.24471 186.87518 409
43.84356 -52.07109 191.95483 404
36.99023 -54.04464 197.37375 387
29.28953 -56.30723 203.10843 382
78.65836 -46.83700 176.20853 427
71.41792 -49.17968 179.60587 308
53.84328 -54.89600 181.32135 410
47.36233 -57.00163 186.13475 393
40.35536 -59.28995 191.23698 388
32.73129 -61.74121 196.68588 372
23.71855 -64.65573 202.60854 367
77.30820 -52.28980 175.39531 423
72.33707 -54.06861 179.44269 419
50.65998 -61.91595 180.25485 393
43.73002 -64.35580 185.12352 388
36.19759 -67.12421 190.36214 372
27.34379 -70.26250 195.89857 367
17.49405 -73.84344 201.97246 332
75.99136 -57.97882 174.49162 420
70.60127 -60.09548 178.53287 386
47.17346 -69.33491 179.06221 388
39.72001 -72.30051 184.01953 373
31.03564 -75.76105 189.28580 368
18.91514 -80.53546 194.75586 331
1.74953 -87.32671 200.71729 311
73.60104 -64.29441 173.23997 386
67.24497 -67.04141 177.20634 395
52.84348 -73.27647 179.80548 300
32.63700 -82.03506 182.31200 336
20.23411 -87.41156 187.40967 315
-0.93651 -96.53813 192.35995 283
70.97104 -71.10612 171.83095 316
63.89659 -74.42983 175.75305 390
55.15940 -78.54279 179.75484 300
21.51843 -94.35921 179.79082 314
-24.66735 -116.07956 180.42081 344
71.35899 -76.54306 171.83960 316
59.94238 -82.35300 174.67204 385
50.60532 -87.10775 178.71304 325
23.04838 -101.15752 180.01717 292
73.80256 -81.18375 171.80037 316
52.67340 -92.80794 171.97450 308
38.09285 -100.79848 175.23608 319
-54.83690 -151.88416 164.72600 373
76.39371 -85.78137 171.82065 316
55.61583 -98.04367 172.00383 308
28.33607 -114.19387 172.20808 300
-47.74283 -159.15544 165.16628 286
79.10208 -90.27618 171.78410 316
58.72478 -103.23049 171.92824 308
31.86596 -120.23782 172.18071 300
81.94789 -94.66707 171.76823 316
61.94593 -108.24822 171.94502 308
-0.82319 -150.90327 163.35963 382
84.92230 -98.98695 171.73138 316
65.37599 -113.25194 171.88844 308
13.99956 -150.53378 165.83640 389
88.03494 -103.25502 171.71715 316
68.91134 -118.09660 171.86592 308
19.94498 -156.05528 166.12103 295
91.30245 -107.37363 171.67784 316
44.69926 -145.92624 163.35516 300
94.65262 -111.41589 171.63680 316
51.75863 -149.25635 164.10007 404
98.16510 -115.37489 171.61620 316
62.50235 -148.82559 166.01427 409
101.78394 -119.19614 171.57820 316
68.14407 -152.80182 166.33577 306
85.04467 -144.70099 163.53337 307
73.10228 -157.44156 166.35565 305
90.64135 -147.74182 163.94083 424
98.98202 -147.30060 165.48204 419
105.93153 -148.11470 166.43626 314
110.64857 -151.59212 166.48262 314
126.66718 -148.23854 169.59367 441
743.27051 -952.05457 109.03802 448
747.84747 -960.59778 144.13075 322
361.96732 -110.75385 167.61232 313
365.23404 -106.22028 167.63467 315
368.35010 -101.53975 167.63939 315
374.02402 -98.34274 167.68111 315
380.43192 -95.54095 166.60249 434
387.90454 -92.95744 165.19672 429
392.28043 -88.41809 164.74098 316
395.03937 -83.03878 164.69502 316
409.28964 -89.75744 167.75748 305
374.01102 -67.28197 171.55440 316
412.15009 -83.83051 167.76746 434
375.99564 -62.43732 171.55336 316
420.16656 -79.92629 166.37540 429
377.77502 -57.48569 171.59187 316
428.52786 -75.72272 164.88763 308
379.45383 -52.49811 171.57483 316
430.87494 -69.19564 164.89145 308
266.21951 -14.07843 203.50267 314
404.10953 -54.13298 171.84058 308
455.01700 -68.96943 167.86072 297
266.62943 -12.61855 203.50151 314
405.64157 -48.32189 171.87361 308
456.74149 -61.47066 167.96159 297
266.99118 -11.16483 203.50705 314
406.95013 -42.45471 171.86264 308
463.94888 -55.20794 166.88164 452
267.31607 -9.68792 203.50417 314
408.12155 -36.58525 171.85454 308
471.06009 -48.62830 165.75111 448
267.58322 -8.21008 203.49809 314
409.16687 -30.65423 171.86034 308
475.61353 -41.18964 165.08160 300
267.80453 -6.71399 203.50560 314
409.97769 -24.72806 171.90436 308
441.25107 -28.66910 172.20250 300
60384.00781 -7607.95166 265.40067 1000
267.98923 -5.21295 203.49883 314
410.59576 -18.71951 171.89957 308
441.97061 -21.70410 172.21584 300
268.11630 -3.72152 203.50267 314
411.02960 -12.72134 171.87578 308
442.48865 -14.68881 172.21996 300
268.19827 -2.21719 203.50465 314
411.31873 -6.76104 171.88953 308
442.82202 -7.71309 172.21735 300
268.23477 -0.70492 203.50743 314
411.42279 -0.70712 171.87592 308
442.91577 -0.76275 172.22610 300
512.41577 -0.76098 168.26849 288
268.23212 0.81087 203.49849 314
411.31735 5.29690 171.87561 308
442.78061 6.27370 172.21024 300
268.16342 2.30829 203.50082 314
411.03888 11.27573 171.89218 308
442.48157 13.23701 172.16153 300
268.06430 3.81673 203.50023 314
410.61871 17.23416 171.90590 308
441.94330 20.23613 172.16971 300
4924.57910 443.02567 219.62399 415
267.91339 5.31559 203.49777 314
409.97940 23.20864 171.90009 308
441.22839 27.16316 172.15219 300
4856.63086 584.18311 219.33646 338
267.70300 6.81195 203.50995 314
409.15720 29.21199 171.85716 308
475.50845 39.65921 165.05507 300
4815.27637 726.27643 218.36441 441
267.46674 8.30570 203.50098 314
408.16174 35.11040 171.85608 308
471.83054 47.26343 165.53864 448
4804.69287 873.55121 218.46266 440
267.16354 9.77784 203.50594 314
406.99246 41.01882 171.86028 308
464.70001 53.89053 166.64296 452
4797.28174 1021.38177 218.45540 439
266.83069 11.25206 203.50800 314
405.66003 46.84667 171.84741 308
456.64285 59.93613 167.91765 297
4788.09229 1171.06421 218.37717 438
266.44495 12.71238 203.49922 314
404.15503 52.67478 171.79526 308
454.93558 67.41451 167.84065 297
266.00809 14.15703 203.50334 314
430.87143 67.66641 164.82253 308
265.61200 15.61599 203.47504 287
428.52402 74.26803 164.82303 308
376.08585 60.96135 171.53723 316
421.19394 78.79091 166.06247 429
374.14243 65.87137 171.52733 316
413.16711 82.75232 167.47968 435
395.15939 81.52720 164.66125 316
409.31174 88.24223 167.75572 305
392.41174 86.97314 164.70221 317
388.98831 92.01498 164.86035 429
381.49643 94.57470 166.28842 434
374.39847 97.03973 167.51578 439
371.08276 101.73231 167.58162 315
367.83240 106.47977 167.56880 315
13665.13477 13443.08594 840.18445 1000
4691.57959 4759.38428 215.90343 446
4604.85254 4972.19971 217.40329 411
4599.51807 5294.08447 216.95129 398
2977.50879 5860.20654 215.36206 390
2752.15356 5850.16309 216.67487 348
2543.57007 5867.70312 215.69511 341
1351.66565 3140.14795 107.07022 296
1412.27100 3311.19189 216.46771 467
1275.93005 3247.93701 104.69352 348
2138.43823 5899.94043 215.51791 449
126.00056 148.05042 169.61140 441
109.87611 151.38867 166.39194 314
105.19909 147.76434 166.40863 314
98.06485 147.15784 165.28307 419
89.66565 147.59174 163.70322 424
84.53777 143.96555 163.49983 307
72.43594 156.84528 166.23805 305
101.26482 118.40322 171.55656 316
67.57573 152.08885 166.23254 306
97.71533 114.46347 171.59444 316
61.31819 148.65840 165.73955 409
94.30136 110.46416 171.58408 316
50.50047 149.07042 163.75865 403
90.98581 106.35970 171.62816 316
72.23599 121.81214 171.81372 308
87.81696 102.13767 171.65974 316
68.63300 116.98132 171.81763 308
19.62529 155.02499 165.98932 295
84.78642 97.80068 171.68106 316
65.15660 112.05530 171.82227 308
12.32721 150.43967 165.37708 389
81.88079 93.39761 171.70566 316
61.86978 107.01171 171.88928 308
-2.57761 150.79924 162.88493 382
79.10041 88.94884 171.73827 316
58.72349 101.88029 171.92929 308
31.91715 118.88187 172.11714 300
76.47697 84.36076 171.75937 316
55.73988 96.64064 171.90697 308
28.47165 112.78787 172.14809 300
-47.43986 157.66290 165.07837 286
73.98837 79.75314 171.79128 316
52.92051 91.34769 171.97784 308
40.52483 98.13299 175.67102 319
15.99888 111.65498 177.95433 270
71.68967 75.02985 171.80336 316
60.82565 80.59457 174.77325 385
52.86603 84.64216 179.11963 325
1.05081 111.02377 175.85052 293
70.86684 69.60878 172.22150 381
64.41534 72.65262 176.28773 390
53.24285 77.93245 179.75940 300
23.52469 91.92542 180.55780 315
-5.50414 105.56930 183.59181 264
74.08824 62.58487 173.77948 386
67.72332 65.33513 177.70384 395
43.88367 75.62840 178.23286 373
34.09300 79.86885 182.98073 336
22.01608 85.10491 188.01529 331
4.55499 92.69391 193.30142 283
76.07526 56.39148 174.91553 420
70.93801 58.41779 179.02385 415
47.67987 67.64761 179.51207 389
40.33994 70.56350 184.46730 373
31.75734 73.95621 189.74289 368
20.58450 78.36452 195.29433 332
4.42008 84.79666 201.23004 311
77.46089 50.73115 175.76782 424
71.64174 52.80105 179.60236 308
51.15395 60.17043 180.67349 393
44.27780 62.66754 185.56404 388
36.92395 65.31767 190.74834 373
28.15644 68.44228 196.30753 368
18.63041 71.89072 202.34129 362
78.83257 45.27115 176.58022 427
70.11741 48.09286 179.62035 308
54.19590 53.27853 181.67001 410
47.94907 55.27662 186.50482 393
40.95266 57.57161 191.61595 388
33.47306 60.01560 197.05965 383
24.62217 62.85006 202.92200 367
80.18300 39.99303 177.32356 431
61.70185 45.33683 177.89204 425
56.39002 46.90176 182.46112 421
50.54351 48.60265 187.22304 409
44.23690 50.41349 192.26866 404
37.51517 52.39626 197.67838 399
29.98666 54.56204 203.42995 382
81.48909 34.89591 178.00037 435
63.45433 39.55581 178.64470 429
58.29718 40.87958 183.15213 424
52.87553 42.25604 187.85699 420
46.95417 43.79036 192.83083 408
40.47889 45.43586 198.11812 403
33.58500 47.20329 203.73978 397
25.85711 49.22830 209.81770 355
82.52326 30.06369 178.56584 458
65.15720 33.95049 179.30493 432
60.15796 35.08462 183.76950 428
54.90599 36.24634 188.39880 423
49.35888 37.46841 193.34349 418
43.32042 38.82637 198.52524 406
36.64991 40.33705 204.06595 401
29.48120 41.94508 209.96625 361
-182.94482 89.39211 216.25963 438
82.77435 25.48142 178.88095 459
66.63707 28.59730 179.91034 455
62.03453 29.46619 184.30980 431
56.92069 30.43417 188.91667 426
51.49639 31.45882 193.73225 421
45.79376 32.56533 198.88832 416
39.63634 33.73379 204.28664 405
32.81271 35.03522 210.13904 399
-183.26585 76.26297 216.27011 424
83.00006 21.02008 179.13010 461
66.92175 23.54813 180.16023 456
62.42984 24.27377 184.56213 452
57.73697 24.99152 189.16132 447
52.79585 25.80639 194.02448 442
47.60563 26.60395 199.11400 437
42.12870 27.46552 204.51987 432
35.90801 28.44452 210.26498 402
83.29504 16.56763 179.36275 462
67.25906 18.59041 180.39137 458
62.78759 19.16662 184.75676 453
58.12205 19.74001 189.36407 448
53.24065 20.34033 194.18028 444
48.10116 21.00947 199.23640 438
42.70691 21.69266 204.61580 433
36.98147 22.40086 210.27312 428
83.49278 12.15996 179.52412 316
67.59059 13.67647 180.55647 459
63.20162 14.07888 184.92046 454
58.54739 14.55355 189.49992 450
53.72626 14.98756 194.32118 445
48.67366 15.49340 199.33328 440
43.34086 15.99948 204.67978 435
37.71076 16.53744 210.31548 429
83.24280 7.85239 179.51340 316
67.95124 8.80683 180.72386 460
63.59148 9.07936 185.06744 456
59.03826 9.36571 189.62021 451
54.26619 9.67753 194.42848 446
49.27916 10.01926 199.45328 441
43.99737 10.31526 204.73485 436
38.37562 10.70962 210.33446 430
-181.87502 24.61510 269.32974 486
-186.89067 24.86438 283.56396 360
83.08235 3.55583 179.50996 316
68.40340 3.99762 180.84894 461
64.08386 4.13686 185.20879 457
59.58849 4.26529 189.76956 452
54.86273 4.42818 194.48524 447
49.88512 4.61465 199.49788 442
44.63678 4.75699 204.78854 437
39.09248 4.94582 210.37807 431
-181.90971 11.93202 269.23230 487
