# .PCD v.7 - Point Cloud Data file format
VERSION .7
FIELDS x y z rgb
SIZE 4 4 4 4
TYPE F F F U
COUNT 1 1 1 1
WIDTH 421
HEIGHT 1
VIEWPOINT 6380.299316 -4082.148438 143.258041 0.027002 -0.126995 0.026958 0.991169
POINTS 421
DATA ascii
82.60661 -0.82493 179.50684 316
68.59838 -0.83410 181.06032 462
64.32779 -0.83058 185.43246 457
59.83714 -0.84922 189.96536 453
55.08361 -0.83318 194.74211 448
50.12732 -0.82590 199.70993 443
44.91643 -0.84860 204.98357 438
39.41853 -0.82784 210.60307 432
-152.70212 -0.77742 240.98480 419
-181.79967 -0.73730 269.48633 487
-147.54903 -0.78513 277.31482 284
70.48262 -5.93516 178.54553 465
66.50222 -6.01100 182.53430 461
62.42323 -6.12231 186.67392 457
58.09851 -6.19312 191.01260 452
53.62289 -6.29615 195.52449 447
48.88951 -6.38322 200.28812 442
43.87711 -6.51908 205.34004 437
38.59587 -6.59786 210.63351 432
-178.07394 -10.70349 229.21321 476
-151.14629 -10.21093 240.26151 417
-182.29417 -10.88170 268.31787 487
-156.94501 -10.47636 277.24518 291
70.17657 -10.41493 178.33606 464
66.15907 -10.59953 182.34718 460
61.98645 -10.84887 186.51271 455
57.65786 -11.07089 190.86194 451
53.10004 -11.30763 195.40349 446
48.33622 -11.57003 200.19217 441
43.27824 -11.83462 205.25449 436
37.95977 -12.08242 210.61992 431
-182.27063 -23.35488 268.42166 486
69.91187 -14.91584 178.11287 463
65.85429 -15.25485 182.12363 459
61.67244 -15.60665 186.30579 454
57.22675 -15.99055 190.65523 450
52.61720 -16.36162 195.27286 445
47.81275 -16.77663 200.06088 440
42.71955 -17.21320 205.17085 435
37.30733 -17.64663 210.55920 430
-182.24289 -35.79170 268.48953 486
-186.73238 -36.19593 282.50076 496
-186.67798 -36.25357 296.02469 494
76.05170 -18.77409 179.58949 316
65.59600 -19.96151 181.89777 458
61.34296 -20.44122 186.10103 453
56.89437 -20.97269 190.49619 449
52.19418 -21.51300 195.07285 444
47.31090 -22.09682 199.94647 439
42.13475 -22.67463 205.04741 434
36.66215 -23.31778 210.50230 428
76.87877 -23.01461 179.59048 316
65.34181 -24.70784 181.60388 457
61.02800 -25.35522 185.84593 452
56.55357 -26.00926 190.25096 447
51.80001 -26.71412 194.90968 443
46.82858 -27.48465 199.79921 437
41.48841 -28.23900 204.94446 415
35.42081 -29.18205 210.41873 403
77.85493 -27.27447 179.55592 316
65.10534 -29.54421 181.30768 455
60.44549 -30.38314 185.51750 432
55.56195 -31.26356 189.91718 427
50.42403 -32.19261 194.56580 422
44.98195 -33.19654 199.49985 417
39.01747 -34.27147 204.71162 405
32.44738 -35.48293 210.29108 400
-183.12105 -74.02943 216.35518 425
78.93681 -31.50026 179.54933 316
63.54396 -34.77393 180.68042 433
58.76270 -35.78617 184.90604 429
53.68241 -36.87730 189.39673 424
48.35651 -38.02709 194.13994 419
42.54932 -39.24385 199.10213 407
36.18337 -40.59782 204.42274 402
29.21006 -42.09431 210.11493 359
-182.95566 -86.97881 216.28725 439
79.70081 -35.83340 179.43008 435
61.90916 -40.15768 179.96982 430
56.96997 -41.38424 184.26622 425
51.76534 -42.65776 188.84235 421
46.03275 -44.07209 193.60880 409
39.87330 -45.62232 198.68741 404
33.23446 -47.24968 204.13528 398
25.40371 -49.15664 209.94206 269
78.51209 -40.71318 178.70000 432
60.29754 -45.80153 179.20088 426
55.16071 -47.23009 183.57993 422
49.53167 -48.78572 188.18022 410
43.49586 -50.50697 193.02728 405
37.05379 -52.30468 198.23950 400
29.86866 -54.34319 203.76393 383
77.27290 -45.78846 177.95201 428
58.61431 -51.65211 178.34325 423
53.03019 -53.40213 182.74039 411
47.03820 -55.26937 187.40892 394
40.37378 -57.38075 192.33011 389
33.15505 -59.63018 197.61534 384
24.71579 -62.30523 203.28763 368
76.00552 -51.09962 177.09428 425
65.87415 -54.64903 179.68550 308
50.17785 -60.08176 181.73788 395
43.58989 -62.41959 186.47826 390
36.52644 -64.86261 191.47813 385
28.12740 -67.80508 196.85112 369
18.91462 -71.00912 202.70456 364
74.72057 -56.62127 176.17986 421
67.76131 -59.29702 179.67726 308
46.86165 -67.31566 180.57213 390
39.79737 -70.02622 185.41316 374
31.55051 -73.22717 190.49442 369
21.34353 -77.13637 195.85715 333
6.41190 -82.91271 201.66751 313
72.78529 -62.63262 175.03099 388
66.96553 -65.10920 178.93196 397
43.21095 -75.10147 179.27814 374
34.18839 -78.92093 183.91690 337
22.67635 -83.72488 188.86130 333
7.02370 -90.35748 194.06204 312
69.71208 -69.50642 173.47305 383
63.74750 -72.24245 177.48041 391
35.79929 -85.04861 177.08716 337
24.26137 -90.36668 181.61298 332
2.96524 -100.12743 185.54747 284
66.84350 -76.67242 171.88220 316
60.35551 -79.89069 175.96149 386
51.08670 -84.48807 179.78563 300
-8.11608 -113.94379 175.04874 291
69.44175 -81.30540 171.83952 316
52.28804 -90.55960 173.08301 324
41.67846 -96.24768 176.99707 321
22.38765 -106.62354 180.04359 292
72.18507 -85.91895 171.83704 316
51.50613 -97.87199 172.00711 308
24.26533 -113.63748 172.22845 300
-52.14353 -157.84077 165.08389 288
75.06400 -90.43784 171.81493 316
54.72448 -103.08572 171.98416 308
28.02927 -119.65720 172.24561 300
78.10196 -94.84711 171.76834 316
58.15167 -108.16422 171.97401 308
-6.25466 -151.01884 163.02435 380
81.28062 -99.20235 171.74896 316
61.75176 -113.14703 171.93483 308
9.04135 -150.68620 165.55687 387
84.59190 -103.45190 171.71971 316
65.48520 -118.00197 171.89162 308
16.10526 -155.60004 166.03209 295
88.02641 -107.62755 171.72351 316
69.33196 -122.77383 171.88785 308
-5901.66650 -4978.54004 1780.36255 1000
91.58050 -111.68914 171.66562 316
48.12080 -149.36351 164.02293 402
-1671.88660 -1639.55530 51.22770 488
95.27452 -115.67829 171.64284 316
59.24306 -148.93207 165.96295 408
-2129.04883 -2169.32593 5.26066 482
99.07484 -119.55751 171.60023 316
65.23627 -152.80281 166.32655 306
82.26554 -144.99832 163.55032 308
70.39088 -157.51425 166.30173 305
88.32655 -147.84253 164.02554 423
96.89857 -147.54280 165.53627 418
103.90485 -148.62601 166.46495 314
108.81616 -152.13463 166.45576 314
125.76257 -148.30087 169.82816 440
45513.49219 -46375.93750 10787.91699 1000
375.48721 -102.86314 167.63795 315
378.82568 -97.97831 167.65858 315
2313.89844 -1268.58557 -108.78156 1000
384.13290 -94.23715 167.00749 430
1658.41821 -811.15948 51.90014 382
391.82855 -91.57034 165.65494 425
397.66046 -87.67006 164.76442 317
400.61945 -82.21694 164.73903 317
414.84653 -88.52261 167.79758 306
403.33090 -76.63634 164.76872 317
417.57410 -82.43339 167.80746 306
381.94577 -62.13771 171.62172 317
424.41583 -77.81327 166.79982 425
383.97046 -57.14863 171.66289 317
433.09421 -73.60819 165.30385 420
385.82678 -52.11420 171.63721 317
437.13306 -67.49892 164.90166 308
387.50125 -47.06530 171.66794 317
439.30316 -60.80257 164.92816 308
461.33496 -66.66354 167.92206 298
389.05640 -41.92584 171.66960 317
412.21378 -47.31590 171.93178 309
463.21838 -59.14246 167.98306 298
390.47821 -36.74763 171.68213 317
413.76544 -41.42290 171.91039 309
467.32089 -52.06528 167.57178 449
391.70471 -31.59753 171.72551 317
415.16150 -35.49435 171.96324 309
474.56421 -45.32281 166.46419 444
392.78177 -26.37298 171.71849 317
416.33917 -29.54042 171.93181 309
482.08194 -38.30164 165.22093 439
393.70154 -21.12906 171.71489 317
417.34564 -23.53257 171.94470 309
448.37326 -26.70902 172.25169 301
394.47955 -15.84824 171.74931 317
418.22571 -17.54941 171.98637 309
449.32281 -19.70382 172.25482 301
395.06418 -10.62012 171.75166 317
418.82584 -11.51591 171.95450 309
450.04123 -12.71027 172.26660 301
395.51178 -5.30890 171.74365 317
419.29324 -5.46814 171.95473 309
450.54587 -5.69402 172.25845 301
395.75751 -0.01186 171.76106 317
419.58618 0.58091 171.95779 309
450.61908 1.29392 172.31956 495
395.90482 5.24449 171.74022 317
419.71295 6.59644 171.99968 309
450.86792 8.32407 172.26582 301
395.84967 10.51707 171.75447 317
419.59274 12.63094 171.95193 309
450.73004 15.37973 172.25047 301
395.62576 15.81102 171.72202 317
419.34503 18.67139 171.94803 309
450.41342 22.41090 172.24930 301
395.25772 21.03761 171.75061 317
418.87604 24.63529 171.95139 309
484.56671 34.69986 165.23534 461
394.73810 26.29092 171.72003 317
418.23096 30.61992 171.92844 309
477.81088 41.65044 166.39999 447
394.00790 31.50515 171.70012 317
417.41580 36.58197 171.93880 309
470.82562 48.21834 167.59499 451
393.15497 36.67416 171.70093 316
416.40878 42.52223 171.92300 309
467.65045 55.36500 167.98677 297
2769.81641 633.45984 130.90601 437
392.15436 41.79415 171.71257 316
444.14810 56.62937 164.89354 307
466.37680 62.96134 167.88425 297
2733.53784 708.96613 131.32307 494
391.00241 46.91767 171.70593 316
442.48801 63.38464 164.89783 307
2709.94995 787.56226 131.32115 490
2791.88525 813.58807 216.40961 306
389.65295 51.97898 171.65240 316
439.69556 69.74771 165.09167 438
2692.94629 868.76367 131.20142 484
388.18051 56.98214 171.66803 316
431.31970 73.88123 166.68558 429
2682.81860 953.53259 130.64084 471
2734.72607 973.70532 216.22198 489
386.54678 61.92852 171.63448 316
424.66751 78.25896 167.79684 305
2741.28491 1068.58032 216.75368 486
407.96729 77.68313 164.75371 316
422.50467 84.38968 167.76378 305
405.59848 83.16492 164.79149 316
401.37030 87.67646 165.27611 428
393.99081 90.25256 166.73570 433
388.28998 93.43177 167.69766 315
385.49628 98.38991 167.65123 313
9129.13477 9430.59473 -205.76511 1000
9015.36035 9308.73340 2331.72925 1000
2312.20850 5066.24805 402.90851 447
2219.30615 5312.96729 410.24808 346
664.79413 5916.79004 420.28561 456
472.93091 5854.39160 416.69684 439
287.86200 5828.56543 416.23416 366
103.28983 5816.52197 415.57169 368
101.38312 5931.62451 613.75946 497
-264.55215 5805.93555 416.24228 262
-892.85248 3185.14014 220.59229 378
-959.18329 3058.70825 220.47777 413
122.52966 149.15617 167.38026 316
116.13035 147.97173 166.67426 432
110.22362 145.94507 166.20833 426
101.80861 146.78300 164.65930 420
93.93423 146.44861 163.41771 307
89.51138 141.93324 163.58728 311
77.34145 155.03497 166.28854 305
105.77944 116.55923 171.49435 315
72.18591 150.47604 166.25229 305
102.01922 112.73096 171.56352 315
64.24190 148.57553 165.31352 410
98.38603 108.80664 171.57698 315
53.26043 148.96490 163.37836 404
94.88311 104.80560 171.58194 316
76.13346 120.49021 171.76236 308
91.52757 100.67178 171.63921 316
72.31603 115.72684 171.77917 308
23.35977 154.03520 166.07759 297
88.27760 96.46937 171.66606 316
68.64782 110.87680 171.81422 308
14.76357 150.40154 165.11523 390
85.18600 92.15146 171.67078 316
65.09727 105.94563 171.84344 308
38.72672 124.06867 172.08534 300
82.21486 87.76415 171.71301 316
61.73896 100.85907 171.89679 308
34.82843 118.10518 172.10526 300
-1926.01941 1373.94080 301.78244 431
79.39073 83.30774 171.72903 316
58.56483 95.71984 171.88802 308
31.16805 112.08038 172.12137 300
-44.91393 157.52576 165.11528 286
76.71167 78.74756 171.74580 316
55.51269 90.51799 171.91298 308
40.21447 98.99316 175.00067 318
11.61149 114.85617 176.70993 269
74.19680 74.13936 171.79219 316
61.19129 80.84596 174.17111 384
52.85262 85.10651 178.57735 324
25.66558 99.06772 179.98396 292
71.78410 69.45995 171.79361 316
64.75378 72.77512 175.81627 389
55.40680 77.22424 179.71484 300
23.42370 92.41117 180.15509 314
-26.51244 116.12403 180.24921 344
74.66689 62.44374 173.31683 386
68.21115 65.26029 177.28841 381
44.20967 75.77569 177.86670 373
34.21308 80.11954 182.63770 335
21.98098 85.44696 187.71466 330
3.21539 93.63730 192.96791 282
76.60155 56.23521 174.47188 419
71.37668 58.32425 178.63239 415
48.00675 67.63774 179.17433 388
40.61726 70.57823 184.22505 372
31.88120 74.08677 189.53741 367
20.43176 78.65771 195.10576 331
3.81454 85.26079 201.12173 310
77.96586 50.49444 175.38689 423
72.89118 52.32388 179.50293 419
51.48735 60.09366 180.40634 393
44.53603 62.65209 185.32764 388
37.06656 65.34972 190.62987 383
28.20633 68.56198 196.22615 367
18.50404 72.04881 202.35991 362
79.28455 45.01047 176.24498 427
71.64272 47.49604 179.59573 308
54.47109 53.10998 181.46196 410
48.18928 55.17289 186.30078 392
41.13319 57.47733 191.44189 387
33.55359 59.97424 196.97389 382
24.57173 62.93791 202.88617 367
80.57957 39.70794 177.03854 432
70.10178 42.79417 179.60367 308
56.64277 46.70739 182.27750 420
50.77427 48.46038 187.07597 409
44.44024 50.30782 192.15979 404
37.61338 52.29504 197.59401 399
30.03218 54.52760 203.44321 382
81.85840 34.62836 177.76491 435
63.75193 39.31286 178.46152 428
58.56542 40.68249 182.98996 424
53.07613 42.08597 187.75238 419
47.11604 43.62370 192.73985 407
40.55595 45.32730 198.09103 402
33.61015 47.12489 203.79730 397
25.75278 49.14093 209.89592 355
82.76589 29.79320 178.35031 457
65.42851 33.69437 179.18333 432
60.39511 34.81081 183.60841 427
55.10051 36.03466 188.33075 423
49.48151 37.31249 193.26265 418
43.39188 38.68305 198.50064 406
36.68419 40.18352 204.11617 401
29.39907 41.80062 210.07881 361
-184.41231 90.00819 216.57408 296
82.95953 25.22597 178.70074 459
66.78175 28.33826 179.74663 454
62.19743 29.22043 184.23405 431
57.04478 30.22730 188.87459 426
51.62476 31.25469 193.75340 421
45.88911 32.37671 198.87364 416
39.65115 33.57474 204.38391 404
32.75925 34.88123 210.22168 399
-182.90140 76.48099 216.60193 424
83.18467 20.74790 178.97517 461
67.02126 23.31689 180.06136 456
62.49893 24.03554 184.50560 452
57.78962 24.81226 189.15045 447
52.80802 25.57582 194.03407 442
47.58372 26.41634 199.18367 437
42.02939 27.31684 204.61847 432
35.85199 28.30699 210.34669 402
83.41817 16.29339 179.24252 462
67.32135 18.36913 180.32742 457
62.83441 18.91208 184.75694 453
58.17480 19.51474 189.35341 448
53.23299 20.13940 194.19035 443
48.05084 20.80140 199.33344 438
42.62396 21.50223 204.71346 433
36.84390 22.23016 210.41664 428
83.65662 11.92675 179.49324 463
67.63313 13.44876 180.55782 459
63.21349 13.88028 184.93028 454
58.55919 14.33053 189.55475 449
53.70811 14.80655 194.36794 445
48.59290 15.30040 199.45570 440
43.24893 15.81148 204.77603 435
37.55026 16.32309 210.50226 429
83.27134 7.66282 179.53128 316
67.97796 8.65262 180.76086 460
63.55537 8.93230 185.12047 456
58.98005 9.19355 189.69524 451
54.20539 9.49177 194.50729 446
49.19387 9.81880 199.55585 441
43.86684 10.16776 204.89375 436
38.25701 10.51313 210.50783 430
-181.64568 24.56901 269.70966 486
-186.92354 24.85230 283.96878 360
82.93332 3.39587 179.51086 316
68.37833 3.84746 180.91754 461
64.03669 3.99511 185.26952 456
59.49528 4.14806 189.84924 452
54.72263 4.27149 194.60735 447
49.76970 4.43602 199.66649 442
44.47174 4.60485 204.95161 437
38.91418 4.81298 210.56184 431
-181.75154 11.89450 269.53854 487
