# .PCD v.7 - Point Cloud Data file format
VERSION .7
FIELDS x y z rgb
SIZE 4 4 4 4
TYPE F F F U
COUNT 1 1 1 1
WIDTH 423
HEIGHT 1
VIEWPOINT 6064.682617 -4096.613770 139.209045 0.168293 -0.123890 -0.002002 0.977919
POINTS 423
DATA ascii
79.79659 -0.58537 179.53676 316
68.08803 -0.62709 181.60239 461
63.86677 -0.66532 185.87122 457
59.44648 -0.68578 190.36137 452
54.83847 -0.68843 195.02785 448
49.94096 -0.69496 199.95816 443
44.79880 -0.71361 205.12617 437
39.37067 -0.76270 210.59232 432
-178.15291 -1.64954 229.52261 476
-151.99742 -1.56896 240.72276 419
-181.97966 -1.62722 269.13977 487
-136.37320 -1.46296 274.94431 495
80.02802 -4.90432 179.53632 316
67.65572 -5.32770 181.47311 461
63.40062 -5.46897 185.75281 456
58.95740 -5.63211 190.24942 452
54.24850 -5.79549 194.94177 447
49.38464 -5.98722 199.89078 442
44.17580 -6.15730 205.06609 437
38.71018 -6.33185 210.60455 431
-153.03244 -13.15728 240.88670 416
-181.95155 -14.21693 269.16357 487
-158.28873 -13.32432 278.65475 265
80.33261 -9.20513 179.54433 316
67.29366 -10.05665 181.29587 459
62.95192 -10.36176 185.59267 455
58.45061 -10.68067 190.08212 451
53.74622 -10.96273 194.80630 446
48.78683 -11.30385 199.79858 441
43.54729 -11.65821 205.03709 436
37.99826 -12.03916 210.57527 430
-181.86490 -26.75198 269.32660 486
80.80034 -13.49854 179.55666 316
66.93825 -14.86635 181.10660 458
62.60694 -15.30296 185.43243 454
58.02369 -15.73464 189.94064 449
53.22798 -16.21996 194.70023 445
48.19471 -16.71006 199.69257 440
42.90660 -17.21311 204.94997 434
37.33023 -17.73485 210.55370 429
-181.80597 -39.32711 269.47845 486
81.41587 -17.79629 179.52809 316
66.65819 -19.72683 180.87277 457
62.23310 -20.26388 185.21330 453
57.59885 -20.86843 189.75551 448
52.78068 -21.52950 194.51186 443
47.65162 -22.15590 199.54036 438
42.28857 -22.85323 204.85147 433
36.63200 -23.60735 210.49216 428
82.12149 -22.04244 179.52948 316
66.36941 -24.61387 180.60210 456
61.90271 -25.35068 184.97540 451
57.25120 -26.07122 189.57153 447
52.35512 -26.89889 194.37750 442
47.21575 -27.70897 199.41022 437
41.54482 -28.65743 204.75209 414
35.19863 -29.67704 210.44505 402
82.23785 -26.47217 179.31671 459
66.12041 -29.60801 180.30724 454
61.28513 -30.55334 184.66348 430
56.17941 -31.51923 189.22261 426
50.83704 -32.59016 193.99969 421
45.12019 -33.67022 199.09029 416
38.93055 -34.87571 204.51665 404
32.06873 -36.18761 210.25931 364
-182.94180 -78.09290 216.61485 424
82.04903 -31.00225 178.99466 457
64.46438 -34.97342 179.65466 432
59.47010 -36.10449 184.07120 427
54.24809 -37.30700 188.67531 422
48.70341 -38.56742 193.58450 418
42.60569 -39.92646 198.72186 406
35.98157 -41.44616 204.21768 400
28.61589 -43.13250 210.11516 358
-188.80508 -92.55222 216.60925 296
80.87576 -35.84040 178.31689 433
62.77498 -40.55513 178.95572 428
57.63632 -41.90324 183.40709 424
-80.42918 -20.98891 -13.68121 419
46.23498 -44.90549 193.02847 407
39.77250 -46.53699 198.31976 402
32.86206 -48.35033 203.93414 397
-188.36183 -106.02094 202.79901 483
79.56814 -40.92662 177.59158 430
61.08807 -46.35852 178.14944 425
55.78243 -47.92148 182.69341 420
49.89643 -49.68532 187.43011 408
43.57489 -51.49594 192.44296 403
36.81426 -53.50768 197.83791 386
29.16835 -55.78439 203.54810 381
78.29098 -46.17404 176.83022 427
68.77922 -49.29230 179.66991 308
53.52782 -54.30946 181.87775 409
47.17414 -56.41670 186.68005 392
40.16996 -58.72470 191.73216 387
32.56301 -61.18984 197.23091 371
23.60555 -64.14387 203.07689 366
76.94798 -51.64460 175.96768 423
70.44487 -53.99567 179.63869 308
50.42106 -61.28567 180.81192 392
43.50223 -63.80582 185.67683 388
35.97298 -66.55157 190.88945 372
27.16437 -69.74022 196.42427 367
17.47134 -73.29460 202.47223 331
75.63896 -57.34922 175.08372 419
70.40755 -59.43604 179.14171 386
46.94844 -68.81432 179.60373 388
39.43269 -71.78049 184.54749 372
30.77022 -75.29607 189.83060 367
18.79421 -80.04742 195.30365 331
1.63424 -86.89158 201.19637 310
73.39066 -63.64761 173.85767 385
67.12518 -66.41456 177.77960 394
42.99918 -76.93936 178.27974 372
32.57217 -81.46127 182.90497 335
20.09309 -86.95157 187.91687 314
-0.99699 -96.11110 192.85590 282
70.23438 -70.77075 172.23846 381
63.79098 -73.79769 176.34435 389
52.60140 -79.13089 179.76775 300
21.25994 -93.97305 180.31976 313
-28.29354 -117.54511 180.49988 284
71.28271 -76.10340 171.83282 316
60.21394 -81.78469 174.77087 384
51.31713 -86.37496 178.89162 324
22.91230 -100.93933 180.06157 292
73.81687 -80.72337 171.84175 316
52.65776 -92.44852 171.97800 308
38.66945 -100.20988 175.37074 318
-54.62419 -151.91931 164.82428 374
76.49014 -85.31318 171.78023 316
55.69828 -97.73047 171.98961 308
28.31087 -113.99157 172.22000 300
-48.05474 -159.49428 165.09808 288
79.32710 -89.84103 171.76445 316
58.89124 -102.86532 171.93457 308
31.98813 -120.07708 172.16330 300
82.22417 -94.23333 171.75110 316
62.23122 -107.92032 171.93874 308
-0.62118 -150.89282 163.36053 383
85.32957 -98.56755 171.72351 316
65.73154 -112.92930 171.87206 308
14.25815 -150.56859 165.82986 389
88.57283 -102.84176 171.70354 316
69.35995 -117.82171 171.86703 308
20.31149 -156.04613 166.08839 295
91.92215 -106.98720 171.68954 316
73.18774 -122.57735 171.84151 308
95.38964 -111.04276 171.65857 316
52.28998 -149.21336 164.05731 404
98.98557 -115.00690 171.62849 316
63.16089 -148.79663 165.96873 410
102.71906 -118.83920 171.60165 316
69.06622 -152.61520 166.34001 305
86.15110 -144.42451 163.55362 307
74.09257 -157.26999 166.31479 305
91.66652 -147.74214 163.84950 425
100.21942 -147.20282 165.43802 420
107.36479 -147.89560 166.44093 314
112.22711 -151.36127 166.46445 314
120.70310 -149.57477 168.13306 489
-620.19568 -1332.47131 165.60236 400
-18797.24805 -48226.99609 -10078.59375 1000
372.62076 -105.81915 167.64284 313
375.97971 -101.08580 167.67867 315
379.15250 -96.23037 167.66924 315
386.08109 -93.57396 166.51222 433
393.67676 -90.90952 165.10736 428
397.76904 -86.20345 164.75517 317
400.64685 -80.73239 164.73656 317
415.00433 -87.45164 167.78619 305
379.76031 -65.06966 171.58403 316
417.61984 -81.38908 167.81389 305
381.84937 -60.19723 171.63834 316
425.44595 -77.31770 166.55186 429
383.77118 -55.23233 171.65448 316
433.97952 -73.19658 165.04483 424
385.52649 -50.22585 171.64810 316
436.92508 -66.79190 164.88399 308
387.18155 -45.17130 171.67488 316
439.04233 -60.15572 164.88240 307
461.27371 -66.54560 167.90436 297
388.65942 -40.11152 171.67757 316
411.94922 -45.99424 171.88710 309
463.13300 -59.04694 167.96266 297
389.99429 -34.93441 171.67053 317
413.40891 -40.13505 171.93916 309
467.29175 -52.08069 167.51636 452
391.14838 -29.80667 171.69109 317
414.75110 -34.24424 171.92390 309
474.41193 -45.51086 166.38776 447
392.16968 -24.63047 171.71393 317
415.85928 -28.32828 171.93553 309
481.72559 -38.65770 165.22890 443
2108.19116 -293.07108 154.13412 498
2117.20996 -294.48917 216.50566 489
6729.52979 -1015.42407 1082.80200 1000
393.03696 -19.39060 171.74228 317
416.79028 -22.35158 171.94334 309
448.03619 -26.25207 172.28008 301
393.73883 -14.17348 171.74275 317
417.59802 -16.40369 171.93214 309
448.89740 -19.26512 172.23466 301
394.27197 -8.93429 171.73586 317
418.16757 -10.38745 171.96143 309
449.54190 -12.31169 172.26469 301
394.64413 -3.66291 171.72815 317
418.61478 -4.39225 171.97659 309
450.02200 -5.35756 172.26439 301
394.87775 1.59194 171.72501 317
418.86166 1.60089 171.97441 309
450.26566 1.65246 172.29439 301
394.95184 6.82786 171.71053 317
418.90909 7.60867 171.98991 309
450.32452 8.62821 172.25775 301
394.83069 12.08672 171.73167 317
418.79642 13.62697 171.98912 309
450.16553 15.66898 172.28795 301
394.60294 17.32404 171.70810 317
418.49930 19.63482 171.96677 309
449.78644 22.59258 172.25464 301
394.21310 22.57908 171.71547 317
418.00671 25.60417 171.93874 309
484.53113 34.09433 165.17604 301
393.64145 27.78348 171.72200 317
417.32391 31.56988 171.92152 309
478.22455 41.25677 166.24442 443
392.93335 32.98611 171.68500 317
416.48215 37.50270 171.93350 309
471.08231 47.99595 167.44366 448
392.07309 38.11646 171.70049 317
415.47388 43.39412 171.90575 309
467.05017 54.97246 167.93272 297
391.03870 43.28179 171.68298 316
443.37143 56.73465 164.87395 307
465.80960 62.56590 167.89468 297
389.81894 48.34098 171.66068 316
441.76520 63.46234 164.90070 307
388.49969 53.39116 171.67877 316
439.33466 69.94621 165.01932 434
387.01581 58.43750 171.64828 316
430.68661 74.18155 166.64807 424
409.24011 72.86029 164.72029 316
423.86615 78.67883 167.83069 305
407.05331 78.44482 164.76118 317
421.75830 84.80557 167.76282 305
404.69284 83.99255 164.73967 317
399.81180 88.24138 165.49399 424
2820.73071 1323.58289 120.87398 423
392.28369 90.84072 166.95287 429
2755.74072 1390.92688 121.83145 492
387.33249 94.58995 167.65710 315
2711.82104 1469.94312 121.87685 464
384.60956 99.59178 167.63344 313
2687.36230 1561.45129 121.58942 292
2701.39062 1681.12854 119.07539 490
2668.20239 1792.94861 114.55074 444
1243.35205 5432.87939 -150.08418 288
1094.64209 5601.16895 -159.30612 353
956.46130 5934.90479 -178.55685 358
473.53568 4145.55273 -58.05244 484
-720.62970 5872.25342 -175.76865 407
-888.07904 5759.02002 -169.50810 487
-899.05444 5813.78564 20.51672 419
-1060.63794 5688.69971 -168.03729 497
-1074.23035 5751.52393 20.71966 426
-1233.19348 5625.10254 -165.71306 498
-1403.84875 5559.93799 -164.93977 499
-1607.29163 5594.61621 -170.79640 437
-1620.36804 4239.19189 -87.20121 466
-1436.32275 3243.44629 -23.02736 292
-1388.75806 2920.69678 -2.64842 374
-1561.19714 3005.42383 -13.60437 349
127.52653 148.28947 169.41147 486
-1583.81262 2838.04663 -4.85672 307
120.29465 148.96199 168.20932 489
111.66018 151.06990 166.38129 314
106.92191 147.50856 166.41568 314
99.64645 147.02669 165.27873 419
91.09784 147.51433 163.67554 424
85.92184 143.84244 163.48488 307
73.87555 156.70033 166.29990 305
102.61971 118.32901 171.55722 316
68.92046 151.97278 166.27271 305
98.98835 114.42298 171.58530 316
62.48843 148.63956 165.72296 409
95.43568 110.43806 171.57677 316
51.56649 149.07329 163.80298 403
92.01949 106.34046 171.64549 316
73.27528 121.80415 171.79008 308
88.73997 102.11505 171.65578 316
69.53388 117.01534 171.81055 308
20.48034 155.05209 166.03618 295
85.63309 97.83978 171.69830 316
65.98110 112.09441 171.82950 308
13.14702 150.45438 165.40237 389
82.61945 93.45011 171.71320 316
62.55795 107.05838 171.86273 308
-1.84004 150.80368 162.95537 382
79.71868 89.00803 171.75586 316
59.25353 101.94788 171.90085 308
32.37496 118.99117 172.09850 300
76.97858 84.43855 171.74771 316
56.16850 96.74074 171.94237 308
28.77805 112.94353 172.12863 300
-47.43061 157.97060 165.10538 286
74.40572 79.82996 171.75626 316
53.21670 91.45313 171.96710 308
40.13959 98.62668 175.50510 319
14.04754 112.97543 177.58142 270
71.93726 75.13691 171.81335 316
60.75256 80.83361 174.69275 385
52.59295 84.98536 178.99384 325
1.93298 110.77402 175.99109 293
70.82594 69.76727 172.17030 381
64.33916 72.82025 176.27428 390
53.28277 78.01931 179.76982 300
23.23886 92.21011 180.51384 314
-27.75812 116.13293 180.37703 343
74.32727 59.92827 175.18916 387
68.34138 62.49110 179.01212 396
44.65902 72.63910 179.35272 385
36.59526 76.12757 184.21245 369
25.36098 80.92069 189.07729 332
10.57373 87.25329 194.38371 311
-2576.73242 1195.39270 116.31985 405
75.67849 54.28631 176.07524 420
68.96349 56.92787 179.62329 308
48.13729 65.11061 180.54543 389
41.15900 67.86177 185.39508 384
32.97876 71.04433 190.48392 369
23.79301 74.66107 196.02028 332
9.57891 80.22614 201.80547 312
76.99953 48.91920 176.91782 424
67.40432 52.31927 179.64404 308
51.47807 58.03118 181.64053 394
44.83585 60.39854 186.37669 389
37.67968 62.94151 191.44135 384
29.44247 65.85293 196.86711 368
20.21969 69.15851 202.70586 363
78.34178 43.70536 177.66216 427
59.64208 49.70663 178.09157 422
54.10838 51.49232 182.56143 410
48.15112 53.43114 187.24733 406
41.55370 55.53928 192.25558 388
34.27335 57.86383 197.57141 383
25.93010 60.53418 203.28314 367
79.63165 38.68598 178.35240 431
61.37623 43.90209 178.83955 426
56.17966 45.41284 183.27106 421
50.57350 47.02150 187.92981 409
44.43052 48.77341 192.85318 404
37.89944 50.68232 198.09691 399
30.86475 52.69809 203.70839 383
80.88530 33.82236 178.97697 434
63.05072 38.32212 179.56752 429
58.04056 39.63013 183.91037 425
52.70899 40.97050 188.54936 420
47.00528 42.41124 193.38661 408
40.72472 44.01681 198.52655 403
33.99731 45.69426 204.03464 398
26.44699 47.66307 209.96140 356
81.74329 29.18486 179.46881 458
64.70960 32.95082 180.18170 432
59.84951 34.03913 184.52318 428
54.70613 35.14132 189.04381 423
49.27874 36.35707 193.85240 419
43.46059 37.62646 198.96877 407
36.96229 39.09915 204.36095 401
29.90383 40.61735 210.13687 361
-182.86864 87.47074 216.42659 438
81.20991 24.95321 179.52696 316
65.91470 27.80176 180.68997 455
61.49454 28.67145 185.01273 450
56.62780 29.57722 189.52963 427
51.33865 30.56092 194.26341 422
45.80705 31.58541 199.29201 417
39.83895 32.74935 204.59874 405
33.11805 33.98860 210.27162 399
-183.06757 74.53738 216.38670 424
80.62213 20.71093 179.54269 316
66.22691 22.95346 180.92673 456
61.81376 23.62927 185.23425 452
57.23225 24.35365 189.79277 447
52.37032 25.10212 194.49875 442
47.30677 25.89406 199.50568 437
41.92118 26.74312 204.80342 432
36.13324 27.61277 210.42198 409
80.18147 16.44317 179.53197 316
66.55983 18.13822 181.10486 458
62.18298 18.66689 185.42531 453
57.62010 19.23489 189.95926 448
52.83374 19.81890 194.64218 444
47.78578 20.43824 199.62985 438
42.47609 21.12095 204.88715 434
36.86949 21.78022 210.45660 428
79.86390 12.15882 179.56126 316
66.89948 13.35075 181.30087 459
62.57080 13.77533 185.58661 454
58.02535 14.19036 190.06044 450
53.31143 14.60945 194.80008 445
48.31987 15.04358 199.72922 440
43.07966 15.54412 204.96605 435
37.51869 16.06097 210.50002 429
79.63994 7.86390 179.54774 316
67.29233 8.61528 181.44768 460
62.95580 8.87469 185.73520 456
58.51809 9.14404 190.22810 451
53.80293 9.44348 194.91055 446
48.89421 9.71639 199.82616 441
43.73358 10.03926 205.02185 436
38.19899 10.37160 210.57841 430
-181.92827 23.56050 269.12225 486
-186.73315 23.93221 283.30536 496
79.57880 3.57769 179.54083 316
67.72160 3.92327 181.54860 461
63.46062 4.06005 185.85130 457
59.00769 4.18977 190.30360 452
54.38712 4.32569 195.00497 447
49.48404 4.44381 199.93230 442
44.35671 4.59197 205.09660 437
38.88450 4.79161 210.59077 431
-181.99016 11.10784 269.08170 487
