# .PCD v.7 - Point Cloud Data file format
VERSION .7
FIELDS x y z rgb
SIZE 4 4 4 4
TYPE F F F U
COUNT 1 1 1 1
WIDTH 493
HEIGHT 1
VIEWPOINT 6449.805176 -976.177673 145.727127 -0.659886 -0.091393 -0.094923 0.739721
POINTS 493
DATA ascii
71.50183 -0.73374 178.17102 466
67.46002 -0.73319 182.22873 462
63.30318 -0.74527 186.44138 457
58.95858 -0.77141 190.84100 453
54.38320 -0.76848 195.45686 448
49.58731 -0.75741 200.33092 443
44.50189 -0.76852 205.43390 438
39.14157 -0.77930 210.81445 432
-152.21220 -1.02952 240.65738 419
-182.10025 -1.01318 268.78409 487
-153.77057 -0.99704 277.44754 284
-111.74136 -0.99063 281.52371 494
71.09856 -5.25209 177.97621 465
67.06281 -5.37858 182.05919 461
62.87605 -5.53635 186.28036 456
58.47941 -5.65156 190.72795 452
53.86115 -5.84262 195.35918 447
49.00294 -6.00062 200.23285 442
43.89703 -6.14286 205.35341 437
38.48196 -6.32339 210.78261 431
-152.59230 -12.54719 240.63882 416
-182.07622 -13.50958 268.84863 487
-155.03410 -12.65961 277.74307 284
77.46579 -9.38887 179.56105 316
66.70031 -10.08141 181.84464 460
62.42267 -10.38115 186.09799 455
58.00130 -10.63922 190.56110 451
53.35256 -10.92805 195.20473 446
48.44372 -11.24083 200.12601 441
43.31246 -11.57164 205.28015 436
37.82107 -11.92544 210.74797 430
-42650.58594 -2747.73047 209.40872 0
-182.00725 -26.01403 269.02170 486
78.05383 -13.71674 179.56029 316
66.40523 -14.81589 181.64449 459
62.09447 -15.24684 185.93091 454
57.58974 -15.67382 190.37961 449
52.86639 -16.13644 195.07094 445
47.90313 -16.58500 199.97525 440
42.69603 -17.08718 205.19202 435
37.16546 -17.64743 210.72581 429
-181.99796 -38.56857 269.14618 486
78.79009 -18.03673 179.56271 316
66.15110 -19.65501 181.37697 457
61.77034 -20.18608 185.69237 453
57.20933 -20.78120 190.19547 448
52.42107 -21.36889 194.88091 443
47.38863 -22.01774 199.85391 438
42.07374 -22.71354 205.07996 433
36.49654 -23.41440 210.66656 428
79.65825 -22.32512 179.55292 316
65.89659 -24.51031 181.11958 456
61.46707 -25.21877 185.44560 452
56.87835 -25.95868 189.94954 447
52.01141 -26.74289 194.71646 442
46.93534 -27.52980 199.71999 437
41.40142 -28.40135 204.97092 414
35.14160 -29.40677 210.57253 402
80.61772 -26.58945 179.54051 316
65.62463 -29.47586 180.81404 455
60.90504 -30.40256 185.10007 431
55.86153 -31.33965 189.57770 426
50.58230 -32.35504 194.34688 421
44.94720 -33.43138 199.36780 416
38.82737 -34.62476 204.70549 404
31.96885 -35.91168 210.42661 364
-182.91878 -77.18094 216.56834 424
81.54813 -30.87801 179.47916 457
64.06737 -34.80323 180.13239 432
59.16696 -35.93034 184.48215 427
53.94538 -37.10215 189.04208 423
48.48247 -38.34007 193.86577 418
42.49186 -39.67137 198.97227 406
35.91795 -41.12656 204.41806 401
28.56694 -42.78294 210.26839 358
-185.93745 -91.00633 216.56931 296
80.41740 -35.75019 178.83365 434
62.41946 -40.37341 179.37560 429
57.34594 -41.70094 183.77936 424
51.97913 -43.04797 188.45148 419
46.07885 -44.57640 193.35895 407
39.66641 -46.24484 198.53766 402
32.86126 -48.00557 204.09038 397
-188.33719 -105.07038 202.86621 484
79.15135 -40.76403 178.05026 430
60.72346 -46.13876 178.59814 425
55.47312 -47.70290 183.09746 421
49.64987 -49.40054 187.77631 409
43.44997 -51.20650 192.72565 404
36.80779 -53.15654 198.05536 399
29.21642 -55.33482 203.75920 382
77.88297 -46.03431 177.26398 427
66.91212 -49.58653 179.66336 308
53.29758 -54.04836 182.26096 410
47.02606 -56.10700 186.97708 393
40.08673 -58.32230 192.02766 388
32.61727 -60.75800 197.41573 372
23.75457 -63.67701 203.20309 366
76.62119 -51.45480 176.41281 423
68.72972 -54.30344 179.63094 308
50.22228 -61.01160 181.16194 393
43.40633 -63.43781 185.99405 388
36.00067 -66.10919 191.15742 372
27.30007 -69.25162 196.60954 367
17.76217 -72.73704 202.60930 362
75.27364 -57.13626 175.45746 420
70.12751 -59.18418 179.50932 386
46.82023 -68.47500 179.97266 388
39.41923 -71.39241 184.84259 373
30.81905 -74.79316 190.04132 367
19.29143 -79.36075 195.53778 331
2.63687 -85.97955 201.39389 310
73.15842 -63.42184 174.23349 386
67.01363 -66.11836 178.15543 395
42.93670 -76.52653 178.55537 373
32.76019 -80.98179 183.19547 335
20.64167 -86.21280 188.24216 315
1.01201 -94.74506 193.23158 283
69.99056 -70.54950 172.57730 381
63.66325 -73.52130 176.69565 390
51.26109 -79.38285 179.82776 300
21.74405 -93.28888 180.66519 314
-29.39817 -117.38102 180.49640 284
-47568.42969 -22539.90625 3674.62842 0
70.06615 -76.41010 171.83868 316
60.13044 -81.45160 175.03577 384
51.54000 -85.85548 179.25624 325
21.78738 -101.08506 180.04866 292
72.70913 -81.08842 171.82167 316
51.55148 -92.70876 172.01836 308
39.05856 -99.59116 175.71031 318
10.14303 -115.54272 177.20009 270
75.48454 -85.67077 171.80331 316
54.69088 -97.94431 172.00919 308
27.39569 -114.13083 172.24709 300
-48.81089 -159.34372 165.11717 288
78.39218 -90.14651 171.79527 316
58.00396 -103.14429 171.95506 308
31.20165 -120.19153 172.17102 300
81.50359 -94.58103 171.78394 316
61.50467 -108.19648 171.91528 308
-1.27784 -150.91907 163.40457 383
84.69571 -98.91889 171.72897 316
65.09007 -113.17513 171.87677 308
13.72817 -150.54308 165.79277 389
88.00354 -103.17124 171.69655 316
68.87930 -118.04802 171.85858 308
19.84431 -156.11826 166.10092 295
91.47583 -107.32100 171.65695 316
44.86954 -145.97755 163.39160 300
95.08559 -111.38511 171.65250 316
52.22263 -149.21671 164.14670 404
98.77931 -115.34155 171.64218 316
63.21420 -148.81520 166.07721 409
102.63133 -119.22499 171.58429 316
69.04904 -152.84296 166.31285 306
86.16405 -144.73239 163.57579 307
92.07051 -147.71841 163.96744 425
100.78516 -147.12723 165.54301 420
-2072.63184 -2777.60425 215.98161 301
107.76429 -148.21248 166.47670 314
-2027.27161 -2904.55005 216.80647 328
114.88204 -148.67805 167.46245 316
-1754.54114 -2724.83618 216.41795 422
-1626.43030 -2724.48291 216.71059 425
-1534.44458 -2772.58350 324.16571 452
-22402.81641 -52350.08984 -15064.53516 0
1041.96570 -1123.09509 125.73424 370
2238.98853 -2140.03979 120.14121 447
2317.58887 -2088.16748 120.05393 439
2347.83936 -2118.26685 216.77034 369
2411.59668 -2048.85156 118.37894 420
2399.73657 -2037.02686 216.87357 459
2519.89453 -2018.80872 116.46576 445
2635.57520 -1989.19312 114.16572 441
2757.72827 -1960.26367 112.12298 434
377.94186 -102.60864 167.64749 313
381.25461 -97.77440 167.71362 315
385.77280 -93.67290 167.25041 434
393.33206 -91.07331 165.92204 429
400.08942 -87.74001 164.78690 317
403.04175 -82.28885 164.75841 317
417.48599 -89.07294 167.76201 305
405.79294 -76.80238 164.78575 317
420.26495 -83.04678 167.80562 305
384.45288 -61.74976 171.63319 316
424.78497 -77.64491 167.38354 429
386.49255 -56.76915 171.64862 316
433.20947 -73.58273 165.92316 424
2166.60840 -696.27832 81.65584 294
388.36877 -51.78157 171.67549 316
439.69724 -68.42486 164.92867 307
390.11340 -46.75582 171.69092 316
441.99084 -61.77039 164.90067 307
391.69165 -41.68927 171.69437 316
414.89600 -47.59874 171.94495 309
466.20602 -60.77984 167.93697 297
393.10727 -36.55719 171.70334 316
416.43881 -41.77197 171.92690 309
467.92831 -53.21224 168.00148 297
394.35242 -31.42744 171.73674 317
417.85190 -35.84789 171.98071 309
473.38708 -46.41271 167.27435 447
395.46066 -26.22769 171.75583 317
419.05539 -29.94378 171.96288 309
480.63202 -39.67350 166.12698 443
3170.89819 -464.39896 119.05192 289
396.38089 -21.05049 171.75179 317
420.09473 -24.03266 171.99199 309
486.59573 -32.35103 165.18204 301
3085.15918 -359.40488 122.74158 458
397.16238 -15.83597 171.76007 317
420.99356 -18.06871 172.01154 309
452.15421 -21.00729 172.30910 301
3044.74170 -264.71201 124.04990 375
397.79861 -10.59813 171.78304 317
421.67957 -12.06768 172.00974 309
452.94394 -14.03292 172.31252 301
3010.12134 -173.56696 125.79490 466
398.27255 -5.34372 171.76395 317
422.17297 -6.10371 171.98283 309
450.62262 -6.97022 172.84862 495
2988.11060 -85.57520 125.95954 442
3029.27319 -87.11222 216.22371 494
398.57901 -0.12276 171.75652 317
422.50134 -0.08902 172.00314 309
450.66232 -0.09584 172.93736 485
2972.84229 1.07520 126.58594 446
3008.57812 0.87708 216.56322 496
398.74896 5.09937 171.77814 317
422.61520 5.88236 172.00789 309
450.67783 6.80439 172.96519 485
2959.25610 86.93830 127.12441 447
2998.77295 87.92081 216.30673 497
398.73969 10.35041 171.74841 317
422.57224 11.84799 171.97815 309
453.82401 13.81342 172.27873 301
2945.22583 171.60693 127.51691 423
3075.00732 180.03117 309.43832 498
398.57129 15.55109 171.77040 317
422.36548 17.83678 171.98460 309
453.51202 20.77697 172.31291 301
3217.34277 282.91855 118.69455 498
398.26627 20.79191 171.77818 317
421.94852 23.78743 171.99649 309
486.76501 31.98891 165.52666 458
2918.32129 340.00485 127.92383 401
397.75366 25.94283 171.73473 316
421.39792 29.73819 171.96741 309
480.55014 39.09054 166.62436 443
2905.73535 424.15485 128.06702 401
397.14447 31.11040 171.74013 316
420.63879 35.62759 171.95352 309
473.49182 45.74783 167.84003 448
2972.71875 523.45551 124.95484 487
396.31723 36.26680 171.72769 316
419.69287 41.49460 171.94376 309
471.26645 53.07499 167.96149 297
2913.66162 599.65210 216.44142 450
395.38104 41.35527 171.74168 316
447.75153 54.81332 164.93539 307
470.08356 60.57967 167.88628 297
394.29288 46.45031 171.73737 316
446.20050 61.51185 164.93448 307
393.05136 51.45504 171.69714 316
443.05310 67.70842 165.26646 433
391.61682 56.40186 171.67711 316
435.00168 72.05510 166.71744 424
414.06390 70.82941 164.76721 316
428.61359 76.61324 167.82816 305
411.89853 76.41600 164.76717 316
426.52487 82.70676 167.74742 305
409.64731 81.88163 164.80040 316
405.28156 86.31775 165.37904 424
397.85052 88.92521 166.86649 429
392.53333 92.37088 167.71747 315
389.88309 97.34594 167.65714 313
49779.47656 31448.26172 7942.51221 0
781.16132 938.41669 73.37876 382
736.38562 928.30634 77.57979 366
734.98492 925.59772 112.79606 444
698.14026 926.07111 80.17340 440
695.86212 921.79480 114.99384 462
659.95593 921.97638 82.78281 443
658.39813 918.86621 117.01165 466
623.25458 917.72961 85.29150 446
622.33917 915.83203 118.47154 470
593.18872 927.56427 52.31004 452
587.63275 913.85168 87.55260 450
587.40479 913.05902 120.07489 472
667.24670 1114.80920 138.30911 343
558.88361 924.93823 54.62169 455
553.34009 910.00391 89.51176 453
553.67438 910.45117 121.52116 475
525.49341 922.34027 56.87016 458
520.18555 906.20227 91.28986 456
520.73596 908.11707 122.80975 478
492.84366 920.03937 58.73262 460
487.81714 902.59381 93.20772 459
488.86984 905.89154 123.83517 459
461.10059 917.76093 60.44017 462
456.41769 898.94769 94.51213 399
457.31836 901.98822 125.00883 485
523.37738 1161.44360 138.34821 474
430.00626 915.47961 61.80087 432
425.63327 895.27789 95.95983 486
426.50189 899.65253 126.06451 488
399.46268 912.98431 63.31242 426
395.43341 891.73352 97.20782 488
396.62231 897.29468 126.82678 490
369.57135 910.72290 64.45471 428
366.13437 889.18188 98.22214 490
366.96729 894.94250 127.41428 491
367.99652 901.26508 157.01091 493
339.96265 909.07532 65.35151 431
337.52853 888.54199 98.78999 496
338.10135 894.63617 127.81939 494
338.87509 900.31146 157.21626 499
311.25339 910.54486 65.70334 432
309.14444 890.53943 99.03005 497
309.89841 897.73352 127.97044 495
310.43564 903.83405 157.33072 443
282.46844 915.17206 65.28864 417
281.27914 894.01788 98.83524 496
281.70712 902.67712 127.69219 476
285.39575 961.77795 153.49197 290
253.75800 922.09436 64.29136 420
253.07338 898.87939 98.18719 495
253.36201 909.42487 127.19804 467
224.80525 930.64636 63.10744 411
224.77676 905.62805 97.42729 490
224.70303 917.05017 126.44213 455
195.16162 940.23163 61.38826 412
195.90585 913.65509 96.47814 486
195.34465 926.23505 125.54185 436
164.53624 952.66089 59.00408 409
166.31207 925.12225 94.59676 473
165.52180 937.89227 124.08356 447
135.54948 940.15570 92.30934 415
134.38071 951.37463 122.43426 444
103.57465 954.93341 89.89661 411
102.15051 966.08167 120.70397 432
70.12439 971.19006 87.29826 404
68.27926 983.51453 118.57728 414
35.05402 990.76111 83.94537 417
119.91255 151.11319 167.39618 316
114.76646 148.20894 167.27568 440
108.03352 147.27916 166.41646 314
100.61660 146.91724 165.23744 419
91.97903 147.45859 163.66350 424
86.96717 143.62219 163.53329 307
74.84799 156.53018 166.28523 305
103.51686 118.16893 171.55043 316
69.81368 151.84685 166.24353 305
99.82502 114.28142 171.54575 316
63.23117 148.59251 165.67664 409
96.22291 110.29528 171.61263 316
52.25729 149.00476 163.74962 403
92.78843 106.18129 171.59650 316
74.01364 121.69022 171.75883 308
89.46552 102.01975 171.65613 316
70.24443 116.91152 171.82036 308
21.17294 154.93739 166.03775 297
86.25941 97.72137 171.67978 316
66.60405 111.99601 171.83160 308
13.72377 150.42082 165.40715 389
83.18634 93.37263 171.69351 316
63.14125 106.99554 171.86458 308
-1.32234 150.76562 162.95961 382
80.25443 88.92661 171.72673 316
59.79719 101.89056 171.87961 308
32.88363 118.95087 172.10335 300
77.46169 84.37342 171.76077 316
56.66074 96.70678 171.93974 308
29.24923 112.84380 172.16768 300
-46.91323 157.98053 165.08273 286
74.83904 79.77914 171.77202 316
53.63707 91.42075 171.94354 308
39.92629 98.96388 175.40254 319
12.85849 113.82174 177.26645 270
72.34737 75.09691 171.82166 316
60.74357 80.99234 174.59711 385
52.42311 85.23026 178.89354 325
23.89542 99.74930 179.98465 292
70.86307 69.92274 172.09494 381
64.31711 72.98048 176.14476 390
53.60982 78.01714 179.74300 300
23.08641 92.42607 180.42595 314
-27.39553 116.13002 180.36182 343
74.02041 62.79942 173.68776 386
67.66589 65.54586 177.63872 395
43.75599 75.88278 178.14644 373
33.81838 80.18759 182.90895 336
21.74084 85.44267 187.97098 331
3.54194 93.30512 193.23459 283
76.09153 56.51723 174.87535 420
70.92717 58.56215 178.98438 415
47.57541 67.82440 179.50360 389
40.23854 70.72976 184.47588 373
31.61041 74.16108 189.74165 368
20.30696 78.60072 195.27748 332
3.96502 85.07311 201.26862 311
76.13391 48.03242 178.07880 424
56.94380 54.91717 178.35294 411
50.96318 57.04837 182.70663 393
44.40845 59.40986 187.35295 389
37.41894 61.91224 192.33411 384
29.37218 64.79718 197.62488 368
20.31667 68.02843 203.37575 362
77.46753 42.92956 178.77502 427
58.89649 48.94558 179.14996 422
53.47063 50.67522 183.54181 410
47.61592 52.57003 188.17102 405
41.21147 54.61606 193.05112 388
34.10647 56.96025 198.27800 383
25.94374 59.59371 203.89781 367
78.75748 38.01199 179.41791 431
60.59686 43.25679 179.84480 425
55.50942 44.73342 184.20505 421
50.02577 46.31961 188.79726 409
44.01860 48.02898 193.63971 404
37.54912 49.90831 198.78438 399
30.66174 51.91012 204.30550 394
78.31152 33.68325 179.56744 316
62.29354 37.73597 180.50990 429
57.38036 39.03623 184.80620 424
52.15204 40.33121 189.34891 420
46.52859 41.79898 194.11418 408
40.35735 43.36516 199.20277 403
33.77639 45.05396 204.60902 398
-199.72574 104.70387 202.70140 288
77.60248 29.44596 179.55681 316
63.98751 32.44568 181.10667 432
59.20406 33.52930 185.37450 428
54.15419 34.65535 189.82280 423
48.81134 35.84266 194.54141 418
43.07338 37.08386 199.53241 406
36.71828 38.49526 204.84903 401
28.73846 40.30313 210.48752 270
-182.71080 87.28429 216.64243 438
77.03728 25.15412 179.57594 316
65.10267 27.41627 181.54533 455
60.73689 28.25739 185.82460 450
56.03579 29.13967 190.29517 426
50.87743 30.12253 194.92001 422
45.42364 31.13085 199.86102 417
39.51542 32.26000 205.09825 405
32.77634 33.52573 210.65370 364
-182.87715 74.33468 216.63930 424
76.60045 20.87420 179.58127 316
65.43336 22.62211 181.75792 456
61.09904 23.32677 185.99492 452
56.57167 24.03115 190.46413 447
51.82189 24.76757 195.15854 442
46.80463 25.55767 200.04367 437
41.51423 26.35797 205.25603 432
35.86853 27.24547 210.78156 383
76.25805 16.56551 179.58609 316
65.78805 17.88612 181.94420 458
61.45898 18.39662 186.15480 453
56.96041 18.98939 190.59790 448
52.26667 19.58034 195.25800 444
47.29559 20.19050 200.17584 438
42.09915 20.82879 205.34320 433
36.56739 21.53474 210.80470 428
70.25689 12.80006 178.02559 463
66.16268 13.16621 182.06699 459
61.86581 13.56294 186.30458 454
57.42012 13.99548 190.70314 450
52.73285 14.42609 195.36523 445
47.84914 14.87524 200.24051 440
42.69694 15.33357 205.41646 435
37.25396 15.87812 210.83459 429
70.61046 8.25267 178.14137 464
66.55853 8.50417 182.19260 460
62.32986 8.75749 186.40053 456
57.93343 9.02210 190.81650 451
53.29369 9.30795 195.46030 446
48.43596 9.61028 200.32285 441
43.31730 9.93603 205.43027 436
37.92648 10.25307 210.87761 430
-182.01077 23.87238 268.88165 486
-186.80371 24.08230 282.93375 496
-186.68642 24.05807 296.53998 495
71.04755 3.70785 178.20633 465
67.03949 3.83297 182.26985 461
62.83484 3.95419 186.47255 457
58.44997 4.09355 190.90123 452
53.87584 4.22406 195.50200 447
49.04972 4.38541 200.35133 442
43.94854 4.53552 205.46391 437
38.55984 4.71619 210.90596 431
-182.09113 11.35839 268.83667 487
