# .PCD v.7 - Point Cloud Data file format
VERSION .7
FIELDS x y z rgb
SIZE 4 4 4 4
TYPE F F F U
COUNT 1 1 1 1
WIDTH 450
HEIGHT 1
VIEWPOINT 6420.491211 -1787.161621 145.558701 -0.735423 -0.077221 -0.107842 0.664500
POINTS 450
DATA ascii
84.51917 -0.61945 179.49237 316
68.99764 -0.62344 180.67415 462
64.66293 -0.65681 185.08611 457
60.13667 -0.62811 189.68456 453
55.39067 -0.66051 194.48221 448
50.35528 -0.64784 199.52736 443
45.08540 -0.65916 204.82343 438
39.52125 -0.65080 210.49211 432
-152.71289 -0.80840 241.07806 419
-181.68097 -0.86174 269.71277 487
-145.70343 -0.85007 277.24759 284
84.54366 -4.95866 179.40475 465
68.57609 -5.45855 180.52083 461
64.19267 -5.59129 184.89455 456
59.65284 -5.74092 189.50597 452
54.83790 -5.91509 194.34329 447
49.81341 -6.05938 199.40669 442
44.47196 -6.25159 204.78880 437
38.86445 -6.42135 210.45743 431
-152.97697 -12.55631 241.13322 416
-181.62331 -13.50739 269.76938 487
-150.73305 -12.54918 278.18518 285
84.29257 -9.31622 179.19087 464
68.23447 -10.33136 180.30856 460
63.78796 -10.62007 184.73343 455
59.16551 -10.90966 189.33690 451
54.31392 -11.25451 194.20203 446
49.23192 -11.54364 199.29109 441
43.86765 -11.90985 204.67751 436
38.13598 -12.27227 210.40094 430
-181.57811 -26.22523 269.82504 486
83.99899 -13.76398 178.98238 463
67.95765 -15.25751 180.06076 459
63.42360 -15.69522 184.52679 454
58.74339 -16.16770 189.14011 449
53.81047 -16.61355 194.03207 445
48.65591 -17.13148 199.14951 440
43.20865 -17.65473 204.60146 435
37.48341 -18.16398 210.32062 429
-181.49261 -38.96180 270.00665 486
83.79578 -18.20672 178.71344 462
67.65657 -20.29185 179.80370 457
63.11954 -20.87022 184.26846 453
58.37825 -21.43189 188.94717 448
53.39893 -22.08746 193.85947 443
48.15504 -22.73158 199.02119 438
42.61746 -23.47361 204.49193 433
36.76026 -24.18275 210.25793 428
83.54456 -22.77365 178.40619 461
67.37390 -25.34747 179.50896 456
62.81273 -26.07248 183.99043 452
57.98426 -26.83340 188.73161 447
52.97711 -27.62101 193.67293 442
47.64961 -28.47666 198.84865 419
41.66462 -29.36693 204.30573 414
35.05072 -30.46944 210.20200 402
83.37823 -27.37613 178.03987 459
66.95340 -30.50873 179.12131 435
61.97649 -31.46687 183.62579 431
56.71602 -32.49190 188.31483 426
51.18600 -33.54218 193.28223 421
45.33552 -34.67272 198.52124 416
38.92525 -35.88681 204.05942 404
31.84738 -37.23308 210.03780 399
-183.05896 -78.33597 216.41713 424
83.06465 -32.11247 177.65926 438
65.25891 -36.07206 178.39925 432
60.14929 -37.24269 182.93893 428
54.70823 -38.45716 187.74612 423
48.98892 -39.72522 192.78629 418
42.68113 -41.12292 198.08746 406
35.85373 -42.69202 203.78340 401
28.45384 -44.32176 209.83426 361
-188.87730 -93.04887 216.39847 296
81.82114 -37.15607 176.93738 435
71.72295 -39.74303 179.61081 308
58.25444 -43.23741 182.26947 424
52.65689 -44.66697 187.09065 419
46.45445 -46.23132 192.21425 408
39.84106 -47.95139 197.64377 402
32.68552 -49.82898 203.40453 397
24.68759 -51.88578 209.67780 341
80.49266 -42.44072 176.15845 432
73.28892 -44.54177 179.62068 308
56.33415 -49.46603 181.49615 421
50.21750 -51.21852 186.37729 409
43.73619 -53.13256 191.55585 404
36.53831 -55.22804 197.11398 387
28.53398 -57.56703 203.03191 371
79.19950 -47.87038 175.27924 427
74.22278 -49.52499 179.40759 423
53.97334 -56.10460 180.58527 397
47.17878 -58.31171 185.53256 393
39.99067 -60.66776 190.75810 388
31.97521 -63.24542 196.39435 372
22.73392 -66.23872 202.46945 367
77.87789 -53.56763 174.40343 423
72.70296 -55.42704 178.54883 419
50.58300 -63.37804 179.45251 393
43.43692 -65.98280 184.45842 388
35.53876 -68.80207 189.81201 372
26.41555 -72.12048 195.55928 367
15.18104 -76.18451 201.72911 332
76.50784 -59.48396 173.42389 420
70.54793 -61.85984 177.52069 386
47.01856 -71.16170 178.15855 388
39.10768 -74.30788 183.24686 373
29.12536 -78.27561 188.54564 336
15.98628 -83.44611 194.17638 316
-2.56995 -90.84734 200.30078 284
73.71325 -66.30473 171.97240 386
67.05899 -69.17367 176.05174 381
56.85087 -73.55987 179.74051 300
30.76942 -84.87573 181.30019 336
16.97120 -90.82075 186.38084 315
75.60806 -71.22776 171.82457 316
63.47388 -76.94937 174.48405 390
57.49734 -79.78325 179.29272 386
15.51065 -99.57588 177.94774 286
-20.99122 -116.70481 180.38843 284
78.11919 -75.94639 171.80191 316
58.22347 -86.06562 172.37556 328
47.76360 -91.41197 176.48048 325
30.05412 -100.43932 179.98842 292
80.75317 -80.58892 171.75327 316
59.66777 -92.15504 171.94092 308
32.00660 -107.42269 172.17421 300
-49.05039 -151.95511 164.42548 373
83.53030 -85.16456 171.75163 316
62.81201 -97.43492 171.93739 308
35.57477 -113.50250 172.13661 300
-39.46050 -157.89543 165.21529 286
86.48586 -89.63525 171.70155 316
66.12038 -102.55086 171.91861 308
39.40776 -119.50539 172.10133 300
89.56442 -94.01276 171.70573 316
69.61290 -107.58209 171.86119 308
6.14299 -150.77585 163.12038 382
92.76990 -98.34634 171.66911 316
73.21512 -112.53062 171.84196 308
21.13249 -150.41646 165.55289 386
96.08575 -102.56690 171.64313 316
76.98470 -117.41785 171.82040 308
28.52280 -155.02522 166.13126 297
99.56228 -106.69133 171.60539 316
53.41529 -144.92889 163.42770 300
103.16673 -110.73566 171.58702 316
59.87710 -148.91431 163.92624 404
106.88044 -114.66932 171.55400 316
70.81269 -148.50317 165.87129 409
102.61871 -118.79622 171.60025 316
69.29167 -152.24919 166.33292 306
86.26215 -144.13634 163.56340 308
74.42928 -156.78706 166.34630 305
91.59210 -147.72672 163.77219 425
-1800.68152 -2299.14746 212.81886 382
100.29781 -147.19737 165.32008 420
-1667.63757 -2288.94360 213.13231 366
107.73386 -147.56602 166.45076 314
-1595.32849 -2347.92896 212.78720 456
114.04225 -149.17175 167.10861 267
-1484.08923 -2353.97754 212.98380 383
120.90964 -149.74669 167.98064 489
-1364.31519 -2340.69800 212.83472 376
-1293.68359 -2395.90430 212.98593 330
-1268.81042 -2527.94067 212.53848 448
-1091.48523 -2397.83667 212.93663 475
-1068.27661 -2541.71802 213.29027 474
2432.83569 -2658.43188 214.79279 449
2530.88672 -2604.49316 215.52951 487
2642.60449 -2563.68433 215.24753 468
1602.43860 -1368.24316 152.55661 457
2787.94971 -2552.56470 215.91467 422
2958.53906 -2556.64526 215.52119 416
384.77887 -101.70001 167.69672 313
388.02234 -96.86231 167.72142 313
391.18427 -91.96501 167.72955 315
398.41949 -89.29993 166.43037 429
406.25589 -86.58550 165.01990 424
409.68759 -81.46735 164.84413 316
2773.88940 -1193.69141 124.16204 484
412.46793 -75.97315 164.78812 316
426.89090 -82.23409 167.79082 305
391.06369 -60.89102 171.69267 316
429.44385 -76.07992 167.84615 305
393.11133 -55.96839 171.74580 316
436.88696 -71.78406 166.62518 424
394.95551 -51.02220 171.76186 316
444.88260 -67.21655 165.27521 433
3834.98169 -1167.98596 216.54990 302
396.69894 -45.99610 171.74219 316
448.44122 -61.04872 164.97255 307
3792.25928 -1031.82031 95.27455 400
390.85666 -41.40909 171.71979 317
414.00906 -47.35737 171.91487 309
465.09604 -60.42170 167.92456 297
3713.09961 -890.86584 98.07304 367
391.94315 -36.32539 171.70676 317
415.24908 -41.49651 171.91998 309
466.51590 -52.89049 168.03125 297
3699.50586 -772.50220 99.38606 470
3741.63550 -781.58667 216.34248 497
392.84949 -31.22519 171.74319 317
416.32770 -35.67136 171.94456 309
473.37488 -46.45267 166.95404 447
3703.48535 -659.51892 100.27243 475
3749.13623 -668.70673 216.34793 498
393.61932 -26.06551 171.72865 317
417.26694 -29.77626 171.97701 309
480.54254 -39.72978 165.74107 443
3709.96875 -547.66504 101.18990 496
3820.23755 -565.76978 216.56352 272
3835.95020 -568.29498 336.25342 498
394.26926 -20.87766 171.74376 317
417.97440 -23.86209 171.94295 309
484.42645 -32.17978 165.20390 301
3717.02979 -437.08490 101.81636 497
394.72180 -15.67932 171.75922 317
418.50208 -17.93914 171.97688 309
449.68808 -20.87195 172.28453 301
3723.62256 -326.71136 101.92979 497
395.03366 -10.50337 171.73932 317
418.85626 -11.99205 171.94911 309
450.17737 -13.91983 172.29790 301
3730.20752 -217.05920 101.76197 497
395.15707 -5.25147 171.73965 317
419.07645 -6.02583 171.97881 309
450.39301 -6.96722 172.28391 301
3791.94751 -109.46030 216.55746 256
395.12152 -0.03662 171.75443 316
419.06082 -0.02065 171.95674 309
450.41452 -0.00344 172.25278 301
394.94913 5.20211 171.73654 316
418.88513 5.97507 171.97723 309
450.24286 6.96069 172.24969 301
394.61499 10.41449 171.75272 316
418.49567 11.94210 171.96568 309
449.84708 13.93216 172.27567 301
394.13025 15.64396 171.74037 316
417.97217 17.92774 171.94868 309
449.26215 20.89040 172.22636 301
393.46329 20.83785 171.71681 316
417.23254 23.87238 171.95055 309
483.82022 32.35744 165.17397 301
392.66077 26.04426 171.71603 316
416.33755 29.82365 171.92380 308
479.69226 39.91152 165.71997 443
391.69656 31.22585 171.68510 316
415.27731 35.70705 171.92564 308
472.43134 46.70678 166.95033 448
390.54236 36.34275 171.70438 316
413.99838 41.63753 171.88553 308
465.49316 53.18878 168.01736 297
389.27725 41.48315 171.65125 316
412.55826 47.47229 171.88322 308
463.92142 60.68840 167.93536 297
387.81171 46.57129 171.63368 316
439.72147 61.70290 164.89459 307
386.21967 51.57241 171.64157 316
437.62262 68.32844 164.90187 308
384.47040 56.57583 171.62305 316
431.74814 73.67901 165.77171 424
382.51868 61.54417 171.61028 316
423.38528 77.71505 167.19095 430
404.01266 76.59488 164.71516 316
418.48492 82.94060 167.77644 305
1775.34851 671.03461 51.33206 377
401.34903 82.14846 164.72473 316
415.88239 88.97683 167.71904 305
1682.65125 686.14362 58.77781 383
1671.63745 680.73865 112.69754 396
398.55389 87.59231 164.74658 316
1597.93896 699.91095 65.59109 381
1591.46411 696.53094 116.91060 402
391.99307 90.93586 165.82826 429
1521.63367 712.79724 71.87751 387
1518.05835 711.12744 120.48519 405
384.54813 93.53239 167.16586 434
1450.36206 724.86920 77.23602 384
1448.65479 723.71204 123.96600 413
379.97678 97.55006 167.64789 315
1381.53748 734.06049 82.21590 387
1385.67554 736.79358 127.20997 415
376.79886 102.38445 167.61604 313
1323.43298 746.59698 86.65660 413
1333.65173 753.50952 129.52161 456
1276.27930 763.66498 89.43163 469
1298.70215 780.13226 130.38832 489
1260.72620 803.31903 44.66115 416
1235.61279 784.22797 91.32197 479
1303.23230 836.62915 127.94402 403
1220.52893 823.64246 47.11303 423
1203.24878 809.49280 92.06885 484
1315.92737 902.59576 124.59936 397
1184.31860 846.07513 48.83372 437
1171.15039 834.36737 92.96254 481
1329.31934 973.92120 120.94812 391
1150.14514 869.37695 50.04941 437
1139.75159 859.43298 93.64953 480
1165.18079 940.86578 42.24311 262
1110.48901 885.87622 93.82621 477
1082.17957 913.48132 93.76369 470
125.41104 148.21880 170.41222 453
108.33000 154.72147 166.36594 314
103.77448 151.30666 166.39439 314
99.32531 147.71710 166.40536 314
92.13241 147.44753 165.15494 429
84.04074 147.79552 163.65825 424
79.25044 144.05643 163.45474 307
66.97253 157.09587 166.24655 305
96.52704 118.23781 171.56674 315
62.37877 152.31685 166.26051 305
93.20380 114.32202 171.62711 315
56.37623 148.85327 165.71718 409
90.02687 110.32201 171.62421 316
45.81076 149.28300 163.76604 403
86.97235 106.20873 171.65811 316
68.06738 121.82777 171.81421 308
84.03571 101.98179 171.69696 316
64.68768 116.97771 171.83893 308
14.86712 155.59453 165.93517 295
81.24696 97.72250 171.70160 316
61.47140 112.05175 171.90732 308
8.44986 150.56551 165.50337 389
78.54378 93.35380 171.72578 316
58.38789 107.00420 171.89136 308
-6.25076 150.92142 162.99216 382
76.02654 88.87693 171.78728 316
55.47801 101.92090 171.94395 308
28.42942 119.06656 172.13316 300
73.65916 84.31728 171.77200 316
-77.04399 45.53355 -20.82786 308
25.19327 112.95117 172.19652 300
-51.76518 158.38313 165.07646 288
71.40038 79.69477 171.81053 316
53.36475 89.62279 172.83710 322
42.34345 95.64108 176.79852 319
23.33590 106.07954 179.99181 292
69.29359 75.03934 171.83276 316
61.02264 79.21931 175.46817 385
53.01630 83.31590 179.76915 300
-5.20096 112.92786 175.23376 293
70.84389 68.62518 172.87668 381
64.53853 71.58125 176.92296 390
50.85753 77.99277 179.75192 300
24.43610 90.43877 181.21629 330
1.43184 101.27486 185.05907 282
74.00822 61.77119 174.35086 386
67.81424 64.48387 178.23991 395
43.94675 74.76737 178.74893 373
34.62692 78.81782 183.51968 336
22.73987 83.94814 188.49619 331
6.30461 91.02192 193.84792 310
75.84542 55.83278 175.33508 420
70.75200 57.85899 179.40366 415
47.63346 67.01964 179.95259 389
40.37266 69.85818 184.90910 373
31.83977 73.22836 190.10507 368
21.12587 77.48506 195.66547 332
5.32311 83.69587 201.57472 311
77.24149 50.29378 176.13504 423
70.08597 52.86855 179.60646 308
51.05357 59.70382 181.05516 393
44.24949 62.13871 185.89671 388
36.92915 64.75981 191.11018 383
28.23385 67.90745 196.60448 368
18.71753 71.33549 202.62033 362
78.65157 44.96603 176.86235 427
68.85935 48.15188 179.60373 308
54.02401 52.92980 181.96133 410
47.88140 54.93238 186.76576 393
40.91051 57.17672 191.83916 388
33.41474 59.58468 197.34583 383
24.66385 62.43881 203.18277 367
79.99277 39.78229 177.55435 430
61.54094 45.15248 178.12410 425
56.24201 46.69337 182.67050 421
50.42218 48.37946 187.44447 409
44.12319 50.16668 192.47682 404
37.42756 52.13688 197.87358 399
29.96474 54.31229 203.64488 382
81.33263 34.80286 178.18198 435
63.32432 39.43184 178.83679 429
58.17746 40.76519 183.30743 424
52.71161 42.13356 188.01945 420
46.79781 43.63882 193.03404 408
40.37111 45.28947 198.30249 403
33.47122 47.09005 203.94711 397
-188.59573 103.91934 202.80048 483
82.42552 30.03792 178.66933 457
65.05099 33.89491 179.44095 432
60.06669 35.00751 183.90173 428
54.77419 36.17915 188.56192 423
49.23270 37.44011 193.49031 418
43.17044 38.76398 198.65974 406
36.50835 40.26783 204.22054 401
29.16959 41.85965 210.16708 358
-183.21773 89.21806 216.60898 296
82.71055 25.49953 178.94054 459
66.53721 28.60104 179.98199 455
61.90894 29.47111 184.42770 431
56.79573 30.42040 189.01877 426
51.37185 31.47619 193.87206 421
45.67481 32.55387 199.03011 416
39.48071 33.73931 204.48213 405
32.61707 35.02724 210.27829 399
-182.92064 76.06268 216.54674 424
82.99882 21.07241 179.12009 461
66.89466 23.59764 180.16483 456
62.38364 24.32507 184.63589 452
57.66421 25.05238 189.23993 447
52.67375 25.82717 194.12596 442
47.48828 26.67222 199.27922 437
41.95561 27.51785 204.66014 432
35.68827 28.51233 210.39064 402
83.33135 16.64685 179.30931 462
67.24379 18.65525 180.36609 457
62.78194 19.23494 184.79185 453
58.06553 19.80018 189.40320 448
53.15320 20.41980 194.25565 443
48.02074 21.09729 199.37358 438
42.55123 21.76726 204.75668 433
36.79928 22.45825 210.47287 428
83.68167 12.28524 179.44983 463
67.65001 13.76738 180.49409 459
63.19929 14.21091 184.91795 454
58.54725 14.60733 189.53641 450
53.68229 15.10136 194.35878 445
48.59521 15.54306 199.41817 440
43.21297 16.06457 204.77963 435
37.52456 16.56964 210.48174 429
83.80105 7.91990 179.50832 316
68.06158 8.91414 180.64130 460
63.62006 9.20981 185.02571 456
59.02739 9.47029 189.62227 451
54.23558 9.75389 194.45403 446
49.19995 10.08147 199.51872 441
43.85301 10.39425 204.84077 436
38.19068 10.75532 210.52167 430
-181.59698 24.44015 269.71573 486
-186.78835 24.78167 284.07318 496
83.88038 3.60068 179.50923 316
68.53043 4.09650 180.72025 461
64.17359 4.20972 185.09726 457
59.60126 4.34556 189.70737 452
54.84866 4.52327 194.52739 447
49.80366 4.66200 199.53923 442
44.52052 4.84298 204.88264 437
38.91957 4.97693 210.50343 431
-181.65457 11.77773 269.71231 487
