# .PCD v.7 - Point Cloud Data file format
VERSION .7
FIELDS x y z rgb
SIZE 4 4 4 4
TYPE F F F U
COUNT 1 1 1 1
WIDTH 499
HEIGHT 1
VIEWPOINT 6441.124023 -1053.227173 146.653687 -0.664616 -0.091139 -0.096822 0.735258
POINTS 499
DATA ascii
71.61156 -0.74380 178.02199 466
67.62326 -0.75815 182.09149 462
63.42970 -0.76188 186.31758 457
59.03671 -0.78368 190.74907 453
54.45916 -0.79747 195.38306 448
49.68643 -0.78709 200.23160 443
44.58163 -0.80845 205.34456 438
39.23829 -0.79231 210.75079 432
-152.16560 -1.13527 240.50775 419
-182.08713 -1.07933 268.77695 487
-153.74496 -1.07105 277.43066 284
-111.77177 -1.07008 281.56863 494
77.66637 -5.05228 179.55725 316
67.18372 -5.41765 181.90974 461
62.99466 -5.54737 186.15698 456
58.54823 -5.68981 190.57945 452
53.93984 -5.84139 195.22810 447
49.12091 -6.02010 200.13541 442
43.95704 -6.16876 205.25665 437
38.56606 -6.37514 210.74472 431
-152.57233 -12.60869 240.62611 416
-182.09778 -13.63187 268.79697 487
-155.61386 -12.76251 277.83499 284
78.12104 -9.40944 179.56741 316
66.82888 -10.13592 181.73981 460
62.57526 -10.40595 185.96332 455
58.08176 -10.66371 190.45001 451
53.44890 -10.99498 195.09691 446
48.55638 -11.27339 200.01469 441
43.37387 -11.63200 205.19246 436
37.91611 -11.98396 210.67809 430
-181.98274 -26.11294 268.99762 486
78.70671 -13.70171 179.55879 316
66.55325 -14.89263 181.49628 459
62.21254 -15.30190 185.79729 454
57.67103 -15.74569 190.27156 449
52.92303 -16.20267 194.97238 445
47.96672 -16.67369 199.91035 440
42.76875 -17.15816 205.13753 435
37.23396 -17.66418 210.62558 429
-181.95280 -38.71284 269.08072 486
79.46189 -18.00266 179.55847 316
66.26402 -19.67966 181.25385 457
61.87972 -20.26467 185.57799 453
57.32338 -20.82175 190.05661 448
52.53895 -21.46003 194.79779 443
47.48307 -22.09483 199.75400 438
42.14915 -22.76542 205.01141 433
36.56273 -23.47417 210.58389 428
80.32299 -22.30135 179.52856 316
65.98667 -24.58041 180.98019 456
61.59903 -25.27994 185.31548 452
56.96464 -26.04686 189.82263 447
52.11069 -26.82868 194.58449 442
47.02807 -27.62838 199.60687 437
41.46134 -28.48355 204.90926 414
35.17675 -29.49031 210.50645 402
81.28705 -26.57146 179.54445 316
65.79014 -29.56433 180.65666 455
61.01402 -30.48878 184.96121 431
55.97931 -31.43154 189.48468 426
50.65340 -32.47467 194.22722 421
45.02679 -33.51867 199.28773 416
38.88779 -34.74702 204.64388 404
32.01114 -36.02494 210.35095 364
-183.07274 -77.38499 216.50339 424
81.70682 -30.96758 179.35199 457
64.16483 -34.93425 179.99193 432
59.22513 -36.03497 184.33931 427
54.01939 -37.18111 188.91185 423
48.54364 -38.43134 193.79660 418
42.48409 -39.80056 198.91112 406
35.90940 -41.25858 204.36595 401
28.60551 -42.89586 210.20174 358
-186.16985 -91.17686 216.46773 296
80.55499 -35.84295 178.63606 434
62.52391 -40.49338 179.24367 429
57.41864 -41.83169 183.68544 424
52.06727 -43.19041 188.34732 419
46.12215 -44.73535 193.23880 407
39.73062 -46.39500 198.45520 402
32.87015 -48.12679 204.04010 397
-188.34337 -105.27469 202.71808 484
79.30288 -40.91893 177.89478 430
60.85608 -46.29587 178.43213 425
55.55084 -47.82454 182.91957 421
49.73763 -49.54601 187.64427 409
43.45527 -51.36753 192.61562 404
36.79742 -53.30499 197.95776 399
29.20967 -55.55381 203.65172 382
77.99724 -46.15626 177.09978 427
67.60177 -49.54332 179.63701 308
53.37886 -54.21210 182.06918 410
47.02260 -56.27097 186.83936 393
40.07578 -58.54000 191.92241 388
32.61045 -60.96472 197.31664 372
23.67680 -63.89207 203.14404 366
76.72396 -51.64367 176.22223 423
69.46321 -54.26532 179.64087 308
50.28554 -61.22334 181.02870 393
43.44962 -63.66134 185.86220 388
35.95576 -66.39925 191.03931 372
27.20029 -69.53188 196.52916 367
17.64705 -73.01772 202.52933 362
75.41952 -57.33490 175.27254 420
70.17807 -59.44870 179.34451 386
46.83121 -68.70858 179.77632 388
39.41395 -71.67033 184.69452 372
30.78926 -75.09982 189.95157 367
19.03043 -79.71691 195.41647 331
2.18720 -86.41904 201.24643 310
73.17319 -63.70706 174.02615 386
67.01170 -66.37479 177.95573 395
42.92213 -76.80971 178.37207 373
32.57631 -81.33451 183.04187 335
20.31032 -86.64008 188.05643 315
-0.01059 -95.42796 193.04671 283
70.03926 -70.81962 172.37495 381
63.67739 -73.81332 176.48126 390
52.00602 -79.33839 179.77650 300
21.39534 -93.76778 180.42952 314
-28.53991 -117.32882 180.47325 284
70.77525 -76.34830 171.86473 316
60.11367 -81.81862 174.83380 384
51.17466 -86.40352 179.00067 325
22.53037 -101.01639 180.03722 292
73.45622 -81.04389 171.83168 316
52.31754 -92.65861 172.02516 308
38.56968 -100.27352 175.39499 318
-55.08045 -151.87170 164.70853 373
76.25017 -85.60091 171.80519 316
55.46212 -97.95158 171.98264 308
28.18693 -114.08202 172.18575 300
-47.89316 -159.25046 165.08908 288
79.17535 -90.13038 171.78555 316
58.77299 -103.09212 171.94342 308
31.97699 -120.12722 172.16618 300
82.26186 -94.55304 171.74084 316
62.28148 -108.19238 171.93829 308
-0.49133 -150.92827 163.36612 383
85.45743 -98.90991 171.71800 316
65.87730 -113.15215 171.88312 308
14.55225 -150.57262 165.83736 389
88.79948 -103.15253 171.71527 316
69.64944 -118.04518 171.87245 308
20.73696 -156.06894 166.11815 297
92.27767 -107.32056 171.69762 316
45.73690 -145.93089 163.37411 300
95.89595 -111.36211 171.62759 316
53.11822 -149.19554 164.13438 404
99.63322 -115.32395 171.63176 316
64.10529 -148.76114 166.04939 410
103.47057 -119.19476 171.60625 316
69.88267 -152.80388 166.32024 306
87.00935 -144.70737 163.56752 307
92.92612 -147.67462 163.97714 425
101.75157 -147.04076 165.56993 420
-2040.11389 -2739.54736 216.24309 323
108.62033 -148.22124 166.46965 314
-1999.88037 -2870.33569 215.89697 372
115.79786 -148.73904 167.43057 316
-1745.02014 -2713.75146 215.87042 424
-26124.36133 -36313.54688 9137.78711 0
-1585.05920 -2664.70312 216.49353 460
-751.27814 -1539.19543 156.86110 450
-1560.29700 -2815.93213 215.94899 458
-13567.18945 -31913.48633 -2063.02075 0
-1301.26355 -24365.86133 1816.73401 0
1103.04199 -1128.12402 123.02779 442
2273.65869 -2174.62256 119.28858 447
2352.54956 -2120.77661 118.82362 436
2404.64600 -2172.95215 216.76035 373
2447.45947 -2079.74341 117.37034 420
2437.38184 -2070.98096 217.10196 466
2560.83130 -2052.43750 115.48889 426
2679.99878 -2024.53137 112.53132 438
2806.79248 -1996.01208 110.32209 431
379.50104 -102.61522 167.66322 313
382.78967 -97.75022 167.67801 315
386.82657 -93.31219 167.44287 434
394.31555 -90.73028 166.13937 429
401.70523 -87.68499 164.78323 317
404.69055 -82.27058 164.78792 317
419.26230 -89.09763 167.74663 305
407.46033 -76.75926 164.77393 316
422.05420 -83.00764 167.79489 305
386.16443 -61.70254 171.64345 316
425.59872 -77.27168 167.62527 429
388.24634 -56.73414 171.68983 316
434.00851 -73.17632 166.18600 424
2226.42993 -716.70184 77.75616 439
390.10599 -51.71312 171.69402 316
441.57336 -68.37402 164.95502 307
391.89236 -46.64259 171.71680 316
443.88074 -61.74335 164.92323 307
393.48392 -41.56674 171.73360 316
445.94955 -55.01538 164.95256 307
468.24323 -60.74214 167.93732 297
38950.71875 -9910.14258 -1086.55579 0
394.92072 -36.42638 171.75357 316
418.36334 -41.64288 171.94797 309
470.01538 -53.19549 168.00784 297
396.21622 -31.27030 171.73186 316
419.80173 -35.78085 171.97452 309
473.83530 -46.06298 167.62294 447
397.35013 -26.11624 171.74498 316
421.01898 -29.81100 171.99512 309
481.05762 -39.27932 166.45021 443
3198.13916 -467.60376 118.75851 427
398.29135 -20.90347 171.75424 317
422.11102 -23.89795 171.98306 309
487.23672 -32.03422 165.50237 458
3147.02344 -366.35333 120.67023 463
399.12512 -15.65798 171.78215 317
422.97083 -17.89641 171.99199 309
454.25073 -20.84493 172.28740 301
3107.26538 -270.09579 122.68474 474
399.76752 -10.40591 171.77725 317
423.68005 -11.90204 171.99879 309
455.02576 -13.87069 172.30092 301
3081.14380 -177.38692 123.35577 464
3121.90942 -180.00421 216.55493 493
3239.60913 -187.24251 315.83911 493
400.27368 -5.16314 171.79533 317
424.18124 -5.90475 172.00420 309
450.88120 -6.75276 173.26270 485
3063.45459 -87.50105 124.22102 438
3102.14844 -88.15194 216.93350 495
3119.23657 -88.70647 406.06894 494
400.59177 0.08649 171.77983 317
424.56049 0.09715 172.04086 309
451.16162 0.11691 173.29311 295
3050.27783 1.89572 124.45204 441
3092.93384 1.80011 217.22733 496
400.76306 5.35579 171.80583 317
424.69232 6.09486 172.01651 309
451.35117 6.94560 173.30502 295
38196.12891 1212.66858 -6050.47803 0
3037.54419 89.39488 125.25295 415
3077.78589 90.67297 216.58177 497
3140.48047 92.69391 311.85986 497
400.76245 10.61462 171.77437 317
424.68250 12.11422 172.02429 309
456.08145 14.12479 172.31355 301
3025.59399 176.88335 125.33835 417
3149.58301 184.48306 312.48346 496
400.62042 15.82236 171.79153 317
424.48651 18.10778 172.03667 309
455.78436 21.09844 172.33548 301
400.34604 21.07794 171.79465 316
424.13959 24.07447 172.02722 309
486.72913 32.02161 166.03218 458
3002.53955 350.90790 125.81300 394
399.88855 26.26568 171.79543 316
423.58502 30.01336 172.01897 309
480.53690 39.04026 167.08234 443
2990.69629 437.62534 125.42893 393
399.27841 31.44098 171.74623 316
422.82666 35.95520 172.01642 309
474.73355 45.87376 168.06400 297
3045.31274 537.25555 123.53522 491
398.46817 36.61213 171.78008 316
421.91266 41.86502 171.98442 309
473.80194 53.45249 167.94838 297
397.54172 41.73495 171.76805 316
450.03513 55.24162 164.92538 307
396.49890 46.78640 171.72711 316
448.52975 61.96610 164.91756 307
395.25525 51.83947 171.74635 316
443.38565 67.47036 165.71545 433
393.84637 56.81198 171.70343 316
435.49127 71.85132 167.19266 424
416.32913 71.31202 164.78711 316
431.01413 77.14439 167.80307 305
414.18738 76.88554 164.78825 316
428.99017 83.30686 167.77388 305
411.91153 82.39279 164.77461 316
406.06110 86.06628 165.86998 424
398.63406 88.62490 167.34723 429
1756.15686 835.21375 45.91811 422
394.88440 92.95434 167.71480 313
392.31610 97.94571 167.65585 313
856.73956 927.94684 69.77319 432
811.98560 923.13165 73.47829 433
808.24756 917.10681 110.15564 452
769.88458 919.56561 76.73175 437
767.04706 914.71985 112.50558 456
729.41437 915.85529 79.77689 440
727.69287 912.48224 114.68550 461
690.89636 912.08270 82.51404 444
689.61108 909.95398 116.56104 465
659.83344 922.24670 48.81480 450
653.37958 908.63470 84.95058 447
653.15845 907.88403 118.31013 469
760.97021 1137.81067 134.73122 321
623.96631 920.01373 51.70750 453
617.67291 905.06110 87.22354 451
617.86987 905.61414 119.91737 470
589.36646 918.07874 54.02658 456
583.02228 902.05402 89.30416 454
583.61554 903.91583 121.45247 473
686.62250 1164.53735 135.19749 443
555.73254 916.64880 56.29424 433
549.68048 899.45886 91.26627 440
550.26300 901.36572 122.77277 479
523.05658 915.45740 58.04861 431
516.75214 896.00836 93.15058 438
517.83533 899.15448 123.92384 482
490.72241 913.16589 59.94795 433
484.79834 892.50378 94.68626 435
486.31931 897.23419 125.02548 483
459.35089 910.90887 61.74142 435
453.98666 889.56140 96.12508 393
455.37961 895.63837 125.82532 486
457.41901 902.82062 155.90239 488
428.63052 909.49182 63.20774 433
424.31680 889.50391 97.01072 495
425.66422 896.13446 126.44094 496
427.16693 902.62390 156.48650 498
399.16403 911.60229 63.71199 437
395.53580 892.31738 97.36278 497
397.05206 900.15930 126.82327 493
398.81912 908.98596 156.35593 452
370.27988 916.57214 63.73905 427
367.25586 896.49274 97.32827 498
368.78250 906.42621 126.55692 475
377.53165 962.54163 153.04347 304
341.81561 923.40875 63.25595 427
339.02795 902.05249 97.20569 497
341.07452 919.03180 125.82683 261
365.12024 1110.53308 143.75961 297
313.12466 931.63458 62.44228 419
311.00504 909.48901 96.73802 495
313.16003 933.25775 124.56655 268
284.01144 941.28876 61.16824 421
282.58768 918.33972 95.81411 487
284.00464 940.92657 123.95586 268
254.78966 953.14484 59.47222 418
253.85187 929.42572 94.51523 481
254.44301 947.77167 123.50648 267
224.69092 967.17761 57.28038 428
224.66899 942.01703 92.95673 478
224.45131 961.14978 122.10830 383
194.46675 955.09766 91.02543 382
193.69475 976.85901 120.67017 340
163.26807 971.97900 88.59531 314
161.79094 994.81573 118.73286 385
130.30164 991.50891 85.62003 421
-2628.81812 6580.94336 -1454.73999 0
-2699.26807 6742.54395 699.42981 0
120.89275 149.41731 167.97252 489
112.60650 150.90106 166.38489 314
107.74884 147.34654 166.37360 314
100.34688 146.93886 165.25684 419
91.70071 147.48676 163.63448 424
86.63795 143.65732 163.53860 307
74.53841 156.57191 166.25795 305
103.20553 118.16275 171.54153 316
69.50108 151.87383 166.23875 305
99.48083 114.31155 171.58418 316
62.95939 148.62500 165.71606 409
95.91915 110.28233 171.60901 316
51.96241 149.00003 163.75645 403
92.47080 106.20309 171.63547 316
73.68544 121.70094 171.75197 308
89.12738 102.00581 171.64839 316
69.89088 116.88246 171.79080 308
20.82508 154.97487 166.01210 297
85.91154 97.74342 171.67078 316
66.28965 111.99960 171.86391 308
13.33746 150.41878 165.42812 389
82.87434 93.34253 171.73001 316
62.79539 106.98537 171.88550 308
-1.71333 150.78470 162.96155 382
79.90683 88.90486 171.71429 316
59.45284 101.88364 171.87199 308
32.56479 118.90366 172.13043 300
77.12767 84.35464 171.75687 316
56.29236 96.65598 171.91171 308
28.94644 112.84899 172.13309 300
-47.35865 157.93106 165.05243 286
74.46867 79.71833 171.76291 316
53.28140 91.39180 171.97800 308
40.16570 98.57265 175.55109 319
14.18141 112.86656 177.60719 270
71.99162 75.06181 171.78029 316
60.76948 80.73187 174.65614 385
52.67859 84.87838 179.03716 325
1.79789 110.79967 175.99536 293
70.93381 65.06911 174.98549 381
65.15505 67.77576 178.89613 390
39.22062 79.89719 178.74532 335
27.95063 85.20866 183.12784 330
13.33872 92.03110 187.78343 310
73.66469 58.68992 176.32458 416
66.23055 61.92352 179.65027 308
44.47573 71.28429 180.36003 384
36.60910 74.68536 185.09930 368
26.26058 79.14384 190.02582 331
12.22818 85.19823 195.20009 311
-21.82668 99.85633 199.90248 261
75.04420 53.19846 177.13358 420
64.69395 57.27251 179.64584 308
47.90302 63.90926 181.52045 389
41.02037 66.59077 186.23001 384
33.07234 69.71450 191.25009 368
24.21732 73.22601 196.72490 363
11.22823 78.35211 202.43706 311
76.34357 47.93777 177.91461 424
57.15162 54.79880 178.15445 411
51.17812 56.92406 182.53694 393
44.66770 59.24778 187.18021 389
37.67936 61.78708 192.14113 384
29.60788 64.63557 197.45499 368
20.56512 67.89158 203.22853 362
77.67377 42.82285 178.60396 427
59.10703 48.85148 178.96492 422
53.67584 50.58827 183.38399 410
47.79840 52.46880 187.97681 405
41.46180 54.51200 192.91447 388
34.34058 56.83908 198.14633 383
26.20298 59.44677 203.75893 367
78.96585 37.89358 179.25153 431
60.82066 43.13711 179.70119 425
55.72882 44.61403 184.04918 421
50.22488 46.17452 188.63402 409
44.20874 47.93346 193.47881 404
37.77367 49.77010 198.61801 399
30.88471 51.80019 204.14488 394
79.16025 33.39346 179.53055 316
62.54947 37.65706 180.34299 429
57.58792 38.93525 184.64465 424
52.35727 40.25280 189.18701 420
46.78937 41.67078 193.98601 408
40.60500 43.25439 199.02779 403
33.94119 44.90952 204.46251 398
-200.77092 104.78305 202.54102 288
78.48023 29.17887 179.53979 316
64.21326 32.37117 180.93201 432
59.39971 33.41163 185.20168 428
54.32611 34.55057 189.68878 423
48.98465 35.74358 194.38255 418
43.29286 37.01688 199.42035 406
36.89414 38.40816 204.69966 401
29.78620 39.98499 210.42252 358
-182.76720 87.15022 216.50917 438
77.87319 24.94142 179.57298 316
65.28130 27.32131 181.37383 455
60.89711 28.16115 185.65051 450
56.27427 29.02934 190.10905 426
51.09806 30.02741 194.79831 422
45.60266 31.02870 199.71190 417
39.71785 32.12522 204.96315 405
33.04887 33.40041 210.54631 364
-182.97066 74.28211 216.53922 424
77.41843 20.68669 179.56097 316
65.59203 22.53386 181.59094 456
61.29568 23.19039 185.85211 452
56.72147 23.90833 190.28276 447
51.98216 24.64927 195.00514 442
46.93315 25.44352 199.90637 437
41.65892 26.27028 205.12978 432
36.03695 27.16587 210.65672 427
77.12531 16.38736 179.55453 316
65.98416 17.77833 181.73714 458
61.64202 18.29942 185.99971 453
57.15821 18.89250 190.45505 448
52.42839 19.44894 195.09917 444
47.43201 20.07687 200.03403 438
42.22825 20.72721 205.19119 434
36.69101 21.42840 210.68886 428
76.91517 12.07260 179.58568 316
66.34855 13.06127 181.90669 459
62.05676 13.47017 186.10870 454
57.60375 13.89668 190.53467 450
52.89788 14.31164 195.20036 445
48.03541 14.75286 200.11009 440
42.86032 15.22332 205.23886 435
37.38633 15.75592 210.71330 429
77.22485 7.95314 179.55302 316
66.73012 8.40675 181.98517 460
62.50667 8.64541 186.21503 456
58.10225 8.93116 190.64041 451
53.45272 9.18881 195.29016 446
48.61865 9.47681 200.14690 441
43.49668 9.79612 205.31831 436
38.03180 10.15268 210.73686 430
-182.07076 23.68254 268.85608 486
-186.71611 23.97922 282.91351 496
-186.70595 23.96340 296.48410 495
71.23332 3.62658 178.04668 465
67.21564 3.72262 182.07503 461
63.02071 3.87929 186.31471 457
58.62554 3.98238 190.73189 452
54.01649 4.12480 195.36153 447
49.22800 4.28024 200.23006 442
44.09983 4.40200 205.35457 437
38.71332 4.57012 210.75717 431
-182.08876 11.17141 268.82285 487
