# .PCD v.7 - Point Cloud Data file format
VERSION .7
FIELDS x y z rgb
SIZE 4 4 4 4
TYPE F F F U
COUNT 1 1 1 1
WIDTH 491
HEIGHT 1
VIEWPOINT 6429.379395 -1163.469604 146.943893 -0.674602 -0.089844 -0.099354 0.725927
POINTS 491
DATA ascii
77.91756 -0.69946 179.54770 316
67.70876 -0.70259 182.00159 462
63.52275 -0.73300 186.23845 457
59.09716 -0.72957 190.65358 453
54.50019 -0.74793 195.32846 448
49.66801 -0.78615 200.19528 443
44.59454 -0.77935 205.34209 438
39.18531 -0.79560 210.81516 432
-152.25374 -1.25942 240.69662 419
-181.97127 -1.30791 269.02084 487
-151.79982 -1.20322 277.32327 284
78.27238 -5.03694 179.55513 316
67.31891 -5.41180 181.79539 461
63.07625 -5.56049 186.07135 456
58.63313 -5.67402 190.50569 452
54.00666 -5.84677 195.20715 447
49.12976 -6.01609 200.08093 442
43.96369 -6.19561 205.25601 437
38.52521 -6.35316 210.75914 431
-152.88695 -12.76091 240.76419 416
-181.91071 -13.81206 269.11447 487
-155.66971 -12.86213 278.05774 284
78.77687 -9.35301 179.57626 316
66.98145 -10.13126 181.58881 460
62.65053 -10.41334 185.86833 455
58.20033 -10.71853 190.35986 451
53.51197 -10.99435 195.06889 446
48.58104 -11.34457 199.98369 441
43.36479 -11.64724 205.20786 436
37.87881 -12.00922 210.70119 430
-181.90437 -26.34572 269.20889 486
79.42657 -13.65872 179.55780 316
66.65265 -14.90734 181.36368 459
62.33002 -15.31393 185.65471 454
57.75912 -15.75054 190.16005 449
53.02177 -16.25150 194.87776 445
48.00856 -16.72330 199.85426 440
42.77967 -17.24114 205.08325 435
37.18095 -17.74846 210.68414 429
-181.88075 -38.98058 269.32864 486
80.20743 -17.97360 179.54778 316
66.38866 -19.76390 181.12123 457
62.00282 -20.30536 185.43257 453
57.41566 -20.90103 189.95706 448
52.57315 -21.51938 194.71680 443
47.52734 -22.18905 199.69711 438
42.15332 -22.85946 205.01614 433
36.53072 -23.61342 210.60518 428
81.12036 -22.25803 179.52916 316
66.14665 -24.67302 180.80539 456
61.70109 -25.36674 185.19424 452
57.05066 -26.12759 189.72186 447
52.21243 -26.88342 194.49573 442
47.05775 -27.74062 199.57188 437
41.42839 -28.64429 204.86900 414
35.08756 -29.63590 210.51514 402
82.04092 -26.55430 179.49860 459
65.91797 -29.64500 180.49278 435
61.10308 -30.59331 184.80649 431
56.02208 -31.56614 189.34093 426
50.70630 -32.60628 194.13181 421
45.01147 -33.69819 199.20810 416
38.81492 -34.87326 204.61894 404
31.91079 -36.21825 210.36414 364
-182.99907 -77.58787 216.51102 424
81.90741 -31.09276 179.14485 457
64.29082 -35.05442 179.77885 432
59.32064 -36.18261 184.15532 427
54.11887 -37.35832 188.77490 423
48.57158 -38.60000 193.69069 418
42.49586 -40.00328 198.82220 406
35.86409 -41.45613 204.32808 401
28.50461 -43.11249 210.20412 358
-187.31265 -91.84735 216.53868 296
80.68661 -36.01415 178.43266 434
62.63460 -40.68487 179.04623 428
57.54426 -41.98587 183.50131 424
52.12022 -43.39115 188.19858 419
46.15015 -44.95988 193.12151 407
39.69482 -46.61583 198.37297 402
32.82190 -48.39571 203.97763 397
-188.41690 -105.57277 202.81413 484
79.44244 -41.09156 177.67241 430
60.96242 -46.51170 178.20259 425
55.64590 -48.06388 182.77356 420
49.79354 -49.75203 187.48216 409
43.50304 -51.63311 192.52365 404
36.72026 -53.60328 197.86536 387
29.09538 -55.81012 203.59109 382
78.18382 -46.37822 176.84874 427
68.60612 -49.53466 179.66458 308
53.41526 -54.46012 181.87300 410
47.07071 -56.58816 186.67889 392
40.03549 -58.83302 191.73508 388
32.47148 -61.31181 197.23877 372
23.47909 -64.26871 203.07771 366
76.89862 -51.88181 175.96265 423
70.47956 -54.22302 179.65054 308
50.31342 -61.53989 180.80626 393
43.42705 -64.00488 185.66277 388
35.84857 -66.76760 190.84558 372
27.08700 -69.94009 196.40547 367
17.30216 -73.46581 202.44502 332
75.57913 -57.65415 175.02409 420
70.24469 -59.76698 179.05171 386
46.82417 -69.07964 179.53973 388
39.31726 -72.05273 184.50250 372
30.65004 -75.50343 189.76295 367
18.59245 -80.34394 195.22084 331
1.41971 -87.17547 201.15141 310
73.29145 -64.08139 173.71030 386
67.01987 -66.80158 177.66249 395
42.91673 -77.27852 178.11674 373
32.28878 -81.91618 182.77592 335
19.70635 -87.35428 187.81197 315
-1.68146 -96.65244 192.75516 283
70.08746 -71.22798 172.06628 381
63.65973 -74.31693 176.18327 389
53.16611 -79.24980 179.78319 300
20.84025 -94.51316 180.09799 314
-27.37530 -117.27771 180.47952 284
71.97296 -76.27612 171.83476 316
60.03469 -82.37017 174.52956 384
50.64478 -87.20803 178.56288 325
23.73417 -100.95968 180.00793 292
74.66908 -80.92980 171.79588 316
53.57598 -92.55735 172.01192 308
37.92713 -101.22768 174.96126 318
-53.95707 -151.87129 164.66284 373
77.47500 -85.49520 171.79138 316
56.75508 -97.81094 171.94923 308
29.48120 -113.97843 172.21437 300
-46.50473 -159.02264 165.12132 286
80.45572 -90.01652 171.78415 316
60.06173 -102.96741 171.95264 308
33.31833 -120.00406 172.19667 300
83.55770 -94.43793 171.76131 316
63.61287 -108.03844 171.92094 308
0.75182 -150.84488 163.33690 383
86.82894 -98.74230 171.73943 316
67.25494 -113.00842 171.88171 308
15.70892 -150.49725 165.73662 389
90.18604 -102.99934 171.71107 316
71.05861 -117.87478 171.86194 308
22.25375 -155.80150 166.11958 297
93.68524 -107.11864 171.67462 316
47.24966 -145.68524 163.37663 300
97.33578 -111.15438 171.63950 316
54.39824 -149.12367 164.10632 404
101.07454 -115.10185 171.62178 316
65.36270 -148.74641 165.96898 410
104.95740 -118.95086 171.58028 316
71.45023 -152.54605 166.36440 306
88.63039 -144.39806 163.57538 307
76.70061 -157.14848 166.34213 305
94.28609 -147.60458 163.90234 425
103.21115 -146.88133 165.53259 420
-1961.07434 -2646.69800 216.60120 361
110.25279 -147.88196 166.46283 314
-1949.96997 -2807.80200 216.46344 457
117.36858 -148.42615 167.41675 316
-1705.77441 -2661.62476 216.60637 430
124.31906 -148.87479 168.34476 489
-1550.25171 -2617.47412 216.44598 436
-1627.09558 -2730.72803 323.90640 262
-1529.03564 -2769.48779 216.02576 441
1183.98486 -1151.82410 117.93358 487
1188.53003 -1156.88733 166.99017 449
2335.70410 -2236.00928 115.11544 441
2420.08154 -2184.07300 114.60619 432
2446.82471 -2210.22119 216.10075 380
2524.19019 -2147.78540 113.15999 418
2508.90454 -2132.97168 215.67210 452
2643.62720 -2121.36279 110.50794 437
2769.62598 -2094.40332 108.75847 433
2905.19312 -2068.51074 105.50647 423
380.62622 -101.78967 167.65883 313
383.95892 -96.94208 167.68361 315
388.39429 -92.76929 167.32129 433
395.86417 -90.14880 166.01105 428
402.84940 -86.92506 164.77823 317
405.82520 -81.52247 164.77238 317
420.27228 -88.32159 167.74719 305
408.59912 -75.99408 164.81053 316
423.03207 -82.24326 167.80629 305
387.31219 -61.01249 171.67511 316
426.88348 -76.62505 167.52933 429
389.34415 -56.08244 171.71298 316
435.28555 -72.54225 166.09236 424
391.24588 -51.11194 171.72353 316
442.57220 -67.72116 164.94243 307
393.01196 -46.08567 171.74887 316
444.83511 -61.05564 164.93329 307
394.62384 -41.01042 171.72949 316
446.88620 -54.39977 164.92015 307
469.06589 -60.02087 167.95502 297
396.05042 -35.93899 171.75401 317
419.31540 -41.10337 171.99881 309
470.81668 -52.51156 168.02675 297
397.32089 -30.78205 171.77654 317
420.79300 -35.23256 172.00616 309
474.45364 -45.45748 167.60507 447
3310.85596 -583.32202 113.60732 385
398.48645 -25.64510 171.77701 317
422.01904 -29.32485 172.00528 309
481.61679 -38.75797 166.50301 443
3252.45337 -475.04868 116.41058 461
399.44934 -20.46662 171.76968 317
423.09497 -23.44027 172.01065 309
487.67545 -31.53841 165.56519 458
3214.20435 -373.80551 118.30415 473
400.26413 -15.27069 171.79147 317
424.00961 -17.51779 172.03139 309
455.09216 -20.41413 172.31850 301
3186.43677 -275.96432 118.95562 465
3226.96606 -280.09009 215.86694 490
400.96375 -10.06151 171.79591 317
424.73236 -11.55336 172.04973 309
455.87509 -13.50041 172.34900 301
3169.76929 -182.08180 119.95963 439
3208.77612 -184.57047 216.66858 492
401.44144 -4.84450 171.77757 317
425.22455 -5.60322 172.04028 309
451.69174 -6.36651 173.30394 295
3159.51636 -89.56105 120.90030 440
3202.90918 -90.43217 216.52411 496
401.81244 0.34738 171.78993 317
425.60919 0.35390 172.02505 309
452.10309 0.38791 173.27733 295
3150.03857 2.28134 120.66168 415
3191.33594 2.00111 216.06123 497
3299.61792 2.65111 316.80453 493
401.98560 5.57485 171.79533 317
425.76462 6.36655 172.00943 309
452.26459 7.18373 173.23973 295
3141.25537 93.37904 121.34146 416
3266.52612 97.39426 315.32962 494
402.03522 10.78668 171.78346 317
425.79892 12.27617 172.03064 309
456.91800 14.30664 172.30176 301
401.91040 15.98176 171.80650 317
425.60147 18.25701 172.01123 309
492.04221 24.53903 165.27643 301
3123.84766 274.87350 121.69807 393
401.61899 21.17607 171.79395 317
425.24442 24.16545 172.03886 309
486.77435 32.00953 166.23087 458
3133.42285 367.91711 120.59711 488
401.15063 26.33160 171.80890 317
424.68329 30.09051 171.99817 309
480.66458 38.99220 167.21736 443
3174.06494 467.13293 119.20577 491
400.55325 31.48897 171.80142 316
423.95950 35.93232 172.00583 309
475.70547 45.86114 168.01608 297
399.80234 36.57784 171.76689 316
423.08047 41.81261 171.98575 309
474.81885 53.40456 167.94279 297
398.92383 41.68631 171.77411 316
451.25665 55.14913 164.91588 307
397.86771 46.69104 171.75563 316
449.75830 61.83538 164.92532 307
396.64526 51.72300 171.73965 316
444.01810 67.09303 165.87785 433
395.28622 56.68916 171.74702 316
436.27872 71.42511 167.32683 424
51019.99219 18295.19336 1983.35254 0
417.79202 71.06215 164.80873 316
432.37265 76.84496 167.83850 305
415.71317 76.65181 164.80441 316
430.35129 82.96008 167.76218 305
413.46017 82.08582 164.80112 316
400.57852 87.98042 165.08144 424
392.91238 90.61880 166.50897 429
386.15903 93.43636 167.67242 315
383.11752 98.31393 167.66212 315
379.96735 103.17052 167.61778 313
1022.26282 904.91510 57.97342 320
972.35474 903.87012 62.51155 422
966.54083 896.78802 102.06720 439
923.88800 901.61163 66.52181 426
919.55109 895.75311 105.20216 444
878.37500 899.29608 70.46217 430
875.06158 894.77753 107.63583 448
834.40259 896.85236 73.91931 434
832.34302 894.02209 110.30287 453
792.85797 894.71686 77.23734 438
791.81451 892.89368 112.61816 457
752.94220 892.65375 80.32453 442
752.57928 892.28876 114.63157 462
723.86737 907.64685 45.81597 426
715.07666 891.24255 82.76569 432
715.14703 891.28796 116.57657 462
687.78888 908.26770 48.43836 429
678.46027 890.02893 85.14510 429
678.79150 890.22015 118.14634 469
652.14624 907.72980 50.96056 427
642.81555 887.80475 87.59416 433
643.69934 889.54315 119.85219 473
617.34906 906.56165 53.60958 429
608.35425 885.47162 89.69028 436
609.71613 888.82739 121.36226 476
612.76270 896.31274 152.65454 478
583.71039 906.35980 55.61343 416
575.19806 884.51654 91.32439 422
576.96698 888.96448 122.54686 483
579.98364 896.47876 153.30013 483
551.58112 907.23865 57.50290 422
544.42114 887.21204 92.47822 441
546.50958 893.28107 123.04282 494
548.95868 900.07965 153.83415 496
521.44330 912.99200 58.24575 425
514.57562 891.94214 93.15028 497
517.21881 899.73895 123.46546 497
523.56995 919.72205 153.25258 467
492.19516 919.97339 58.50611 431
485.71225 898.11487 93.49296 402
488.46838 908.14594 123.37585 467
517.56927 1008.95245 147.82263 321
463.25189 928.88873 58.18252 425
457.31290 905.87360 93.46176 402
460.30203 917.44592 123.24100 460
434.42209 938.89172 57.76841 426
429.25311 915.20398 93.06812 497
432.06665 928.05682 122.98608 442
405.91684 950.49725 56.80582 428
401.41412 927.29797 92.44707 397
404.13577 942.00092 122.05412 423
377.14194 964.48859 55.29189 438
373.34338 940.84381 91.22937 488
375.87540 956.73456 121.27991 388
344.86423 954.51074 89.85433 387
347.17899 972.31470 120.17242 367
316.08725 971.30621 88.12473 431
317.85068 990.32068 118.60477 408
286.21133 988.93744 86.14893 441
287.97107 1015.48267 116.34139 280
3770.62036 57748.67188 224.83263 0
-26275.05664 61087.40234 -17618.31055 0
120.65345 149.23752 167.96245 489
112.35248 150.74567 166.40152 314
107.53651 147.17227 166.38481 314
99.92226 146.99843 165.20325 419
91.28480 147.51088 163.58002 424
86.33283 143.51474 163.53516 307
74.25817 156.41200 166.30431 305
102.89635 118.05252 171.53127 316
69.18659 151.73692 166.23338 305
99.15073 114.19161 171.58302 316
62.49222 148.65039 165.68719 409
95.55691 110.20750 171.59396 316
51.48030 149.07959 163.74069 403
92.08657 106.10075 171.61501 316
73.31182 121.59766 171.79993 308
88.72588 101.91215 171.66397 316
69.52538 116.80785 171.82857 308
20.43112 154.89932 166.00926 295
-46567.85547 36279.45703 4098.28174 0
85.49625 97.64052 171.67278 316
65.85553 111.91010 171.86702 308
12.83236 150.43930 165.37535 389
-1773.19092 1447.97595 54.85287 461
-1775.50012 1449.26709 135.56625 461
-1776.56177 1450.44824 216.21095 461
82.40524 93.29770 171.72859 316
62.37735 106.88029 171.85181 308
-2.23582 150.84755 162.86710 382
69.25826 88.75346 171.81180 316
48.73198 101.70780 171.98820 308
21.68586 118.71140 172.21141 300
66.90105 84.23096 171.83415 316
46.24650 96.31908 172.10286 316
30.32871 105.65951 174.96127 266
-58.91318 158.12039 165.02917 288
64.63602 79.59460 171.87527 316
57.57529 83.51211 175.78491 322
47.38846 89.06599 179.50993 319
16.69726 105.81506 180.07672 292
67.59222 72.40800 173.36987 377
61.72798 75.37582 177.48259 385
46.36515 83.11799 179.83128 300
8.55451 102.28042 179.09618 280
70.79448 65.47179 174.91359 382
65.02096 68.14188 178.84279 390
38.84185 80.38367 178.62518 335
27.53041 85.66326 183.05684 330
12.74083 92.58789 187.71159 310
73.63510 59.05437 176.19962 416
66.47200 62.14084 179.62946 308
44.30293 71.63268 180.26236 384
36.40405 75.01862 185.06581 368
25.82217 79.58685 189.92848 331
11.60000 85.67462 195.13200 311
74.99474 53.55220 177.02954 420
64.94167 57.47809 179.66731 308
47.74210 64.24301 181.41380 389
40.85433 66.96325 186.16438 384
32.89579 70.08598 191.25090 368
23.94899 73.59364 196.65761 363
10.61984 78.81611 202.40070 311
76.31950 48.26801 177.80309 424
57.10559 55.10255 178.05655 411
51.06513 57.25889 182.48723 393
44.48944 59.63096 187.10112 389
37.50349 62.10430 192.14238 384
29.41822 65.02960 197.42593 368
20.29751 68.27358 203.25410 363
77.64542 43.14689 178.49580 427
59.04858 49.12316 178.88113 422
53.60393 50.86800 183.31642 410
47.73732 52.78468 187.91455 405
41.28819 54.84743 192.84593 388
34.15205 57.16063 198.11330 383
25.91618 59.79168 203.74329 367
78.96668 38.21930 179.12212 431
60.79126 43.46741 179.57452 425
55.69304 44.92844 183.97934 421
50.16042 46.51812 188.59404 409
44.09324 48.21821 193.44499 404
37.65827 50.07326 198.60286 399
30.73008 52.09125 204.17133 394
79.56964 33.62848 179.53174 316
62.48595 37.94204 180.24463 429
57.53862 39.21517 184.58972 424
52.30339 40.51484 189.12990 420
46.69476 41.95652 193.91116 408
40.48565 43.52345 199.01993 403
33.82190 45.21286 204.45284 398
-200.31738 104.68301 202.69119 288
78.91259 29.36772 179.54102 316
64.19109 32.64550 180.82831 432
59.36876 33.71353 185.11385 428
54.29041 34.81116 189.60201 423
48.93703 35.99357 194.34756 418
43.14471 37.29211 199.35829 407
36.79048 38.68214 204.69241 401
29.56746 40.29354 210.41232 358
-182.65454 87.14954 216.66725 438
78.36394 25.12520 179.54845 316
65.34624 27.57308 181.26143 455
60.95006 28.39636 185.58539 450
56.24662 29.29789 190.04900 426
51.01533 30.26556 194.71742 422
45.50336 31.30065 199.66994 417
39.62764 32.40853 204.92946 405
32.90382 33.68254 210.56400 364
-182.86977 74.34560 216.62767 424
77.92570 20.85458 179.54311 316
65.66946 22.78050 181.48535 456
61.31345 23.43357 185.75601 452
56.76582 24.13201 190.21661 447
51.97214 24.91528 194.92928 442
46.96925 25.67499 199.89792 437
41.64044 26.52012 205.10027 432
35.98463 27.37323 210.68346 409
77.64746 16.55717 179.55048 316
66.05388 18.00917 181.62140 458
61.73053 18.52698 185.91673 453
57.20147 19.09512 190.35464 448
52.46825 19.67433 195.03761 444
47.44413 20.30719 199.96191 438
42.23030 20.97055 205.17606 433
36.66179 21.65946 210.71324 428
77.49150 12.24214 179.56331 316
66.43112 13.27372 181.76161 459
62.13797 13.66787 186.03769 454
57.62889 14.09509 190.48155 450
52.97417 14.49387 195.12540 445
48.02718 14.98785 200.08083 440
42.83347 15.43757 205.24977 435
37.36137 15.96824 210.76103 429
77.47794 7.95559 179.56786 316
66.82587 8.56921 181.87186 460
62.58212 8.83779 186.14687 456
58.12727 9.10468 190.58704 451
53.52528 9.40627 195.23703 446
48.62432 9.67463 200.10600 441
43.45956 9.98554 205.30931 436
38.01114 10.32940 210.76384 430
-182.02095 23.64884 269.03909 486
-186.74953 23.88043 283.17630 496
-186.71004 23.89454 296.74896 495
77.59055 3.62044 179.58011 316
67.30684 3.89660 181.95564 461
63.10825 4.04069 186.19974 457
58.70221 4.15594 190.63776 452
54.05517 4.30921 195.29141 447
49.23349 4.43034 200.18781 442
44.10809 4.57239 205.31395 437
38.70122 4.75374 210.78447 431
-181.99089 11.15355 269.01828 487
