# .PCD v.7 - Point Cloud Data file format
VERSION .7
FIELDS x y z rgb
SIZE 4 4 4 4
TYPE F F F U
COUNT 1 1 1 1
WIDTH 500
HEIGHT 1
VIEWPOINT 6512.351074 -572.840698 147.087036 -0.640787 -0.099074 -0.090191 0.755938
POINTS 500
DATA ascii
82.93826 -0.73071 179.52083 316
68.70092 -0.71300 180.98596 462
64.39566 -0.69507 185.36914 457
59.85211 -0.70570 189.93430 453
55.16831 -0.70252 194.69701 448
50.17347 -0.70173 199.69434 443
44.94954 -0.71068 204.97333 438
39.42641 -0.73256 210.57141 432
-152.65785 -0.67744 240.97910 419
-181.76961 -0.77340 269.58176 487
-147.12495 -0.76809 277.29327 284
82.87894 -5.06672 179.50343 316
68.17875 -5.52336 180.91095 461
63.84914 -5.67642 185.25136 456
59.31654 -5.79625 189.81650 452
54.57650 -5.94990 194.60222 447
49.59017 -6.11766 199.62143 442
44.31376 -6.25259 204.94897 437
38.73122 -6.44922 210.53230 431
-152.85663 -12.51282 241.00107 416
-181.69225 -13.36772 269.57111 487
-151.01231 -12.42791 277.95828 285
82.91105 -9.39263 179.50786 316
67.74818 -10.35684 180.77092 460
63.37517 -10.61409 185.15016 455
58.77467 -10.91478 189.72926 451
53.99803 -11.19831 194.51115 446
48.93963 -11.54110 199.57591 441
43.65363 -11.88039 204.88414 436
38.00382 -12.20874 210.51613 430
-181.70778 -26.04002 269.59738 486
69.44669 -14.09931 178.67003 463
65.41322 -14.48512 182.65240 459
61.23111 -14.87753 186.79800 454
56.85538 -15.29257 191.16829 449
52.25636 -15.73839 195.72275 445
47.46881 -16.17257 200.49643 440
42.38419 -16.68790 205.55563 435
37.00647 -17.19636 210.92773 429
-182.21127 -38.04820 268.55981 486
69.24065 -18.64895 178.39705 462
65.16066 -19.15855 182.41466 457
60.91039 -19.69157 186.56120 453
56.51189 -20.28418 190.95425 448
51.85052 -20.83915 195.53304 443
46.95481 -21.47757 200.37706 438
41.81236 -22.15249 205.47168 433
36.34451 -22.81421 210.86871 385
69.04721 -23.27005 178.08514 460
64.94665 -23.90981 182.13585 456
60.66365 -24.60366 186.34731 452
56.15704 -25.29724 190.71219 447
51.48329 -26.07251 195.35742 442
46.49608 -26.86334 200.22072 437
41.27066 -27.68662 205.33154 432
35.27569 -28.61581 210.80089 367
75.60036 -26.63531 179.59926 316
64.70929 -28.73238 181.80406 454
60.30565 -29.57419 186.03278 431
55.39434 -30.53441 190.39055 426
50.28255 -31.50406 195.04486 421
44.80074 -32.54562 199.89705 416
38.91285 -33.67087 205.10069 404
32.09534 -34.95993 210.63986 364
-182.91083 -76.13413 216.65097 424
76.76557 -30.91252 179.57600 316
63.38358 -33.91070 181.19760 432
58.58032 -34.99472 185.40593 427
53.56417 -36.10781 189.84612 423
48.23642 -37.28246 194.57301 418
42.42375 -38.62123 199.55554 406
36.04680 -40.05019 204.83722 401
-183.43715 -89.20901 216.67491 296
78.04697 -35.14501 179.57491 316
61.76067 -39.30052 180.44792 429
56.85471 -40.59250 184.74004 424
51.64570 -41.93786 189.28687 419
45.90545 -43.41320 194.05203 407
39.73503 -44.97604 199.07401 402
33.06534 -46.68814 204.49892 397
-188.47478 -103.80316 203.06358 483
78.37596 -39.64097 179.26274 430
60.13542 -44.93721 179.67979 425
55.03826 -46.43884 184.03249 421
49.43109 -48.08443 188.60217 409
43.37226 -49.82424 193.45215 404
36.86609 -51.72046 198.63203 399
29.77728 -53.77615 204.14824 382
77.16090 -44.75204 178.45004 427
58.49652 -50.83100 178.85124 421
52.93157 -52.60109 183.21236 410
47.00318 -54.54475 187.88287 405
40.31744 -56.72588 192.75002 388
33.05878 -59.08023 198.03532 383
24.57018 -61.87916 203.67957 366
75.88973 -50.05523 177.62064 423
56.34131 -57.07301 177.80974 398
50.15467 -59.34724 182.21005 393
43.53642 -61.72622 186.90593 388
36.41321 -64.26070 191.89676 383
27.99579 -67.30085 197.26698 367
18.75505 -70.66399 203.06650 362
74.61833 -55.58231 176.67334 420
65.89989 -59.02091 179.69504 308
46.79852 -66.58986 181.03809 388
39.76915 -69.38713 185.81631 373
31.44782 -72.71819 190.87607 367
21.28789 -76.74631 196.29779 331
6.04546 -82.80071 201.98956 310
72.93622 -61.53747 175.56812 386
67.16944 -64.04395 179.42509 395
43.17995 -74.44785 179.68498 373
34.30646 -78.30202 184.37950 335
22.62192 -83.31010 189.24960 331
6.64024 -90.29254 194.40436 310
69.87919 -68.42300 173.98247 381
63.95509 -71.22443 178.00563 390
35.96471 -84.43967 177.49976 335
24.14724 -89.94824 182.01201 330
2.02908 -100.39685 185.78157 281
66.63274 -75.82020 172.24911 376
60.51012 -78.94492 176.42162 384
49.29048 -84.64864 179.82706 300
-7.87689 -113.87681 175.46085 293
68.08040 -81.14864 171.88127 316
53.01407 -89.44778 173.65872 322
42.19302 -95.36868 177.53203 318
20.47391 -107.30490 180.04041 292
70.89091 -85.70531 171.86536 316
50.10125 -98.00522 172.00189 308
22.77019 -114.20151 172.27292 300
-53.92029 -159.57500 165.08142 288
73.85052 -90.23020 171.80151 316
53.44345 -103.22456 171.98875 308
26.59575 -120.27959 172.21567 300
76.98208 -94.63084 171.77754 316
56.97685 -108.26212 171.99316 308
-5.86606 -151.05351 163.37396 383
80.20092 -98.99944 171.77460 316
60.61272 -113.27654 171.95551 308
9.18072 -150.67853 165.86179 389
83.58080 -103.26363 171.73859 316
64.43947 -118.11078 171.91200 308
14.95966 -156.56163 166.02383 295
87.08858 -107.38523 171.72284 316
68.40175 -122.91843 171.89061 308
90.74158 -111.43832 171.69884 316
47.80170 -149.37125 164.18651 404
94.50826 -115.43634 171.64656 316
58.80405 -148.95842 166.04727 409
98.41079 -119.26559 171.63310 316
64.61005 -153.10732 166.33353 306
81.81244 -144.95694 163.50665 307
87.82193 -147.85274 163.96313 425
96.38028 -147.57504 165.48195 430
-1116.75488 -1615.34070 148.24088 495
-2153.56323 -2869.50781 216.71803 400
103.56671 -148.39365 166.44591 314
-1990.47900 -2849.83740 216.84178 444
108.59740 -151.87781 166.47000 314
-1755.20886 -2719.75317 106.69461 386
-1804.97571 -2787.67163 217.04701 413
-1595.82886 -2672.79492 110.96209 354
125.28798 -148.35934 169.68596 441
-1592.76465 -2857.97949 105.69696 418
-1349.58398 -12475.79980 1455.10364 0
1850.43896 -2098.70947 130.26045 470
1909.58411 -2038.96362 130.73285 488
1972.61560 -1984.91003 130.93089 492
2043.94702 -1938.47156 130.07730 491
2129.54517 -1905.35376 128.56813 470
2222.81396 -1877.25171 127.17359 466
2320.44824 -1847.26733 125.63902 462
2421.28589 -1817.34949 123.73214 448
371.05273 -107.56680 167.63745 313
374.55215 -102.79314 167.63672 315
377.89749 -97.99823 167.69052 315
383.51776 -94.44991 166.97383 434
391.09464 -91.81957 165.57559 429
396.89249 -87.94539 164.76945 317
399.90555 -82.53324 164.73019 317
414.22815 -89.25972 167.75597 305
402.66827 -76.96751 164.76369 317
417.03210 -83.19526 167.79439 305
381.41101 -61.95996 171.63623 316
423.13708 -78.47858 167.00586 429
383.46399 -57.01252 171.62321 316
431.65546 -74.33193 165.53052 424
385.36496 -52.01395 171.67088 316
436.67084 -68.65191 164.93011 308
387.16666 -46.96978 171.66368 316
438.93521 -62.00162 164.90994 307
388.76450 -41.89806 171.66905 316
411.94214 -47.83890 171.91750 309
463.07556 -60.96549 167.93356 297
390.21921 -36.77839 171.68454 317
413.55325 -42.00127 171.91306 309
465.71875 -53.62948 167.83246 452
391.52512 -31.64000 171.70847 317
414.98486 -36.10704 171.94470 309
472.67117 -47.05687 166.80635 447
392.63156 -26.46982 171.69916 317
416.23416 -30.17569 171.92215 309
480.00259 -40.25904 165.61617 443
393.62927 -21.23799 171.72993 317
417.33682 -24.26027 171.98340 309
483.77426 -32.61828 165.17244 301
394.46674 -16.04418 171.74086 317
418.22226 -18.30341 171.96857 309
449.37515 -21.23025 172.26797 301
2719.43677 -235.20610 134.46385 448
395.12613 -10.83567 171.71951 317
418.94617 -12.30772 171.99292 309
450.15491 -14.24655 172.24796 301
2674.54297 -153.48862 135.78725 444
395.63397 -5.60292 171.74994 317
419.46243 -6.31952 171.95557 309
450.63608 -7.26737 172.30905 495
2698.53979 -76.72712 54.50841 400
2643.76514 -75.51628 137.32130 423
395.96561 -0.36052 171.73923 317
419.81744 -0.37583 171.95979 309
450.62296 -0.36504 172.35129 495
2658.64233 0.81729 57.08587 442
2621.23975 0.34904 137.73753 404
2648.55518 0.75413 216.06940 492
2672.56909 0.28827 296.07614 409
396.18146 4.89615 171.72551 317
420.02020 5.64580 171.98759 309
450.64124 6.60342 172.43716 495
2600.88354 74.69168 60.37403 306
2603.22876 74.75459 138.78508 353
2623.82153 76.05503 216.08360 494
2654.20459 76.50940 295.29797 410
396.18600 10.09670 171.74178 317
420.04034 11.60556 172.00148 309
451.20718 13.61215 172.26283 301
2572.89136 147.55746 61.98209 383
2586.79028 148.55118 138.65276 299
2605.36597 149.86678 216.38695 497
2635.79541 152.05769 295.04388 411
396.09265 15.34209 171.71933 317
419.80972 17.55904 171.95285 309
450.98032 20.51500 172.24959 301
2553.21753 219.76682 63.39848 384
2589.34985 223.15344 138.32759 497
2593.83472 223.57620 216.01418 497
2617.22681 226.43347 294.39340 412
395.77744 20.49762 171.71960 317
419.48361 23.54637 171.99298 309
485.82370 31.95905 165.18869 301
2533.47192 291.60538 64.20513 384
2684.74438 310.68106 135.43399 278
2583.80151 297.55096 216.02754 370
2660.00464 307.13956 296.59164 497
2761.69507 320.49304 383.17249 446
395.37158 25.72192 171.74400 317
418.91867 29.43170 171.97974 309
480.41666 39.20966 166.10043 443
2514.02124 362.11719 64.39069 391
2693.40991 390.34348 379.35358 468
394.78067 30.87879 171.74367 317
418.21280 35.36748 171.97893 309
473.25833 45.89188 167.29874 448
2495.51196 431.98895 64.77981 391
393.99234 35.98163 171.72218 317
417.33331 41.22206 171.92757 309
468.74860 52.72160 167.95804 297
2477.56543 502.20438 65.09640 392
2529.42627 513.92596 138.74260 499
393.12119 41.06547 171.71838 316
445.38235 54.51117 164.93674 307
467.52347 60.21497 167.88852 297
2459.65430 572.64941 65.45502 447
2493.76880 580.96301 139.61205 487
392.05484 46.16699 171.71350 316
443.86380 61.24162 164.89613 307
2553.73071 675.14087 57.73494 429
2530.78735 668.20575 138.04414 489
390.81915 51.16380 171.66177 316
442.09064 67.86330 164.92726 307
2689.91650 798.92535 215.74677 349
389.48721 56.12019 171.64644 316
434.44824 72.31412 166.33116 424
387.95734 61.05537 171.64011 316
426.37943 76.25458 167.81679 430
409.80136 76.07603 164.76797 316
424.34216 82.39326 167.79311 305
407.59323 81.55585 164.74818 316
404.46359 86.62022 165.01753 424
396.98178 89.21789 166.48428 429
390.60931 92.04101 167.68962 315
387.95749 96.97595 167.68137 313
385.24380 101.80677 167.61269 313
17002.40039 38827.33984 2964.81201 0
320.22470 970.09290 87.72198 444
288.76938 960.19238 89.32525 437
288.54980 957.71472 121.40785 448
258.27435 956.78168 89.92060 473
257.98599 950.48730 122.25320 494
228.19388 950.88531 90.63735 475
228.12488 945.20911 122.79107 496
228.18925 965.34985 152.62025 495
198.19910 945.34344 91.50487 475
198.43695 939.88666 123.35217 497
192.93762 1114.20435 142.71281 498
168.78212 939.31604 91.99663 476
168.88718 934.36688 123.81326 498
168.37448 945.13324 153.85890 454
139.33508 933.70514 92.45343 477
139.70055 929.18726 124.17084 499
138.75294 940.36829 154.21072 380
110.34171 927.86414 92.90350 478
110.62824 924.05927 124.37404 499
109.42512 934.55475 154.14694 452
81.13087 922.68585 92.91093 456
81.65704 918.81720 124.36196 499
79.94380 931.10364 154.19014 309
52.09214 918.24438 93.03327 456
52.85243 913.47870 124.38847 499
22.79638 913.86713 92.68871 456
23.89251 908.18542 124.48480 499
-31.20610 1154.44128 138.43987 497
-6.53949 909.38342 92.32546 455
-5.04371 902.93036 124.20570 499
-22.09316 968.97980 150.49263 269
-35.80587 903.67145 92.26441 454
-34.14582 897.78864 124.01874 498
-36.12861 904.69000 154.41519 498
-65.68913 898.84467 91.56948 440
-63.47689 892.36426 123.76511 497
-65.70651 899.82288 154.01357 497
-95.93349 894.85712 90.81284 438
-92.92968 886.99658 123.28526 494
-95.89942 894.73895 153.87682 495
-127.03327 891.94379 89.66013 436
-123.89513 884.29260 122.53994 485
-127.03700 892.13885 153.35426 481
-160.60545 893.26465 87.86501 417
-156.89200 884.76685 121.21924 472
-164.09212 901.24597 151.83562 382
-196.65477 897.68829 85.57996 408
-191.90453 887.81830 119.45335 460
-235.23430 904.65399 82.31937 400
-229.04344 892.24695 117.55165 450
-277.85471 915.77527 78.57909 379
-269.17960 899.75726 115.02530 429
-326.35342 932.56592 73.43430 385
-314.02148 911.65198 111.92258 413
-361.79288 925.09460 108.23146 401
124.36297 148.58794 168.06068 489
-414.02057 940.43030 104.17683 387
117.65475 147.94836 167.23575 440
110.99532 146.92900 166.38133 314
-1648.32336 2413.37817 115.74983 410
-1645.57275 2410.24707 216.03194 492
103.51724 146.63371 165.20654 419
94.72204 147.40039 163.58252 424
89.87788 143.26759 163.53404 307
77.85018 156.14264 166.28815 305
106.31261 117.99081 171.52220 316
72.75594 151.45396 166.30016 305
102.53862 114.12637 171.55713 316
65.91090 148.49585 165.63879 409
98.96505 110.13580 171.56816 316
54.93071 148.92584 163.69415 403
95.45943 106.08434 171.60257 316
76.75126 121.57781 171.74437 308
92.10955 101.89943 171.63864 316
72.89143 116.80569 171.79329 308
24.10328 154.65120 166.07027 297
88.84908 97.66640 171.67693 316
69.22933 111.92241 171.79913 308
16.34445 150.35045 165.37971 389
85.79951 93.29887 171.67197 316
65.75905 106.92817 171.86365 308
1.28186 150.75494 162.91667 382
82.83532 88.87788 171.71219 316
62.38783 101.83662 171.85150 308
35.51439 118.86514 172.07874 300
79.99438 84.34885 171.71310 316
59.20287 96.66878 171.89618 308
31.86256 112.81426 172.10912 300
-43.95786 157.66183 165.13289 286
77.30285 79.76569 171.75598 316
56.14936 91.36964 171.91960 308
38.21319 101.23328 174.38885 319
-53.78598 151.85599 164.17834 373
74.80130 75.08409 171.76141 316
60.52483 82.37312 173.82652 385
50.97890 87.19220 177.99561 325
26.42915 99.69953 179.97797 292
72.37418 70.35522 171.80922 316
64.16202 74.23685 175.45746 390
56.08228 77.99632 179.74234 300
21.64921 94.21834 179.69302 314
-24.70540 116.02966 180.40181 284
74.08569 63.83668 172.99535 386
67.63108 66.66193 176.95964 381
53.65744 72.67724 179.72997 300
33.02911 81.61174 182.24745 336
20.51551 87.01076 187.44052 315
-0.37301 96.04614 192.51770 283
76.39616 57.37189 174.23875 420
71.02579 59.50468 178.40305 386
47.55024 68.79907 178.96802 389
40.02555 71.80207 183.97174 373
31.26218 75.21836 189.31596 368
19.23060 79.98556 194.88243 332
2.19875 86.72695 200.89407 311
77.74676 51.56404 175.19324 424
72.68710 53.40578 179.26744 419
51.10226 61.15670 180.18581 393
44.09053 63.69176 185.09995 388
36.53495 66.41122 190.41608 373
27.64692 69.59103 196.03363 368
17.89423 73.09742 202.21233 362
79.08152 45.99760 176.04095 427
72.18270 48.24053 179.61163 308
54.23492 54.04333 181.24898 410
47.81733 56.14296 186.10909 393
40.71287 58.46922 191.27565 388
33.08056 60.95686 196.83517 372
24.00791 63.89766 202.80666 367
80.42837 40.63854 176.83470 432
70.62414 43.46947 179.59959 308
56.48197 47.57995 182.08315 421
50.55290 49.30905 186.93834 409
44.14916 51.15554 192.04810 404
37.34118 53.13207 197.47653 399
29.59589 55.40203 203.30368 382
81.69524 35.42511 177.59680 435
63.59352 40.08828 178.25798 429
58.37372 41.43475 182.82173 424
52.86663 42.85826 187.62318 420
46.83670 44.38058 192.60876 408
40.29514 46.08494 197.98167 403
33.29746 47.84904 203.68170 397
25.44717 49.87778 209.85727 355
82.83706 30.49159 178.22897 457
65.30336 34.41706 178.99744 432
60.23566 35.53266 183.47174 428
54.92070 36.72746 188.18048 423
49.31615 37.96175 193.18787 418
43.18748 39.34708 198.42870 406
36.46407 40.85384 204.00148 401
29.10781 42.48857 210.02124 361
-184.49832 90.15488 216.53474 296
83.03202 25.83629 178.55632 459
66.84492 28.95721 179.66008 455
62.08707 29.82591 184.09241 431
56.90342 30.84204 188.74368 426
51.46032 31.88774 193.63557 421
45.67724 32.95072 198.83080 416
39.45626 34.17223 204.30659 405
32.50939 35.50061 210.16704 399
-182.96497 76.55991 216.45721 424
83.23697 21.29769 178.86226 461
67.08497 23.85475 179.94383 456
62.54574 24.55568 184.40199 452
57.83126 25.31889 189.04672 447
52.82721 26.09572 193.96475 442
47.60701 26.93271 199.10020 437
42.02335 27.82070 204.53928 414
35.66437 28.83049 210.32095 402
83.46904 16.78409 179.16028 462
67.39164 18.81276 180.23006 457
62.86500 19.39103 184.63246 453
58.19862 19.96082 189.27403 448
53.27314 20.61647 194.15468 443
48.07096 21.27126 199.25075 438
42.60883 21.93881 204.65285 433
36.85806 22.65640 210.37279 428
83.71471 12.32705 179.39481 463
67.68877 13.86829 180.44994 459
63.25662 14.26199 184.87157 454
58.56315 14.73499 189.44501 450
53.69995 15.18174 194.27754 445
48.62788 15.65406 199.37085 440
43.21406 16.18324 204.73289 435
37.53982 16.70745 210.47292 429
83.66427 7.98809 179.51799 316
68.00534 8.96656 180.67152 460
63.60267 9.24575 185.02979 456
59.01744 9.53649 189.62085 451
54.25267 9.81995 194.42149 446
49.16273 10.14979 199.48686 441
43.85366 10.46952 204.82133 436
38.22626 10.82270 210.50322 430
-181.59697 24.68288 269.64297 486
-187.09038 24.97326 284.06018 360
83.32438 3.65353 179.52484 316
68.39503 4.08676 180.84500 461
64.07680 4.25390 185.21602 457
59.53122 4.38785 189.76765 452
54.78371 4.55638 194.59062 447
49.75070 4.68458 199.59766 442
44.48981 4.86071 204.92967 437
38.88430 5.00393 210.55029 431
-181.69624 11.97624 269.64542 487
