# .PCD v.7 - Point Cloud Data file format
VERSION .7
FIELDS x y z rgb
SIZE 4 4 4 4
TYPE F F F U
COUNT 1 1 1 1
WIDTH 463
HEIGHT 1
VIEWPOINT 6404.061035 -1565.910034 144.387650 -0.721094 -0.086147 -0.098129 0.680422
POINTS 463
DATA ascii
82.13575 -0.52738 179.51651 316
68.56460 -0.53942 181.14799 462
64.27929 -0.54853 185.50177 457
59.78381 -0.53438 190.03271 453
55.09544 -0.51845 194.76593 448
50.15107 -0.54986 199.75369 443
44.91868 -0.53078 205.00824 438
39.41713 -0.55343 210.57625 432
-152.60133 -0.76815 240.97047 419
-181.71548 -0.76363 269.44012 487
-148.03317 -0.80162 277.29254 284
82.45704 -4.85991 179.53453 316
68.14342 -5.30541 180.98232 461
63.80460 -5.43813 185.35271 456
59.29501 -5.62017 189.90440 452
54.54618 -5.76485 194.67149 447
49.53399 -5.88711 199.67422 442
44.32057 -6.06116 204.95541 437
38.73757 -6.24745 210.58374 431
-152.83038 -12.44970 241.02966 416
-181.78223 -13.41362 269.50754 487
-151.33080 -12.39390 277.89948 284
82.86883 -9.17163 179.54091 316
67.75161 -10.16366 180.79309 460
63.37881 -10.44802 185.16855 455
58.79740 -10.72422 189.75314 451
54.00292 -11.02956 194.53563 446
48.97914 -11.32316 199.58977 441
43.68667 -11.66095 204.88196 436
38.03444 -12.04689 210.53923 430
-181.68889 -26.13397 269.58640 486
83.45840 -13.48706 179.51486 316
67.45282 -15.02951 180.55850 459
62.99524 -15.44268 184.97681 454
58.35965 -15.91186 189.56863 449
53.50583 -16.38893 194.35654 445
48.41310 -16.83585 199.45003 440
43.02025 -17.37137 204.81795 435
37.35519 -17.91583 210.46030 429
-181.62665 -38.83443 269.83218 486
83.23951 -17.94505 179.26688 462
67.14407 -19.96655 180.33116 457
62.69535 -20.53376 184.74036 453
58.00623 -21.14002 189.37221 448
53.07323 -21.75861 194.22780 443
47.86741 -22.45298 199.32230 438
42.38944 -23.14168 204.73053 433
36.67888 -23.87023 210.43427 428
83.02392 -22.43172 178.95718 461
66.88102 -24.98210 180.02502 456
62.37612 -25.71734 184.49516 452
57.61633 -26.50091 189.15401 447
52.63447 -27.27135 194.04584 442
47.40247 -28.12162 199.15363 437
41.54444 -29.04153 204.61134 414
35.06616 -30.08233 210.36580 402
82.84875 -26.98639 178.66879 459
66.54459 -30.13366 179.68141 435
61.63135 -31.08112 184.12201 431
56.44608 -32.07905 188.74792 426
50.97875 -33.08070 193.64479 421
45.22590 -34.18856 198.84903 416
38.87241 -35.42904 204.31543 404
31.91763 -36.78100 210.20383 399
-183.00693 -77.97702 216.60211 424
82.61505 -31.67510 178.25317 438
64.87053 -35.63904 178.98254 432
59.80464 -36.76749 183.47420 427
54.45648 -37.97685 188.21260 423
48.82627 -39.21867 193.19250 418
42.60163 -40.61569 198.40367 406
35.82774 -42.15409 204.04219 401
28.38627 -43.83177 210.02225 358
-188.50403 -92.50047 216.58522 296
81.32386 -36.66063 177.54279 435
63.18401 -41.35440 178.23244 429
57.91907 -42.71133 182.79256 424
52.42576 -44.11246 187.58946 419
46.29445 -45.71648 192.60495 407
39.71827 -47.37669 197.98398 402
32.67242 -49.21400 203.72295 397
23.79335 -51.51648 209.82729 263
80.04693 -41.86327 176.80130 430
70.48037 -44.68286 179.63416 308
56.03022 -48.87150 182.07552 421
49.99964 -50.64515 186.89590 409
43.60234 -52.52069 192.01691 404
36.54454 -54.57287 197.48029 387
28.68636 -56.84119 203.31424 371
78.74921 -47.30453 175.98712 427
72.15462 -49.44313 179.62970 308
53.73138 -55.44722 181.17659 410
47.06000 -57.61261 186.03262 393
39.94611 -59.91029 191.24223 388
32.10339 -62.47410 196.80696 372
22.97237 -65.48246 202.78455 366
-3228.64404 -1125.20227 98.36253 494
77.41357 -52.92994 175.10887 423
72.32806 -54.75658 179.22237 419
50.37171 -62.66383 180.06168 393
43.33292 -65.16999 185.00543 388
35.54015 -68.02265 190.31467 372
26.60159 -71.23692 195.96527 367
15.92093 -75.09373 202.08658 332
76.02636 -58.77518 174.11635 420
70.33934 -61.03734 178.17685 386
46.82770 -70.38803 178.81819 388
39.10320 -73.42513 183.81853 373
29.65500 -77.16167 189.12178 336
16.96380 -82.24219 194.70451 315
-0.85244 -89.28253 200.71353 310
73.42007 -65.44833 172.74815 386
66.87877 -68.28963 176.77071 395
53.86660 -73.92841 179.80118 300
31.22631 -83.76276 181.93736 335
17.84844 -89.52216 187.03741 315
-12.83045 -102.85452 191.19862 265
72.70909 -71.57536 171.82919 316
63.43489 -75.91306 175.21823 390
56.40698 -79.27521 179.78220 300
17.68914 -97.49490 178.92708 286
-24.43642 -117.30489 180.45393 284
75.19367 -76.28056 171.79674 316
58.98675 -84.54186 173.37914 328
48.73034 -89.81647 177.43068 325
26.80661 -101.01460 180.02335 292
77.81313 -80.97605 171.79033 316
56.65877 -92.62663 171.98679 308
33.02192 -105.63966 173.14006 272
-51.12728 -151.97992 164.64464 373
80.61987 -85.55636 171.77274 316
59.78520 -97.89101 171.94186 308
32.45961 -114.11427 172.19598 300
-43.30072 -158.92014 165.23140 286
83.50691 -90.08614 171.75920 316
63.08311 -103.09186 171.93126 308
36.24726 -120.16631 172.16862 300
86.57995 -94.54018 171.69772 316
66.53863 -108.16994 171.87115 308
3.84161 -150.79285 163.35315 383
89.73194 -98.88183 171.69629 316
70.13761 -113.15891 171.86011 308
18.85791 -150.47403 165.80229 389
93.08160 -103.13054 171.67184 316
73.87655 -118.06175 171.80917 308
25.10034 -155.88904 166.11411 297
96.53742 -107.29739 171.62749 316
50.02681 -145.81676 163.40683 300
100.09171 -111.41699 171.59689 316
57.46029 -148.98503 164.18251 404
103.82353 -115.35299 171.60274 316
68.44118 -148.63171 166.08417 409
107.63674 -119.23171 171.56134 316
74.17997 -152.71765 166.34927 306
91.33300 -144.61345 163.55409 307
97.28520 -147.47701 164.03787 414
-1906.61719 -2421.37939 111.09581 352
106.24353 -146.58438 165.76208 419
-1725.06348 -2361.83325 116.49715 383
112.78323 -148.15756 166.46573 314
-1596.17883 -2352.60303 119.26144 405
119.85714 -148.81676 167.41046 316
-1481.06226 -2352.62378 121.10878 453
-1371.20398 -2353.58081 123.55435 457
-1265.50293 -2354.62402 125.18282 461
-1165.93860 -2358.62402 126.75536 492
-1084.86792 -2387.88330 129.23441 393
-1106.81274 -2619.74609 122.38804 479
2369.55786 -2581.78564 107.58334 279
2451.15796 -2514.02368 107.50383 433
2561.44580 -2477.48950 106.11539 415
2700.61011 -2465.67920 103.05827 413
2852.63208 -2457.87354 99.84066 420
3017.93945 -2453.10522 95.68636 409
382.88531 -102.58415 167.67975 313
386.14383 -97.67754 167.71194 313
389.30350 -92.77040 167.70583 315
396.35974 -90.00880 166.51947 429
404.19513 -87.27765 165.03911 423
407.92361 -82.25280 164.78943 316
410.68100 -76.79400 164.81343 316
425.28290 -83.08871 167.82007 305
389.30869 -61.71069 171.69276 316
427.85831 -76.97691 167.84685 305
391.39032 -56.81402 171.72845 316
435.21960 -72.57307 166.67197 424
393.25586 -51.82885 171.71022 316
443.39499 -68.13062 165.22441 433
394.97360 -46.82283 171.76486 316
446.94540 -61.84193 164.95511 307
3669.36450 -996.32428 99.69115 334
396.57153 -41.74408 171.75200 316
449.01416 -55.16311 164.94751 307
3559.72485 -852.97345 103.75777 354
397.99078 -36.62664 171.77922 317
421.36002 -41.85343 172.00499 309
473.10535 -53.40396 167.98688 297
3525.12720 -734.34149 106.35132 462
399.28543 -31.49018 171.77589 317
422.76498 -35.96427 171.98624 309
474.56329 -45.81464 168.08836 298
3514.43872 -625.09320 107.68162 490
3560.06152 -633.45825 216.48248 496
400.39386 -26.32312 171.81561 317
424.00616 -30.06065 172.03583 309
481.23108 -39.14264 167.02704 443
3514.75830 -519.22217 107.76881 495
3561.47900 -526.02667 216.54404 495
401.35245 -21.15103 171.81487 317
425.06085 -24.11983 172.05643 309
487.26044 -32.00474 166.07256 458
3515.95605 -413.94135 108.10604 496
3563.90186 -419.66779 216.72746 498
3576.71704 -421.47266 326.28076 444
402.13907 -15.96364 171.81059 317
425.97034 -18.18328 172.04433 309
492.47235 -24.45554 165.30028 301
3518.28735 -309.83765 108.37607 496
3703.13428 -327.32706 330.14801 374
402.78549 -10.71527 171.79234 317
426.64212 -12.22359 172.06348 309
457.90091 -14.18455 172.32187 301
3519.38794 -206.26361 109.09232 497
403.26697 -5.51212 171.83876 317
427.17236 -6.26596 172.03140 309
453.98395 -7.12715 173.24600 295
3521.49048 -103.28717 108.75751 497
403.59943 -0.28636 171.79852 317
427.52505 -0.29355 172.03598 309
458.86740 -0.27619 172.36427 301
3627.95117 0.29847 105.78871 427
3630.38672 0.25871 216.83685 276
395.16684 5.97965 171.72026 317
418.97794 6.80234 171.94366 309
450.18533 7.84237 172.26678 301
394.76550 11.18371 171.72385 317
418.57449 12.75838 171.93542 309
449.71179 14.76131 172.28436 301
394.24240 16.37268 171.70110 317
417.98703 18.65772 171.97937 309
449.05417 21.68497 172.26160 301
393.56052 21.55769 171.71310 317
417.24646 24.59878 171.93614 309
483.48965 33.13206 165.14215 301
392.74979 26.72805 171.68393 317
416.31512 30.49832 171.94693 309
478.95364 40.59094 165.78087 443
391.73862 31.85625 171.71222 317
415.16309 36.39716 171.90746 309
471.76974 47.33264 166.96967 448
390.60614 36.97543 171.66234 317
413.87091 42.25623 171.89272 309
465.07425 53.76950 167.98814 297
389.27905 42.04339 171.66579 317
412.42957 48.06958 171.89200 309
463.48743 61.28870 167.89574 297
387.84424 47.10965 171.66339 317
439.50497 62.21606 164.89709 307
386.25156 52.11511 171.65169 316
437.34375 68.85809 164.86009 308
5632.99512 1769.90540 774.58026 0
384.47766 57.04226 171.64339 316
431.12579 73.98745 165.82901 425
382.57431 61.96513 171.60966 316
422.81357 77.98726 167.31659 430
403.91495 77.01511 164.72592 317
418.23901 83.25433 167.74681 305
401.29700 82.49889 164.74922 317
415.62991 89.29989 167.73463 305
398.42557 87.88512 164.75064 317
391.65494 91.08313 165.94279 429
384.27634 93.61329 167.24644 434
1492.85828 752.20264 70.80353 392
1476.41504 742.43121 120.46217 401
379.97290 97.77177 167.63277 315
1419.74658 760.26746 76.36205 397
1405.91895 751.53131 124.17802 411
376.82413 102.58755 167.60654 313
1351.88867 767.82751 81.71094 390
1340.88416 760.39136 127.34128 417
1289.52161 775.44232 86.37090 395
1280.45752 768.96021 130.45966 423
1231.50354 782.41852 90.52592 400
1223.98425 776.52325 132.91499 428
1175.76831 788.22156 94.58131 397
1170.22998 783.76886 135.37445 433
1122.68823 793.25732 98.14296 398
1119.99792 790.71204 137.71996 439
1075.58984 800.57178 100.86013 413
1075.75818 800.69995 139.54965 465
1081.54553 806.27826 177.62328 467
1035.29126 812.07617 103.18252 425
1038.25452 815.05914 140.44014 480
1051.85327 828.83405 177.53038 487
999.04840 826.10944 104.63223 430
1004.86060 832.49988 141.32643 425
1052.79346 883.40533 176.52855 383
965.30597 841.63959 105.56126 404
1074.88843 966.37939 131.66612 449
1061.16602 950.85065 174.69386 377
951.97711 880.94257 65.54610 425
933.47174 858.53162 106.60336 403
1037.29285 984.34583 132.24675 451
1070.75427 1024.84729 172.51158 372
920.93427 899.36786 66.28752 434
903.90088 877.49872 106.77556 402
1013.35553 1018.60297 131.56268 439
875.09222 896.90155 106.94521 498
959.80505 1013.92914 133.93625 402
846.69360 917.12872 106.85284 498
819.27887 939.26416 106.45829 496
793.62067 964.23114 105.69462 346
18099.11133 49824.83594 -12141.25098 0
-8278.13770 53489.00391 3760.53711 0
106.97105 153.68867 166.39703 314
102.42287 150.37407 166.40697 314
97.73504 147.16692 166.26633 424
90.03164 147.56169 164.88033 429
81.92760 147.85332 163.33192 424
78.00833 143.25970 163.51732 307
65.88118 156.12389 166.22311 305
95.18581 117.65618 171.60573 316
61.20076 151.47797 166.21313 305
-40036.95703 40067.09375 9589.09473 0
91.87002 113.85443 171.61620 316
54.31409 148.95444 165.45097 409
88.65312 109.91221 171.67075 316
43.68507 149.33923 163.52425 403
85.60664 105.86778 171.68944 316
66.89708 121.26123 171.83202 308
82.63297 101.68337 171.69908 316
63.48515 116.49917 171.87566 308
13.85213 154.83008 165.90306 295
79.83350 97.47729 171.73648 316
60.21468 111.66404 171.87231 308
6.37836 150.56743 165.21986 388
77.11448 93.15589 171.74815 316
57.08829 106.67271 171.89098 308
30.78417 124.45980 172.14360 300
74.58657 88.70257 171.79199 316
54.18354 101.63165 171.94481 308
27.33608 118.59192 172.19427 300
72.15117 84.22449 171.79774 316
51.35876 96.47715 171.99016 308
24.01504 112.51134 172.18114 300
-52.51215 157.58321 165.05627 288
-3663.55688 2282.94312 68.64925 496
69.84538 79.64647 171.82932 316
54.51930 88.06136 173.52541 322
43.76511 93.94450 177.39279 319
22.38267 105.63266 179.99339 292
67.71406 75.00620 171.85165 316
61.24812 78.32135 175.92706 385
51.72601 83.12971 179.76849 300
-9.86158 114.35644 174.62186 292
70.81423 67.92549 173.34383 382
64.64933 70.80051 177.36095 390
49.55234 77.85016 179.75879 300
25.37182 89.17783 181.59946 330
5.03498 98.70969 185.68462 282
73.91450 61.19259 174.78227 386
67.88406 63.76793 178.66161 395
44.08240 74.04346 179.04912 373
35.32343 77.82004 183.82913 336
23.60378 82.81169 188.77058 331
7.90402 89.63347 194.04865 311
75.61652 55.35939 175.74336 420
69.94348 57.60105 179.61111 308
47.68565 66.36963 180.25400 389
40.57808 69.16815 185.13748 384
32.19775 72.48965 190.30675 368
22.02622 76.46799 195.84244 332
6.91211 82.43929 201.63547 311
76.99031 49.90070 176.56067 424
68.47260 52.92929 179.64354 308
51.04046 59.18541 181.37144 393
44.30351 61.62224 186.14919 389
37.07444 64.16731 191.25534 384
28.60023 67.25253 196.70502 368
19.21089 70.59210 202.65649 362
78.32440 44.65332 177.28175 427
67.18636 48.23404 179.63214 308
53.90105 52.53989 182.28679 410
47.84029 54.46285 187.03021 405
41.03558 56.70444 192.04207 388
33.63059 59.07104 197.42233 383
25.02660 61.86465 203.19249 367
79.66069 39.55963 177.97701 431
61.31207 44.83873 178.48997 425
56.07628 46.35475 183.00327 421
50.32178 48.00767 187.69905 409
44.13962 49.80598 192.66400 404
37.48814 51.73758 197.98817 399
30.21828 53.82260 203.65808 382
81.01576 34.60263 178.60187 434
63.02447 39.17371 179.20418 429
57.93199 40.49120 183.62686 424
52.59674 41.84779 188.29846 420
46.75061 43.33587 193.21077 408
40.39886 44.98529 198.44014 403
33.57177 46.72108 203.97633 398
25.39509 48.78828 209.94682 269
82.03145 29.91741 179.11333 458
64.74770 33.73477 179.81285 432
59.83430 34.83207 184.19087 428
54.61903 35.97184 188.82274 423
49.11386 37.18789 193.67920 418
43.15082 38.50209 198.83081 406
36.61086 40.00460 204.25317 401
29.40372 41.57625 210.15228 358
-182.76691 88.69593 216.51630 438
82.28081 25.44015 179.32700 459
66.18534 28.50604 180.34366 455
61.63513 29.36046 184.71056 431
56.56713 30.31289 189.28471 426
51.22363 31.29737 194.09511 422
45.59409 32.36299 199.13980 417
39.48694 33.51581 204.52719 405
32.73673 34.79950 210.30656 399
-182.98862 75.63210 216.50597 424
-118.06319 18.49918 -32.00327 316
66.49579 23.53755 180.57704 456
62.05178 24.26307 184.94138 452
57.38362 24.98851 189.52110 447
52.47824 25.73794 194.30832 442
47.36431 26.54021 199.39279 437
41.89214 27.41985 204.72546 432
35.77279 28.38160 210.41711 403
82.05558 16.76305 179.50862 316
66.84882 18.66528 180.76932 457
62.46180 19.22868 185.11694 453
57.82282 19.79705 189.69460 448
52.96424 20.37694 194.47484 444
47.84804 21.02201 199.49240 438
42.48040 21.71588 204.82726 433
36.78411 22.42996 210.45454 428
81.86903 12.46847 179.51147 316
67.25571 13.79669 180.92427 459
62.86256 14.21180 185.23799 454
58.25343 14.65561 189.79900 450
53.43738 15.10584 194.57759 445
48.40046 15.58021 199.61557 440
43.13245 16.08090 204.90938 435
37.49585 16.59441 210.48894 429
81.74533 8.12062 179.53525 316
67.65781 9.02440 181.01599 460
63.26553 9.28083 185.36984 456
58.73030 9.54141 189.92502 451
54.01229 9.83960 194.64995 446
49.02463 10.14784 199.65454 441
43.72892 10.50213 204.95290 436
38.19535 10.80748 210.55167 430
-181.71704 24.40265 269.45901 486
-186.76324 24.63322 283.66748 496
81.81662 3.82119 179.53734 316
68.12146 4.21686 181.11368 461
63.79811 4.37377 185.46364 457
59.29896 4.47518 190.01547 452
54.57253 4.62772 194.74033 447
49.62625 4.78809 199.74512 442
44.41330 4.92209 205.00632 437
38.83261 5.12145 210.58434 431
-181.77092 11.70430 269.45944 487
