# .PCD v.7 - Point Cloud Data file format
VERSION .7
FIELDS x y z rgb
SIZE 4 4 4 4
TYPE F F F U
COUNT 1 1 1 1
WIDTH 441
HEIGHT 1
VIEWPOINT 6482.854980 -2369.365723 144.368652 -0.842024 -0.074804 -0.106074 0.523591
POINTS 441
DATA ascii
85.46387 -0.78137 178.97069 467
69.53754 -0.81162 180.12457 462
65.10861 -0.78152 184.62283 457
60.48904 -0.80331 189.27977 453
55.65442 -0.78645 194.19168 448
50.55785 -0.78472 199.32066 443
45.18711 -0.79469 204.77071 438
39.49098 -0.80134 210.50089 432
-181.36812 -0.76847 270.18741 487
-136.41006 -0.79117 276.44278 495
85.12466 -5.24169 178.80194 465
69.07977 -5.72169 179.95720 461
64.63512 -5.86018 184.47975 456
59.95348 -6.00393 189.14697 452
55.05643 -6.17203 194.07852 447
49.91610 -6.35954 199.26146 442
44.51127 -6.51268 204.69269 437
38.77518 -6.70341 210.45259 431
-181.37392 -13.67508 270.32062 487
-151.80588 -12.72384 279.07489 266
84.83086 -9.73493 178.59700 464
68.71595 -10.74420 179.76086 460
64.15919 -11.00904 184.30986 455
59.42617 -11.30265 188.97960 451
54.51351 -11.62241 193.96652 446
49.31985 -11.94362 199.15622 441
43.84889 -12.28206 204.64932 436
38.06721 -12.66508 210.43600 430
84.54272 -14.24220 178.36450 463
68.37065 -15.77288 179.57262 459
63.77975 -16.22018 184.10669 454
59.01645 -16.67334 188.84634 449
54.00923 -17.13003 193.78386 445
48.74179 -17.66502 199.00827 440
43.18930 -18.17121 204.52322 435
37.34352 -18.72471 210.37970 429
84.29207 -18.84432 178.11827 462
68.08348 -20.88039 179.30951 457
63.42818 -21.47911 183.86932 453
58.59990 -22.06736 188.61252 448
53.53649 -22.71721 193.62520 443
48.21050 -23.39228 198.89622 438
42.55755 -24.08113 204.47668 433
36.59034 -24.85851 210.35692 428
84.02003 -23.48492 177.81676 461
67.79213 -26.07377 179.01537 456
63.12024 -26.81920 183.62112 452
58.24722 -27.58815 188.42238 447
53.11641 -28.40554 193.42513 442
47.43442 -29.27631 198.70581 419
41.30906 -30.25050 204.32722 414
34.57792 -31.33769 210.23013 402
83.82698 -28.19620 177.50336 459
67.11521 -31.40638 178.59697 435
62.02108 -32.35629 183.14821 431
56.67557 -33.38144 187.94463 426
51.01603 -34.46809 193.00899 421
45.09793 -35.59119 198.36473 416
38.48095 -36.84874 204.04178 404
31.31622 -38.21348 210.10202 399
-182.90021 -79.12158 216.57571 424
82.28295 -31.16483 178.71478 457
64.65867 -35.11930 179.40742 432
59.62838 -36.24311 183.87080 427
54.33350 -37.44421 188.54118 423
48.70560 -38.70369 193.47586 418
42.59874 -40.04857 198.68776 406
35.89910 -41.54650 204.24254 401
28.41204 -43.23575 210.20760 358
-187.84677 -91.85616 216.70325 296
81.06074 -36.12723 178.02074 435
62.96084 -40.81358 178.67107 428
57.75493 -42.13521 183.21941 424
52.29616 -43.57776 187.95438 419
46.23888 -45.12504 192.94670 407
39.73067 -46.76292 198.24319 402
32.73783 -48.58639 203.96217 397
-188.29536 -105.63322 202.91946 484
79.74849 -41.29733 177.29349 430
68.43954 -44.62367 179.63631 308
55.80872 -48.28909 182.50095 420
49.90198 -50.04548 187.26338 409
43.53090 -51.85651 192.36528 404
36.66975 -53.83000 197.78426 387
28.89485 -56.12483 203.59198 371
78.46463 -46.66735 176.48965 427
70.02081 -49.42404 179.65672 308
53.56060 -54.81271 181.63840 410
47.06265 -56.87611 186.44449 392
39.97831 -59.18150 191.60216 388
32.30893 -61.73426 197.14574 372
23.21436 -64.65691 203.01965 366
77.11237 -52.24980 175.59702 423
71.75839 -54.17860 179.63548 308
50.32710 -61.92166 180.52138 393
43.34130 -64.41515 185.48660 388
35.71974 -67.21508 190.70796 372
26.80024 -70.42572 196.35632 367
16.67495 -74.04474 202.42818 332
75.74092 -58.09011 174.67342 420
70.22988 -60.24428 178.74551 386
46.78251 -69.56631 179.32182 388
39.19266 -72.57384 184.30597 372
30.20824 -76.14898 189.62119 336
17.93156 -81.04151 195.15233 331
0.30440 -88.00479 201.08492 310
73.26113 -64.61342 173.33301 386
66.90060 -67.39278 177.37274 394
42.72897 -77.89496 177.92447 372
31.73523 -82.67448 182.52301 335
18.82114 -88.23762 187.62779 315
-6.67321 -99.30844 192.19308 265
70.46924 -71.65324 171.84300 316
63.48563 -74.96059 175.86685 389
53.97001 -79.41692 179.78185 300
19.89341 -95.54395 179.85538 314
-27.34197 -117.84872 180.48163 284
72.92992 -76.41983 171.84229 316
59.79420 -83.13437 174.25183 328
49.71202 -88.29199 178.23021 325
24.15079 -101.35009 180.04199 292
75.53859 -81.14185 171.80994 316
54.26817 -92.88586 172.01361 308
36.75618 -102.49064 174.57036 318
-52.80887 -151.92917 164.95590 373
78.23507 -85.79345 171.77017 316
57.33675 -98.15765 171.96629 308
29.80685 -114.48216 172.17964 300
-46.67440 -159.85751 165.14001 286
81.14019 -90.33942 171.75253 316
60.57919 -103.41458 171.93027 308
33.58213 -120.57185 172.14384 300
84.16869 -94.79304 171.75620 316
64.02610 -108.54233 171.90623 308
1.88188 -150.81961 163.57629 383
87.33175 -99.20543 171.72321 316
67.58360 -113.59331 171.89391 308
16.89126 -150.45662 166.00562 389
-2049.00024 -1655.14673 126.08351 321
90.60871 -103.49339 171.69545 316
71.29523 -118.46379 171.84850 308
22.16329 -156.72241 166.13181 297
-1924.46338 -1670.57996 39.73522 424
-2039.36047 -1759.11523 124.65962 322
94.01358 -107.68378 171.66562 316
47.17162 -146.52618 163.38016 300
-1813.28955 -1689.52136 44.71074 437
97.59278 -111.84431 171.64464 316
55.37894 -149.07965 164.40593 404
-1705.42200 -1704.64807 49.55915 318
-1784.50757 -1774.41028 130.75325 336
101.26109 -115.79494 171.61884 316
66.37371 -148.66612 166.28882 410
-1616.39197 -1732.49707 52.33289 420
-1680.16541 -1792.49683 132.53658 478
105.09287 -119.70798 171.58746 316
71.38725 -153.48663 166.31339 305
-1536.64624 -1764.37634 54.64275 423
-1641.90784 -1870.01074 218.77002 343
88.53865 -145.38268 163.50764 307
-1458.42798 -1796.35852 57.03480 425
-1600.65698 -1947.44788 131.03435 343
95.10975 -147.58070 164.25325 425
-1382.24524 -1827.09277 59.17102 427
-1536.75806 -2002.07446 130.91248 430
-1530.15442 -1994.38940 218.49785 430
103.97028 -146.83652 165.88550 420
-1308.37854 -1857.08313 60.85303 429
110.10039 -148.93536 166.44006 314
-1236.43872 -1888.01465 61.80631 442
-1326.62598 -2004.66663 135.69447 426
117.16049 -149.47766 167.44490 316
-1324.29248 -2137.71265 45.57486 344
124.62270 -149.16685 168.64934 489
2064.00000 -3592.34033 85.62554 487
2120.39966 -3433.11523 89.66736 449
2291.90796 -3480.71338 85.01485 397
2497.64551 -3567.87231 79.37162 391
1590.52820 -1997.37695 59.04899 443
3679.64941 -2501.12036 80.59034 301
378.83612 -103.19442 167.67046 313
3676.70947 -2338.24805 83.64263 477
381.79395 -98.32011 167.66968 315
3711.66260 -2204.43774 85.56166 488
3807.66919 -2266.09399 219.74533 297
385.36243 -93.79380 167.44318 434
3756.52002 -2081.83374 85.77444 497
3786.51074 -2099.13232 219.71301 499
392.64346 -91.26933 166.06252 429
3809.13574 -1963.92456 86.33099 499
3849.21753 -1985.56323 219.50806 499
399.52509 -88.19260 164.80896 317
3867.49683 -1848.88196 85.73179 499
4017.16650 -1924.99402 358.68881 478
402.15771 -82.72734 164.77193 316
416.77679 -89.59640 167.76109 305
3921.53906 -1732.71655 85.23742 499
404.52454 -77.17949 164.74951 316
419.16205 -83.45011 167.82376 305
3979.61890 -1618.67212 85.59837 499
382.82159 -62.08779 171.65340 316
423.65872 -78.21011 167.28142 429
384.50269 -57.11089 171.64018 316
431.95071 -74.13995 165.79016 424
386.01126 -52.09397 171.66029 316
437.51379 -68.78933 164.93134 308
387.33084 -47.01613 171.67386 316
439.40390 -62.11640 164.89207 307
388.56036 -41.92488 171.68759 316
411.94559 -47.93479 171.91789 308
463.38290 -61.05301 167.95476 297
389.60953 -36.81494 171.67438 316
413.17245 -42.00826 171.91815 309
465.60217 -53.65747 167.85023 452
390.49374 -31.61120 171.67908 316
414.15692 -36.10020 171.92943 309
472.59601 -47.17517 166.67651 447
391.25165 -26.41639 171.71648 316
415.04099 -30.14162 171.96214 309
479.86649 -40.33622 165.47139 443
391.81439 -21.19444 171.71332 316
415.73117 -24.18977 171.95027 309
482.42770 -32.58447 165.11949 301
392.23062 -15.97501 171.73206 316
416.18973 -18.18296 171.96838 309
447.56967 -21.16798 172.26564 301
392.50360 -10.70760 171.70918 317
416.51294 -12.20601 171.94614 309
447.95526 -14.13489 172.22697 301
392.61014 -5.48436 171.70514 317
416.63757 -6.18188 171.93076 309
448.10712 -7.13308 172.23077 301
392.55591 -0.20441 171.69255 317
416.59378 -0.18586 171.95477 309
448.08112 -0.15374 172.22685 301
2354.98291 1.80627 77.11649 397
2333.36841 1.83861 147.67522 402
392.32791 5.04689 171.71158 317
416.35901 5.82796 171.95837 309
447.83945 6.80247 172.27515 301
2273.52026 65.85817 82.14709 403
2250.61035 65.16356 150.11336 405
391.98648 10.28733 171.71004 317
415.96643 11.82441 171.96149 309
447.35083 13.83751 172.25479 301
2201.10962 125.73118 86.74886 389
2173.97412 123.83593 152.69304 413
391.43872 15.51932 171.71469 317
415.33661 17.79686 171.95316 309
446.74014 20.80546 172.20554 301
2130.04321 181.40694 90.99746 384
2105.40942 179.38699 154.99026 444
390.76434 20.77492 171.69109 317
414.60236 23.77172 171.92322 309
445.79926 27.76134 172.20029 301
2077.17798 235.48586 93.93511 408
2061.74292 233.20650 155.90910 464
389.91043 25.98294 171.67084 317
413.65451 29.70563 171.89177 309
479.36459 40.22889 165.26872 443
2039.03723 288.44699 95.96134 421
2028.30115 286.71930 156.57587 429
388.90579 31.13177 171.66965 317
412.52142 35.67840 171.89230 309
472.05234 47.05018 166.39629 448
2008.34985 341.45197 97.39838 440
2004.57898 341.01996 157.30774 386
387.74811 36.28914 171.67574 317
411.20978 41.52987 171.87239 309
464.97928 53.60087 167.45403 452
1982.23816 394.06113 98.27074 449
2122.20972 425.43506 152.78905 360
386.42145 41.39131 171.64958 316
409.74948 47.39044 171.87468 309
460.86423 60.60488 167.94928 297
384.96683 46.48135 171.62343 316
436.79102 61.54439 164.84790 308
383.38412 51.50800 171.63416 316
434.66464 68.24197 164.83926 308
381.60941 56.49456 171.61406 316
430.65454 74.20806 165.24667 424
379.66418 61.45728 171.56805 316
422.17996 78.33928 166.74281 430
377.58893 66.34338 171.55980 316
415.37622 82.71649 167.76503 305
398.42331 81.99026 164.72719 317
412.76953 88.76240 167.71178 305
395.54385 87.39134 164.69698 317
390.37845 91.53435 165.38467 429
382.87027 94.10281 166.78055 434
377.01465 97.37516 167.62527 315
373.84973 102.19072 167.58936 315
370.48596 106.94386 167.56001 313
124.24898 148.47281 169.16693 488
116.15273 150.76859 167.45213 316
109.40057 150.59113 166.38799 314
104.92647 147.10994 166.39792 314
97.41051 147.23761 165.09116 419
89.29517 147.55490 163.53235 424
84.87154 143.47330 163.50221 307
72.82894 156.28670 166.28253 305
101.75814 118.06032 171.54222 316
68.12319 151.64716 166.26025 306
98.36745 114.22549 171.57341 316
61.64778 148.65648 165.62294 409
95.11178 110.27132 171.59615 316
51.01251 149.06360 163.65579 403
91.99667 106.19055 171.62025 316
73.27934 121.61034 171.78825 308
88.97361 102.02250 171.67578 316
69.82249 116.85594 171.79152 308
20.95345 154.74478 166.03712 297
86.12196 97.77904 171.69980 316
66.51830 111.97984 171.84747 308
13.53516 150.39412 165.30963 388
83.34852 93.44810 171.69836 316
63.33377 106.99104 171.87595 308
-1.15526 150.77347 162.84309 382
80.73363 89.01148 171.72189 316
60.32479 101.91822 171.91077 308
33.50067 118.93507 172.13890 300
78.26821 84.46349 171.73549 316
57.48503 96.78333 171.94400 308
30.20303 112.88033 172.16261 300
-45.72209 157.65100 165.08153 286
75.94299 79.90653 171.75194 316
54.79992 91.47269 171.93205 308
38.98417 100.19385 174.89394 319
-55.00945 151.77155 164.21637 372
73.76239 75.22750 171.80554 316
60.53595 81.92968 174.14240 385
51.37585 86.58592 178.30159 325
25.44072 99.82508 179.95987 292
71.71632 70.47319 171.79277 316
64.09437 74.04607 175.66972 390
55.40813 78.11439 179.75757 300
21.84269 93.91006 179.86372 315
-25.31884 116.07147 180.39711 284
73.99841 63.84692 173.01970 386
67.53840 66.65524 177.04848 382
53.27458 72.80616 179.76530 300
32.95979 81.59744 182.31412 336
20.45996 87.03507 187.48303 315
-0.38682 95.97907 192.55984 283
76.35989 57.51202 174.21066 420
70.94679 59.68361 178.36514 386
47.48146 68.95168 178.93463 389
39.91790 71.92935 184.00703 373
31.13356 75.40395 189.35510 368
19.02181 80.18676 194.89574 332
1.90888 86.99599 200.88242 311
77.76241 51.82221 175.06351 424
72.69433 53.66668 179.17961 419
51.01695 61.43842 180.08113 393
43.99295 63.97039 185.07233 388
36.36160 66.73717 190.38281 373
27.46166 69.90472 196.00417 368
17.50887 73.47576 202.18129 332
79.18629 46.30287 175.84807 427
72.91977 48.35398 179.58279 308
54.20691 54.43388 181.11011 410
47.69597 56.53978 186.01886 393
40.57811 58.81933 191.22050 388
32.84966 61.37790 196.76004 372
23.76437 64.30563 202.78284 367
80.57157 41.00572 176.57951 432
71.70541 43.55541 179.62489 308
56.50238 47.98993 181.87386 421
50.51982 49.68614 186.75946 409
44.11420 51.59766 191.91837 404
37.17368 53.62012 197.41743 387
29.34423 55.84346 203.23854 382
81.89861 35.86529 177.20882 435
63.72828 40.51943 177.95367 429
58.47951 41.85595 182.56216 424
52.93198 43.29364 187.35602 420
46.79438 44.84617 192.43082 408
40.20599 46.55542 197.83130 403
33.16539 48.34695 203.60406 397
25.19797 50.39114 209.82587 355
83.18268 30.88142 177.82628 458
65.49285 34.84835 178.59828 432
60.36613 35.97816 183.13332 428
55.01019 37.19353 187.89291 423
49.32525 38.45037 192.95090 418
43.09737 39.83887 198.25551 406
36.30309 41.34634 203.91489 401
28.84519 43.00903 210.00073 358
-185.60782 90.82768 216.50012 296
83.43832 26.23789 178.09685 459
67.22964 29.34307 179.20926 455
62.28949 30.29628 183.69440 431
57.04055 31.26709 188.40196 426
51.52240 32.33337 193.38614 421
45.68541 33.46456 198.65019 416
39.27685 34.65342 204.21419 405
32.31686 36.00242 210.14233 399
-182.99522 77.01707 216.51469 424
83.73048 21.67710 178.32988 461
67.55623 24.21145 179.43439 456
62.94834 24.94925 183.97136 452
58.10799 25.73218 188.70032 447
53.08200 26.52777 193.65758 442
47.73813 27.37900 198.90623 437
41.99607 28.27364 204.43236 414
35.46281 29.27111 210.26952 402
84.05676 17.11112 178.49959 462
67.91533 19.14271 179.64374 457
63.33894 19.71221 184.18250 453
58.54632 20.35161 188.89285 448
53.54312 20.96525 193.83946 443
48.27536 21.63939 199.04344 438
42.71347 22.32445 204.52130 433
36.83759 23.06964 210.37921 428
84.41457 12.61046 178.68079 463
68.28537 14.13174 179.84718 459
63.73495 14.56711 184.33928 454
58.99627 15.01031 189.02379 450
54.02462 15.50257 193.95171 445
48.84541 15.97371 199.11092 440
43.32594 16.48294 204.60483 435
37.52664 17.04841 210.39119 429
84.75451 8.16035 178.82347 464
68.71196 9.16697 179.94588 460
64.19227 9.42993 184.44255 455
59.50617 9.72863 189.14560 451
54.61378 10.03887 194.04164 446
49.45559 10.35903 199.20032 441
44.01505 10.71245 204.65392 436
38.24343 11.05215 210.44479 430
-181.35124 24.82083 270.17722 486
-187.51086 25.21780 284.80176 360
85.16920 3.69908 178.93221 465
69.14319 4.18262 180.08981 461
64.70645 4.32397 184.54715 457
60.04581 4.50986 189.21573 452
55.17941 4.64825 194.14337 447
50.07761 4.78844 199.27853 442
44.64565 4.96122 204.71411 437
38.97138 5.12127 210.45718 431
-181.38423 11.96545 270.18115 487
