# .PCD v.7 - Point Cloud Data file format
VERSION .7
FIELDS x y z rgb
SIZE 4 4 4 4
TYPE F F F U
COUNT 1 1 1 1
WIDTH 435
HEIGHT 1
VIEWPOINT 6536.937988 -2485.218262 143.425507 -0.842369 -0.072644 -0.106174 0.523320
POINTS 435
DATA ascii
85.75566 -1.07863 178.65446 467
69.80508 -1.08678 179.84692 462
65.34555 -1.05760 184.34082 457
60.68084 -1.04672 189.07410 453
55.79895 -1.09109 193.99214 448
50.65282 -1.07211 199.17426 443
45.25648 -1.03774 204.63622 438
39.54620 -1.07796 210.40593 432
-136.37775 -1.07790 276.61002 495
82.46507 -5.60374 179.51953 316
68.07602 -6.02953 180.96883 461
63.74482 -6.16340 185.31406 457
59.19537 -6.27473 189.89404 452
54.43678 -6.42957 194.65950 447
49.45962 -6.57058 199.67329 442
44.20195 -6.72043 204.98410 437
38.65197 -6.93213 210.59312 431
-152.84047 -12.44021 241.04385 416
-181.74681 -13.33249 269.54333 487
-151.29852 -12.44887 277.93399 285
82.87943 -9.96992 179.53780 316
67.68480 -10.88298 180.77365 460
63.28460 -11.13547 185.14850 455
58.69497 -11.43545 189.73746 451
53.93113 -11.69536 194.51105 446
48.91471 -12.02769 199.58331 441
43.56398 -12.35313 204.89600 436
37.96492 -12.71988 210.52609 430
-181.63757 -25.97480 269.60275 486
83.42759 -14.28161 179.51395 463
67.38217 -15.74389 180.55276 459
62.92416 -16.16462 184.94424 454
58.30810 -16.59374 189.56754 450
53.40592 -17.06539 194.39604 445
48.31963 -17.53599 199.45271 440
42.97856 -18.03157 204.81715 435
37.28477 -18.55705 210.49159 429
-181.60628 -38.77142 269.72977 486
83.14716 -18.70874 179.25227 462
67.07306 -20.72317 180.31969 457
62.59987 -21.26962 184.74147 453
57.89626 -21.82867 189.35304 448
52.99248 -22.46095 194.20923 444
47.78081 -23.11687 199.32474 438
42.33236 -23.79916 204.69031 433
36.56041 -24.48976 210.43034 428
82.95384 -23.20185 178.97404 461
66.80434 -25.69738 180.06387 456
62.28371 -26.44609 184.47176 452
57.52517 -27.18506 189.14622 447
52.57157 -27.92522 194.02711 442
47.20286 -28.80993 199.14822 420
41.25748 -29.72515 204.59152 415
34.73713 -30.73805 210.32503 402
82.75671 -27.76002 178.64178 459
66.23904 -30.85326 179.64363 435
61.33981 -31.77373 184.06508 431
56.14489 -32.77345 188.71786 426
50.68266 -33.81767 193.60953 422
44.91792 -34.89355 198.81474 417
38.56369 -36.10312 204.29904 405
31.58028 -37.42042 210.16788 364
-182.96060 -77.79185 216.50159 425
82.33710 -32.44505 178.25261 439
64.56924 -36.35496 178.95898 432
59.51580 -37.50622 183.44781 428
54.18504 -38.70251 188.17950 423
48.55080 -39.95045 193.13763 418
42.28328 -41.32905 198.39951 406
35.54594 -42.79187 203.98102 401
28.08279 -44.44387 210.00761 358
-187.84605 -92.24207 216.47839 296
81.08177 -37.44479 177.51842 436
62.90445 -42.07808 178.22699 429
57.65146 -43.39331 182.78474 424
52.14003 -44.81940 187.56490 420
45.99185 -46.37075 192.59329 408
39.44655 -48.06453 197.93692 403
32.39675 -49.84265 203.70155 397
-188.39917 -105.98185 202.63222 484
79.75773 -42.63309 176.77003 431
70.29860 -45.37917 179.65517 308
55.72427 -49.58835 182.01790 414
49.69768 -51.33700 186.87183 409
43.30020 -53.15467 191.96872 404
36.19318 -55.23890 197.40729 387
28.25536 -57.52031 203.28644 372
78.46387 -48.04217 175.94157 427
71.91740 -50.13137 179.63060 308
53.34146 -56.16055 181.15564 398
46.65710 -58.27081 186.02226 393
39.56079 -60.59882 191.17398 388
31.68278 -63.16647 196.74051 372
22.56547 -66.10178 202.72223 367
77.11586 -53.62999 175.09158 424
72.02333 -55.45254 179.19666 419
49.96931 -63.32277 180.00136 393
42.98891 -65.84203 185.01195 389
35.14845 -68.66631 190.29021 373
26.14582 -71.86532 195.91991 368
15.20291 -75.80898 202.06502 332
75.75507 -59.49479 174.13054 420
69.86781 -61.79494 178.17015 387
46.44675 -70.97900 178.76697 389
38.65123 -74.08797 183.79172 373
28.95755 -77.91087 189.05170 337
16.11050 -82.98962 194.57899 316
-1.60307 -89.92447 200.65305 311
72.92223 -66.20272 172.68588 386
66.46016 -68.96607 176.75449 395
53.58487 -74.54067 179.78108 300
30.52854 -84.42978 181.87517 336
17.06965 -90.22535 186.94669 315
72.36160 -72.21888 171.83038 316
63.04165 -76.61121 175.23717 390
56.12187 -79.83788 179.78412 300
16.21736 -98.52760 178.73659 287
-24.45800 -117.54610 180.40674 284
74.79186 -76.96181 171.79181 316
58.11174 -85.39859 173.25011 328
47.94510 -90.59364 177.30080 325
26.53961 -101.41667 180.00412 292
77.39140 -81.62980 171.77498 316
56.27358 -93.18772 171.98923 308
30.67613 -107.17515 172.70586 272
-51.13309 -151.91708 164.69092 372
80.13574 -86.24108 171.77399 316
59.36211 -98.43719 171.95737 308
32.05840 -114.52341 172.15930 300
-43.58014 -159.02565 165.19733 286
83.02732 -90.74651 171.76677 316
62.64027 -103.63049 171.91574 308
35.84830 -120.55149 172.16019 300
86.05061 -95.21146 171.70041 316
66.05511 -108.74104 171.86826 308
3.86640 -150.82216 163.47896 382
89.18596 -99.51156 171.69543 316
69.61779 -113.68327 171.87640 308
18.85342 -150.48276 165.94724 388
92.45312 -103.80662 171.69095 316
73.29341 -118.60638 171.82350 308
24.57597 -156.28589 166.11588 297
-1934.50806 -1670.30994 126.02448 329
95.90557 -107.97375 171.64996 316
49.38985 -146.32538 163.37427 300
-1810.05640 -1679.14099 128.95581 370
99.46108 -112.02785 171.61252 316
57.37507 -149.00883 164.36932 403
-1857.87329 -1831.29810 124.57785 424
103.11452 -116.02731 171.57228 316
68.29857 -148.61259 166.28882 409
-1612.54102 -1721.04688 50.74615 456
-1654.93652 -1761.46228 131.23991 477
106.90063 -119.85255 171.57509 316
73.43474 -153.18135 166.34595 306
-1524.65356 -1745.65051 53.87431 327
90.42445 -145.23520 163.54567 307
-1444.62402 -1774.12219 56.04418 329
96.90921 -147.51881 164.22740 414
-1366.99744 -1802.57214 57.81187 330
-1424.90393 -1867.97961 134.13509 323
105.84905 -146.61075 165.95871 419
-1291.34094 -1830.10791 60.13535 331
111.89032 -148.80278 166.47002 314
-1217.96033 -1857.69788 61.59540 331
118.92088 -149.37369 167.44734 316
-1146.61646 -1885.90881 62.89736 432
-1087.83093 -1930.49121 62.50450 344
2112.84277 -3420.05420 88.92616 341
2255.42480 -3419.81519 86.06597 407
2425.00122 -3481.97852 78.07815 370
2643.24219 -3574.03174 71.06842 379
38298.57031 -46227.86719 -1797.63672 1000
376.51855 -104.10680 167.64090 313
379.48886 -99.28834 167.65935 315
3871.29175 -2323.68604 72.55112 418
382.88943 -94.67799 167.54199 434
3864.90454 -2163.08789 75.83504 431
3888.10352 -2176.56763 214.36336 498
390.09702 -92.17136 166.13655 429
3911.54028 -2036.30750 75.71597 436
3941.60718 -2052.37231 213.42972 499
397.31683 -89.27966 164.78072 317
3970.01074 -1917.44080 76.55437 442
4003.91138 -1935.08850 214.39868 499
4107.21680 -1987.87366 356.91180 253
399.99548 -83.89521 164.78082 317
414.29474 -90.66637 167.75429 305
4030.47534 -1799.63745 76.74213 384
402.45251 -78.38737 164.72652 317
416.76001 -84.63644 167.79913 305
4090.43066 -1681.84973 76.08468 384
380.91443 -63.34858 171.63696 317
421.23056 -79.38504 167.25818 430
4241.32861 -1599.13562 214.01884 299
382.62723 -58.39406 171.61891 317
429.48062 -75.34892 165.80672 424
384.20508 -53.38065 171.63155 317
435.28366 -70.07388 164.87595 308
385.63773 -48.37482 171.63867 317
437.26721 -63.44410 164.87468 308
386.89474 -43.27291 171.68074 317
410.06256 -49.24576 171.90527 309
460.97647 -62.39686 167.95187 297
388.00665 -38.14046 171.69867 317
411.32407 -43.37477 171.87755 309
463.96045 -55.21541 167.71550 452
388.96231 -33.00698 171.69897 317
412.41711 -37.50251 171.93735 309
470.90213 -48.71543 166.59691 448
3287.60718 -590.26318 113.49453 498
389.75333 -27.79906 171.69095 317
413.34247 -31.55383 171.94583 309
478.23575 -41.92684 165.38852 443
390.40897 -22.56071 171.71242 317
414.09012 -25.58080 171.91621 309
480.43631 -34.04337 165.12659 300
390.88309 -17.32749 171.69814 317
414.63116 -19.63362 171.90422 309
445.80072 -22.58192 172.22894 301
391.17960 -12.09574 171.69006 317
415.04425 -13.63151 171.90854 309
446.26358 -15.65261 172.24477 301
391.36169 -6.83171 171.68726 317
415.24417 -7.61141 171.91241 309
446.51437 -8.61908 172.21280 301
272.75348 -1.43151 203.50682 314
415.25034 -1.56487 171.94617 309
446.59839 -1.62821 172.25038 301
2461.98315 -4.05589 142.86034 403
272.62552 0.10961 203.50500 314
415.08664 4.43902 171.90758 309
446.39169 5.40361 172.21742 301
2375.31006 63.83766 145.48729 410
272.46402 1.64649 203.50615 314
414.77713 10.46365 171.93246 309
446.02173 12.41192 172.23167 301
2294.66162 126.53181 148.28586 415
272.24655 3.18524 203.50151 314
414.22504 16.45181 171.91554 309
445.42834 19.37202 172.23332 301
2224.61621 185.67384 150.55739 447
271.97293 4.71026 203.50430 314
413.52377 22.47040 171.91493 309
444.62411 26.33134 172.23714 301
2206.27563 246.71906 85.31142 412
2180.03320 243.71712 151.96141 468
271.65720 6.24142 203.50592 314
412.63739 28.44288 171.87766 309
478.79764 38.83154 165.11732 300
2167.33447 304.59070 87.31355 419
2145.75220 301.02750 152.47253 483
271.30109 7.76168 203.49712 286
411.54648 34.36829 171.89177 309
473.11395 46.07791 165.97429 448
2136.19141 361.45532 88.60362 441
2120.83179 358.65796 153.20540 464
386.90021 35.08079 171.66043 316
410.30734 40.28090 171.87140 309
465.97458 52.68610 167.07596 452
2100.54443 416.35373 153.62917 427
385.64383 40.23927 171.63277 316
408.87097 46.20350 171.87427 309
459.89258 59.25096 167.90651 297
384.20200 45.38973 171.61641 316
407.26501 52.02197 171.82167 309
458.13077 66.74983 167.86249 297
382.61652 50.43794 171.62537 316
433.91663 67.07038 164.86989 308
380.89011 55.46719 171.60005 316
431.57401 73.66951 164.86931 308
379.01447 60.44812 171.58331 316
423.08316 77.87057 166.31355 429
376.95175 65.34890 171.53111 316
415.01544 81.80277 167.69496 434
397.82230 81.08498 164.70651 317
412.11050 87.81036 167.73080 305
394.99884 86.56675 164.71323 317
390.92926 91.34000 165.06123 429
383.38589 93.93437 166.43275 434
376.50638 96.61153 167.61076 315
373.30133 101.46365 167.61873 315
369.93784 106.24637 167.59790 313
441.76303 1763.77966 160.30342 434
441.86295 1763.40186 218.12762 477
441.43655 1763.55042 276.66220 477
441.60538 1764.21265 334.86624 497
-1359.96948 2676.70288 117.16371 471
117.43071 150.82072 167.41382 316
110.65322 150.61293 166.38019 314
106.14159 147.03845 166.37067 314
98.69025 147.09787 165.07257 419
90.44741 147.53012 163.56277 425
86.04942 143.36430 163.49748 307
73.89578 156.36201 166.27654 305
102.94444 117.83816 171.51743 315
69.16830 151.65334 166.26779 305
99.56794 113.95972 171.54137 316
62.69783 148.61665 165.66206 409
96.30207 109.98684 171.60449 316
52.12114 149.00937 163.70801 404
93.18156 105.91863 171.60849 316
74.37858 121.48745 171.79099 308
90.14754 101.72060 171.62152 316
70.91405 116.64585 171.77956 308
21.85595 154.83551 166.04018 297
87.28490 97.43034 171.64386 316
67.60546 111.75169 171.85451 308
14.47900 150.37997 165.33397 389
84.55884 93.08066 171.71455 316
64.46867 106.73672 171.85002 308
-0.20697 150.75902 162.92616 382
81.96485 88.61672 171.70303 316
61.47978 101.65246 171.88405 308
34.51402 118.75578 172.12025 300
79.51649 84.09859 171.75903 316
58.64941 96.44620 171.88589 308
31.22095 112.67445 172.14917 300
-44.94230 157.80247 165.11771 286
77.15279 79.48351 171.74023 316
55.98043 91.18713 171.91553 308
38.72193 100.64078 174.59822 318
-54.21415 151.79747 164.26889 373
75.01607 74.81712 171.77644 316
60.67102 82.11539 173.83260 384
51.31648 86.90722 178.04741 325
26.44906 99.59966 179.95592 292
72.97697 70.06818 171.78001 316
64.26786 74.15369 175.36086 390
56.55717 77.79383 179.71275 300
21.79474 94.20701 179.62036 314
-24.53746 115.96484 180.40977 284
74.33447 63.83461 172.77145 386
67.79991 66.69263 176.77301 381
54.46439 72.45142 179.75993 300
33.03604 81.72615 182.13074 336
20.46134 87.20329 187.30612 315
-0.94435 96.42348 192.41478 283
76.66811 57.45189 173.93503 420
71.26014 59.63824 178.13112 386
47.73409 68.97052 178.70619 388
40.10330 71.97539 183.77409 373
31.29065 75.44942 189.17303 368
19.02035 80.34113 194.75494 331
1.75384 87.19892 200.86732 311
78.11853 51.73434 174.80481 423
72.96975 53.56987 178.95900 419
51.28138 61.38061 179.86873 393
44.20799 63.96708 184.87723 388
36.51696 66.70243 190.20399 373
27.59165 69.94935 195.92685 367
17.53840 73.53290 202.08739 332
79.51687 46.17173 175.56050 427
74.15778 47.90384 179.55991 308
54.51390 54.31886 180.88995 410
47.94819 56.45835 185.81363 393
40.76178 58.80202 191.05489 388
33.01685 61.28500 196.66849 372
23.87691 64.30642 202.66454 367
80.89535 40.84249 176.29596 432
72.99220 43.15325 179.58034 308
56.78510 47.83792 181.65158 421
50.76446 49.62335 186.56311 409
44.29726 51.47310 191.73959 404
37.36804 53.50878 197.25130 387
29.48285 55.80254 203.16267 382
82.25136 35.65942 176.94447 435
71.90130 38.32198 179.61218 308
58.73716 41.69695 182.31395 424
53.17709 43.15841 187.18477 420
47.05259 44.73104 192.27922 408
40.43151 46.44174 197.70198 403
33.32873 48.25079 203.51505 397
25.34866 50.27779 209.79822 355
83.48539 30.68529 177.54773 457
65.86561 34.64226 178.38914 432
60.71860 35.78951 182.95085 428
55.27341 37.01284 187.72966 423
49.57141 38.28524 192.77531 418
43.29764 39.67415 198.15698 406
36.47700 41.17383 203.82588 401
29.05468 42.86592 209.93414 361
-185.92641 90.92997 216.57605 296
83.75113 26.01549 177.77997 459
67.48562 29.14531 178.94945 455
62.57597 30.04774 183.49171 431
57.35726 31.06059 188.20476 426
51.78769 32.13355 193.20714 421
45.90953 33.21527 198.49599 416
39.50245 34.49315 204.12122 404
32.45919 35.82613 210.06866 399
-182.93030 76.98564 216.57359 424
84.04860 21.40092 178.01962 461
67.83172 23.98949 179.21741 456
63.20144 24.69419 183.72658 452
58.35873 25.48646 188.52475 447
53.29353 26.28593 193.49409 442
47.92986 27.11850 198.74774 437
42.16060 28.03152 204.30464 414
35.63459 29.05757 210.21300 402
84.35809 16.85944 178.22899 462
68.19321 18.87307 179.38448 457
63.60054 19.46435 183.92619 453
58.77345 20.06988 188.69241 448
53.74671 20.69777 193.64279 443
48.43451 21.37653 198.86279 438
42.82550 22.08544 204.43420 433
36.94187 22.81361 210.28314 428
84.71257 12.32971 178.38911 463
68.58547 13.82590 179.56885 459
64.01962 14.26452 184.07881 454
59.25648 14.71573 188.78563 450
54.24525 15.18986 193.75534 445
49.00343 15.69733 198.95926 440
43.49831 16.20452 204.46724 435
37.67656 16.74578 210.32230 429
85.07956 7.80262 178.52887 464
68.97032 8.82911 179.69795 460
64.44799 9.15083 184.22758 455
59.76691 9.41576 188.93768 451
54.84139 9.73705 193.88818 446
49.65255 10.07220 199.07533 441
44.16549 10.39443 204.55148 436
38.36826 10.75467 210.35600 430
-186.54144 24.93553 271.05692 399
-186.96863 24.99042 284.97238 360
85.47633 3.34914 178.64574 466
69.44711 3.84305 179.82246 461
64.97478 4.01064 184.30757 456
60.29705 4.15959 189.04022 452
55.41164 4.31588 193.96046 447
50.23946 4.47699 199.14406 442
44.84137 4.61599 204.58920 437
39.09374 4.81288 210.37704 431
-181.42123 11.75130 270.24225 487
