# .PCD v.7 - Point Cloud Data file format
VERSION .7
FIELDS x y z rgb
SIZE 4 4 4 4
TYPE F F F U
COUNT 1 1 1 1
WIDTH 494
HEIGHT 1
VIEWPOINT 6486.777344 -719.731262 147.047104 -0.645988 -0.098872 -0.089434 0.751616
POINTS 494
DATA ascii
70.88836 -0.69694 178.78014 466
66.96951 -0.70459 182.74483 462
62.84931 -0.67888 186.88231 457
58.56279 -0.68799 191.20566 453
54.10139 -0.68061 195.75247 448
49.38358 -0.68593 200.53596 443
44.40160 -0.71015 205.55153 437
39.12696 -0.71880 210.86909 432
-152.13969 -0.90648 240.39854 419
-182.29480 -0.97437 268.50003 487
-157.25711 -0.90463 277.48969 284
-111.72557 -0.82290 280.89075 494
70.54250 -5.11600 178.58067 465
66.57369 -5.26647 182.57741 461
62.41559 -5.37874 186.73477 456
58.12122 -5.54222 191.08141 452
53.59791 -5.67203 195.63695 447
48.82236 -5.82057 200.41304 442
43.82417 -6.00135 205.46967 437
38.47311 -6.14819 210.81866 431
-152.39240 -12.38079 240.48103 416
-182.16811 -13.30999 268.54749 487
-157.30115 -12.55887 277.58881 290
70.22752 -9.62033 178.39995 464
66.20429 -9.88947 182.40852 460
61.99213 -10.14874 186.54448 455
57.66196 -10.41683 190.93634 451
53.08487 -10.71778 195.52341 446
48.27761 -11.01038 200.31581 441
43.19898 -11.33899 205.39105 436
37.84578 -11.70065 210.79597 430
-182.19075 -25.76394 268.65305 486
69.98527 -14.14639 178.14738 463
65.92066 -14.54598 182.17853 458
61.66381 -14.94303 186.34904 454
57.23983 -15.36244 190.76167 449
52.58939 -15.83200 195.35274 445
47.71041 -16.28400 200.21538 440
42.59132 -16.75298 205.32109 435
37.18001 -17.27577 210.74467 429
-182.07730 -38.27633 268.79117 486
76.10503 -17.95314 179.57086 316
65.64377 -19.25268 181.90233 457
61.36619 -19.81705 186.13501 453
56.86911 -20.39637 190.58348 448
52.18629 -20.95965 195.20236 443
47.22279 -21.59647 200.05183 438
42.01296 -22.30058 205.24231 433
36.49173 -22.97451 210.71474 428
76.93762 -22.23433 179.56317 316
65.39941 -24.08368 181.63939 456
61.07238 -24.77598 185.90837 451
56.52653 -25.47518 190.34654 447
51.77491 -26.23097 195.01247 442
46.77477 -27.02865 199.94727 437
41.49182 -27.88597 205.14015 432
35.38578 -28.86962 210.62804 402
77.92397 -26.47978 179.55009 316
65.16843 -28.93608 181.34039 454
60.63103 -29.79958 185.60884 431
55.72647 -30.73952 190.03531 426
50.48074 -31.76847 194.70148 421
45.00114 -32.81056 199.63370 416
38.97718 -33.97641 204.86913 404
32.24691 -35.27655 210.46588 364
-182.91786 -76.47845 216.63681 424
79.04275 -30.76066 179.55403 316
63.75361 -34.17085 180.71661 432
58.89252 -35.24692 184.99008 427
53.79827 -36.41817 189.48245 423
48.43554 -37.59494 194.25232 418
42.53605 -38.95893 199.27089 406
36.09929 -40.37587 204.58279 401
28.87807 -42.00078 210.32614 358
-184.36064 -89.90540 216.58127 296
80.00379 -35.02557 179.47932 434
62.12234 -39.65324 179.97618 428
57.11389 -40.92429 184.33139 424
51.89193 -42.30043 188.88586 419
46.09123 -43.80364 193.70306 407
39.81157 -45.41048 198.80566 402
33.08115 -47.13285 204.31239 397
-188.38559 -104.26788 203.01447 483
78.79638 -40.01321 178.72255 430
60.46701 -45.34409 179.18527 425
55.31010 -46.82966 183.61546 421
49.63859 -48.48127 188.24930 409
43.48867 -50.26208 193.14294 404
36.94066 -52.19291 198.32886 399
29.66719 -54.31349 203.90683 382
77.53824 -45.14400 177.92679 427
58.78049 -51.24742 178.36728 421
53.18474 -53.10137 182.79454 410
47.15155 -55.07602 187.46085 392
40.32711 -57.28037 192.43005 388
33.05114 -59.64149 197.72604 383
24.36598 -62.49363 203.41231 366
76.28032 -50.50150 177.07617 423
66.06947 -54.19083 179.66914 308
50.30493 -59.88589 181.77405 393
43.59981 -62.31267 186.50050 388
36.39256 -64.91578 191.55544 372
27.86190 -67.99152 196.97722 367
18.48911 -71.34595 202.87225 362
74.98188 -56.11911 176.14821 420
68.04776 -58.84245 179.65512 308
46.92835 -67.26292 180.55280 388
39.73453 -70.06745 185.38927 372
31.31609 -73.41508 190.49884 367
20.69848 -77.64656 195.95898 331
4.86766 -83.91825 201.71545 310
73.10519 -62.17242 175.03297 386
67.21899 -64.74375 178.87485 395
43.20138 -75.15553 179.25198 373
33.84206 -79.19249 183.88277 335
22.02919 -84.33658 188.83337 330
5.51661 -91.53550 194.03340 310
70.00352 -69.13167 173.41179 381
63.92441 -71.99554 177.46284 389
48.59860 -79.23134 179.84497 300
23.54250 -91.08418 181.47203 314
-2.37115 -103.29816 184.85371 264
67.37503 -76.29014 171.87732 316
60.45277 -79.84109 175.85291 384
51.33171 -84.48061 179.78339 300
-3.64237 -112.56316 175.88171 293
70.05158 -80.97736 171.85362 316
52.13072 -90.80455 172.86896 321
41.10620 -96.89243 176.82445 318
20.57774 -108.18308 179.69879 270
72.83718 -85.54329 171.83858 316
52.03093 -97.86499 172.03276 308
24.69542 -114.07533 172.23318 300
-51.89500 -159.43826 165.09973 288
75.78345 -90.05477 171.83116 316
55.35941 -103.02168 171.99600 308
28.54136 -120.09451 172.19507 300
78.86798 -94.51771 171.77867 316
58.83008 -108.13338 171.95956 308
-4.16676 -151.02580 163.40901 383
82.05126 -98.84040 171.77164 316
62.48263 -113.10642 171.92888 308
10.89582 -150.65218 165.80345 389
85.40945 -103.11246 171.72960 316
66.24187 -118.01100 171.89803 308
16.96040 -156.32162 166.01894 295
88.86723 -107.26372 171.68430 316
70.16521 -122.73820 171.85919 308
92.48804 -111.34773 171.67500 316
49.48266 -149.32521 164.11978 404
96.24430 -115.27721 171.62668 316
60.44571 -148.88060 166.06747 409
100.05521 -119.13449 171.61682 316
66.35371 -152.92395 166.32100 305
83.50426 -144.77066 163.55402 307
89.37833 -147.81017 163.95340 425
97.98274 -147.43184 165.50861 420
105.15153 -148.25142 166.47864 314
-1903.78369 -2741.09009 104.11659 300
-2037.05005 -2912.94702 217.15941 442
110.13412 -151.77786 166.47940 314
-1733.41638 -2692.40771 108.01305 303
-1581.18835 -2654.54126 111.74583 376
126.81200 -148.21684 169.67978 441
-1455.56812 -2644.14160 114.17442 354
-1446.18201 -2822.92896 110.09764 420
821.23303 -1090.43372 93.85853 259
1976.49353 -2116.57153 125.88044 473
2038.60535 -2056.58008 126.01660 489
2106.24561 -2002.40076 126.02458 491
2183.46606 -1956.89246 125.62276 483
2278.64600 -1926.83813 123.93854 464
2377.83105 -1895.47375 122.08566 400
2482.90039 -1865.65527 119.71804 455
2611.95947 -1849.83826 117.01142 441
371.97372 -107.36508 167.63930 313
375.45404 -102.60782 167.64560 315
378.77252 -97.80388 167.65311 315
384.24686 -94.22143 167.01930 434
391.76248 -91.62150 165.64709 429
397.76501 -87.81069 164.78596 317
400.73691 -82.39668 164.74829 317
415.08868 -89.13425 167.78070 305
403.53473 -76.86671 164.73767 317
417.85556 -83.06878 167.80750 305
382.29456 -61.86129 171.61099 316
423.62830 -78.18742 167.05441 429
384.34650 -56.91481 171.63704 316
432.09790 -74.06583 165.63884 424
1926.55811 -610.80023 97.62100 437
386.27988 -51.96319 171.65050 317
437.44641 -68.55698 164.93321 308
388.02628 -46.89615 171.66794 317
439.76224 -61.89595 164.91077 307
389.65509 -41.86303 171.69330 317
412.77527 -47.76318 171.92252 309
463.90906 -60.89737 167.95993 297
391.06940 -36.73169 171.68568 317
414.43967 -41.90814 171.95323 309
465.91025 -53.41982 167.93678 452
392.39874 -31.57345 171.69931 317
415.84567 -36.06511 171.93939 309
472.85294 -46.88161 166.95416 447
393.53738 -26.42628 171.73451 317
417.12653 -30.16038 171.96249 309
480.14468 -40.08963 165.80939 443
394.48801 -21.25311 171.71233 317
418.20825 -24.21463 171.96609 309
484.53912 -32.57167 165.15158 301
2896.51855 -335.66879 127.66535 443
395.33777 -16.01348 171.76254 317
419.12097 -18.25697 171.97758 309
450.24008 -21.19191 172.25311 301
2842.75439 -246.17091 130.08597 459
395.99899 -10.81563 171.73854 317
419.82129 -12.31119 171.98537 309
451.06107 -14.21778 172.26666 301
2804.15771 -160.94737 131.25240 422
396.50079 -5.55741 171.77122 317
420.35535 -6.30914 171.97351 309
450.60483 -7.21406 172.48502 495
2777.31152 -79.33759 132.51984 407
396.85217 -0.34382 171.77539 317
420.73074 -0.29610 172.00127 309
450.67377 -0.32565 172.55313 495
2757.37012 0.73311 133.45935 357
2782.38184 0.77881 215.63870 493
397.08115 4.92300 171.74324 317
420.89871 5.65723 171.99193 309
450.63928 6.64182 172.59335 495
2739.82544 79.83518 133.77948 359
2758.28662 80.00154 216.26558 495
397.09824 10.13486 171.76923 317
420.90250 11.66411 171.96758 309
452.18820 13.60352 172.29999 301
2742.59741 158.82103 133.84056 257
2745.98022 158.94650 215.79729 496
396.97885 15.35975 171.73322 317
420.73022 17.58959 171.99182 309
451.92401 20.58646 172.29218 301
2725.88574 236.71312 134.19730 497
2727.75952 237.02643 216.32222 497
2742.88184 238.41660 298.53885 282
396.67917 20.57497 171.74396 317
420.39413 23.59919 171.96216 309
486.77719 31.96084 165.23143 458
2956.72974 345.57837 125.92789 498
2793.74316 324.35516 300.64908 499
396.25436 25.76258 171.74666 317
419.84268 29.51179 171.98625 309
480.49182 39.16273 166.30688 443
2660.57544 385.32303 54.58503 304
395.68005 30.93239 171.71086 317
419.12894 35.44250 171.95844 309
473.39627 45.79338 167.49042 448
2641.17480 460.36200 55.31277 380
2666.48999 465.46771 135.08498 393
394.88531 36.08128 171.73552 317
418.23465 41.30209 171.96262 309
469.73105 52.81527 168.01129 297
2622.97827 535.11847 55.81322 386
2909.72144 599.56146 125.91262 396
393.97754 41.15921 171.71114 316
446.32913 54.66283 164.94112 307
468.56500 60.37772 167.94734 297
2686.83496 630.78925 132.96759 488
392.93753 46.25347 171.68451 316
444.81860 61.34432 164.91833 307
2850.53198 760.84326 216.33481 369
391.72391 51.29153 171.69016 316
442.78046 67.85716 164.95824 433
390.32999 56.25620 171.68492 316
434.65640 72.21369 166.49040 424
388.81955 61.18326 171.63898 316
427.29263 76.44796 167.79628 305
410.70355 76.27069 164.75761 316
425.30164 82.60471 167.77876 305
408.45831 81.76957 164.79480 316
404.73019 86.54432 165.18050 424
397.23306 89.14272 166.67630 429
391.44199 92.28938 167.68776 315
388.82504 97.26192 167.64928 313
1356.44629 926.59039 73.37271 471
1363.73840 932.97498 120.44693 323
1513.80286 2176.25879 464.92230 0
473.73947 958.91565 86.16595 458
440.24344 952.80457 87.83445 463
438.83218 946.42273 120.93919 473
407.84451 946.33490 89.66793 460
406.75458 941.32703 121.88615 485
376.22745 941.03479 91.03936 463
375.36258 936.44525 122.92770 488
382.95129 983.03992 151.25990 297
345.19412 935.79852 92.20480 464
344.83356 931.67737 124.03105 490
366.74689 1108.02441 143.07666 489
314.79041 930.34460 93.45171 466
314.57095 927.15192 124.64075 492
338.33908 1179.58569 138.87068 328
285.03320 925.22418 94.27531 468
284.82632 922.52069 125.24270 494
300.59866 1175.90125 139.35213 493
255.45097 920.37683 95.12835 469
255.58652 918.11127 125.95199 495
263.18854 1170.27637 139.68513 494
226.50546 915.49854 95.89986 471
226.50804 913.74060 126.42478 497
226.16187 1164.72339 140.02098 495
197.83678 910.89624 96.42379 449
197.74223 909.23840 126.93394 498
189.78848 1159.20898 140.47672 496
169.05351 907.34192 96.61042 450
169.33846 904.82623 127.01721 498
153.54419 1153.91174 140.77386 498
140.64723 902.81091 97.11643 448
140.98799 900.49915 127.31721 499
132.70218 988.72986 151.36383 266
112.53177 898.28070 97.18672 448
112.72531 895.90381 127.39709 499
112.09803 901.98627 156.81181 499
84.21571 893.77496 97.29620 435
84.56513 891.75415 127.61421 499
83.62100 897.83862 156.86786 499
55.64915 890.87781 97.13568 435
56.36958 888.06909 127.40169 498
55.25921 893.92401 156.95616 499
8.23052 1139.61853 178.42148 496
26.67648 889.91052 96.37122 432
27.08237 887.41241 126.96735 490
25.62851 894.04883 156.31802 491
-24.42722 1117.56030 179.17493 418
-3.73704 892.35516 95.13342 420
-3.14448 889.67767 125.93013 483
-8.03734 909.33618 154.92928 409
-35.42316 897.19263 93.50706 415
-34.45307 893.68164 124.85001 476
-93.55142 1096.56970 141.59058 270
-68.94141 904.40759 91.11797 407
-67.09010 899.05280 123.28281 470
-104.12269 914.07208 88.46828 401
-101.46581 906.36627 121.48770 447
-142.90714 928.66425 84.97002 382
-138.39055 917.24176 119.38779 437
-184.62582 945.65015 80.84070 392
-177.31731 928.99115 116.69001 432
-219.11360 942.70386 114.00375 410
-263.09604 956.38379 110.86642 377
121.52350 151.00224 167.39099 316
116.40448 148.07901 167.23618 440
109.65480 147.15276 166.37428 314
102.25867 146.71004 165.27567 419
93.54720 147.40210 163.62308 424
88.53729 143.52231 163.52553 307
76.47552 156.41226 166.28221 305
105.03077 118.09953 171.50917 316
71.38773 151.70940 166.29341 305
101.32398 114.24066 171.56706 316
64.79536 148.54292 165.70395 409
97.76231 110.24023 171.55591 316
53.81702 148.94029 163.74632 403
94.25639 106.18467 171.61304 316
75.51238 121.69151 171.73952 308
90.92015 101.98632 171.63379 316
71.72006 116.87795 171.78642 308
22.67136 154.89531 166.04631 297
87.70480 97.70475 171.64397 316
68.04077 111.98791 171.82669 308
15.20920 150.37759 165.43750 389
84.63516 93.34443 171.71461 316
64.58845 107.00677 171.86967 308
0.15139 150.76659 162.90955 382
81.70697 88.91962 171.70595 316
61.23304 101.91786 171.88721 308
34.30145 118.97408 172.08218 300
78.88523 84.39146 171.74762 316
58.04543 96.67354 171.90456 308
30.64513 112.90878 172.15421 300
-45.39235 157.83789 165.06569 286
76.22134 79.76595 171.76900 316
55.07208 91.44849 171.92462 308
38.87428 100.31200 174.81068 319
-54.85475 151.83011 164.27863 373
73.71140 75.11596 171.78413 316
60.62165 81.78298 174.15573 385
51.52545 86.41143 178.34995 325
25.27552 99.79483 179.98279 292
71.33271 70.35171 171.81148 316
64.20156 73.69447 175.75435 390
54.99029 78.05798 179.72778 300
22.20605 93.49192 180.02267 314
-25.93481 116.14661 180.37357 284
74.03961 63.43370 173.28046 386
67.59818 66.18258 177.26465 381
43.64785 76.58809 177.81369 373
33.33389 81.06259 182.54010 336
21.07757 86.34565 187.68048 315
1.13291 94.95853 192.81798 283
76.27954 57.02983 174.48862 420
71.02383 59.12159 178.66072 386
47.55528 68.42085 179.17593 389
40.07994 71.33798 184.18385 373
31.39896 74.80056 189.54187 368
19.66087 79.45234 195.06660 332
2.90884 86.08292 201.09010 311
77.63542 51.26191 175.43585 424
72.56882 53.05935 179.48988 419
51.05697 60.81058 180.41284 393
44.14840 63.31011 185.33359 388
36.62629 66.01302 190.56427 373
27.74391 69.20181 196.17245 368
18.13437 72.65505 202.32475 362
78.95456 45.71656 176.28116 427
71.23933 48.22643 179.61336 308
54.17043 53.76815 181.45175 410
47.81467 55.83253 186.32114 393
40.77094 58.13013 191.47432 388
33.18727 60.55449 196.99406 383
24.19237 63.49216 202.88962 367
80.28268 40.36885 177.08534 432
69.67417 43.45576 179.63918 308
56.38873 47.32331 182.28468 421
50.50150 49.04505 187.08646 409
44.13463 50.87701 192.20193 404
37.33321 52.84214 197.60574 399
29.72313 55.04442 203.43208 382
81.56097 35.24430 177.78900 435
63.49821 39.88961 178.45818 429
58.28560 41.20600 183.01799 424
52.81539 42.58773 187.77698 420
46.84672 44.16008 192.77028 408
40.34672 45.81170 198.06924 403
33.37985 47.61396 203.77887 397
25.31885 49.64629 209.89667 269
82.66112 30.29554 178.40970 457
65.17930 34.21122 179.21478 432
60.14739 35.30964 183.67561 428
54.84245 36.52843 188.33568 423
49.23003 37.77014 193.30350 418
43.16779 39.15621 198.54454 406
36.49646 40.61682 204.10503 401
29.13087 42.27341 210.07251 358
-184.00993 89.91509 216.57524 296
82.82346 25.67616 178.77582 459
66.67290 28.78469 179.81485 455
61.99581 29.66466 184.26324 431
56.85382 30.63905 188.89276 426
51.39315 31.67010 193.73524 421
45.66391 32.78690 198.88924 416
39.44012 33.96591 204.39830 405
32.57671 35.27134 210.24307 399
-183.03998 76.41465 216.51985 424
83.05373 21.17422 179.08138 461
66.92406 23.70400 180.10342 456
62.40356 24.40460 184.53978 452
57.67268 25.16924 189.17883 447
52.73298 25.96978 194.09230 442
47.51490 26.78952 199.20622 437
42.00712 27.63664 204.61118 432
35.67277 28.65812 210.36592 402
83.28119 16.66134 179.31836 462
67.20466 18.69207 180.36719 457
62.76030 19.26409 184.79289 453
58.07980 19.87287 189.41689 448
53.14460 20.49121 194.23773 443
48.00957 21.14182 199.36511 438
42.56703 21.80549 204.71208 433
36.79986 22.53571 210.45723 428
83.34338 12.29615 179.51419 316
67.54606 13.76418 180.60733 459
63.09618 14.20246 185.00951 454
58.46322 14.64652 189.60219 450
53.58755 15.10524 194.40833 445
48.55725 15.55838 199.45500 440
43.18353 16.08467 204.83307 435
37.51055 16.62984 210.49440 429
82.88807 7.94777 179.53401 316
67.87460 8.87728 180.82545 460
63.46484 9.17332 185.19115 456
58.93315 9.46529 189.76440 451
54.15327 9.74930 194.54616 446
49.10589 10.07242 199.60847 441
43.78109 10.41706 204.88448 436
38.21108 10.74242 210.52969 430
-181.63672 24.53461 269.55582 486
-186.96925 24.89851 283.92047 360
70.41376 3.63492 178.88216 465
66.47125 3.77603 182.83952 461
62.35612 3.89712 186.96564 457
58.07914 4.03990 191.28781 452
53.56793 4.13852 195.82690 447
48.87687 4.27877 200.54663 442
43.87210 4.45482 205.55803 437
38.60954 4.62906 210.88576 431
-182.33931 11.28016 268.37927 487
