# .PCD v.7 - Point Cloud Data file format
VERSION .7
FIELDS x y z rgb
SIZE 4 4 4 4
TYPE F F F U
COUNT 1 1 1 1
WIDTH 488
HEIGHT 1
VIEWPOINT 6432.131836 -1135.163330 146.852844 -0.671519 -0.091030 -0.098457 0.728754
POINTS 488
DATA ascii
71.71160 -0.71315 177.93036 466
67.69564 -0.71929 182.01309 462
63.48686 -0.72917 186.24165 457
59.13075 -0.75627 190.68675 453
54.53540 -0.74800 195.32268 448
49.69970 -0.78511 200.18048 443
44.58959 -0.78464 205.34439 437
39.20173 -0.81072 210.76987 432
-152.15681 -1.21222 240.69250 419
-182.00824 -1.27136 269.01065 487
-152.01643 -1.23845 277.29572 284
78.19080 -5.04498 179.54912 316
67.30986 -5.41572 181.82605 461
63.06285 -5.54912 186.09866 456
58.63807 -5.68981 190.52716 452
53.97881 -5.88186 195.17508 447
49.10634 -6.04731 200.10777 442
44.00024 -6.21769 205.28528 437
38.55150 -6.38360 210.73076 431
-152.84348 -12.85292 240.84114 416
-181.93163 -13.78062 269.09601 487
-155.77982 -12.88706 278.02444 284
78.69632 -9.37171 179.55217 316
66.96364 -10.13796 181.62408 460
62.62781 -10.39614 185.89133 455
58.17559 -10.69207 190.34639 451
53.49860 -11.00014 195.06432 446
48.58514 -11.30578 200.00220 441
43.37983 -11.64624 205.19688 436
37.85601 -12.05277 210.70433 430
-181.88345 -26.34165 269.19806 486
79.30069 -13.66986 179.56288 316
66.66862 -14.92020 181.37241 458
62.28835 -15.34118 185.67871 454
57.77507 -15.76096 190.16278 449
53.00970 -16.21473 194.89787 445
48.01497 -16.70993 199.86800 440
42.76532 -17.21704 205.09262 435
37.18425 -17.73750 210.63086 429
-181.80527 -38.96277 269.32339 486
80.09742 -17.97272 179.53992 316
66.36147 -19.73856 181.12427 457
61.99911 -20.32628 185.45720 453
57.38953 -20.91665 189.95526 448
52.56296 -21.50492 194.71696 443
47.52497 -22.18754 199.69257 438
42.18337 -22.85575 205.00702 433
36.54444 -23.58822 210.59013 428
80.98039 -22.26192 179.54877 316
66.11727 -24.63415 180.84442 456
61.70417 -25.34521 185.17087 451
57.06315 -26.11552 189.73555 447
52.18142 -26.86732 194.53070 442
47.06961 -27.69713 199.55594 437
41.44844 -28.60772 204.86238 414
35.14346 -29.62052 210.49916 402
82.02037 -26.53657 179.54970 316
65.92397 -29.65088 180.52448 454
61.10134 -30.57389 184.85153 431
56.02199 -31.54050 189.36810 426
50.70651 -32.56280 194.14877 421
45.03478 -33.66437 199.22485 416
38.82419 -34.86326 204.59221 404
31.95817 -36.19087 210.37383 364
-182.98592 -77.58453 216.50999 424
81.85976 -31.07693 179.17383 457
64.27513 -35.03200 179.82726 432
59.31898 -36.16929 184.22263 427
54.07340 -37.34223 188.81972 423
48.59583 -38.57303 193.68901 418
42.49668 -39.95660 198.82278 406
35.89337 -41.46027 204.28809 401
28.51882 -43.10328 210.20047 358
-187.25255 -91.72147 216.60350 296
80.66848 -35.97602 178.46016 434
62.62329 -40.63682 179.06056 428
57.53186 -41.95713 183.50078 424
52.09787 -43.34718 188.19116 419
46.15199 -44.91883 193.15454 407
39.70897 -46.56472 198.35504 402
32.84558 -48.33710 203.96556 397
-188.41866 -105.52983 202.83751 484
79.41525 -41.05235 177.70721 430
60.94786 -46.44470 178.24257 425
55.64484 -47.99915 182.78615 420
49.77652 -49.74445 187.53642 409
43.50345 -51.55839 192.54878 404
36.78206 -53.53181 197.86916 387
29.10933 -55.77652 203.61836 382
78.15530 -46.33530 176.89305 427
68.43715 -49.51999 179.63509 308
53.44433 -54.40262 181.93654 410
47.07096 -56.49331 186.69373 392
40.04713 -58.80534 191.80106 388
32.50328 -61.27578 197.22986 372
23.53684 -64.18732 203.06889 366
76.86292 -51.85498 176.00926 423
70.30980 -54.22962 179.65776 308
50.29211 -61.45056 180.83546 393
43.41239 -63.94104 185.70963 388
35.88609 -66.64780 190.88708 372
27.09239 -69.85874 196.41576 367
17.43329 -73.36830 202.49156 332
75.54321 -57.59092 175.06462 420
70.22547 -59.69213 179.10144 386
46.86518 -68.98344 179.62019 388
39.34428 -71.99591 184.56102 372
30.68550 -75.43656 189.79176 367
18.72097 -80.18890 195.23741 331
1.57047 -86.98679 201.16248 310
73.28478 -63.98298 173.75488 386
67.02761 -66.68202 177.74034 395
42.89377 -77.17307 178.20471 373
32.36195 -81.75441 182.81421 335
19.84460 -87.18465 187.85707 315
-1.34461 -96.37952 192.78181 283
70.09497 -71.12428 172.13203 381
63.65853 -74.18787 176.24094 389
52.94816 -79.23756 179.78326 300
20.97026 -94.34750 180.17256 314
-27.64786 -117.31192 180.50786 284
71.73353 -76.28170 171.81879 316
60.08668 -82.24858 174.59796 384
50.75899 -87.02439 178.66103 325
23.51032 -100.92403 180.05295 292
74.43211 -80.91255 171.83853 316
53.31844 -92.54958 171.99916 308
38.05964 -101.00559 175.07938 318
-54.20103 -151.89809 164.75214 373
77.25563 -85.49831 171.78232 316
56.49974 -97.79736 171.95505 308
29.24395 -114.01902 172.23175 300
-46.79831 -159.06149 165.16890 286
80.20214 -90.00556 171.78854 316
59.82331 -102.95995 171.96777 308
33.06024 -120.00066 172.18990 300
83.32171 -94.39681 171.74767 316
63.33815 -108.02068 171.92680 308
0.45397 -150.86006 163.35323 383
86.56314 -98.72163 171.69554 316
66.97276 -112.99387 171.91397 308
15.46629 -150.49022 165.74126 389
89.90759 -102.95901 171.67784 316
70.80524 -117.84359 171.83598 308
21.97213 -155.82213 166.07164 297
93.43021 -107.11650 171.64861 316
46.89816 -145.66501 163.38042 300
97.04585 -111.16847 171.62646 316
54.07912 -149.12521 164.08932 404
100.77546 -115.11164 171.60786 316
65.08244 -148.71591 165.98659 410
104.64153 -118.98173 171.55562 316
71.17674 -152.53351 166.31975 306
88.33975 -144.39230 163.54297 307
76.33746 -157.18350 166.33542 305
94.00313 -147.64603 163.91173 425
102.85026 -146.90848 165.54193 420
-1985.77466 -2677.37573 216.37184 341
109.91939 -147.87569 166.43950 314
-1964.24329 -2827.61865 216.19304 456
117.03224 -148.40057 167.43803 316
-1718.80005 -2679.48950 215.85828 429
124.08803 -148.70763 168.41418 489
-1563.54187 -2636.23633 216.67641 413
-1619.99915 -2719.32275 323.94424 418
-1539.14795 -2785.78833 216.18677 439
-1472.93457 -2679.79419 320.14264 413
1171.70947 -1137.17773 118.70921 488
1175.12366 -1141.30164 166.99709 489
2317.62500 -2217.62622 115.56821 441
2400.59155 -2164.32275 114.81295 432
2441.77026 -2205.99927 215.00000 379
2500.08691 -2125.90649 113.36696 414
2618.06543 -2099.25220 111.12505 421
2741.96973 -2071.95728 108.27534 417
2875.31055 -2045.02075 106.07430 425
380.10941 -101.77654 167.64845 313
383.45895 -96.98593 167.68546 315
388.02841 -92.88879 167.29173 433
395.55533 -90.31379 165.91800 428
402.38129 -86.96571 164.78275 317
405.31259 -81.56403 164.80559 317
419.75061 -88.31422 167.76886 305
408.10577 -76.09489 164.79916 316
422.54343 -82.26795 167.84262 305
386.85150 -61.09121 171.66754 316
426.60138 -76.73713 167.49281 429
388.89297 -56.13142 171.67894 316
435.01392 -72.69083 166.03500 424
390.82312 -51.17701 171.71991 316
442.04385 -67.75090 164.95398 307
392.58069 -46.12656 171.73080 317
444.35403 -61.11222 164.94957 307
394.17737 -41.07803 171.74675 317
446.44244 -54.42144 164.93573 307
468.56876 -60.10970 167.92296 297
395.60980 -36.01441 171.75078 317
418.88953 -41.17006 171.98911 309
470.28177 -52.60500 168.03952 297
396.90524 -30.86687 171.77986 317
420.30914 -35.30854 172.01646 309
474.35760 -45.55710 167.56464 447
398.04440 -25.69408 171.76921 317
421.56339 -29.43240 172.02194 309
481.52252 -38.85688 166.44374 443
3241.06641 -473.37445 116.28003 452
399.04239 -20.55121 171.79024 317
422.65192 -23.52239 172.01373 309
487.53882 -31.66508 165.49515 458
3202.38574 -372.17767 118.08746 471
399.86575 -15.33966 171.77205 317
423.55475 -17.57401 172.01372 309
454.67072 -20.48590 172.34178 301
3168.15918 -274.63040 119.63779 462
3317.00171 -288.59341 216.39162 274
400.49768 -10.10391 171.81168 317
424.26700 -11.58818 172.03429 309
455.46143 -13.52646 172.30312 301
3149.16431 -180.67139 120.22280 436
3191.95898 -183.78970 216.23950 497
401.00623 -4.89945 171.81636 317
424.80252 -5.61308 172.04416 309
451.22867 -6.47397 173.29799 295
3137.12256 -88.55621 121.17593 439
3174.55493 -89.64790 215.76726 496
401.38354 0.31812 171.80850 317
425.16714 0.32498 172.02092 309
451.63599 0.32172 173.27538 295
3126.97412 2.12805 121.92443 414
3167.44556 2.47183 216.39922 497
401.56870 5.55787 171.79074 317
425.37418 6.28565 172.03658 309
451.87967 7.12961 173.26273 295
3117.10376 92.81785 122.09031 415
3239.00342 96.55500 314.60410 494
401.59055 10.73256 171.77812 317
425.35889 12.28920 172.03275 309
456.53027 14.25092 172.32962 301
401.48056 15.97727 171.80336 317
425.16458 18.23212 172.01582 309
491.63806 24.51770 165.28836 301
3098.94214 272.82013 122.13712 392
401.18594 21.14756 171.80037 317
424.84555 24.16062 171.99158 309
486.75055 32.00642 166.14812 458
3094.37964 362.93652 122.27865 304
400.74829 26.31565 171.78252 317
424.30893 30.04881 172.01747 309
480.60623 38.99477 167.19450 443
3138.89233 461.69495 120.20956 494
400.13153 31.46313 171.76367 316
423.56033 35.94706 171.99496 309
475.34274 45.82508 168.01212 297
399.40945 36.60522 171.77885 316
422.67804 41.79825 172.00075 309
474.38089 53.37769 167.95152 297
398.49991 41.68693 171.76289 316
450.88623 55.13737 164.92673 307
397.42865 46.71525 171.73892 316
449.32462 61.82172 164.92607 307
396.19238 51.73075 171.73062 316
443.84525 67.21181 165.82979 433
394.84644 56.69077 171.70193 316
436.08572 71.55734 167.32034 424
417.35724 71.10307 164.78305 316
431.95993 76.88681 167.79384 305
415.29248 76.67254 164.80872 316
429.95261 83.00594 167.75288 305
413.02304 82.16618 164.83084 316
407.00974 85.75047 165.87781 443
1858.19434 825.52606 97.33299 278
393.01089 90.58154 166.58875 429
386.56277 93.61239 167.68596 315
383.51105 98.51784 167.63298 313
380.36276 103.33206 167.61952 313
979.12555 911.87866 61.27255 423
931.60968 911.36060 65.28693 425
925.94562 904.01215 104.40139 442
884.85522 908.46826 69.15633 429
880.66211 902.30975 107.10193 447
840.79236 905.80212 72.78033 432
837.35785 900.99872 109.57471 451
798.08856 903.21527 76.18493 437
796.08221 899.61761 111.91415 456
757.51178 900.58014 79.37606 441
756.35126 898.28613 114.11967 460
718.76532 897.89331 81.98871 445
718.12000 897.00177 116.01862 464
690.02350 912.77032 47.87797 427
681.91583 896.73267 84.47186 434
681.61987 895.72626 117.97202 468
654.82727 912.90472 50.25868 430
646.25946 895.30371 86.64941 431
646.03235 894.30377 119.48559 472
619.92401 912.41986 52.78675 428
611.46710 892.63397 88.85486 435
611.57050 893.22198 121.14029 475
585.76306 911.12225 55.07490 431
577.63019 890.10907 90.81049 438
578.28113 891.98016 122.33707 478
581.51801 900.04785 153.39166 480
552.88586 910.71857 57.13448 420
544.89819 888.79913 92.47351 433
545.89526 891.32922 123.61479 486
548.80585 899.20624 154.07504 483
520.83203 910.87097 58.68697 417
514.27252 890.29803 93.60205 444
515.43359 894.11816 124.26206 496
517.79315 901.70276 154.77733 496
490.67923 915.51324 59.38202 425
484.70105 894.14954 94.17435 442
486.39691 900.07227 124.48228 497
491.15878 916.69531 154.17535 466
461.59070 921.93445 59.66193 431
455.89252 899.87726 94.38451 414
457.67416 907.45642 124.54445 496
478.83167 989.72003 149.96275 316
432.67584 930.45245 59.55046 424
427.44244 907.33270 94.35358 400
429.20251 915.19263 124.36910 495
473.19070 1112.79541 141.96620 310
403.85938 939.67169 58.92835 425
399.49673 916.64435 94.04266 407
400.99850 925.01782 123.95193 492
375.11520 950.67926 57.87534 425
371.46710 927.66400 93.25587 438
373.00134 937.24768 123.35207 476
346.10040 963.87585 56.28772 437
343.21707 940.81335 91.96681 435
344.63025 951.45428 122.20691 454
314.71063 954.99530 90.57341 433
315.51193 966.38818 121.26122 437
285.18869 969.73676 88.74753 430
285.98904 982.81140 119.83363 444
255.09212 986.79187 86.85020 439
255.46695 1001.82178 118.03522 425
223.93858 1005.37726 84.46480 432
-874.78729 2532.03320 126.79047 441
-875.03766 2531.81006 217.01134 499
120.72281 149.25275 168.01353 489
112.43290 150.83066 166.38303 314
107.55833 147.24963 166.36630 314
100.05861 146.96744 165.20387 419
91.36929 147.51674 163.59979 424
86.42812 143.59552 163.53424 307
74.28535 156.48962 166.27342 305
102.94940 118.11951 171.52109 316
69.23059 151.80884 166.29193 305
99.24544 114.22588 171.57736 316
62.61488 148.61266 165.69844 409
95.66534 110.21680 171.57207 316
51.62145 149.04263 163.74522 403
92.16663 106.14410 171.62718 316
73.42377 121.65302 171.76929 308
88.83366 101.93717 171.66997 316
69.62448 116.82476 171.79027 308
20.52621 154.89659 166.06200 295
85.59365 97.68835 171.65965 316
65.95763 111.94429 171.85500 308
12.94284 150.43553 165.38173 389
82.53342 93.28998 171.72632 316
62.50353 106.95351 171.87169 308
-2.07712 150.78146 162.92303 382
79.61209 88.84722 171.71672 316
59.16346 101.82347 171.88571 308
32.23469 118.86253 172.12155 300
66.68812 84.22433 171.86302 316
46.40395 96.14487 172.17639 316
31.15391 105.08850 175.23048 266
-59.24229 158.23781 165.04070 288
64.45441 79.61238 171.87320 316
57.67334 83.27937 175.87852 322
47.51086 88.83825 179.55888 319
16.43384 105.79716 180.05482 292
67.63337 72.26855 173.46849 377
61.72880 75.23452 177.51715 385
46.12705 83.13655 179.78493 300
8.95837 101.99433 179.21880 280
70.78184 65.34908 174.97594 382
65.04463 68.00695 178.90175 390
38.95760 80.22991 178.72072 335
27.61314 85.48737 183.10133 330
12.90008 92.36076 187.78751 310
73.63773 58.95241 176.29056 416
66.23750 62.09037 179.66721 308
44.30893 71.51483 180.35358 384
36.45288 74.91384 185.07877 368
25.94065 79.43249 189.96501 331
11.74862 85.51978 195.18953 311
-24.08610 100.85828 199.83620 262
74.97815 53.43894 177.10411 420
64.70181 57.45539 179.64545 308
47.76835 64.11742 181.46185 389
40.88882 66.85036 186.24118 384
32.90780 69.97153 191.24582 368
24.04520 73.44477 196.74159 363
10.82320 78.64612 202.47484 311
76.30783 48.16050 177.84897 424
57.10059 55.01451 178.14525 411
51.06441 57.17305 182.52975 393
44.54876 59.51180 187.19339 389
37.53790 61.98449 192.13667 384
29.42073 64.88276 197.51036 368
20.35224 68.11422 203.24854 363
77.65897 43.05596 178.55569 427
59.04152 49.03778 178.95634 422
53.64017 50.80418 183.35779 410
47.72965 52.66405 187.98531 405
41.32461 54.73399 192.89534 388
34.17313 57.06586 198.11853 383
26.01847 59.67741 203.75319 367
78.94881 38.12515 179.20151 431
60.77170 43.34425 179.66135 425
55.66426 44.80793 184.04321 421
50.15783 46.38297 188.62991 409
44.11985 48.14519 193.45280 404
37.69826 49.99774 198.63736 399
30.77016 51.95260 204.18698 394
79.38474 33.56782 179.54802 316
62.50347 37.87174 180.29965 429
57.55496 39.11498 184.61931 424
52.30520 40.43402 189.14429 420
46.66064 41.88068 193.95662 408
40.49436 43.42715 199.05528 403
33.85337 45.10902 204.46387 398
-200.53343 104.71785 202.70090 288
78.70242 29.32918 179.53870 316
64.17781 32.55998 180.90118 432
59.36651 33.59218 185.14417 428
54.30737 34.70680 189.66238 423
48.95630 35.89375 194.38211 418
43.20014 37.16040 199.38834 407
36.78622 38.57133 204.73468 401
29.63581 40.19810 210.43149 358
-182.67563 87.08267 216.63409 438
78.14991 25.09652 179.54631 316
65.31419 27.47893 181.32195 455
60.91729 28.31316 185.62053 450
56.22219 29.21279 190.09613 426
51.00542 30.20318 194.78726 422
45.50531 31.21955 199.72142 417
39.65967 32.31376 204.95654 405
32.93057 33.58620 210.56667 364
-182.89015 74.26743 216.64946 424
77.72708 20.81211 179.54161 316
65.65128 22.70347 181.53740 456
61.30783 23.34820 185.79683 452
56.75716 24.08389 190.25276 447
51.98318 24.80716 194.95924 442
46.91656 25.57999 199.90891 437
41.62811 26.45549 205.16055 432
35.99072 27.33038 210.69135 427
77.43681 16.52467 179.56065 316
65.99837 17.91547 181.67090 458
61.68229 18.44811 185.93672 453
57.17091 19.02127 190.41805 448
52.40946 19.61086 195.07376 444
47.42119 20.20903 199.98772 438
42.22370 20.85394 205.18704 434
36.64627 21.55098 210.71960 428
77.26713 12.21157 179.57146 316
66.38920 13.22641 181.79776 459
62.11757 13.61016 186.07941 454
57.60567 14.00999 190.52446 450
52.91258 14.42840 195.18201 445
48.01396 14.88560 200.05881 440
42.81966 15.38543 205.28220 435
37.36581 15.85886 210.74263 429
77.25473 7.90166 179.57005 316
66.82100 8.51257 181.94530 460
62.55507 8.77707 186.16278 456
58.14276 9.05599 190.60123 451
53.50425 9.34407 195.26901 446
48.59131 9.63242 200.14548 441
43.45913 9.92994 205.31952 436
38.00254 10.27440 210.76851 430
-181.99725 23.63043 268.98898 486
-186.82220 23.86811 283.04257 496
-186.72044 23.86274 296.71335 495
71.31776 3.75815 177.94104 465
67.29091 3.86389 182.01456 461
63.07238 3.96900 186.23209 457
58.66164 4.11927 190.69359 452
54.07271 4.22341 195.33693 447
49.22521 4.37957 200.21448 442
44.12109 4.51434 205.33928 437
38.69195 4.67772 210.77730 431
-181.98816 11.14740 268.92850 487
