# .PCD v.7 - Point Cloud Data file format
VERSION .7
FIELDS x y z rgb
SIZE 4 4 4 4
TYPE F F F U
COUNT 1 1 1 1
WIDTH 492
HEIGHT 1
VIEWPOINT 6462.439941 -876.347656 144.760513 -0.654280 -0.093769 -0.091287 0.744843
POINTS 492
DATA ascii
71.30792 -0.84804 178.35567 466
67.32493 -0.83594 182.39458 462
63.15375 -0.85306 186.56825 457
58.80938 -0.87821 190.96342 453
54.30478 -0.88196 195.53355 448
49.49858 -0.89417 200.38089 443
44.46480 -0.86949 205.44965 438
39.14935 -0.89666 210.80952 432
-152.06895 -1.18880 240.46947 419
-182.18997 -1.15981 268.62854 487
-155.05725 -1.12112 277.44580 284
-111.67477 -1.15674 281.25937 494
70.92722 -5.35167 178.14583 465
66.89087 -5.47389 182.20462 461
62.71169 -5.61810 186.42137 456
58.34600 -5.76912 190.80037 452
53.77064 -5.89715 195.44647 447
48.93605 -6.05865 200.25531 442
43.87191 -6.22744 205.36293 437
38.46639 -6.42096 210.80432 431
-152.54979 -12.69465 240.59885 416
-182.18501 -13.68303 268.68497 487
-156.67625 -12.76658 277.72495 284
70.66119 -9.87093 177.95274 464
66.56708 -10.12734 182.01523 460
62.31355 -10.41321 186.23268 455
57.89054 -10.69514 190.64455 451
53.27700 -11.01153 195.27913 446
48.39769 -11.29152 200.16620 441
43.26102 -11.62504 205.31244 436
37.82730 -11.98981 210.77643 430
-182.15459 -26.08389 268.77670 486
77.27772 -13.79237 179.57562 316
66.25540 -14.85239 181.78046 459
61.97849 -15.27031 186.02031 454
57.49402 -15.72273 190.49413 449
52.76640 -16.14940 195.15210 445
47.85312 -16.65612 200.03418 440
42.64988 -17.14258 205.20087 435
37.16529 -17.67367 210.70407 429
-182.01379 -38.60481 268.96014 486
78.01523 -18.12659 179.57703 316
65.96258 -19.64504 181.55794 457
61.63568 -20.21716 185.79956 453
57.12265 -20.77568 190.26360 448
52.36814 -21.37905 194.98685 443
47.35889 -22.04336 199.90062 438
42.04102 -22.72747 205.12480 433
36.51629 -23.41619 210.63640 428
78.85976 -22.38697 179.55206 316
65.72351 -24.49554 181.27051 456
61.35126 -25.18971 185.57167 452
56.77691 -25.93260 190.06635 447
51.93618 -26.69511 194.79396 442
46.89933 -27.52325 199.76534 437
41.42678 -28.38067 205.02245 414
35.18837 -29.36300 210.57390 402
79.83331 -26.65364 179.56592 316
65.49561 -29.41234 180.93964 455
60.81802 -30.34383 185.22696 431
55.81956 -31.27689 189.68417 426
50.50429 -32.29762 194.44444 421
44.95520 -33.38855 199.41696 416
38.84126 -34.55851 204.74352 404
32.04678 -35.87189 210.39330 364
-182.98953 -77.16766 216.50662 424
80.94735 -30.92278 179.52588 316
63.95319 -34.73458 180.26140 432
59.05037 -35.84880 184.61072 427
53.87950 -37.01515 189.15797 423
48.45340 -38.20012 193.96667 418
42.45118 -39.59214 199.03294 406
35.96397 -41.01624 204.47763 401
28.65893 -42.67264 210.24768 358
-185.32671 -90.70123 216.49765 296
80.24482 -35.62403 178.99829 434
62.32267 -40.24607 179.54836 429
57.23522 -41.56495 183.95538 424
51.93567 -42.93575 188.56285 419
46.04622 -44.48066 193.41631 407
39.70347 -46.07986 198.59647 402
32.92451 -47.82961 204.13034 397
-188.33484 -104.93015 202.76878 484
79.03042 -40.64594 178.24745 430
60.62892 -46.00021 178.76721 425
55.42579 -47.54136 183.22466 421
49.63186 -49.20680 187.86635 409
43.40806 -51.01288 192.81651 404
36.83448 -52.94049 198.11555 399
29.33148 -55.12798 203.78491 382
77.76935 -45.84620 177.45627 427
58.92421 -51.98623 177.89536 421
53.21391 -53.83734 182.36507 410
47.00185 -55.88699 187.10374 393
40.13181 -58.12433 192.08989 388
32.72849 -60.53060 197.46724 372
23.92310 -63.41092 203.26816 366
76.47828 -51.25248 176.57751 423
67.91793 -54.35730 179.66415 308
50.20548 -60.76221 181.30013 393
43.44199 -63.18044 186.09454 388
36.10320 -65.86295 191.22171 372
27.41577 -69.00172 196.68140 367
17.93070 -72.42934 202.67789 362
75.18816 -56.90145 175.66516 420
69.89020 -59.02589 179.63690 308
46.80204 -68.16965 180.12566 388
39.45920 -71.06430 185.00232 373
30.93567 -74.45531 190.14479 367
19.65344 -78.93966 195.60265 331
3.24068 -85.46259 201.39806 310
73.11195 -63.14494 174.44832 386
67.04560 -65.78403 178.37897 395
42.99745 -76.20786 178.72105 373
33.02063 -80.49361 183.35010 335
21.06944 -85.68854 188.38736 331
2.41153 -93.80470 193.42456 283
69.95424 -70.16729 172.81845 381
63.73340 -73.10394 176.90793 390
50.51974 -79.35268 179.79068 300
22.24064 -92.66614 180.89647 314
-29.81199 -117.22919 180.47238 284
69.21453 -76.42099 171.84822 316
60.19793 -81.04293 175.29492 384
51.99716 -85.21273 179.49965 325
1.47800 -111.05750 176.41811 293
71.86753 -81.08424 171.84390 316
50.89288 -92.65021 172.05548 322
39.65513 -98.81918 176.01797 318
13.20656 -113.38315 177.91884 270
74.62362 -85.66377 171.83260 316
53.93373 -97.94838 171.99258 308
26.70304 -114.07458 172.23232 300
-49.34213 -159.10326 165.11391 288
77.56169 -90.16327 171.81406 316
57.22099 -103.09117 171.97707 308
30.43923 -120.08617 172.19293 300
80.62450 -94.59997 171.75212 316
60.68333 -108.18120 171.92661 308
-2.13322 -150.97560 163.33603 383
83.81376 -98.93251 171.72324 316
64.28607 -113.16299 171.88278 308
12.83037 -150.57227 165.78140 389
87.10973 -103.18797 171.70697 316
68.03815 -118.00780 171.90578 308
19.03083 -156.10034 166.09958 295
90.59381 -107.35427 171.68005 316
44.01302 -145.91576 163.36545 300
94.16613 -111.39648 171.63821 316
51.27955 -149.27348 164.12733 404
97.89619 -115.36609 171.63234 316
62.26635 -148.86780 166.05188 409
101.70557 -119.20701 171.57657 316
68.11960 -152.85048 166.35582 306
85.19398 -144.72600 163.57564 307
91.08623 -147.77757 163.98508 425
99.74045 -147.23442 165.54814 420
-2183.90796 -2911.86621 215.40862 307
106.73244 -148.26411 166.46933 314
-1938.42664 -2787.95581 215.43112 413
111.72128 -151.73622 166.44301 314
-1793.11841 -2776.42065 215.84268 433
120.58246 -149.46133 168.31218 489
-1673.52527 -2793.30029 215.69977 428
127.75687 -149.10963 169.36996 396
-1449.08032 -2636.08472 113.17621 400
968.37286 -1094.95483 129.50742 476
972.76831 -1101.47119 172.65997 437
2113.85571 -2139.73853 122.59911 445
2181.42480 -2080.53882 122.21473 445
2319.81250 -2228.14014 215.83560 362
2259.69775 -2031.61389 121.70026 437
2354.28540 -1995.80298 120.15015 420
2461.09009 -1968.00745 118.27422 428
2572.48730 -1938.62329 116.05951 435
2691.55420 -1909.35925 113.75706 433
376.89774 -102.88647 167.66876 313
380.23865 -98.06458 167.69774 315
384.88318 -93.97400 167.22467 434
392.37875 -91.36508 165.92206 429
399.10303 -87.99065 164.77803 317
402.10657 -82.58955 164.77931 317
416.56522 -89.37813 167.78725 305
404.82971 -77.09025 164.79388 317
419.33615 -83.34225 167.78621 305
383.57047 -62.03815 171.65024 316
424.00842 -77.99695 167.33478 429
385.59402 -57.06444 171.66470 316
432.46146 -73.88491 165.90775 424
387.49741 -52.09928 171.65163 316
438.87814 -68.70569 164.92023 308
389.22949 -47.02795 171.70114 316
441.10794 -62.06272 164.92493 307
390.84271 -41.92998 171.72530 316
414.08527 -47.88760 171.92540 309
465.50055 -61.07524 167.97803 297
392.25769 -36.82030 171.73016 316
415.66632 -42.02357 171.96542 309
467.20111 -53.52726 168.03273 297
393.53488 -31.65493 171.75026 316
417.13214 -36.12581 171.95734 309
473.06573 -46.79776 167.22185 447
394.64594 -26.45452 171.72662 317
418.34979 -30.20267 171.94817 309
480.29016 -40.00700 166.01790 443
395.59390 -21.28631 171.75050 317
419.39801 -24.26012 172.00298 309
485.97089 -32.61192 165.19398 301
3011.74951 -349.81879 124.63349 446
396.42703 -16.06028 171.74423 317
420.27493 -18.27350 172.01077 309
451.58862 -21.19312 172.31314 301
2966.81787 -257.81473 126.55473 462
397.04297 -10.80614 171.73668 317
420.97263 -12.31709 172.01389 309
452.31808 -14.24505 172.29492 301
2924.66113 -168.39735 128.24918 475
397.50198 -5.54079 171.77417 317
421.49152 -6.27199 171.99863 309
450.64722 -7.21690 172.77258 495
2899.45435 -83.17640 129.50000 442
2935.05908 -84.05224 216.58569 493
3059.86255 -87.90488 309.29202 352
397.85663 -0.31570 171.78365 317
421.82404 -0.30492 171.99007 309
450.65726 -0.29403 172.84247 495
2881.17139 1.37177 130.06969 447
2912.75537 1.09366 216.74367 495
397.99503 4.96799 171.75674 317
421.95688 5.71782 172.01865 309
450.64526 6.66117 172.84801 495
2865.72363 83.64355 130.81073 425
2901.58472 85.14698 217.24905 496
397.98294 10.22421 171.76205 317
421.95120 11.73780 171.99388 309
453.31088 13.73392 172.26630 301
2851.18726 166.12347 130.62416 426
2885.12915 168.03294 217.13319 497
2963.00562 172.50702 306.20773 497
397.87164 15.46108 171.73566 316
421.73431 17.70334 171.98724 309
453.03986 20.69386 172.31990 301
2835.96387 246.90497 131.25626 427
2948.30054 257.96243 306.30737 498
397.51184 20.66762 171.73657 316
421.31644 23.66084 171.96739 309
486.71933 31.95029 165.42975 458
3103.30127 363.87097 121.99487 498
397.03830 25.85653 171.73799 316
420.77353 29.63454 171.96770 309
480.52448 39.13454 166.53886 443
2807.22925 408.48059 131.29396 405
396.44269 31.04310 171.73700 316
419.97260 35.55917 171.96944 309
473.39249 45.77614 167.74217 448
2792.75977 488.92261 131.89586 405
395.63547 36.18556 171.73291 316
419.06683 41.44606 171.97493 309
470.77155 53.03305 167.97340 297
2849.36914 585.43018 129.24603 487
394.70932 41.29927 171.70689 316
447.14908 54.84031 164.90024 307
469.53610 60.59801 167.90549 297
393.61194 46.41140 171.72720 316
445.56577 61.52720 164.90457 307
392.33917 51.44756 171.71251 316
442.79141 67.82886 165.18062 433
390.91397 56.43260 171.68538 316
434.67920 72.23608 166.66269 424
413.33157 70.88898 164.76781 316
427.95889 76.67582 167.81290 305
411.21051 76.49090 164.75810 316
425.91501 82.83814 167.78093 305
408.92200 81.96268 164.78975 316
404.75949 86.53460 165.33453 424
397.26538 89.14960 166.79501 429
391.79395 92.53858 167.71024 315
389.12616 97.48415 167.65997 313
1540.87488 887.15509 61.22171 496
1548.63562 892.41492 112.78732 496
635.91132 946.66760 81.38102 451
598.78546 940.80634 83.89864 450
596.48444 935.03943 118.08531 470
563.38641 936.23096 86.20099 453
561.50470 931.09894 119.75150 474
571.23999 958.21600 150.48407 291
528.76044 931.67371 88.30692 455
527.46039 927.40210 121.22799 477
558.18243 1021.84064 146.81195 311
495.31412 927.03333 90.08228 458
494.46039 923.57336 122.27706 480
546.31140 1103.57922 141.82315 478
462.89432 922.65765 91.70996 461
462.12988 920.13623 123.45294 483
434.32135 932.30115 59.29819 465
431.14828 918.30127 93.23773 464
430.69525 916.46655 124.66071 486
402.86890 929.08856 60.92847 467
399.95953 914.02411 94.67147 466
400.03632 912.94318 125.39437 488
372.43881 926.64453 62.14727 439
369.99091 910.70264 95.74274 449
369.64227 909.55859 126.45982 490
342.52271 925.20020 63.18434 440
340.29327 907.87085 96.58633 447
339.95609 906.27118 127.10667 492
312.57196 922.70349 63.99421 439
310.88046 903.71533 97.44625 449
310.84067 902.75940 127.78716 494
283.11560 920.07312 64.82935 440
281.82098 899.48138 98.41319 450
281.79324 899.59503 128.19780 496
282.32938 906.70117 157.39951 496
254.12500 917.73541 65.43974 425
253.23299 896.20953 98.84814 440
253.24565 896.27667 128.71213 497
253.66177 903.95569 157.62527 497
225.12498 916.48834 65.69973 421
225.17523 894.37909 99.18199 443
225.07806 894.65594 128.90704 499
225.19443 901.83350 157.81897 499
196.14429 917.63879 65.34657 419
196.90221 895.09595 98.96699 443
196.68433 896.58484 128.65086 497
196.46880 903.65424 157.73524 498
166.92375 921.67755 64.47578 423
168.37331 898.22064 98.39362 435
168.13235 900.66650 127.94698 492
164.17551 962.91534 153.75673 266
137.02036 928.31671 62.94653 411
139.28899 903.13715 97.34203 431
139.07625 905.34833 127.31420 490
106.28003 936.70526 60.90450 411
109.56061 910.16443 95.99802 425
109.30327 911.71777 126.43487 485
78.98232 919.10583 94.40843 421
78.81519 920.26160 125.06936 467
46.75230 931.08795 92.17186 411
46.39383 932.26227 123.34400 456
12.74024 945.35608 89.36111 408
12.93810 944.52063 121.54852 451
-22.50426 960.55255 86.28188 412
-22.03985 957.93115 119.47747 440
-59.27695 974.70081 116.75724 417
115.16879 148.21863 167.26616 440
108.40604 147.34552 166.40096 314
101.06196 146.87303 165.29466 419
-18212.79883 22264.79102 2115.67114 0
92.36850 147.44901 163.65454 424
87.31660 143.66544 163.49423 307
75.23167 156.53058 166.31049 305
103.90535 118.20461 171.53423 316
70.18420 151.83722 166.28125 305
100.19826 114.28271 171.56190 316
63.63811 148.55098 165.72824 409
96.62952 110.32307 171.60277 316
52.70881 148.98592 163.81358 403
93.17618 106.20610 171.63992 316
74.36008 121.75808 171.76819 308
89.84610 102.01458 171.63058 316
70.62804 116.92593 171.80258 308
21.52882 154.99869 166.04854 297
86.67153 97.73312 171.67430 316
66.97952 112.05198 171.83549 308
14.12618 150.37971 165.41243 389
83.58853 93.35884 171.70102 316
63.53950 107.01825 171.85400 308
-0.89157 150.76793 162.95065 382
80.68072 88.95329 171.72505 316
60.19741 101.88039 171.88100 308
33.28139 119.00716 172.12563 300
77.89292 84.37341 171.73781 316
57.04854 96.69680 171.92361 308
29.67219 112.89500 172.12679 300
-46.50315 157.93877 165.12100 286
75.25213 79.80402 171.75221 316
54.09468 91.40685 171.92340 308
39.58329 99.36922 175.23235 319
11.21805 114.97808 176.89975 270
72.74710 75.09173 171.79207 316
60.69985 81.25393 174.42336 385
52.12932 85.58414 178.71010 325
24.25875 99.80278 179.97961 292
70.80829 70.14819 171.95001 381
64.29201 73.21784 176.01991 390
54.05899 78.05078 179.73936 300
22.78277 92.76296 180.27104 314
-26.84771 116.12183 180.39163 343
74.04494 62.99005 173.52321 386
67.67028 65.77975 177.48785 395
43.73028 76.14651 178.05867 373
33.65106 80.47396 182.79457 336
21.52629 85.75168 187.86038 331
2.70801 93.87375 193.04253 283
76.13606 56.68306 174.74020 420
70.98222 58.73518 178.88109 415
47.58974 68.02448 179.37245 389
40.17822 70.91219 184.37148 373
31.50517 74.37702 189.65910 368
20.08834 78.90907 195.25052 332
3.57135 85.45834 201.16420 311
77.49264 50.95585 175.65765 423
72.04414 52.92864 179.58244 308
51.04766 60.45544 180.58684 393
44.16805 62.97569 185.48015 388
36.69278 65.62637 190.75868 373
27.91535 68.81977 196.30496 368
18.30121 72.26402 202.40608 362
78.83833 45.44236 176.51178 427
70.37229 48.22184 179.62157 308
54.09758 53.46720 181.62047 410
47.79369 55.53712 186.47049 393
40.78690 57.79417 191.57979 388
33.27314 60.23480 197.07941 383
24.34942 63.13311 202.98370 367
80.15621 40.15081 177.27104 430
68.82141 43.42642 179.60960 308
56.29958 47.04050 182.45872 421
50.47597 48.75523 187.21858 409
44.15775 50.59411 192.32323 404
37.37160 52.57551 197.68581 399
29.82196 54.76072 203.49818 382
81.45768 35.02776 177.98697 435
63.39388 39.66938 178.65593 429
58.21006 40.96276 183.17421 424
52.77436 42.36416 187.90242 420
46.82747 43.89925 192.89104 408
40.32252 45.55579 198.17761 403
33.42875 47.33723 203.87201 397
25.20393 49.48709 209.89941 269
77.26566 29.24195 179.54410 316
64.03817 32.18067 181.20419 432
59.23988 33.23896 185.43297 428
54.24488 34.33896 189.85175 423
48.93460 35.53008 194.52138 418
43.26795 36.78383 199.48967 406
36.93870 38.15225 204.78566 401
29.90096 39.72699 210.44194 358
-182.86594 86.96053 216.51883 438
76.66423 25.00413 179.58556 316
65.05251 27.20776 181.61453 455
60.72153 27.99868 185.87302 450
56.13691 28.85764 190.31242 426
51.00761 29.84157 194.90520 422
45.56133 30.89515 199.82828 417
39.78511 31.98657 205.03096 405
33.16730 33.22938 210.54536 364
-183.01636 74.13631 216.56456 424
76.21027 20.72494 179.56691 316
65.37106 22.42552 181.79616 456
61.07346 23.08759 186.06589 452
56.56344 23.78337 190.47868 447
51.83823 24.55734 195.12991 442
46.86488 25.31862 199.99791 437
41.59998 26.14990 205.16110 432
36.02046 27.01342 210.64709 427
69.80644 17.20697 177.93716 462
65.73458 17.72510 181.98997 457
61.44097 18.25109 186.20833 453
56.98341 18.81283 190.59596 448
52.31941 19.40329 195.25336 444
47.36722 20.00213 200.09430 438
42.20279 20.65041 205.24692 433
36.69791 21.32717 210.71745 428
70.17991 12.66616 178.09746 463
66.08433 13.01580 182.15057 459
61.87084 13.41192 186.33563 454
57.40749 13.84547 190.72701 450
52.79379 14.28112 195.32742 445
47.95539 14.73353 200.18951 440
42.81647 15.20455 205.31905 435
37.40140 15.68820 210.74951 429
70.55418 8.13930 178.20392 464
66.50285 8.39921 182.23654 460
62.30663 8.66643 186.43056 456
57.93819 8.91108 190.81071 451
53.32059 9.19469 195.42419 446
48.51203 9.49328 200.27811 441
43.45345 9.78676 205.34613 436
38.06241 10.12333 210.73657 430
-182.18872 23.70234 268.65729 486
-186.79698 23.97901 282.68259 496
-186.63400 23.89522 296.17084 494
70.94374 3.64397 178.32961 465
66.97131 3.76447 182.33490 461
62.81044 3.88371 186.52150 457
58.44329 4.00995 190.89304 452
53.90947 4.17373 195.47717 447
49.13444 4.28066 200.30733 442
44.07614 4.42769 205.41028 437
38.70233 4.58150 210.77403 431
-182.14478 11.29662 268.55148 487
