# .PCD v.7 - Point Cloud Data file format
VERSION .7
FIELDS x y z rgb
SIZE 4 4 4 4
TYPE F F F U
COUNT 1 1 1 1
WIDTH 439
HEIGHT 1
VIEWPOINT 6498.517578 -2410.448242 144.117416 -0.844203 -0.077369 -0.104862 0.519942
POINTS 439
DATA ascii
85.59432 -0.96128 178.81175 467
69.67362 -0.98165 179.97308 462
65.20774 -0.95019 184.47917 457
60.60652 -0.95639 189.16522 453
55.71178 -0.97117 194.06496 448
50.64606 -0.98621 199.21539 443
45.26814 -0.95165 204.65390 438
39.56249 -0.97906 210.41454 432
-181.36391 -0.97608 270.21695 487
-136.34155 -0.95207 276.39392 495
85.26159 -5.40528 178.66238 465
69.21232 -5.89643 179.81642 460
64.75467 -6.04100 184.32509 456
60.07843 -6.22678 189.01303 452
55.15676 -6.34545 193.94160 447
50.03242 -6.53659 199.14786 442
44.59833 -6.69972 204.58527 437
38.86390 -6.86167 210.37975 431
-181.39043 -13.82541 270.20346 487
-154.40819 -12.95679 279.40372 266
84.95523 -9.90550 178.47116 464
68.85590 -10.91070 179.61531 460
64.31075 -11.19626 184.16949 455
59.57599 -11.50057 188.88242 451
54.61545 -11.80811 193.82428 446
49.41952 -12.13881 199.00380 441
43.92358 -12.47445 204.52365 436
38.14975 -12.86192 210.34888 430
84.67282 -14.42516 178.23137 463
68.51872 -15.95928 179.39882 459
63.94500 -16.38454 183.95059 454
59.14491 -16.82853 188.67474 449
54.08680 -17.33598 193.66924 445
48.82968 -17.81691 198.88048 440
43.29576 -18.32262 204.40974 435
37.42731 -18.87433 210.26070 429
84.41120 -19.01392 177.97971 462
68.17546 -21.07510 179.16487 457
63.58219 -21.68006 183.70847 453
58.73962 -22.23994 188.50227 448
53.68033 -22.88956 193.48347 443
48.29635 -23.57719 198.75595 438
42.66734 -24.31150 204.31383 433
36.70199 -25.01854 210.23508 428
82.84003 -22.60322 179.14040 461
66.74149 -25.15142 180.19286 456
62.21796 -25.86682 184.59995 452
57.51825 -26.64454 189.22289 447
52.56375 -27.41162 194.09126 442
47.36497 -28.25135 199.21274 437
41.47392 -29.19738 204.62416 414
35.04082 -30.19146 210.30933 402
82.61927 -27.15111 178.83897 459
66.30535 -30.26812 179.86229 435
61.42318 -31.19165 184.22090 431
56.28164 -32.15757 188.87032 426
50.85921 -33.20661 193.70572 421
45.09048 -34.33493 198.89613 416
38.80665 -35.51258 204.35022 404
31.87036 -36.85826 210.20714 399
-182.93835 -77.87183 216.50206 424
82.38071 -31.77185 178.45767 438
64.63313 -35.75418 179.15744 432
59.59605 -36.87294 183.60788 428
54.29402 -38.07840 188.28435 423
48.67464 -39.31096 193.23970 418
42.51490 -40.70174 198.49298 406
35.77280 -42.20137 204.03432 401
28.42300 -43.86670 210.02644 358
-187.87199 -92.26567 216.48756 296
81.11363 -36.76646 177.76933 435
62.95409 -41.43619 178.41348 429
57.73922 -42.77066 182.91791 424
52.27882 -44.16570 187.70375 419
46.20164 -45.73702 192.71719 408
39.67761 -47.42842 198.05354 402
32.63343 -49.24130 203.75360 397
24.10405 -51.45115 209.83748 263
79.81534 -41.95975 177.02206 430
69.57698 -44.91141 179.65106 308
55.86515 -48.91987 182.22017 421
49.85860 -50.62755 186.99406 409
43.47510 -52.49753 192.10495 404
36.49252 -54.54057 197.54370 387
28.68979 -56.83451 203.31714 371
78.52253 -47.29568 176.18808 427
71.19475 -49.65186 179.61165 308
53.54022 -55.40089 181.37004 410
46.95005 -57.55929 186.17395 393
39.84513 -59.85826 191.32294 388
32.09509 -62.38702 196.88576 372
22.97515 -65.35786 202.77405 367
77.15900 -52.87736 175.30060 423
72.11304 -54.69760 179.41177 419
50.25029 -62.60769 180.23792 393
43.26734 -65.08696 185.18718 388
35.54182 -67.90986 190.40317 372
26.60242 -71.08005 196.02522 367
16.10284 -74.87723 202.16969 332
75.80096 -58.67709 174.35704 420
70.15669 -60.92846 178.41280 386
46.72414 -70.22482 178.99857 388
39.01365 -73.29028 184.00912 373
29.72486 -76.95770 189.27484 336
17.21673 -81.94429 194.80547 316
-0.46452 -88.92897 200.79939 310
73.21817 -65.29435 173.00999 386
66.75272 -68.09922 177.02419 395
52.85694 -74.10341 179.77669 300
31.29645 -83.48582 182.16246 335
18.13609 -89.14082 187.17917 315
-10.50818 -101.50843 191.47574 265
71.59730 -71.78698 171.84375 316
63.37909 -75.66489 175.48732 390
55.36135 -79.44015 179.78644 300
18.45681 -96.86123 179.26685 286
-25.20376 -117.35229 180.42169 284
74.04670 -76.53159 171.82343 316
59.21063 -84.11205 173.69817 328
49.06069 -89.26109 177.75352 325
25.84575 -101.13295 180.02367 292
76.64922 -81.20193 171.81061 316
55.54847 -92.81938 171.98099 308
35.07731 -104.08725 173.89197 272
-51.90833 -151.92174 164.72408 373
79.37527 -85.80608 171.77859 316
58.63876 -98.04435 171.93236 308
31.36200 -114.20264 172.20703 300
-44.38308 -159.06352 165.16461 286
82.26764 -90.29630 171.76869 316
61.89576 -103.25327 171.90096 308
35.07665 -120.23379 172.17160 300
85.30006 -94.74505 171.73213 316
65.30248 -108.33158 171.87717 308
2.81419 -150.82254 163.42227 382
88.42628 -99.06739 171.68349 316
68.84783 -113.31253 171.85753 308
17.73881 -150.46056 165.81555 389
91.71114 -103.36845 171.68608 316
72.58600 -118.21529 171.85670 308
23.83644 -156.04732 166.14619 297
-1916.72388 -1662.18494 38.32108 395
-2017.38257 -1739.55371 123.43887 298
95.14491 -107.51879 171.67172 316
48.63759 -145.99651 163.41486 300
-1801.30139 -1676.55847 43.81687 439
98.67390 -111.58464 171.63712 316
56.18103 -149.08813 164.19826 404
-1691.34875 -1690.24414 48.53197 318
-1752.09705 -1743.79553 129.81491 476
102.33196 -115.53919 171.58469 316
67.08544 -148.65092 166.12045 409
-1603.00574 -1717.06689 51.86323 423
106.12562 -119.42402 171.56454 316
72.68604 -152.88968 166.35342 306
-1523.24890 -1749.23438 54.25755 425
89.65955 -144.86714 163.56297 307
-1445.90894 -1781.09399 55.84733 428
-1545.27637 -1886.48071 131.34589 335
95.76667 -147.57216 164.09163 425
-1371.01343 -1811.96411 57.70727 430
104.62875 -146.76263 165.77390 419
-1298.37048 -1842.86462 59.54972 488
111.10316 -148.42726 166.46758 314
-1226.81128 -1873.36353 61.16726 490
118.14191 -149.00093 167.42160 316
-1166.88513 -1918.75159 61.11044 443
124.95834 -149.45119 168.34621 489
-159.24423 -1334.97449 79.43539 467
2087.95825 -3640.77515 82.30987 425
2151.55591 -3491.55664 86.39241 430
2300.30371 -3496.15942 83.27345 399
2506.44800 -3582.77295 77.48763 369
3689.08154 -2514.54883 75.65488 329
377.09430 -103.07288 167.64824 313
3703.81836 -2362.84985 78.19143 480
380.02615 -98.24065 167.68756 315
3737.19751 -2227.34277 79.76080 492
3794.32422 -2263.25537 215.94722 296
384.31458 -94.17712 167.27003 434
3784.12866 -2102.86621 80.66692 496
3815.68994 -2122.22754 216.27858 499
391.59973 -91.66611 165.88371 429
3839.83301 -1986.20300 80.76610 498
3879.20435 -2006.76709 216.60022 499
397.89603 -88.26926 164.79388 317
3897.33179 -1869.24646 80.74445 498
4049.02612 -1946.69714 356.12186 475
400.49872 -82.89272 164.74815 317
414.84222 -89.60564 167.79582 305
3955.36450 -1754.36340 81.36252 499
402.93674 -77.36967 164.77469 317
417.23566 -83.54963 167.79144 305
4012.62061 -1638.18811 80.52224 499
381.31873 -62.32979 171.64038 316
422.66406 -78.70771 167.06931 429
4337.44092 -1626.98816 216.26466 430
383.01108 -57.42001 171.65399 316
430.92886 -74.62731 165.59514 424
384.56067 -52.42925 171.62964 316
435.78699 -69.04135 164.87553 308
385.98718 -47.38908 171.64075 316
437.67978 -62.42022 164.91150 308
387.21988 -42.31111 171.65504 317
410.40637 -48.30430 171.89706 309
461.41946 -61.32759 167.94716 297
388.32361 -37.21989 171.69606 317
411.62579 -42.42841 171.90115 309
464.91608 -54.35150 167.61031 452
389.23038 -32.08232 171.66626 317
412.73926 -36.54399 171.89571 309
471.88806 -47.85823 166.45667 447
389.99677 -26.90317 171.69539 317
413.61499 -30.66165 171.92859 309
479.16574 -41.02770 165.23404 443
390.63611 -21.72325 171.67902 317
414.32135 -24.71571 171.93695 309
445.39880 -28.62090 172.21255 301
391.10541 -16.47566 171.69916 317
414.90073 -18.76689 171.94583 309
446.04419 -21.68898 172.20576 301
391.41946 -11.27989 171.71101 317
415.26797 -12.74536 171.92429 309
446.53220 -14.71253 172.22815 301
391.57904 -6.03088 171.72604 317
415.42786 -6.76237 171.92758 309
446.75729 -7.76698 172.22749 301
2440.06885 -69.75908 143.39272 398
272.89969 -0.81126 203.50449 314
415.41000 -0.78597 171.93520 309
446.75684 -0.80076 172.24536 301
2352.57520 -0.47400 146.44034 401
272.78009 0.70078 203.50958 314
415.24689 5.21878 171.95055 309
446.55185 6.22146 172.21838 301
2294.95752 64.58656 80.24890 403
2272.25537 63.93355 149.31796 390
272.60474 2.21950 203.50668 314
414.89246 11.22977 171.94510 309
446.18237 13.17918 172.25648 301
2221.83105 125.64538 85.08693 388
2194.18140 123.37153 151.81650 415
272.38913 3.74492 203.50011 314
414.36649 17.20762 171.90527 309
445.53357 20.13520 172.22604 301
2152.83911 182.04820 89.28395 385
2132.97021 180.01364 153.45815 455
272.12131 5.24517 203.50334 314
413.65717 23.12915 171.92180 309
444.74088 27.08425 172.22983 301
2108.06494 237.66422 92.08337 416
2094.31567 235.53464 154.81302 412
271.82428 6.75582 203.49808 286
412.71838 29.11333 171.89958 309
478.90793 39.63204 165.12050 300
2072.63403 292.22504 93.79664 423
2220.42383 315.72757 150.37941 422
388.13260 30.52321 171.66794 317
411.66937 35.00428 171.86588 309
472.47598 46.59987 166.14250 448
2045.78381 347.24429 94.59098 437
2211.94434 378.62155 149.86125 472
387.00766 35.68224 171.62868 316
410.42456 40.94122 171.89561 309
465.43781 53.22541 167.18411 452
2048.64941 407.33032 93.96140 270
2026.87878 402.60095 155.92281 266
385.72464 40.82019 171.64299 316
408.98734 46.76155 171.85884 309
459.95505 59.87387 167.90611 297
384.32156 45.89838 171.63666 316
436.08063 60.95411 164.87134 308
458.16745 67.38483 167.88266 297
382.74582 50.92101 171.60803 316
434.02100 67.62207 164.87144 308
381.01352 55.95300 171.60324 316
431.07870 73.96377 165.01111 424
379.13324 60.90908 171.55522 316
422.57281 78.13795 166.51633 430
377.08719 65.79301 171.54834 316
414.80478 82.15874 167.81017 305
397.90567 81.49208 164.70471 317
412.19583 88.21481 167.74721 305
395.09549 86.89504 164.71791 317
390.61337 91.46236 165.17902 429
383.09955 94.06769 166.57562 434
376.65421 96.92410 167.62334 315
373.46387 101.73933 167.59650 315
370.14023 106.49773 167.60333 313
-1821.99609 3999.49585 216.32964 456
-1627.42505 3354.58984 216.58626 497
124.53165 148.73521 169.07800 488
116.58647 150.83911 167.43671 316
109.81010 150.65408 166.40591 314
105.31614 147.12584 166.39555 314
97.83118 147.17159 165.09778 419
89.68740 147.57176 163.57170 424
85.19049 143.50916 163.49556 307
73.04910 156.39432 166.25290 305
102.11332 117.98524 171.55023 316
68.35814 151.71931 166.28984 305
98.71896 114.15307 171.57898 316
61.96842 148.63203 165.66481 409
95.44050 110.16353 171.57573 316
51.29571 149.03156 163.72838 403
92.33169 106.08836 171.61644 316
73.55883 121.60088 171.76166 308
89.28456 101.91959 171.65182 316
70.10473 116.80007 171.82381 308
21.00880 154.85471 166.00819 297
86.41817 97.66923 171.66130 316
66.78158 111.89851 171.84586 308
13.77527 150.39957 165.37180 389
83.69704 93.31812 171.69762 316
63.59890 106.91824 171.85007 308
-0.92034 150.78667 162.90199 382
81.07029 88.86481 171.71216 316
60.57539 101.83224 171.88252 308
33.67776 118.90812 172.08997 300
78.60940 84.32177 171.72188 316
57.74127 96.67223 171.89444 308
30.35605 112.86240 172.12617 300
-45.77719 157.80896 165.10403 286
76.26759 79.72512 171.76587 316
55.05669 91.37330 171.91750 308
38.95263 100.24155 174.82997 319
-54.92150 151.79066 164.25093 373
74.07394 75.05222 171.76360 316
60.59173 81.90933 174.05884 385
51.43274 86.56360 178.25616 325
25.54734 99.76629 179.96559 292
72.03467 70.33811 171.81540 316
64.17182 73.99809 175.57880 390
55.63766 78.01965 179.73984 300
21.89227 93.88731 179.81302 314
-25.29982 116.08865 180.40334 284
74.13731 63.76373 173.00656 386
67.64030 66.60213 176.99208 381
53.53854 72.68398 179.74803 300
32.99878 81.55840 182.29836 336
20.50340 86.93782 187.45450 315
-0.34715 95.95451 192.54187 283
76.44466 57.43672 174.16493 420
71.05720 59.55618 178.30899 386
47.57782 68.87965 178.90907 389
40.00391 71.87837 183.97809 373
31.22377 75.36282 189.31137 368
19.11139 80.16203 194.90195 332
1.92163 86.94942 200.96310 311
77.89290 51.70534 175.02480 424
72.79827 53.53513 179.15675 419
51.09381 61.35540 180.05013 393
44.08206 63.86849 185.02615 388
36.46158 66.61154 190.33641 373
27.51588 69.83289 196.02811 368
17.58781 73.39233 202.20929 332
79.27538 46.19587 175.76720 427
73.18641 48.18614 179.57384 308
54.30205 54.30878 181.07205 410
47.78989 56.43851 185.99561 393
40.64675 58.72451 191.19058 388
32.94897 61.24512 196.78065 372
23.83312 64.21948 202.77231 367
80.66769 40.87820 176.51569 432
71.97197 43.41021 179.62358 308
56.60493 47.86984 181.86220 421
50.61483 49.58564 186.72656 409
44.17000 51.48563 191.90408 404
37.27195 53.48932 197.39275 387
29.42781 55.75320 203.24591 382
82.03783 35.73230 177.16295 435
70.92951 38.58347 179.59607 308
58.56787 41.76517 182.48619 424
52.97766 43.15575 187.36742 420
46.89378 44.75430 192.42345 408
40.25640 46.43188 197.82974 403
33.20942 48.25774 203.63667 397
25.26112 50.30345 209.82451 355
83.26560 30.77125 177.74745 457
65.62716 34.68114 178.55508 432
60.47098 35.84305 183.10225 428
55.07775 37.02985 187.89844 423
49.40195 38.32524 192.90340 418
43.15266 39.73767 198.27472 406
36.35532 41.23788 203.93958 401
28.88737 42.89591 209.97823 358
-185.73303 90.82468 216.58763 296
83.52846 26.11225 178.03702 459
67.28136 29.22358 179.16049 455
62.38554 30.14023 183.68967 431
57.14746 31.14195 188.38858 426
51.62481 32.18147 193.36736 421
45.74713 33.32115 198.63065 416
39.36988 34.55831 204.19928 405
32.35807 35.84264 210.15005 399
-182.90575 76.86795 216.57747 424
83.80064 21.52519 178.25703 461
67.59885 24.07340 179.41023 456
62.99464 24.79371 183.95322 452
58.15179 25.57692 188.66278 447
53.11548 26.38993 193.66582 442
47.79549 27.22273 198.90565 437
42.03521 28.15227 204.43578 414
35.53720 29.17459 210.29274 402
84.14561 16.97232 178.47246 462
67.96671 19.01679 179.60414 457
63.39662 19.56672 184.10791 453
58.59940 20.20688 188.83517 448
53.55986 20.82062 193.78276 443
48.27302 21.48267 199.00443 438
42.74926 22.20189 204.49039 433
36.85914 22.95110 210.37163 428
84.45664 12.46300 178.63747 463
68.34812 13.99193 179.79523 459
63.82232 14.42072 184.27843 454
59.03558 14.84938 188.95862 450
54.10041 15.33385 193.90437 445
48.86170 15.81156 199.08968 440
43.38362 16.33883 204.56693 435
37.53606 16.88785 210.37221 429
84.84767 7.98097 178.77861 464
68.74287 9.00803 179.93561 460
64.24580 9.25788 184.42061 455
59.55206 9.54623 189.09724 451
54.65718 9.86372 194.02670 446
49.47112 10.20444 199.18475 441
44.03391 10.52718 204.64716 436
38.27768 10.93134 210.40993 430
-181.39415 24.73400 270.28851 486
-187.15749 25.08990 284.90250 360
85.24448 3.51793 178.87938 465
69.21825 4.04700 180.04982 461
64.77306 4.14932 184.51353 457
60.11708 4.30503 189.20546 452
55.24152 4.47727 194.11531 447
50.11155 4.64832 199.28134 442
44.68919 4.83087 204.72377 437
38.96741 5.01392 210.44911 431
-181.40169 11.86733 270.24826 487
