# .PCD v.7 - Point Cloud Data file format
VERSION .7
FIELDS x y z rgb
SIZE 4 4 4 4
TYPE F F F U
COUNT 1 1 1 1
WIDTH 510
HEIGHT 1
VIEWPOINT 6550.121094 -345.104187 146.324417 -0.639129 -0.100599 -0.087294 0.757479
POINTS 510
DATA ascii
83.84457 -0.73415 179.50432 316
68.86793 -0.72316 180.81744 462
64.53150 -0.74672 185.20811 457
59.98395 -0.74670 189.78452 453
55.26678 -0.70984 194.60286 448
50.27959 -0.71786 199.61870 443
44.99756 -0.71632 204.91786 438
39.42292 -0.71719 210.55522 432
-152.71393 -0.72185 241.05150 419
-181.62373 -0.71668 269.62012 487
-145.92538 -0.74621 277.27744 284
83.80431 -5.08634 179.52193 316
68.36852 -5.57953 180.70288 461
64.01175 -5.70673 185.11545 456
59.42028 -5.82511 189.72209 452
54.68053 -5.96790 194.49870 447
49.64194 -6.17120 199.54611 442
44.32592 -6.32229 204.90660 437
38.73230 -6.48846 210.55856 431
-152.99174 -12.48020 241.14751 416
-181.63367 -13.37368 269.65784 487
-150.64494 -12.45554 278.07736 285
83.87483 -9.39354 179.51772 316
67.94733 -10.40475 180.58388 460
63.49837 -10.70380 184.98453 455
58.88995 -11.00396 189.60019 451
54.07243 -11.31232 194.43106 446
49.01820 -11.59180 199.48343 441
43.68249 -11.95940 204.84892 436
38.02924 -12.30973 210.53308 430
-181.66010 -26.12355 269.75699 486
83.60757 -13.77590 179.37517 463
67.57314 -15.29728 180.42645 459
63.08486 -15.71080 184.86687 454
58.42040 -16.14377 189.45309 449
53.55380 -16.60848 194.29884 445
48.44485 -17.09223 199.41684 440
43.03238 -17.62801 204.79306 435
37.34737 -18.17136 210.47487 429
-181.56015 -38.85999 269.85483 486
83.26931 -18.19004 179.20750 462
67.21132 -20.23810 180.27467 457
62.70549 -20.79858 184.69472 453
58.02159 -21.39622 189.33131 448
53.05568 -22.01261 194.17496 443
47.89695 -22.68907 199.28000 438
42.40448 -23.34252 204.71581 433
36.61428 -24.11697 210.42578 428
82.99167 -22.65931 178.97408 461
66.84041 -25.21266 180.03253 456
62.35225 -25.93999 184.48077 452
57.58984 -26.66705 189.15895 447
52.59935 -27.47685 194.05067 442
47.37036 -28.30534 199.19534 437
41.47767 -29.20941 204.57132 414
34.96293 -30.24466 210.36073 402
82.73366 -27.16040 178.73419 459
66.39944 -30.26390 179.79437 435
61.49440 -31.18613 184.19229 431
56.32006 -32.17256 188.81659 426
50.88213 -33.23138 193.70865 421
45.10259 -34.34433 198.85237 416
38.79128 -35.55259 204.37311 404
31.85547 -36.88508 210.22220 364
-183.03214 -77.90410 216.52893 424
82.39531 -31.73337 178.44147 438
64.69343 -35.70660 179.16911 432
59.63146 -36.81616 183.61702 428
54.29250 -38.01617 188.29526 423
48.68066 -39.28829 193.27969 418
42.51105 -40.63418 198.51353 406
35.80004 -42.14739 204.06129 401
28.38943 -43.83788 210.05893 358
-187.75894 -92.14922 216.56587 296
81.06766 -36.64424 177.81348 435
62.96092 -41.31323 178.47032 429
57.73844 -42.63807 183.02376 424
52.27499 -44.04651 187.78476 420
46.18568 -45.60069 192.79303 408
39.67535 -47.28689 198.10004 402
32.64999 -49.09523 203.77933 397
-188.36940 -105.81268 202.70555 484
79.73057 -41.71112 177.15324 430
68.97469 -44.83739 179.64970 308
55.81522 -48.69763 182.35341 421
49.86811 -50.38135 187.14270 409
43.49804 -52.23291 192.23071 404
36.56004 -54.24097 197.60518 387
28.77377 -56.55601 203.41393 371
78.39057 -46.98483 176.44644 427
70.23344 -49.63512 179.63034 308
53.48812 -55.04900 181.54872 410
46.99444 -57.16527 186.36327 393
39.93684 -59.48511 191.47856 388
32.23256 -61.99179 196.99330 372
23.22274 -64.89940 202.88780 367
75.54984 -49.61665 178.10559 424
56.15060 -56.58646 178.29651 398
50.04240 -58.83125 182.60947 393
43.47722 -61.19539 187.27280 388
36.42997 -63.72808 192.26909 383
28.13157 -66.69251 197.55354 367
18.98933 -69.97337 203.30153 362
74.32395 -55.08354 177.19945 420
63.88996 -59.21274 179.70641 308
46.72454 -66.00372 181.46841 389
39.78458 -68.78416 186.22659 373
31.54758 -72.03809 191.19984 368
21.85082 -75.83337 196.63206 332
7.09947 -81.70649 202.28937 311
72.75690 -60.94958 176.12544 386
66.02870 -63.82196 179.68077 308
43.16398 -73.74760 180.16331 373
34.70070 -77.37032 184.82635 336
23.21277 -82.36903 189.65161 331
7.67741 -89.07308 194.74709 310
69.70992 -67.73717 174.56842 381
63.97570 -70.46802 178.55263 390
36.32436 -83.43182 178.04120 335
24.72625 -88.92311 182.51688 330
4.71125 -98.36189 186.52690 281
66.49295 -75.07217 172.83800 376
60.56102 -78.07891 176.95589 385
47.26327 -84.84660 179.84953 300
-12.14822 -115.10664 175.07573 293
66.10381 -81.29915 171.88760 316
53.83555 -88.03831 174.45465 322
43.20929 -93.89994 178.24596 319
18.45711 -107.47980 180.08455 292
68.92335 -85.90648 171.86809 316
48.11032 -98.21691 172.05354 308
20.83150 -114.33870 172.26826 300
-55.72263 -159.66086 165.08287 288
71.86227 -90.44833 171.83246 316
51.48087 -103.38862 172.03604 308
24.64465 -120.39846 172.23807 300
74.96132 -94.88505 171.79672 316
54.94830 -108.44498 171.97218 308
-7.76016 -151.08676 163.43471 382
78.17241 -99.19870 171.76611 316
58.56833 -113.47047 171.93585 308
7.27240 -150.75250 165.85655 389
81.53076 -103.47048 171.75589 316
62.38355 -118.33426 171.92943 308
12.83760 -156.75073 166.02034 295
85.03298 -107.66152 171.75700 316
66.35118 -123.08965 171.91208 308
88.67081 -111.69749 171.70236 316
45.85906 -149.45601 164.19365 404
92.41744 -115.67446 171.69757 316
56.84166 -149.02753 166.10855 409
96.25460 -119.54067 171.63475 316
62.44918 -153.34938 166.30801 306
79.63920 -145.26285 163.51654 307
85.82028 -147.94022 164.02875 424
-2334.67993 -2892.78320 215.37883 410
94.35957 -147.63356 165.54376 430
-2063.20435 -2755.63086 98.41997 374
-2187.94263 -2907.12451 214.75813 347
101.37990 -148.66005 166.45142 314
-1873.10876 -2693.54346 103.27398 299
106.33619 -152.18578 166.47618 314
-1789.06934 -2760.97778 103.93201 259
-1766.47754 -2918.73511 99.41262 304
123.14315 -148.55931 169.71530 441
494.43457 -1054.35815 73.28459 460
496.56699 -1062.36609 108.38606 407
25616.14062 -46182.84766 -8484.98242 0
1647.07532 -2090.50293 133.74699 452
1701.24353 -2030.08398 134.31203 491
1759.56482 -1976.21069 134.68762 495
1824.82581 -1931.27173 134.30814 495
1901.03125 -1898.32178 133.40233 477
1985.81848 -1872.39880 132.59129 474
2072.60718 -1845.36389 131.30684 471
2162.74194 -1817.07104 129.42319 467
372.63660 -103.69212 167.65384 315
375.98758 -98.85710 167.69049 315
381.38733 -95.16949 166.98463 434
388.96915 -92.55541 165.67027 429
394.98471 -88.79324 164.75032 317
397.99561 -83.35256 164.73389 317
412.40887 -90.15773 167.76054 305
400.72797 -77.79318 164.72148 316
415.18408 -84.05965 167.80089 305
1551.26672 -575.88513 74.33625 453
379.49371 -62.71724 171.60675 316
421.36197 -79.34231 166.92418 429
381.50110 -57.74179 171.63220 316
429.89139 -75.16544 165.46532 424
383.41162 -52.75666 171.64651 316
434.79929 -69.46313 164.92464 308
385.15961 -47.69015 171.66830 316
437.08380 -62.72186 164.89059 308
386.75140 -42.56179 171.64644 316
410.08737 -48.53691 171.88615 308
461.41080 -61.70008 167.94026 297
388.19095 -37.40378 171.69182 316
411.67886 -42.68744 171.90926 309
464.73755 -54.51331 167.65225 452
389.44391 -32.24340 171.70854 316
413.07047 -36.76858 171.91409 309
471.78354 -47.97195 166.61615 448
390.55032 -27.03876 171.68671 316
414.34738 -30.82790 171.92827 309
479.16135 -41.06870 165.48297 443
391.52560 -21.84795 171.69859 316
415.35980 -24.82959 171.96442 309
482.08978 -33.27468 165.16187 300
2558.39893 -295.60254 140.57170 291
392.34082 -16.59634 171.72437 316
416.25934 -18.82951 171.94408 309
447.64972 -21.82846 172.24507 301
2584.37744 -223.78929 61.99553 329
2490.82886 -215.24498 142.82111 411
392.93723 -11.31906 171.73041 316
416.92194 -12.84827 171.96210 309
448.39093 -14.80994 172.26526 301
2494.36841 -143.59645 68.16898 449
2461.68237 -141.47408 143.97964 401
393.42480 -6.09273 171.70078 316
417.46542 -6.80714 171.96852 309
448.95032 -7.81458 172.28578 301
2411.25415 -69.81299 73.69984 404
2651.80933 -77.28576 137.81102 499
393.74704 -0.81424 171.72006 316
417.79037 -0.83821 171.96965 309
449.27637 -0.84115 172.29253 301
2378.09595 -0.71924 76.32457 480
2420.95996 -0.73293 145.17343 467
2413.65356 -0.56649 217.14008 488
2433.10889 -1.13896 289.67413 419
393.93073 4.42005 171.72729 316
417.92374 5.18855 171.96733 309
449.40308 6.21080 172.27296 301
2354.04858 66.27760 77.67465 486
2397.76709 67.06116 146.40736 493
2396.98682 67.51090 217.57622 494
2415.50195 67.89512 288.92908 421
393.89667 9.67988 171.72943 316
417.88724 11.18228 171.97856 309
449.31567 13.19602 172.27095 301
2333.53174 131.84627 78.69061 491
2375.33154 134.14034 147.02461 495
2374.80493 134.37357 217.00893 495
2397.65137 135.68460 288.41589 422
393.76434 14.92673 171.71675 316
417.66949 17.21620 171.97725 309
448.99054 20.16828 172.23347 301
2317.46460 196.78687 79.90729 493
2363.90088 201.38817 146.92226 496
2363.28882 201.26285 217.53758 496
2380.51514 202.47154 287.77908 423
393.42493 20.13698 171.70346 316
417.26114 23.18396 171.92444 309
483.91830 31.56997 165.15199 301
2300.53638 261.32559 80.28027 494
2347.12500 267.07025 147.32005 497
2346.11768 267.01141 216.99376 498
2363.09033 268.90317 287.72516 424
392.95163 25.37868 171.72169 316
416.67542 29.09413 171.91536 309
480.42709 39.22155 165.64943 443
2284.58984 324.65521 80.48959 494
2485.55127 356.67307 292.11478 268
392.29532 30.54527 171.69017 316
415.92654 35.01952 171.93976 308
473.16925 45.95517 166.88942 448
2268.04590 388.61169 81.14578 494
391.50647 35.68338 171.71677 316
414.99500 40.92071 171.91808 308
466.47815 52.47476 167.99394 297
2252.04150 451.78522 80.98161 495
390.59467 40.79591 171.67976 316
413.85855 46.81299 171.89798 308
465.27783 59.96516 167.94411 297
2236.04224 514.56110 81.33057 495
2390.76025 554.17291 144.22333 499
389.44226 45.86456 171.69374 316
441.42441 60.96348 164.87997 307
2220.43555 577.76807 81.38271 495
2273.64331 593.01801 147.25652 499
388.18762 50.92276 171.63731 316
439.64386 67.62032 164.90834 307
2256.01099 657.42645 77.48334 498
2299.44800 672.09381 146.15886 490
386.77805 55.88852 171.62616 316
433.61786 72.74496 165.87274 424
2272.61401 735.07471 146.13327 487
385.24509 60.85924 171.62454 316
425.41986 76.77377 167.41069 430
407.04877 75.88165 164.73557 316
421.57486 82.20322 167.75050 305
404.76657 81.39484 164.76828 316
419.32950 88.21906 167.70026 305
402.27750 86.79708 164.76801 317
395.39688 89.77425 166.07864 429
388.20480 92.27900 167.46303 434
384.88507 96.75401 167.64632 315
382.09738 101.61792 167.64043 313
967.13208 944.30127 98.76254 490
972.69025 951.44318 137.53822 425
22165.08203 34554.52344 -6534.97998 0
75.32815 964.96533 88.04726 477
39.46729 1192.06409 97.82962 496
45.69156 955.91125 88.65838 448
46.46888 951.33923 121.40701 498
0.62488 1192.70972 137.24295 495
15.08969 951.80902 88.21146 470
16.61809 944.99445 121.52504 499
6.83692 988.09033 150.52769 282
-15.22566 946.00354 88.12469 471
-13.25570 938.78925 121.20097 499
-48.35832 1074.86902 144.00426 276
-45.45319 939.94403 87.84370 470
-43.51369 932.58722 120.94984 498
-87.78737 1085.53162 142.68687 280
-76.10881 933.74500 87.42256 469
-73.70652 926.53625 120.86636 497
-76.33865 934.33600 152.21936 486
-106.74982 927.32526 86.93355 468
-104.23996 920.32727 120.20631 496
-106.92860 928.16998 152.06847 486
-137.89748 921.97003 86.01997 441
-134.97252 913.98706 119.68622 495
-137.82925 921.74786 151.62933 485
-169.98512 917.42261 84.91148 440
-165.81192 907.79449 119.20790 493
-266.59695 1140.51245 135.37224 495
-202.58221 912.66925 83.73435 438
-197.41203 901.34869 118.43269 492
-270.83939 1057.26379 140.04314 494
-235.89569 907.77136 82.39645 436
-229.36368 894.80786 117.78525 490
-242.45551 920.19446 148.87926 313
-350.87897 1133.29419 175.19746 489
-269.62155 902.34711 80.87884 419
-262.05472 888.26221 116.86204 487
-264.60425 893.00616 149.73416 487
-391.28918 1123.80872 174.86978 493
-304.77597 897.97882 79.08319 417
-295.04156 881.56128 115.69624 485
-298.12213 886.68463 149.13872 484
-427.19073 1105.08960 174.49159 453
-341.09601 893.53931 77.08260 403
-329.17215 874.98145 114.48495 478
-332.08499 879.65369 148.34261 482
-423.03082 1022.59113 176.91478 482
124.65228 148.86789 168.04694 489
-381.64865 894.17798 74.07052 381
-364.75027 868.98523 112.89860 416
-370.67120 877.53223 147.02832 457
-372.41965 880.54895 181.63638 333
118.12354 147.92752 167.26958 441
-405.23431 868.20142 110.67482 444
-414.07587 880.42615 145.12952 392
111.42471 147.00961 166.41669 314
-452.98114 874.48413 107.48466 341
-468.12820 894.13977 142.28751 275
104.02064 146.56239 165.25325 419
-510.24673 889.21539 102.72340 353
-514.90845 894.86163 140.37012 358
95.18923 147.38153 163.59570 424
-581.42657 914.86182 96.51764 339
-580.70807 914.06439 136.69037 371
-1894.26318 2404.30493 111.51543 467
-1893.94067 2404.56714 216.47446 494
90.37103 143.28625 163.55066 311
78.28826 156.16414 166.31224 305
-657.64490 940.12219 131.98422 355
106.79439 117.95247 171.49718 316
73.20348 151.49078 166.27016 305
103.04008 114.05701 171.54123 316
66.44801 148.47273 165.66884 409
99.44365 110.11642 171.54143 316
55.49202 148.91312 163.71161 403
96.01987 106.03545 171.58826 316
77.24424 121.55376 171.75577 308
92.68011 101.86772 171.62642 316
73.44456 116.76543 171.80580 308
24.57313 154.66989 166.04076 297
89.45712 97.57026 171.63000 316
69.84511 111.84558 171.80069 308
16.86086 150.34114 165.31900 389
86.38377 93.22131 171.67207 316
66.34595 106.84050 171.84988 308
1.78337 150.70540 162.86630 382
83.45581 88.78524 171.71059 316
62.98378 101.74808 171.89218 308
36.09851 118.79676 172.07074 300
80.65131 84.27668 171.72437 316
59.84710 96.54286 171.88428 308
32.47975 112.75533 172.09561 300
-43.28684 157.50423 165.14488 286
78.00916 79.63414 171.74789 316
56.84395 91.28017 171.92627 308
37.93371 101.69865 174.19928 319
-53.22446 151.78749 164.18375 373
75.46021 74.97955 171.76117 316
60.52442 82.62444 173.64117 385
50.74239 87.60075 177.79166 325
27.05659 99.63370 179.93951 292
73.13148 70.22248 171.78482 316
64.19147 74.46404 175.27045 390
56.77278 77.93420 179.72313 300
21.45201 94.53210 179.51981 314
-24.03835 115.94143 180.36188 343
74.18392 64.01960 172.79881 386
67.67048 66.80265 176.79552 381
54.39046 72.57839 179.76335 300
32.91528 81.85611 182.12883 336
20.30108 87.31654 187.29974 315
-1.14068 96.60966 192.30469 283
76.53178 57.51320 174.04556 420
71.13277 59.67989 178.18768 386
47.60820 68.97289 178.79968 389
40.01818 71.96120 183.86427 373
31.26476 75.42967 189.25272 368
19.07259 80.24876 194.78604 332
1.88335 87.10836 200.81071 311
77.88865 51.68134 174.97804 423
72.82703 53.53371 179.10190 419
51.12862 61.31087 180.00830 393
44.13032 63.84933 184.98248 388
36.51778 66.56408 190.30191 373
27.57417 69.81738 195.94400 368
17.73847 73.35671 202.11534 332
79.24841 46.10628 175.85535 427
72.99266 48.13683 179.59737 308
54.35032 54.18616 181.09792 410
47.83391 56.29003 185.98122 393
40.71975 58.57656 191.20636 388
33.04734 61.12272 196.78448 372
23.97674 64.06213 202.72055 367
80.59233 40.71323 176.63919 432
71.44659 43.37364 179.61041 308
56.56305 47.67204 181.95042 421
50.62622 49.41795 186.79353 409
44.23556 51.25645 191.90402 404
37.34574 53.26144 197.40100 399
29.56758 55.50344 203.24312 382
81.86150 35.53617 177.39403 435
63.73780 40.19889 178.08066 429
58.48566 41.50542 182.67393 424
52.97889 42.92393 187.46913 420
46.93462 44.51937 192.50162 408
40.37927 46.15796 197.88757 403
33.31586 47.97273 203.66127 397
25.46828 49.99833 209.78564 355
83.03252 30.55488 178.01004 457
65.46264 34.44471 178.83530 432
60.36325 35.58509 183.34398 428
55.00153 36.81543 188.04938 423
49.39273 38.04626 193.03888 418
43.18813 39.45244 198.31566 406
36.47238 40.95274 203.93120 401
29.11190 42.60583 210.00221 361
-184.69548 90.43218 216.43594 296
83.19322 25.88622 178.38289 459
66.99620 28.98116 179.45142 455
62.22929 29.91468 183.91818 431
57.00844 30.87721 188.60989 426
51.53617 31.93886 193.50005 421
45.77180 33.05810 198.71806 416
39.46662 34.24974 204.26251 405
32.53510 35.55307 210.12524 399
-182.98398 76.68319 216.48415 424
83.40867 21.32316 178.68973 461
67.27546 23.88708 179.75304 456
62.71318 24.57890 184.23100 452
57.95847 25.33385 188.94270 447
52.96299 26.12615 193.84499 442
47.66775 26.97802 199.01865 437
42.08942 27.87688 204.48933 414
35.66129 28.87795 210.26990 402
83.66853 16.77859 178.95549 462
67.57344 18.83605 180.01074 457
63.03011 19.39810 184.49225 453
58.31718 19.99875 189.13403 448
53.36822 20.63434 194.04204 443
48.15514 21.27659 199.17133 438
42.65461 21.97423 204.62297 433
36.89730 22.68810 210.37601 428
83.94957 12.34233 179.18680 463
67.85622 13.84837 180.28426 459
63.41942 14.28013 184.68015 454
58.72464 14.73811 189.31181 450
53.80914 15.17179 194.19194 445
48.70211 15.68220 199.30222 440
43.30354 16.19485 204.69037 435
37.54889 16.72185 210.40936 429
84.20731 7.94499 179.37576 464
68.19779 8.92141 180.48796 460
63.77847 9.21785 184.86658 455
59.18333 9.52109 189.47917 451
54.34256 9.79801 194.30190 446
49.25646 10.13868 199.38348 441
43.91220 10.44956 204.77327 436
38.24648 10.79349 210.43105 430
-181.60585 24.66627 269.80719 486
-187.08183 25.04144 284.16476 360
84.32042 3.56136 179.52161 316
68.60210 4.07441 180.64706 461
64.21915 4.20845 185.04366 457
59.69165 4.34413 189.64542 452
54.88234 4.48157 194.45444 447
49.88163 4.65269 199.48720 442
44.56842 4.79841 204.85655 437
38.94220 5.01933 210.47940 431
-181.65900 11.95111 269.72284 487
