# .PCD v.7 - Point Cloud Data file format
VERSION .7
FIELDS x y z rgb
SIZE 4 4 4 4
TYPE F F F U
COUNT 1 1 1 1
WIDTH 482
HEIGHT 1
VIEWPOINT 6423.944824 -1221.820435 147.211121 -0.681065 -0.088329 -0.100915 0.719836
POINTS 482
DATA ascii
78.44547 -0.62364 179.54446 316
67.80998 -0.66063 181.87143 462
63.61210 -0.65767 186.12733 457
59.20752 -0.65564 190.56538 453
54.60860 -0.68868 195.23839 448
49.74792 -0.69680 200.12105 443
44.65515 -0.67597 205.31036 438
39.23261 -0.69935 210.77794 432
-152.26643 -1.16159 240.76196 419
-182.00366 -1.26304 269.04150 487
-151.60249 -1.12752 277.32172 284
78.82572 -4.94542 179.54076 316
67.44099 -5.33149 181.70581 461
63.16009 -5.47436 185.98613 456
58.73055 -5.64967 190.45006 452
54.07146 -5.79653 195.13187 447
49.20678 -5.93490 200.02652 442
44.01894 -6.11599 205.25043 437
38.57892 -6.29622 210.73718 431
-152.79231 -12.76568 240.77179 416
-181.88956 -13.74527 269.12509 487
-155.09424 -12.83148 277.96866 284
79.32190 -9.29504 179.56450 316
67.08871 -10.08066 181.51201 460
62.77542 -10.35349 185.79691 455
58.28443 -10.64785 190.25008 451
53.59385 -10.97564 194.99266 446
48.65184 -11.28252 199.91859 441
43.41185 -11.59966 205.15260 436
37.89030 -11.97590 210.66864 430
-181.92589 -26.26065 269.20261 486
79.98392 -13.57851 179.53023 316
66.78162 -14.87449 181.28125 459
62.43798 -15.27347 185.55594 454
57.85613 -15.71355 190.07713 449
53.07687 -16.21399 194.79414 445
48.08688 -16.65358 199.81796 440
42.81403 -17.20683 205.03922 435
37.21663 -17.72767 210.64706 429
-181.86531 -38.85767 269.33545 486
80.75298 -17.89159 179.55573 316
66.53166 -19.71219 181.01488 457
62.11650 -20.28498 185.32167 453
57.47864 -20.87363 189.87128 448
52.66004 -21.51542 194.64862 443
47.57166 -22.16700 199.67090 438
42.21303 -22.84529 204.96878 433
36.57266 -23.55593 210.56050 428
81.65823 -22.17116 179.55396 316
66.24389 -24.65167 180.71684 456
61.82508 -25.37857 185.06351 452
57.16673 -26.10124 189.64070 447
52.25748 -26.91704 194.42462 442
47.10557 -27.71276 199.49455 437
41.49913 -28.63155 204.81711 414
35.11189 -29.64374 210.49207 402
82.16701 -26.55091 179.40128 459
66.05882 -29.66496 180.39050 435
61.21319 -30.60359 184.72549 431
56.12897 -31.58752 189.27428 426
50.73212 -32.59331 194.06149 421
45.07714 -33.70569 199.17171 416
38.87467 -34.89469 204.57381 404
31.95639 -36.22287 210.31238 364
-182.99504 -77.68845 216.51785 424
81.99456 -31.13215 179.02646 457
64.39713 -35.10098 179.68170 432
59.44123 -36.20639 184.07545 427
54.16195 -37.41417 188.70795 423
48.62619 -38.63378 193.59821 418
42.55935 -40.02007 198.78363 406
35.90386 -41.51868 204.27328 401
28.53590 -43.18173 210.18336 358
-187.38062 -91.85892 216.51709 296
80.79923 -36.04139 178.29984 434
62.73402 -40.68919 178.90659 428
57.58392 -42.05569 183.37648 424
52.20213 -43.44520 188.11896 419
46.20067 -44.97405 193.05844 407
39.73491 -46.67940 198.29001 402
32.84002 -48.45543 203.94443 397
-188.44089 -105.74087 202.72839 484
79.55428 -41.13197 177.53703 430
61.06228 -46.57011 178.09608 425
55.73582 -48.13670 182.66229 420
49.83114 -49.82793 187.40913 409
43.50641 -51.70720 192.45935 404
36.73129 -53.68886 197.83467 387
29.05015 -55.94302 203.57388 382
78.28397 -46.45015 176.72002 427
69.14315 -49.44356 179.66129 308
53.51694 -54.56825 181.79854 410
47.08932 -56.68078 186.56468 392
40.09769 -58.96967 191.70332 388
32.44852 -61.44843 197.16440 372
23.46736 -64.41422 203.03809 366
77.00072 -52.01490 175.82387 423
71.02393 -54.17731 179.61736 308
50.35651 -61.65241 180.68018 393
43.42710 -64.16193 185.57579 388
35.85554 -66.90357 190.78798 372
27.02856 -70.05748 196.33662 367
17.18686 -73.65478 202.41322 332
75.65098 -57.77639 174.86301 420
70.30556 -59.88671 178.91772 386
46.88270 -69.22238 179.42154 388
39.35093 -72.20422 184.41168 372
30.62091 -75.65783 189.65395 367
18.43772 -80.51437 195.14001 331
1.13076 -87.44503 201.07103 310
73.32779 -64.22422 173.56221 386
67.00826 -66.99196 177.50459 395
42.91436 -77.45759 178.05009 373
32.14452 -82.09319 182.63757 335
19.50915 -87.59796 187.66748 315
-2.76492 -97.29981 192.52289 265
70.15522 -71.44816 171.91612 381
63.61988 -74.50963 176.03706 389
53.74215 -79.17573 179.80225 300
20.64800 -94.82111 179.97499 314
-26.85397 -117.26447 180.49257 284
72.55379 -76.23806 171.85034 316
60.04836 -82.61488 174.36890 384
50.40140 -87.53423 178.39319 325
24.29954 -100.89850 180.04764 292
75.20939 -80.86259 171.80096 316
54.09705 -92.53344 171.96814 308
37.62254 -101.64833 174.78664 318
-53.49086 -151.85315 164.72906 373
78.06607 -85.46248 171.80547 316
57.30899 -97.77995 171.96547 308
29.98849 -113.94067 172.18391 300
-45.88632 -158.97981 165.12793 286
81.05466 -89.97190 171.77357 316
60.64629 -102.95806 171.96130 308
33.86608 -119.98095 172.18478 300
84.16129 -94.37956 171.74628 316
64.13114 -107.97792 171.93173 308
1.29372 -150.83406 163.31416 383
87.38366 -98.73263 171.70717 316
67.82967 -112.97591 171.86447 308
16.27846 -150.50717 165.71765 389
90.75104 -102.95367 171.68196 316
71.65166 -117.84713 171.82706 308
22.81724 -155.78416 166.08540 297
94.28737 -107.09036 171.67752 316
47.84076 -145.61067 163.37012 300
97.92623 -111.14390 171.62888 316
54.97279 -149.09320 164.07901 404
101.65545 -115.12166 171.61270 316
66.00399 -148.66685 166.00813 410
105.55247 -118.95276 171.54266 316
72.09545 -152.50208 166.33392 306
89.27859 -144.37746 163.54973 307
77.30368 -157.15231 166.38338 305
94.93917 -147.61649 163.88683 425
103.84010 -146.83693 165.54007 420
-1911.45935 -2588.19702 216.80997 369
110.88412 -147.84183 166.44891 314
-1763.99475 -2569.53345 216.16811 289
118.01952 -148.42654 167.45274 316
-1670.12329 -2613.58716 216.57216 434
124.69250 -149.20932 168.23181 489
-1541.94910 -2605.75171 216.07829 411
-1595.74048 -2685.35596 429.13290 439
-1532.65674 -2775.82227 215.91739 419
-656.19806 -1495.18201 159.60121 494
10711.56738 -31998.02344 1319.94446 0
2369.71851 -2271.00391 113.96423 435
2482.78833 -2391.19751 216.49852 378
2460.19385 -2222.58862 113.50009 425
2457.12720 -2219.79468 216.70357 484
2572.42896 -2192.12598 111.79807 417
2694.80933 -2165.18457 109.44917 435
381.53378 -101.80354 167.67982 313
384.84760 -96.97417 167.71004 315
388.94833 -92.55450 167.44907 433
396.46579 -89.95920 166.13632 428
403.78583 -86.97371 164.80428 317
406.76245 -81.51709 164.80418 317
421.28336 -88.35832 167.74416 305
25610.19922 -11900.95801 -5359.13379 0
409.58258 -76.03872 164.78125 316
424.05518 -82.26846 167.80420 305
388.22205 -61.01395 171.67789 316
427.33539 -76.42566 167.71332 429
390.30240 -56.09361 171.70303 316
435.64801 -72.32950 166.27562 424
392.19159 -51.10295 171.73540 316
443.53339 -67.71356 164.91220 307
393.94748 -46.05465 171.72023 316
445.83508 -61.10417 164.94748 307
395.56192 -40.98708 171.76859 316
447.93674 -54.38138 164.92171 307
470.12515 -60.06205 167.96945 297
397.04184 -35.89882 171.73999 317
420.32809 -41.07899 171.99184 309
471.86728 -52.53423 167.99423 297
398.33829 -30.77539 171.77136 317
421.76471 -35.23604 172.00677 309
474.65692 -45.23423 167.85065 447
3322.91846 -586.28253 113.74916 451
399.46521 -25.62582 171.78539 317
423.02133 -29.34480 172.00298 309
481.80902 -38.61493 166.71561 443
3282.88574 -479.55673 115.56863 470
400.47067 -20.43336 171.79518 317
424.11185 -23.42779 172.02647 309
487.76129 -31.40465 165.77849 458
3246.88623 -377.64325 117.29530 482
401.27109 -15.23560 171.81094 317
425.02985 -17.49564 172.04657 309
456.09140 -20.36033 172.35757 301
3228.67407 -280.01685 117.92753 469
3271.91455 -284.59222 216.72382 494
401.96533 -10.05013 171.79308 317
425.75580 -11.49885 172.05141 309
456.89404 -13.43694 172.32217 301
3217.89087 -184.78433 118.60491 442
3255.98120 -187.60498 216.69070 496
402.45786 -4.80937 171.79475 317
426.26974 -5.53676 172.01413 309
452.85159 -6.35779 173.25491 295
3209.79248 -90.67329 119.28644 443
3250.63843 -92.18257 216.65361 497
3412.34961 -97.51609 320.48813 251
402.81772 0.40459 171.82352 317
426.63907 0.38726 172.03513 309
453.32541 0.44804 173.25378 295
3202.68677 1.89519 119.50477 419
3323.71777 2.06401 317.27136 488
403.00717 5.63214 171.82138 317
426.80536 6.39570 172.04805 309
453.49554 7.22256 173.23930 295
403.06851 10.80418 171.80133 317
426.80917 12.34121 172.02469 309
458.01727 14.33282 172.36563 301
3187.53174 187.28314 119.91672 397
402.92480 16.01798 171.82986 317
426.66125 18.29389 172.01772 309
492.79495 24.57868 165.32658 454
3180.72485 279.67825 119.54318 396
402.67181 21.20933 171.81255 317
426.28458 24.21319 172.03284 309
486.81827 31.90802 166.41844 458
3235.98730 380.76761 117.30323 494
402.21094 26.37668 171.77629 317
425.74966 30.10736 172.02406 309
480.80551 38.88576 167.42412 443
401.64444 31.54374 171.77966 316
425.06281 35.98933 172.01888 309
476.89233 45.88417 168.06549 297
400.87820 36.62627 171.76958 316
424.18179 41.87571 171.99049 309
475.94101 53.41129 167.93860 297
399.97607 41.69739 171.75421 316
452.41064 55.20037 164.95377 307
398.94580 46.75361 171.77235 316
450.87494 61.88382 164.95360 307
397.71573 51.78326 171.73605 316
444.36047 66.92759 166.09244 433
396.37192 56.71994 171.74385 316
436.71686 71.25861 167.55949 424
418.90262 71.13786 164.79259 316
433.53625 76.94006 167.79315 305
407.44623 77.95296 164.75595 316
422.03473 84.30949 167.76183 305
404.78690 83.46326 164.78522 316
400.37320 88.01660 165.22144 424
392.70444 90.71652 166.69998 429
386.45920 93.85013 167.69415 315
383.40659 98.74541 167.64088 313
380.22937 103.59312 167.61787 313
1055.71716 885.73969 57.25984 326
1050.93909 880.84265 97.99047 351
1004.49963 885.48969 61.56426 419
999.25122 879.12244 101.39388 437
955.32379 883.98950 65.99698 422
951.64636 879.28632 104.33992 442
908.65601 882.06787 70.01015 427
906.44751 879.38098 107.17489 447
864.48608 880.64258 73.70760 432
863.68793 879.55328 109.69810 452
822.05353 879.31470 76.78327 436
822.62256 879.78778 111.95844 454
781.92590 878.33777 79.94928 426
783.35065 880.45685 114.19102 437
755.04303 897.02313 44.76992 423
743.31970 877.10913 82.69402 423
744.77551 879.57635 116.23972 464
717.31006 896.27679 47.96688 421
705.75952 874.92120 85.35767 422
708.46118 879.89478 117.91659 468
680.93378 895.59711 50.94118 424
669.70563 873.23346 87.71525 471
673.17999 880.05457 119.43824 467
676.27515 886.13745 151.43863 473
646.35370 895.71283 53.40221 411
636.71161 875.75677 89.39278 486
640.21869 882.88867 120.59351 484
642.86023 888.86499 152.30457 490
613.80255 899.22827 54.96197 433
606.07635 881.17651 90.41891 435
609.53821 889.49878 121.12419 489
613.82574 899.29987 152.36418 470
583.42920 906.06659 55.79748 428
577.13739 890.62872 90.63101 276
581.26160 900.56201 121.34100 434
598.99512 945.44226 150.00818 337
553.84137 914.43799 56.31512 428
548.42810 899.77197 90.79185 497
600.95929 1045.97681 107.19530 479
597.26611 1035.69031 144.57120 330
524.89838 924.57428 56.34399 424
520.20044 909.65143 90.84217 495
569.54779 1062.56628 106.74730 409
496.13513 935.35608 55.83618 427
491.91223 920.77246 90.41578 492
540.64459 1089.95984 104.83747 472
467.99011 949.27502 54.73176 428
464.10947 934.26959 89.69505 483
500.91525 1078.14014 107.03458 425
439.84738 964.29132 53.45361 438
436.12775 947.82288 88.80261 482
461.57593 1063.17798 109.20673 437
407.78067 962.21973 87.55695 475
422.56870 1040.87988 112.34945 266
378.41147 974.86841 86.77074 480
349.24222 992.50574 85.04654 421
120.46691 149.05461 168.05910 489
112.04457 150.77594 166.41544 314
107.17438 147.21912 166.40134 314
99.60154 147.03006 165.21294 419
90.96168 147.50191 163.60858 424
86.04724 143.57492 163.50252 307
73.92876 156.43265 166.26826 305
102.56958 118.04057 171.54341 316
68.88013 151.77637 166.26413 305
98.86582 114.16791 171.56262 316
62.17075 148.62018 165.67505 409
95.25388 110.17188 171.58109 316
51.16876 149.05461 163.73784 403
91.79829 106.08639 171.63338 316
73.02342 121.59351 171.77153 308
88.41759 101.89755 171.66266 316
69.22875 116.82601 171.83136 308
20.08279 154.90988 165.99968 295
-1686.77454 1478.72729 58.12496 459
-1688.29895 1479.90784 137.20959 491
-1689.99377 1480.73901 216.70457 491
-52490.64062 40878.41406 11229.76758 0
74.53487 97.64605 171.77055 316
54.86907 111.88405 171.94572 308
0.97187 150.75804 165.28958 388
71.91068 93.26629 171.77913 316
51.82594 106.84772 171.94527 308
25.36189 124.72322 172.17149 300
69.45927 88.85728 171.83804 316
48.90623 101.74422 172.00357 308
21.93786 118.74947 172.18599 300
67.07684 84.30086 171.84155 316
46.21820 96.56770 172.02600 308
28.78061 106.76920 174.56764 266
-58.48966 158.08553 164.96812 288
64.89976 79.70372 171.86115 316
57.29073 83.82397 175.64523 322
47.07280 89.39710 179.34814 319
16.99894 105.81213 180.06715 292
67.57903 72.60521 173.31908 377
61.63002 75.62045 177.38951 385
46.62073 83.18042 179.77895 300
7.89008 102.79008 178.92125 281
70.71865 65.67223 174.79701 382
64.96726 68.38448 178.75545 390
38.67117 80.63976 178.55707 335
27.32076 85.96592 182.95491 330
12.42400 92.87251 187.59482 310
73.63454 59.24836 176.12990 416
66.72655 62.19940 179.62498 308
44.26120 71.86476 180.20074 384
36.30900 75.27496 185.00366 369
25.64363 79.84867 189.88446 331
11.28036 86.00163 195.08005 311
74.97919 53.74359 176.96190 420
65.17225 57.56467 179.64854 308
47.69379 64.46099 181.35793 389
40.83303 67.14941 186.13484 384
32.79153 70.31071 191.17049 368
23.86305 73.82247 196.61635 363
10.30090 79.15716 202.38608 312
76.33045 48.42424 177.74046 424
57.08167 55.31281 178.01213 411
51.03455 57.47818 182.38757 393
44.47431 59.79241 187.04918 389
37.41020 62.31996 192.06839 384
29.27889 65.21323 197.38197 368
20.21281 68.47105 203.21724 363
-54111.55469 19385.09180 11690.93457 0
77.68704 43.32054 178.40570 427
59.04443 49.31921 178.84006 422
53.59299 51.06670 183.22789 410
47.70258 52.97223 187.88017 405
41.22832 55.06086 192.82858 388
34.06030 57.34849 198.05779 383
25.80430 59.99414 203.71092 367
78.97375 38.35578 179.06651 431
60.77922 43.61698 179.52766 426
55.69054 45.07687 183.89308 421
50.14106 46.64595 188.52875 409
44.09610 48.41514 193.39130 404
37.63343 50.26077 198.54919 399
30.70694 52.26954 204.11984 394
79.87954 33.68777 179.55067 316
62.53292 38.09233 180.18747 429
57.54594 39.37402 184.51935 425
52.28642 40.69646 189.06900 420
46.65415 42.14395 193.86295 408
40.44482 43.68243 198.94833 403
33.78507 45.38573 204.43805 398
-200.02805 104.80874 202.67020 288
79.18752 29.47062 179.55496 316
64.21342 32.75586 180.76160 432
59.38715 33.82205 185.07231 428
54.26801 34.98021 189.55879 423
48.91401 36.16143 194.29495 418
43.15288 37.41121 199.32086 407
36.74675 38.84726 204.67386 401
29.53558 40.43669 210.39647 358
-182.75085 87.25675 216.54251 438
78.66754 25.21646 179.53986 316
65.41883 27.69584 181.21724 455
61.02512 28.52094 185.50999 450
56.23888 29.44999 190.02153 426
51.01425 30.38996 194.70517 422
45.46805 31.44700 199.63403 417
39.56566 32.57524 204.94530 405
32.86165 33.83855 210.54250 364
-182.95410 74.44170 216.57303 424
78.25801 20.92399 179.56229 316
65.75652 22.86757 181.42607 456
61.38759 23.56819 185.69977 452
56.81215 24.25167 190.17680 447
52.02785 25.00998 194.91725 442
46.98417 25.78121 199.85663 437
41.63971 26.65211 205.11375 432
35.95734 27.52075 210.66737 403
77.98256 16.61973 179.54758 316
66.09949 18.12210 181.55325 458
61.76435 18.64235 185.84982 453
57.22959 19.19561 190.32962 448
52.49846 19.77432 195.02477 444
47.48758 20.40564 199.92612 438
42.22521 21.07892 205.16614 434
36.67130 21.72387 210.71716 428
77.80583 12.33033 179.57504 316
66.46481 13.35658 181.71291 459
62.19464 13.77919 185.95151 454
57.65688 14.18567 190.42424 450
52.99535 14.61075 195.08667 445
48.04840 15.04308 200.03273 440
42.83503 15.56467 205.22693 435
37.32684 16.03607 210.70476 429
77.82392 8.00195 179.55989 316
66.87966 8.64443 181.79626 460
62.61912 8.91261 186.06271 456
58.20763 9.20811 190.51628 451
53.52895 9.49266 195.16719 446
48.62618 9.76619 200.07870 441
43.49578 10.09951 205.28343 436
38.00536 10.39518 210.75826 430
-181.94339 23.75175 269.04791 486
-186.75537 23.96825 283.12396 496
-186.69580 24.02229 296.72192 495
77.92388 3.67598 179.57617 316
67.38293 3.99635 181.89433 461
63.13561 4.11573 186.14468 457
58.72973 4.21623 190.59512 452
54.13167 4.38310 195.24013 447
49.23588 4.50530 200.12192 442
44.14597 4.65396 205.31329 437
38.68699 4.80319 210.75186 431
-181.97562 11.20114 268.98932 487
