# .PCD v.7 - Point Cloud Data file format
VERSION .7
FIELDS x y z rgb
SIZE 4 4 4 4
TYPE F F F U
COUNT 1 1 1 1
WIDTH 442
HEIGHT 1
VIEWPOINT 6452.248535 -2072.519775 148.225616 -0.770740 -0.070414 -0.115497 0.622626
POINTS 442
DATA ascii
85.65699 -0.13433 178.86873 467
69.72701 -0.17021 180.03119 462
65.29859 -0.18720 184.51706 457
60.70624 -0.17662 189.18657 453
55.83590 -0.19325 194.04332 448
50.75048 -0.20108 199.22028 443
45.39576 -0.19525 204.62785 438
39.68991 -0.20941 210.37344 432
-181.42650 -0.44103 270.14651 487
-142.05440 -0.41704 277.26193 284
85.33067 -4.57703 178.65311 465
69.31970 -5.09483 179.80775 461
64.84430 -5.24730 184.32184 456
60.15543 -5.38960 189.03355 452
55.30638 -5.57812 193.91487 447
50.15321 -5.70650 199.08128 442
44.75708 -5.87525 204.56027 437
39.00913 -6.05972 210.31287 431
-181.39734 -13.20299 270.19019 487
-146.95404 -12.14612 278.08939 284
85.03835 -9.05301 178.45158 464
68.96899 -10.09377 179.61397 460
64.41778 -10.35452 184.13831 455
59.70285 -10.65625 188.84515 451
54.77665 -10.98025 193.78790 446
49.57593 -11.28852 198.96381 441
44.06525 -11.66491 204.49498 436
38.27965 -12.00219 210.29034 430
-181.34526 -26.07302 270.22775 486
84.79532 -13.57294 178.19746 463
68.62784 -15.11289 179.37119 459
64.04847 -15.54555 183.88977 454
59.27267 -15.98832 188.62875 449
54.25979 -16.48455 193.60226 445
48.96936 -16.95356 198.84496 440
43.43653 -17.52713 204.39958 435
37.57471 -18.05101 210.20450 429
84.54383 -18.14934 177.90605 462
68.36812 -20.22543 179.09552 457
63.71698 -20.77935 183.67958 453
58.89035 -21.39020 188.43095 448
53.79149 -22.04824 193.41699 443
48.45728 -22.72073 198.68259 438
42.79203 -23.45220 204.28697 433
36.88205 -24.23520 210.16586 428
84.36951 -22.79557 177.60698 461
68.09939 -25.38055 178.81313 456
63.42490 -26.12428 183.39572 452
58.54480 -26.90215 188.19664 447
53.37474 -27.70148 193.21648 442
47.94336 -28.60273 198.54961 419
41.77697 -29.56665 204.11417 414
35.05431 -30.64422 210.08980 402
84.16440 -27.51387 177.24940 459
67.60567 -30.67182 178.40587 435
62.52067 -31.66167 182.96368 431
57.18660 -32.70749 187.73557 426
51.54052 -33.77489 192.80354 421
45.57125 -34.88580 198.18011 416
39.00295 -36.17595 203.84796 404
31.82780 -37.52560 209.92125 399
-182.98390 -78.66124 216.43890 424
83.83807 -32.38674 176.79253 438
73.97010 -34.55658 179.61774 308
60.65159 -37.56775 182.29904 427
55.14189 -38.78107 187.17546 423
49.29930 -40.08915 192.30812 418
42.88273 -41.55397 197.74315 406
35.89032 -43.08573 203.55310 401
28.39102 -44.80761 209.73782 361
-190.45464 -93.82193 216.49286 296
82.51838 -37.55783 176.06770 435
75.43714 -39.37967 179.56975 308
58.74023 -43.67538 181.57401 424
53.03610 -45.13465 186.55814 419
46.72810 -46.80389 191.71086 407
39.89212 -48.53047 197.24565 402
32.65349 -50.40117 203.19159 397
24.37440 -52.56135 209.57576 341
81.19100 -42.95849 175.27364 432
76.27584 -44.40448 179.38800 426
56.80219 -50.06859 180.82466 421
50.56133 -51.91413 185.78496 409
43.92303 -53.80453 191.09692 404
36.47770 -55.97261 196.69267 387
28.18219 -58.41396 202.77855 371
79.87513 -48.58657 174.38281 429
74.80303 -50.21024 178.58751 423
54.24377 -56.88474 179.85675 397
47.33050 -59.15237 184.90550 393
39.96571 -61.57394 190.27045 388
31.74103 -64.22000 195.99086 372
22.25971 -67.32225 202.18846 367
78.51041 -54.38031 173.47093 425
73.23644 -56.30360 177.73869 419
50.80975 -64.40041 178.68004 393
43.51553 -66.99637 183.83395 388
35.32933 -69.97612 189.30719 372
25.99647 -73.30798 195.12086 367
13.44136 -77.87654 201.39651 316
77.13904 -60.49017 172.42734 420
70.76585 -63.00985 176.55000 386
58.21704 -67.97188 179.73863 300
39.00682 -75.57832 182.56155 373
28.12108 -79.90942 187.90390 336
14.18578 -85.42888 193.60713 316
-10.82112 -95.34207 199.49303 267
77.14885 -66.20065 171.76953 316
67.21638 -70.53420 175.04791 381
60.68948 -73.32986 179.74754 300
29.77579 -86.73094 180.42206 335
15.17836 -93.03548 185.60413 315
79.56789 -71.02066 171.76489 316
63.39749 -78.60320 173.38162 377
57.22745 -81.48783 178.34927 386
11.15739 -103.19131 176.46571 286
-17.41557 -116.63475 180.38191 284
72.22489 -75.58598 171.84459 316
60.46114 -81.68596 174.57825 384
51.59224 -86.23288 178.74689 324
24.00441 -100.48221 180.01794 292
74.91814 -80.26092 171.82722 316
53.81098 -91.97514 171.96617 308
38.73096 -100.38006 175.09155 317
-53.78606 -151.91283 164.63794 374
77.77550 -84.82036 171.77370 316
57.01661 -97.23970 171.95027 308
29.73504 -113.53481 172.22478 300
-46.10397 -158.92952 165.17297 286
80.76677 -89.33460 171.76767 316
60.41086 -102.37824 171.94914 308
33.60744 -119.58939 172.19000 300
83.88319 -93.74011 171.76271 316
63.89845 -107.48151 171.91777 308
0.70430 -150.90169 163.26665 384
87.14275 -98.08628 171.70432 316
67.58258 -112.43822 171.87843 308
15.71509 -150.50040 165.62337 390
90.55516 -102.31771 171.69514 316
71.44900 -117.28185 171.84209 308
22.66798 -155.51381 166.14510 297
94.07191 -106.45620 171.67204 316
75.42373 -122.06190 171.79272 308
97.71779 -110.53337 171.64285 316
54.30513 -149.15140 163.91397 404
101.49007 -114.47041 171.58690 316
65.33649 -148.70088 165.81154 410
105.38781 -118.31863 171.55910 316
71.99830 -152.04538 166.31650 305
-1858.90125 -2099.98315 217.51447 351
89.22237 -143.72781 163.57822 307
77.19751 -156.66734 166.35934 305
-1709.31006 -2076.12842 217.18619 406
94.33635 -147.61465 163.69852 425
-1598.60510 -2084.67065 217.62114 366
103.29374 -146.87502 165.34813 420
-1571.41858 -2189.06396 217.43976 371
110.85417 -147.28148 166.48569 314
-1404.30530 -2117.22290 217.32832 438
117.66982 -148.22072 167.28809 441
-1462.17236 -2342.22461 217.59427 366
124.44207 -148.99879 168.11180 489
-1227.94873 -2156.41138 217.04453 291
-1140.57532 -2170.74316 217.05779 291
-1055.19458 -2185.04590 216.98381 292
-1086.23303 -2408.11182 217.65689 372
-165.19792 -1370.16125 123.22393 425
2375.63843 -2936.00952 217.10693 460
2484.69458 -2891.20923 216.32643 475
2608.64478 -2860.56787 216.59550 461
2771.90771 -2867.65405 216.61075 412
1712.50134 -1566.21448 146.05383 494
2961.98853 -2894.47534 216.61992 406
385.21249 -95.05950 167.72668 315
390.91641 -91.90397 166.81540 433
398.23053 -89.36111 165.40718 428
402.83237 -85.10992 164.77084 317
405.35254 -79.74983 164.78915 317
419.74115 -86.42659 167.76987 305
384.11658 -64.20300 171.64532 316
422.11392 -80.41800 167.81960 305
385.87170 -59.36713 171.68129 316
428.36392 -75.90594 166.84389 429
387.49329 -54.46711 171.68402 316
436.64359 -71.89780 165.36264 423
3889.16431 -1296.63794 89.55148 369
3996.13184 -1333.71460 216.93835 281
388.93616 -49.52442 171.68231 316
440.33777 -65.95359 164.91476 307
3889.88379 -1168.67822 90.16572 435
3925.37158 -1180.40796 216.50623 497
390.26431 -44.50016 171.70477 316
442.19843 -59.34659 164.91202 307
3908.49829 -1049.09033 91.36082 475
3951.80908 -1061.04016 216.53682 498
391.42810 -39.48528 171.73289 316
414.67892 -45.33352 171.93861 309
465.87164 -58.26323 167.96309 297
3927.22754 -930.43604 91.68089 497
4050.94824 -961.37811 345.87741 492
392.46350 -34.43140 171.71683 317
415.83353 -39.53583 171.95406 309
468.40579 -51.07293 167.78650 451
3948.08203 -812.19153 91.82339 496
393.29749 -29.33446 171.72723 317
416.81461 -33.70221 171.94884 309
475.32904 -44.60613 166.62251 447
3967.48169 -695.03119 91.86024 497
394.01093 -24.20000 171.72083 317
417.67001 -27.81567 171.97772 309
482.55017 -37.85344 165.47672 461
4095.13257 -594.43433 87.91470 428
394.55408 -19.04970 171.73163 317
418.31042 -21.97305 171.94061 309
449.40265 -25.76252 172.28432 301
22455.63086 -2711.88892 -1251.71704 0
394.96240 -13.85909 171.73030 317
418.77090 -16.02913 171.95131 309
449.99823 -18.83193 172.29535 301
395.19720 -8.69051 171.71942 317
419.02057 -10.10118 171.95073 309
450.32050 -11.91638 172.30385 301
395.22369 -3.51714 171.71893 317
419.12738 -4.17206 171.97179 309
450.45175 -5.00349 172.29106 301
395.16959 1.71296 171.74529 317
419.06064 1.78095 171.99214 309
450.37015 1.88358 172.28198 301
394.90659 6.87534 171.73734 317
418.81604 7.74423 171.96388 309
450.10486 8.81979 172.24115 301
394.53210 12.08088 171.72865 317
418.39359 13.66384 171.97620 309
449.66586 15.77478 172.24879 301
393.94269 17.24136 171.70573 317
417.74658 19.62457 171.97321 309
448.93860 22.68871 172.25494 301
393.23184 22.44986 171.70410 317
416.95773 25.51682 171.92139 309
483.41037 34.15073 165.14816 301
392.37250 27.59472 171.69946 317
415.99432 31.40137 171.93530 309
478.03311 41.41895 165.96593 444
391.34445 32.68545 171.67236 317
414.83167 37.27735 171.93205 309
470.86935 48.14663 167.11281 448
390.13068 37.82782 171.68062 316
413.53027 43.12709 171.91745 309
464.88474 54.78724 167.95538 297
388.81668 42.85746 171.65131 316
411.99625 48.89854 171.90596 309
463.20877 62.28024 167.88597 297
2035.87952 471.57812 93.92643 383
387.29553 47.91853 171.65370 316
439.03528 63.10394 164.87993 307
1959.11206 509.89948 38.32351 381
1936.33398 503.35495 99.77432 389
385.63150 52.88133 171.65221 316
436.91702 69.73653 164.86192 308
1867.08447 539.28668 46.44351 387
1846.25586 532.51752 104.78156 396
383.84015 57.83146 171.60870 316
429.87726 74.56647 166.00450 425
1779.25745 565.00336 53.85880 369
1762.53052 559.14996 109.18938 401
381.90396 62.74632 171.58139 316
421.62570 78.59161 167.46149 430
1700.27466 589.19958 59.86655 387
1694.12158 586.50464 112.92178 442
403.18649 77.78749 164.74319 317
417.66956 84.11420 167.76259 305
1643.71252 618.84912 63.93694 409
1653.78284 623.24701 114.48878 297
400.57892 83.28058 164.75050 317
414.96375 90.14090 167.70166 305
1596.39404 649.97571 66.79382 422
1849.51025 769.92828 98.70220 498
397.67844 88.64218 164.72476 317
1556.17896 682.95190 69.23487 435
1699.43896 756.35791 107.88367 479
390.33960 91.55132 166.06413 429
1520.01904 716.64008 70.86447 437
1698.35083 815.18463 106.16304 302
382.96835 94.10258 167.40990 434
1485.86951 750.34326 71.79507 450
379.05151 98.46001 167.65399 315
1453.65259 784.24951 72.70669 401
375.88211 103.26864 167.62238 313
14597.09082 22719.93555 -665.24567 0
198.47523 2180.03174 1.23943 496
198.44818 2186.31250 72.64944 428
-8664.88867 54327.33203 -8881.00000 0
-3791.57544 9150.75586 1530.50806 0
127.11987 148.11613 170.36105 472
120.40672 149.01074 169.13673 489
110.27840 154.48337 166.41628 314
105.80871 151.08195 166.37991 314
101.44384 147.56006 166.36806 314
94.21555 147.36667 165.13780 429
86.24729 147.68848 163.65480 424
81.60249 143.90738 163.48405 307
69.41704 156.77930 166.27985 305
98.83005 118.33949 171.58238 316
64.90267 152.04523 166.26431 305
95.58324 114.50366 171.61540 316
58.85988 148.75983 165.72917 409
92.44724 110.52283 171.63319 316
48.34253 149.19827 163.78955 403
89.45201 106.45258 171.63638 316
70.66508 121.87617 171.82661 308
86.57781 102.28072 171.66156 316
67.33605 117.10177 171.81007 308
17.88334 155.16348 166.00830 295
83.82456 98.02528 171.69875 316
64.12392 112.20048 171.87212 308
11.12873 150.48247 165.42932 388
81.21667 93.67136 171.69774 316
61.13926 107.22745 171.86311 308
-3.46961 150.87234 162.94334 382
78.69560 89.20389 171.73540 316
58.23575 102.16319 171.91452 308
31.29417 119.13428 172.15746 300
76.40356 84.69733 171.74147 316
55.52721 96.98093 171.95035 308
28.07903 113.04817 172.14264 300
-48.35514 157.99953 165.09760 288
74.16306 80.08720 171.79079 316
52.94708 91.69682 171.93468 308
39.89437 98.82526 175.51418 319
13.84105 113.09673 177.61221 271
72.12315 75.43174 171.80833 316
60.53679 81.30886 174.57866 385
51.95694 85.62360 178.83865 325
23.64829 100.01536 179.98080 292
70.58624 70.55058 171.90804 382
64.05583 73.56896 176.01839 390
53.84676 78.36350 179.75819 300
22.38702 93.04638 180.26628 315
-27.14164 116.20296 180.41650 284
73.77852 63.58775 173.40971 386
67.38535 66.38023 177.36493 395
43.47255 76.66066 177.92833 373
33.16337 81.09036 182.61609 336
20.97206 86.31017 187.76076 316
1.37311 94.75088 192.88246 284
76.08965 57.38420 174.53906 420
70.75253 59.51456 178.64803 387
47.32336 68.72278 179.21223 389
39.86670 71.67957 184.18553 373
31.15630 75.09914 189.54599 368
19.30214 79.74394 195.05963 332
2.55599 86.34599 201.06259 311
77.52263 51.80103 175.32732 424
72.48240 53.60106 179.44116 419
50.82360 61.31055 180.32132 393
43.90823 63.79129 185.22968 389
36.33893 66.52833 190.54546 373
27.47354 69.70755 196.12405 368
17.79474 73.14736 202.27220 333
78.93684 46.38309 176.08118 427
71.92941 48.63889 179.57866 308
54.05243 54.40343 181.27945 410
47.55295 56.49208 186.16573 393
40.50568 58.78513 191.34581 388
32.82367 61.22184 196.87369 373
23.76484 64.18855 202.85310 367
80.30813 41.15578 176.75801 432
70.83491 43.85553 179.60362 308
56.32989 48.03123 182.01886 421
50.36080 49.75599 186.84894 409
43.98160 51.63731 192.00298 404
37.06350 53.59451 197.46278 387
29.30546 55.84792 203.33769 382
81.67563 36.07689 177.37930 436
63.53642 40.68720 178.10851 429
58.26869 42.05726 182.67857 424
52.74107 43.45415 187.48347 420
46.69096 44.95791 192.53302 408
40.08484 46.66407 197.89955 403
33.07248 48.44259 203.63680 398
25.15281 50.49487 209.83894 269
83.02865 31.13325 177.94412 458
65.27985 35.06281 178.72784 432
60.17631 36.20173 183.23616 428
54.85349 37.39547 188.00185 423
49.14535 38.65949 192.98100 418
42.96263 40.05078 198.30536 406
36.20842 41.52995 203.95180 401
28.81687 43.14881 209.99333 358
-185.11922 90.56672 216.57169 296
83.32568 26.58568 178.19617 459
67.03333 29.62120 179.29585 435
62.09714 30.56538 183.76569 431
56.88335 31.54172 188.48129 426
51.38237 32.59562 193.37965 422
45.55637 33.69437 198.65527 417
39.18674 34.93107 204.21799 405
32.18342 36.24743 210.13908 399
-182.94968 76.89168 216.50098 424
83.63424 22.02027 178.41013 461
67.45377 24.57240 179.51091 456
62.84061 25.29609 184.01083 452
58.02925 26.03839 188.76492 447
52.98912 26.83273 193.71254 442
47.68465 27.66799 198.93581 437
41.86491 28.58732 204.39525 415
35.33224 29.58391 210.23950 403
83.94975 17.52653 178.56616 462
67.82687 19.53524 179.71849 458
63.27228 20.12496 184.19135 453
58.49371 20.70065 188.89046 448
53.48457 21.34883 193.84766 444
48.21728 22.01026 199.00354 438
42.70082 22.70265 204.51117 433
36.83244 23.42772 210.33229 428
84.30595 13.08087 178.71201 463
68.21331 14.58925 179.84085 459
63.70082 14.99686 184.32362 454
58.97830 15.44605 189.01723 450
53.98396 15.87401 193.93987 445
48.82755 16.39108 199.09457 440
43.35751 16.88065 204.57680 435
37.56013 17.41602 210.33913 429
84.69719 8.65091 178.81090 464
68.63686 9.64199 179.97678 460
64.12652 9.89317 184.43578 455
59.46126 10.20119 189.09038 451
54.55909 10.48868 194.02151 446
49.42520 10.79009 199.16499 441
44.01303 11.13770 204.62404 436
38.25446 11.48589 210.35638 430
-181.39973 25.00609 270.12210 486
-187.68404 25.41777 284.73007 360
85.13430 4.22242 178.90428 465
69.09587 4.69928 180.06155 461
64.68918 4.85015 184.49814 457
60.02032 4.99729 189.20392 452
55.19078 5.12785 194.06694 447
50.05137 5.30418 199.21732 442
44.66851 5.43857 204.65279 437
38.98167 5.62822 210.38081 431
-181.47334 12.25666 270.04675 487
