# .PCD v.7 - Point Cloud Data file format
VERSION .7
FIELDS x y z rgb
SIZE 4 4 4 4
TYPE F F F U
COUNT 1 1 1 1
WIDTH 419
HEIGHT 1
VIEWPOINT 4296.168945 -4100.602539 132.147552 -0.004933 -0.111617 -0.002989 0.993735
POINTS 419
DATA ascii
82.48161 -0.80793 179.54068 316
68.61273 -0.80493 181.09509 462
64.30598 -0.80753 185.44489 457
59.80370 -0.81876 189.96832 453
55.09429 -0.81966 194.72609 448
50.16276 -0.83063 199.72075 443
44.94906 -0.83371 204.98236 438
39.42946 -0.81855 210.59859 432
-152.63809 -0.79047 240.99034 419
-181.79617 -0.80564 269.47079 487
-147.58482 -0.80802 277.35440 284
82.53542 -5.13695 179.52077 316
68.12028 -5.61202 180.97433 461
63.79935 -5.72340 185.31490 456
59.28014 -5.86365 189.88158 452
54.49747 -6.01010 194.66734 447
49.53427 -6.17301 199.67377 442
44.28351 -6.33518 204.94237 437
38.73329 -6.50146 210.54129 431
-152.86028 -12.52455 241.04140 416
-181.68494 -13.39729 269.50018 487
-151.54631 -12.52203 277.99301 285
82.69102 -9.47341 179.54089 316
67.70233 -10.43854 180.82114 460
63.29200 -10.68533 185.20181 455
58.74463 -10.97989 189.76404 451
53.94244 -11.30657 194.55626 446
48.91541 -11.61242 199.58659 441
43.64458 -11.94170 204.92143 436
38.02670 -12.28320 210.52647 430
-181.67659 -26.09716 269.55402 486
83.01099 -13.82589 179.54092 316
67.35089 -15.27176 180.64165 459
62.92785 -15.68556 185.05200 454
58.27865 -16.13152 189.63950 449
53.43397 -16.60556 194.42535 445
48.35722 -17.07008 199.46391 440
42.98837 -17.61061 204.84656 435
37.29951 -18.12486 210.47795 429
-181.63063 -38.82940 269.70300 486
83.06327 -18.18914 179.42479 462
66.98313 -20.20238 180.46822 457
62.53472 -20.77743 184.86125 453
57.86054 -21.37774 189.47638 448
52.96864 -21.99387 194.28696 443
47.78547 -22.62809 199.37607 438
42.34062 -23.32014 204.76128 433
36.61349 -24.04176 210.43463 428
82.78132 -22.61045 179.18901 461
66.69251 -25.16362 180.20216 456
62.17796 -25.89902 184.67049 452
57.45290 -26.62078 189.27997 447
52.52704 -27.42763 194.15092 442
47.31624 -28.23038 199.27142 437
41.41492 -29.17307 204.64354 414
34.99598 -30.20588 210.36371 402
82.56172 -27.11095 178.89986 459
66.25469 -30.24490 179.92273 435
61.35773 -31.18083 184.31036 431
56.22729 -32.13580 188.93900 426
50.82423 -33.20044 193.80260 421
45.08379 -34.26715 198.92540 416
38.74230 -35.47564 204.38870 404
31.82526 -36.80145 210.26321 364
-182.97717 -77.73321 216.51306 424
82.24902 -31.69328 178.60362 438
64.56602 -35.67361 179.27177 432
59.53099 -36.76783 183.74947 428
54.21197 -37.97040 188.41141 423
48.61873 -39.24538 193.33516 418
42.44905 -40.57852 198.57466 406
35.76716 -42.11169 204.10277 401
28.37122 -43.76007 210.08646 358
-187.64868 -91.99094 216.57944 296
80.97490 -36.61995 177.94301 435
62.82555 -41.29259 178.57524 429
57.66394 -42.63959 183.11563 424
52.17103 -44.01098 187.87463 420
46.10876 -45.56704 192.85901 408
39.63432 -47.24673 198.14467 402
32.62641 -49.04852 203.81564 397
-188.40068 -105.74564 202.79367 484
79.64323 -41.71651 177.26326 430
68.52874 -44.94000 179.66507 308
55.73902 -48.68821 182.42619 421
49.78909 -50.37913 187.17621 409
43.44485 -52.23647 192.26617 404
36.52723 -54.23689 197.66756 387
28.76262 -56.48360 203.47635 371
78.31318 -47.02271 176.51163 427
69.91030 -49.71590 179.63304 308
53.43365 -55.06693 181.61478 410
46.91975 -57.21201 186.43567 393
39.86221 -59.46593 191.56828 388
32.19966 -61.97308 197.05315 372
23.16871 -64.89945 202.93100 367
76.92384 -52.49342 175.70126 423
71.44780 -54.46785 179.62520 308
50.16351 -62.12988 180.53316 393
43.27470 -64.59027 185.47235 388
35.61602 -67.38074 190.70718 372
26.77856 -70.52647 196.29350 367
16.61374 -74.18525 202.37589 332
75.57494 -58.17200 174.78467 420
70.07252 -60.37250 178.83070 386
46.70256 -69.58547 179.39708 388
39.11303 -72.60937 184.36398 373
30.21765 -76.10828 189.60870 336
18.04483 -80.98661 195.11211 331
0.62392 -87.84618 201.03015 311
73.10701 -64.57796 173.54567 386
66.78529 -67.27916 177.52730 395
42.69758 -77.73243 178.04697 373
31.79980 -82.41060 182.62958 336
19.07742 -87.93571 187.67445 315
-4.19207 -98.04999 192.43483 265
69.88759 -71.68642 171.98645 381
63.46589 -74.69527 176.09941 390
53.14838 -79.55250 179.78191 300
20.37078 -94.94238 180.03059 314
-27.62240 -117.56234 180.46288 284
71.69909 -76.58829 171.82855 316
59.87510 -82.63900 174.53902 384
50.24977 -87.50726 178.55518 325
23.33183 -101.26047 180.05141 292
74.05328 -81.26955 171.84111 316
52.93434 -92.92081 171.99023 308
37.70083 -101.27759 175.11520 319
-54.38212 -151.85019 164.81334 373
76.60280 -85.90487 171.81068 316
55.78466 -98.21091 171.98666 308
28.43804 -114.38567 172.19141 300
-47.78957 -159.45732 165.11238 288
79.22682 -90.39803 171.76244 316
58.80824 -103.38611 171.97192 308
31.96126 -120.40831 172.18320 300
82.06155 -94.85914 171.74805 316
62.02993 -108.48075 171.90135 308
-0.43609 -150.90782 163.43477 382
84.96181 -99.22845 171.73312 316
65.33035 -113.48955 171.92245 308
14.35084 -150.58498 165.93033 389
89.13573 -102.78496 171.67683 316
70.05633 -117.56089 171.84880 308
21.16719 -155.47838 166.08948 297
92.34040 -106.88983 171.65605 316
73.67043 -122.31234 171.81822 308
95.61606 -110.94339 171.62558 316
52.15741 -149.24690 163.94882 403
99.04825 -114.92169 171.63596 316
62.95226 -148.81964 165.87468 409
102.61120 -118.74291 171.58998 316
69.00328 -152.33463 166.33932 305
85.85429 -144.23943 163.55128 307
73.86203 -156.98717 166.32382 305
90.99106 -147.75085 163.82106 424
99.35806 -147.28572 165.38831 419
106.51358 -147.77260 166.48592 314
111.18021 -151.27811 166.47391 314
119.32996 -149.69745 168.05675 273
126.98992 -148.23053 169.51636 441
-275.28564 -1928.99463 85.54433 494
-277.05908 -1936.43823 150.97267 493
219.87704 -1437.49048 121.89622 405
219.91602 -1447.80103 168.88293 340
368.27884 -108.49145 167.60477 313
371.51367 -103.76038 167.65790 315
374.63956 -98.97356 167.65062 315
380.22147 -95.60609 166.86818 434
387.62683 -93.00774 165.46271 429
392.94724 -88.99014 164.75458 317
395.69675 -83.55415 164.73892 317
410.06522 -90.35902 167.75400 305
374.87930 -67.93194 171.54793 316
412.62766 -84.23824 167.83435 305
374.83701 -62.28843 171.53371 317
419.76251 -80.05959 165.99503 429
376.66602 -57.35613 171.57806 317
426.69501 -75.42094 164.86617 308
378.31497 -52.41183 171.57521 317
429.04382 -68.90130 164.88689 308
265.97867 -14.32181 203.49757 314
402.56204 -54.06754 171.83771 309
452.60522 -68.59634 167.89667 298
266.38873 -12.89086 203.50244 314
404.11511 -48.28754 171.84074 309
454.78494 -61.29359 167.85695 424
266.75269 -11.43976 203.50031 314
405.50903 -42.51864 171.87370 309
463.67703 -55.49130 166.40384 452
267.08298 -9.98178 203.50203 314
406.71780 -36.64127 171.86063 309
470.74142 -48.90419 165.33560 448
267.35587 -8.51497 203.50410 314
407.77023 -30.78500 171.88370 309
473.30515 -41.21704 165.08949 300
267.58063 -7.04014 203.49886 314
408.60818 -24.87434 171.88350 309
439.37030 -28.78446 172.14180 301
267.76242 -5.54361 203.50769 314
409.27286 -18.94837 171.89020 309
440.15115 -21.87178 172.20071 301
267.90045 -4.06064 203.50670 314
409.80789 -13.00677 171.85652 309
440.72940 -14.96087 172.17575 301
267.99164 -2.56750 203.50946 314
410.07617 -7.08581 171.87518 309
441.08588 -8.01629 172.16573 301
509.57635 -10.18685 168.25754 288
268.03528 -1.06396 203.50720 314
410.23874 -1.08321 171.87177 309
441.27078 -1.11477 172.21213 301
509.50858 -1.14025 168.32773 288
264.52856 0.32361 204.45000 314
410.21341 4.88860 171.89897 309
441.20746 5.84721 172.19432 301
509.75470 7.95933 168.25027 288
267.99069 1.93072 203.50359 314
409.99731 10.85501 171.85635 309
441.01410 12.78949 172.20068 301
267.89441 3.42802 203.50874 314
409.56241 16.80989 171.84517 309
440.50470 19.70577 172.14856 301
267.75153 4.92770 203.50243 314
409.01978 22.75527 171.84090 309
439.87753 26.62945 172.15312 301
267.55383 6.40981 203.49771 314
408.24258 28.66135 171.85147 309
473.97672 39.05170 165.05980 300
267.31436 7.89300 203.50972 314
407.27548 34.56133 171.82460 309
472.14926 46.96257 165.16864 448
4866.07812 884.25000 367.88376 432
267.04053 9.38115 203.50366 314
406.17978 40.45011 171.85754 309
465.03690 53.60400 166.31267 452
266.70969 10.84811 203.49934 314
404.89261 46.28325 171.80913 309
456.59286 59.55212 167.67836 424
266.33212 12.30227 203.50287 314
403.43231 52.12160 171.78423 309
453.77557 66.73520 167.88829 297
265.90491 13.74585 203.50223 314
430.09625 67.03619 164.82600 308
265.44489 15.17213 203.50397 314
427.82706 73.58659 164.86661 308
375.70184 60.43106 171.53407 316
421.57425 78.59236 165.82898 429
373.76178 65.33054 171.49786 316
413.53552 82.50816 167.20226 435
394.72531 80.99880 164.67197 317
408.74390 87.57618 167.73288 305
392.02484 86.43721 164.69063 317
406.16196 93.58457 167.69800 305
389.14798 91.74044 164.72932 317
381.90228 94.49261 166.06288 434
374.77130 96.91165 167.32416 439
370.86441 101.22308 167.61752 315
367.65738 105.96114 167.58934 315
37156.25781 36925.50781 -4932.79492 1000
2960.02100 5820.12402 216.42197 499
2733.43359 5803.13525 216.57567 423
2522.18188 5812.99756 217.42741 401
2582.14111 5961.73096 425.94928 479
1408.65771 3299.27246 216.33847 469
1297.52356 3312.81616 216.95332 472
269.18561 1542.39209 115.42655 284
-4495.35254 49892.06641 -9750.33691 1000
-237.05647 2049.17578 80.31027 440
-236.62154 2047.89331 149.16194 481
-236.78625 2047.53625 218.04465 499
-236.50427 2048.21582 286.60233 492
118.14114 150.04973 167.41518 316
111.17713 149.84100 166.36528 314
106.48993 146.39578 166.41446 314
98.26315 147.11765 164.88481 419
89.95367 147.42036 163.39923 307
85.72337 142.86493 163.54051 307
73.56384 155.79922 166.30005 305
102.43871 117.38682 171.54575 315
68.63631 151.18077 166.24460 305
98.83807 113.57240 171.55487 315
61.47737 148.63620 165.49017 409
95.33022 109.63335 171.57755 315
50.59627 149.08864 163.56947 403
91.95084 105.61378 171.64325 316
73.21736 121.09362 171.77519 308
88.71766 101.45965 171.65593 316
69.52337 116.35772 171.82297 308
20.34796 154.57300 165.99904 295
85.65351 97.22083 171.68495 316
66.01199 111.50789 171.82401 308
12.43755 150.45547 165.27185 389
82.67718 92.91405 171.70737 316
62.61660 106.54913 171.89185 308
-2.49876 150.82317 162.83868 382
79.84386 88.47999 171.73773 316
59.39276 101.46935 171.91920 308
32.49749 118.55775 172.11554 300
77.15334 84.01230 171.75900 316
56.30340 96.33113 171.93037 308
28.91539 112.57124 172.16988 300
-47.58614 157.85571 165.07454 286
74.59030 79.42641 171.79648 316
53.40316 91.07120 171.95610 308
40.71138 98.04865 175.58742 319
16.13069 111.58759 177.95462 270
72.18746 74.79076 171.79913 316
60.93480 80.50066 174.67415 384
53.04274 84.51430 179.02414 325
1.09564 111.04232 175.82358 293
71.02935 69.55839 172.13040 381
64.52315 72.60998 176.24463 390
53.63523 77.73983 179.77130 300
23.62375 91.87100 180.51845 314
-5.61497 105.60897 183.55054 264
74.21887 62.49734 173.69167 386
67.84134 65.24837 177.65506 395
43.92631 75.58617 178.17372 373
34.17717 79.86402 182.96150 336
22.06475 85.06638 187.99792 331
4.52767 92.67725 193.31171 283
76.17074 56.33076 174.82234 420
71.03196 58.36285 178.93567 415
47.75433 67.59367 179.51086 388
40.40855 70.49761 184.48418 373
31.76523 73.92956 189.73427 368
20.55525 78.38159 195.30290 331
4.33691 84.81020 201.25305 311
77.54905 50.65259 175.73412 423
71.81606 52.69386 179.62018 308
51.22084 60.16523 180.65964 393
44.30507 62.61516 185.53578 388
36.91376 65.26392 190.75996 373
28.17307 68.46167 196.36887 367
18.57086 71.90749 202.41698 362
78.89500 45.19285 176.56729 427
70.25108 47.98766 179.60240 308
54.20629 53.19706 181.69301 410
47.93142 55.24971 186.52968 393
40.95747 57.51207 191.63005 388
33.44714 59.93951 197.08604 383
24.57951 62.85664 202.98909 367
80.21883 39.91591 177.31317 430
61.69302 45.29251 177.91359 425
56.36364 46.84368 182.50003 421
50.56379 48.54449 187.23431 409
44.22665 50.40942 192.32153 404
37.50009 52.34627 197.72057 399
29.97127 54.54224 203.46913 382
81.49704 34.85741 177.99745 435
63.42838 39.48027 178.67563 429
58.29092 40.81990 183.18591 424
52.85246 42.20723 187.92671 419
46.90976 43.76415 192.90401 408
40.41154 45.39392 198.17067 403
33.47932 47.18626 203.84035 397
25.51534 49.23085 209.91881 269
82.51997 30.01520 178.58151 457
65.13783 33.88177 179.36247 432
60.15915 35.01918 183.82339 428
54.84172 36.17569 188.47943 423
49.26816 37.42076 193.40762 418
43.23169 38.76970 198.62762 406
36.57895 40.27000 204.12337 401
29.26455 41.91923 210.06845 358
-183.85623 89.62910 216.60806 296
82.70686 25.45403 178.91240 459
66.56615 28.54602 179.95879 455
61.93526 29.40570 184.39011 431
56.83216 30.37721 188.98952 426
51.41416 31.41081 193.84456 421
45.69458 32.48699 198.95865 416
39.54321 33.70189 204.45348 404
32.67598 35.01257 210.23035 399
-182.90991 76.10276 216.62881 424
82.95168 20.94328 179.18819 461
66.84064 23.49609 180.24512 456
62.33698 24.19815 184.64218 452
57.61829 24.97975 189.26703 447
52.71131 25.76263 194.15414 442
47.47157 26.56503 199.25090 437
41.95749 27.42796 204.64992 432
35.78449 28.43433 210.39853 402
83.19675 16.52205 179.41142 462
67.13058 18.55083 180.48334 457
62.69496 19.11820 184.86890 453
58.04075 19.68825 189.47374 448
53.13880 20.31842 194.31064 443
47.96896 20.95125 199.39326 438
42.53521 21.64551 204.76138 433
36.82319 22.34854 210.48860 428
82.99536 12.15571 179.51578 316
67.45761 13.62554 180.70837 459
63.04874 14.06487 185.05013 454
58.40390 14.48816 189.62872 449
53.58589 14.91678 194.46255 445
48.53839 15.41405 199.49356 440
43.16218 15.92453 204.85641 435
37.48925 16.45317 210.49164 429
82.65264 7.81525 179.53262 316
67.84784 8.77180 180.88260 460
63.44913 9.05082 185.24832 456
58.87190 9.31765 189.78387 451
54.12527 9.62310 194.57024 446
49.11179 9.95679 199.61127 441
43.77982 10.29849 204.91948 436
38.18240 10.60330 210.56726 430
-181.68523 24.50790 269.71884 486
-186.73332 24.80319 283.97141 496
82.42767 3.48825 179.53061 316
68.23589 3.92663 181.03046 461
63.92886 4.07919 185.37369 456
59.39370 4.19953 189.92345 452
54.66299 4.36183 194.70613 447
49.67573 4.54643 199.70657 442
44.42919 4.69122 205.00459 437
38.86700 4.86856 210.61945 431
-181.66510 11.78741 269.56006 487
