# .PCD v.7 - Point Cloud Data file format
VERSION .7
FIELDS x y z rgb
SIZE 4 4 4 4
TYPE F F F U
COUNT 1 1 1 1
WIDTH 508
HEIGHT 1
VIEWPOINT 6591.261230 -104.191742 144.218506 -0.640160 -0.099293 -0.083727 0.757183
POINTS 508
DATA ascii
84.50268 -0.75571 179.49998 316
69.00277 -0.76929 180.69438 462
64.63646 -0.76693 185.12440 457
60.07724 -0.77169 189.71913 453
55.29609 -0.77360 194.52316 448
50.29604 -0.75068 199.58005 443
44.97595 -0.77352 204.91653 438
39.38376 -0.76320 210.59346 432
-181.50899 -0.78881 269.81046 487
-144.17264 -0.73882 277.27780 284
84.43824 -5.12133 179.51198 465
68.49255 -5.60221 180.59477 461
64.08222 -5.75210 185.00673 456
59.51243 -5.88472 189.62300 452
54.69970 -6.07619 194.46326 447
49.67455 -6.20396 199.51254 442
44.33105 -6.35988 204.90517 437
38.71765 -6.55862 210.55585 431
-181.53329 -13.51096 269.83395 487
-150.14658 -12.50520 278.15701 285
84.08617 -9.49649 179.39220 464
68.08161 -10.51671 180.44902 460
63.63015 -10.76294 184.86324 455
58.95930 -11.07498 189.52489 451
54.13467 -11.35626 194.37396 446
49.03613 -11.70890 199.46153 441
43.69374 -12.01490 204.85791 436
37.98398 -12.37702 210.53790 430
-181.56723 -26.19393 269.92877 486
83.75906 -13.90468 179.21945 463
67.66417 -15.42745 180.29538 459
63.22059 -15.85207 184.75580 454
58.50878 -16.28646 189.35954 449
53.58923 -16.73423 194.21957 445
48.45356 -17.24653 199.37704 440
43.02029 -17.73806 204.74953 435
37.31762 -18.29098 210.48526 429
-181.54887 -38.93248 270.05499 486
83.41358 -18.32672 179.03185 462
67.32497 -20.36513 180.13855 457
62.81798 -20.92760 184.56905 453
58.08308 -21.52875 189.22658 448
53.11444 -22.17593 194.10910 443
47.92971 -22.83299 199.26463 438
42.36937 -23.50357 204.70532 433
36.57383 -24.26947 210.42726 428
-66184.62500 -8390.46484 15826.23633 0
83.15826 -22.81094 178.82697 461
66.98037 -25.38731 179.91467 456
62.44214 -26.09540 184.36676 452
57.67411 -26.86562 189.06316 447
52.65638 -27.64833 193.94504 442
47.36766 -28.48225 199.12523 419
41.40560 -29.40435 204.57782 414
34.85662 -30.44080 210.34419 402
82.89169 -27.34448 178.57086 459
66.48415 -30.48768 179.58014 435
61.54663 -31.42517 184.04233 431
56.36612 -32.39213 188.67233 426
50.86004 -33.47009 193.61101 421
45.06995 -34.55659 198.79897 416
38.69643 -35.76042 204.34724 404
31.70918 -37.13193 210.24516 364
-182.96913 -78.02903 216.55647 424
82.50244 -31.97567 178.23579 438
64.77375 -35.94867 178.95074 432
59.69535 -37.07758 183.46669 428
54.34040 -38.24559 188.18393 423
48.68340 -39.51814 193.15872 418
42.45650 -40.91952 198.42831 406
35.69830 -42.43030 204.04080 401
28.22696 -44.12299 210.06279 358
-188.73743 -92.55461 216.52570 296
81.18269 -36.93419 177.60567 435
62.99607 -41.56862 178.31187 429
57.77262 -42.93725 182.82854 424
52.28421 -44.31689 187.65073 420
46.16546 -45.93079 192.64087 408
39.58795 -47.60764 197.99203 402
32.52480 -49.41335 203.76978 397
-188.45164 -106.13808 202.70842 484
79.85076 -42.04436 176.94568 430
69.83163 -44.95745 179.66002 308
55.85089 -48.98678 182.18842 421
49.86039 -50.75005 186.97610 409
43.43861 -52.58511 192.10240 404
36.44030 -54.63683 197.55849 387
28.57423 -56.90402 203.35320 371
78.51697 -47.30278 176.20177 427
71.18011 -49.70348 179.61609 308
53.52992 -55.41282 181.39059 410
46.90755 -57.55410 186.20761 393
39.84630 -59.89151 191.34673 388
32.01642 -62.43950 196.92345 372
22.92534 -65.34478 202.83322 367
77.14017 -52.77024 175.38481 423
72.08275 -54.60107 179.50085 419
50.21745 -62.49468 180.28423 393
43.25788 -64.98801 185.26509 388
35.52840 -67.75117 190.50539 372
26.61921 -70.97677 196.12964 367
16.16639 -74.76205 202.22621 332
75.72676 -58.50391 174.54926 420
70.14298 -60.72235 178.58891 386
46.70141 -69.99179 179.15262 388
39.04364 -73.02769 184.11958 373
29.90949 -76.60997 189.43040 336
17.53559 -81.55426 194.93872 316
-0.10225 -88.49225 200.91080 311
73.20329 -64.89922 173.24211 386
66.78574 -67.65747 177.27383 395
42.62838 -78.13692 177.81552 340
31.56172 -82.90968 182.38509 336
18.66447 -88.52579 187.46371 315
-7.18958 -99.72427 191.98495 265
70.41626 -71.75098 171.86469 316
63.44406 -75.05389 175.84480 390
54.11141 -79.42858 179.80333 300
19.98406 -95.49548 179.79562 314
-26.62324 -117.45112 180.47871 284
72.54926 -76.49810 171.82375 316
59.85165 -82.98237 174.31487 384
49.96165 -87.98812 178.30608 325
24.22177 -101.12991 180.03346 292
74.84665 -81.17305 171.83275 316
53.69117 -92.80061 171.97690 308
37.43183 -101.70624 174.82323 319
-53.82322 -151.93465 164.75084 373
77.28836 -85.74681 171.77809 316
56.49693 -98.04637 171.95543 308
29.13486 -114.16628 172.21400 300
-46.97580 -159.24086 165.10631 286
79.83340 -90.22580 171.78873 316
59.42337 -103.19128 171.95135 308
32.60274 -120.22805 172.15742 300
82.55563 -94.65611 171.73180 316
62.51622 -108.28321 171.93947 308
-0.15848 -150.89017 163.39090 382
85.39656 -99.02399 171.72729 316
65.81592 -113.23978 171.87950 308
14.46093 -150.54114 165.82663 389
81.21265 -103.02975 171.78880 316
62.10516 -117.81576 171.94226 308
12.50377 -156.27985 165.95474 295
84.64192 -107.15260 171.72411 316
66.01358 -122.59312 171.90338 308
88.19349 -111.20409 171.70367 316
44.76585 -149.51173 164.02129 403
91.84937 -115.17637 171.69458 316
55.72853 -149.07318 165.96257 409
95.67160 -119.01089 171.64333 316
61.79478 -152.84149 166.32526 306
-2581.72461 -2796.36206 87.25031 324
78.92450 -144.75821 163.53575 307
66.93441 -157.53513 166.29883 305
-2348.10938 -2728.77051 93.34978 386
84.54585 -148.02242 163.86433 424
-2147.92480 -2680.71216 99.42120 392
92.99569 -147.67552 165.37526 430
-1988.36157 -2664.16724 102.56538 417
100.42984 -148.17717 166.48083 314
-2033.48364 -2899.50928 95.71226 441
105.33862 -151.68533 166.45621 314
110.35606 -155.06842 166.46545 314
121.57749 -148.67030 169.51653 441
127.78805 -149.35689 170.20108 390
219.26183 -1065.01819 76.30947 367
253.01709 -1064.75195 76.14342 356
4518.06689 -16736.20898 1915.02576 0
1381.88416 -2109.21753 137.54817 434
1433.50427 -2047.52612 138.14902 471
1488.17126 -1993.63684 138.87987 496
1547.89551 -1949.97900 138.87167 497
1613.74426 -1913.26282 139.05028 489
1689.51929 -1889.84888 137.64769 482
1767.46948 -1866.42346 136.66100 479
1848.18848 -1842.85999 135.63544 476
1930.80188 -1817.38452 134.46103 473
376.86819 -103.15786 167.66852 313
380.13202 -98.32372 167.67004 315
384.47855 -94.10389 167.31555 434
391.91534 -91.52718 165.97726 429
398.94528 -88.33944 164.77206 317
1325.27356 -560.31140 95.11845 454
1335.29346 -565.45721 134.88416 456
401.87531 -82.94447 164.78366 317
416.32117 -89.75134 167.74570 305
404.59604 -77.40889 164.78110 317
419.07010 -83.68367 167.82416 305
375.98468 -62.32226 171.55669 316
420.19907 -79.85379 166.28181 429
377.99524 -57.42421 171.59720 317
428.34259 -75.57249 164.88808 308
379.86118 -52.43607 171.59709 317
430.90424 -69.02046 164.84663 308
381.58920 -47.38136 171.60118 317
404.51126 -54.05517 171.82599 309
455.02783 -68.76744 167.91116 297
268.07584 -12.79697 203.49741 314
406.28214 -48.29243 171.87357 309
457.01633 -61.28234 167.97787 298
268.64938 -11.32734 203.50832 314
407.85324 -42.43261 171.88692 309
464.17712 -55.03572 166.92146 452
269.17810 -9.84183 203.50470 314
409.25174 -36.55451 171.85628 309
471.29770 -48.42227 165.86644 448
269.65985 -8.35486 203.50841 314
410.44434 -30.63774 171.90813 309
476.50018 -41.11763 165.09825 300
270.10196 -6.85940 203.50383 314
411.48584 -24.69432 171.92387 309
442.50177 -28.62333 172.19565 301
2272.73657 -260.00555 148.45578 420
270.48306 -5.34957 203.50060 314
412.34778 -18.76671 171.89964 309
443.51318 -21.69033 172.22914 301
2321.22583 -199.01759 77.82874 361
2230.65259 -190.60338 149.69762 457
270.82227 -3.84020 203.50275 314
413.05005 -12.79969 171.90157 309
444.23642 -14.77669 172.24728 301
2262.25049 -129.30420 81.90305 386
2198.34644 -125.30426 151.33861 452
271.12527 -2.33198 203.49854 314
413.52734 -6.82686 171.89554 309
444.76791 -7.76722 172.24559 301
2179.27197 -62.54107 87.87689 350
2174.56982 -61.90630 151.88106 407
271.36603 -0.81835 203.50504 314
413.87378 -0.80640 171.93748 309
445.12564 -0.83056 172.24345 301
2143.14941 -0.63342 89.94655 419
2155.57275 -0.59447 152.52347 362
2254.94604 -0.71137 215.66557 268
2176.73315 -0.59311 280.17615 492
271.57516 0.69399 203.50107 314
414.01303 5.16745 171.91786 309
445.27866 6.13002 172.23788 301
2119.54688 58.51448 91.82943 463
2140.26440 59.32759 152.94577 363
2161.81494 60.32521 216.18925 494
2161.10400 60.11124 279.58701 494
271.72333 2.20345 203.50072 314
413.95459 11.13992 171.93498 309
445.16324 13.10354 172.20509 301
2100.56860 117.04310 92.84485 467
2125.83691 118.83817 153.69690 364
2141.35986 119.95747 216.06625 495
2140.16211 119.75922 278.85754 495
271.81973 3.71230 203.50650 314
413.74765 17.12979 171.91357 309
444.88959 20.05240 172.21802 301
2085.36572 175.24077 93.44173 471
2118.50879 178.28534 153.71059 263
2131.73633 179.64586 216.02231 497
2125.41211 178.97589 278.57101 497
271.88113 5.22127 203.50636 314
413.30887 23.12113 171.89893 309
444.38004 27.04148 172.23926 301
2070.60620 232.35484 94.17178 471
2111.08521 237.78220 153.82976 263
2117.37354 238.23793 215.90219 498
2110.58716 237.50052 278.44296 498
271.93143 6.73714 203.49562 286
412.76776 29.03217 171.89799 309
478.85654 39.54957 165.13846 300
2056.69604 289.18317 94.66000 495
2102.48486 296.65726 153.94437 498
2102.64771 296.52005 216.13283 499
2102.07056 296.50372 278.08817 498
2188.33179 310.36618 346.61346 430
388.48557 30.48108 171.65828 317
411.98422 34.95307 171.89357 309
472.56268 46.51833 166.17110 448
2042.44983 345.88690 95.09149 496
2093.13745 355.53763 153.69678 263
2167.24463 369.94882 345.60291 496
387.69269 35.62240 171.67603 317
411.06854 40.85178 171.90619 309
465.58597 53.02156 167.30228 452
2028.11487 402.30081 95.15495 496
386.75034 40.75745 171.62947 316
409.91833 46.70700 171.86816 309
460.93854 59.75698 167.95363 297
2014.35645 458.82010 95.26267 496
385.64325 45.80499 171.64250 316
437.34628 60.84928 164.89204 308
459.45270 67.29827 167.86894 297
2000.37061 514.80969 95.29252 496
2054.42798 530.48224 153.91539 499
384.33408 50.85578 171.62553 316
435.61905 67.52505 164.86955 308
1986.09106 571.46448 95.09653 495
2267.62256 662.64087 146.10062 499
382.91818 55.84681 171.59837 316
432.01883 73.52479 165.26668 424
1973.02551 628.34760 94.32339 435
2069.63184 663.06122 151.79904 493
381.37189 60.77789 171.56952 316
423.72461 77.54353 166.79903 430
2066.91333 728.15601 86.64764 472
2037.26233 716.60516 152.74268 487
2050.15845 721.59656 216.31641 329
379.62366 65.66514 171.55484 316
417.45422 82.06738 167.75635 305
400.79782 81.36340 164.72946 317
415.18701 88.12851 167.71889 305
398.34238 86.75186 164.71919 317
392.95132 90.64336 165.59422 429
385.73587 93.12502 166.96606 434
380.84900 96.75620 167.63080 315
378.01419 101.62634 167.60179 313
746.26385 937.25739 75.66958 347
749.98517 943.94177 110.44526 272
716.43896 952.19409 75.71322 376
-203.79764 1197.25403 91.42355 494
-161.07753 979.76978 77.97628 475
-166.00584 992.44745 111.63988 303
-247.52925 1198.36865 132.43451 491
-194.00789 972.49878 77.04874 474
-190.07983 963.53473 113.24908 481
-229.65668 1054.76208 141.31158 296
-227.31200 964.95453 76.16951 474
-221.49654 952.38733 112.99120 498
-222.30664 954.39050 147.74905 490
-261.20770 957.29486 75.18036 472
-255.89302 947.24396 112.02495 473
-255.66959 946.34503 147.08943 489
-295.84406 950.14795 73.88865 467
-289.84540 939.19940 111.03651 471
-289.41428 938.64911 146.52994 487
-331.49811 943.11157 72.54369 465
-324.34589 931.20801 110.05094 469
-323.82587 930.30127 145.84973 485
-359.62573 922.90680 108.92587 467
-359.06473 922.09601 145.01999 482
124.70585 148.87999 168.02028 489
-395.50732 914.61682 107.78426 465
-394.89133 913.52979 144.32457 480
118.29127 147.90605 167.24425 441
-433.29953 907.39429 106.36159 439
-431.50018 905.06152 143.44714 477
-597.13092 1132.89941 171.09389 481
111.60876 147.00659 166.41539 314
-472.70648 900.14459 104.60329 438
-469.07571 895.86792 142.37672 478
-643.18262 1120.27881 170.45604 490
104.24324 146.55504 165.29852 419
-511.90512 891.32880 102.63259 435
-507.90369 886.68481 141.13058 474
-678.67059 1092.93030 170.24617 474
95.38908 147.36505 163.58385 424
-553.85095 883.91901 100.47430 417
-548.03143 877.15582 140.10832 470
-553.75134 883.82727 178.17926 468
90.57126 143.32416 163.55101 311
78.44650 156.21516 166.30283 305
-599.15570 877.84869 97.93244 407
-591.65179 870.08307 138.40355 444
-598.46252 877.07977 177.23692 438
106.98892 117.97734 171.49190 316
73.45584 151.53842 166.25496 305
-655.33496 880.16278 94.03635 372
-644.62573 869.59845 136.06351 415
103.31078 114.08286 171.51463 316
66.70337 148.44980 165.67676 409
-723.25958 890.52112 88.55630 349
-706.57330 874.65582 132.91190 393
99.73998 110.14203 171.56479 316
55.76267 148.86943 163.73856 403
-812.71405 914.70947 80.57436 343
-784.92316 890.36481 128.48625 360
96.30287 106.02821 171.58296 316
77.50027 121.56278 171.75060 308
-883.75610 916.68170 122.47379 330
92.96326 101.88203 171.60306 316
73.72562 116.78983 171.78935 308
24.85046 154.71072 166.05467 297
89.76888 97.60779 171.66827 316
70.10751 111.86221 171.78357 308
17.18917 150.35843 165.36955 389
86.73823 93.25882 171.68048 316
66.67899 106.88799 171.85390 308
2.20430 150.66608 162.90483 382
83.82481 88.80428 171.71254 316
63.34974 101.81869 171.84853 308
36.42182 118.89650 172.08702 300
81.02469 84.29450 171.71158 316
60.21595 96.61909 171.89966 308
32.78047 112.80617 172.13718 300
-43.01427 157.64989 165.15971 286
78.40295 79.67982 171.75061 316
57.22029 91.30566 171.92136 308
37.55828 102.14369 174.03458 319
-52.82843 151.84839 164.18570 373
75.93027 75.01260 171.74654 316
60.47779 82.88443 173.52869 384
50.44385 87.99516 177.62357 325
27.41991 99.68788 179.98741 292
73.55869 70.27592 171.78268 316
64.14130 74.67899 175.15172 390
57.20604 77.93103 179.71519 300
21.09056 94.91713 179.37189 314
-23.76826 116.09068 180.41872 284
74.21361 64.22407 172.63342 386
67.64129 67.06339 176.68770 381
54.80524 72.63477 179.73230 300
32.69013 82.21927 182.00810 336
19.92634 87.73927 187.19104 315
-2.49383 97.41814 192.14383 266
76.58604 57.70976 173.94341 420
71.13380 59.86448 178.06250 386
47.60480 69.17545 178.68011 389
39.96032 72.19569 183.76024 373
31.09651 75.72826 189.16914 336
18.75540 80.57588 194.71101 332
1.42529 87.45457 200.79700 311
77.99323 51.85991 174.85080 423
72.86359 53.70995 178.98550 419
51.14213 61.51575 179.93388 393
44.11457 64.05812 184.89227 388
36.45712 66.83975 190.25545 373
27.45906 70.02786 195.92912 367
17.42340 73.64275 202.08636 332
79.31792 46.25626 175.70311 427
73.53638 48.13173 179.56635 308
54.33012 54.38564 181.00111 410
47.80863 56.47413 185.88039 393
40.69820 58.83610 191.11533 388
32.98591 61.34209 196.69507 372
23.81995 64.25754 202.68413 367
80.66234 40.87461 176.51151 432
72.00211 43.38605 179.62154 308
56.58791 47.84939 181.85353 421
50.64482 49.59403 186.69363 409
44.20982 51.43831 191.85805 404
37.28865 53.46063 197.38359 387
29.50250 55.72744 203.25391 382
81.99199 35.63897 177.22423 435
63.81166 40.33314 177.95343 429
58.52999 41.67411 182.53824 424
52.99578 43.09570 187.37601 420
46.90467 44.62298 192.46815 408
40.35211 46.32951 197.82913 403
33.27351 48.17969 203.59787 397
25.34102 50.17104 209.77275 355
83.16697 30.63981 177.88350 457
65.52190 34.59092 178.69099 432
60.44954 35.75062 183.20872 428
55.08154 36.91210 187.95987 423
49.40949 38.19729 192.96275 418
43.18287 39.55619 198.27118 406
36.40415 41.11243 203.90099 401
29.04892 42.76104 209.97556 361
-185.36313 90.68016 216.46677 296
83.34518 25.98965 178.23653 459
67.13385 29.09628 179.33745 455
62.28518 30.00766 183.83731 431
57.06268 31.01754 188.49323 426
51.56188 32.03664 193.45398 421
45.75700 33.15799 198.67157 416
39.43965 34.34945 204.22473 404
32.48075 35.71381 210.12363 399
-183.02480 76.76656 216.47662 424
83.56398 21.39305 178.51611 461
67.41353 23.94073 179.62119 456
62.83843 24.68052 184.12199 452
58.05327 25.41899 188.84337 447
53.01266 26.22581 193.74924 442
47.73709 27.06780 198.95384 437
42.07368 27.96641 204.47446 414
35.61113 29.00570 210.29123 402
83.82565 16.85794 178.79723 462
67.66828 18.91669 179.91086 457
63.17634 19.48767 184.37413 453
58.40686 20.05346 189.05801 448
53.43563 20.71810 193.94260 443
48.20156 21.37054 199.09801 438
42.69684 22.03551 204.57799 433
36.85133 22.78804 210.33875 428
84.09195 12.38295 179.00616 463
67.98997 13.90660 180.12466 459
63.52818 14.33905 184.56992 454
58.81216 14.76663 189.20868 450
53.91047 15.26017 194.12056 445
48.73529 15.72259 199.22882 440
43.35472 16.22285 204.63354 435
37.59808 16.78728 210.41095 429
84.37821 7.95937 179.22679 464
68.36546 8.96704 180.31979 460
63.91060 9.25810 184.76286 455
59.26217 9.53017 189.39148 451
54.41931 9.82413 194.21748 446
49.34092 10.16154 199.35217 441
43.95043 10.48514 204.70605 436
38.28593 10.85483 210.45795 430
-181.54311 24.73100 269.85660 486
-187.13339 25.04652 284.42139 360
84.71703 3.55866 179.41719 465
68.76113 4.07379 180.47893 461
64.36793 4.22725 184.91411 456
59.77494 4.35026 189.52457 452
54.96357 4.50082 194.36424 447
49.94582 4.69278 199.42320 442
44.59776 4.80905 204.79042 437
38.98551 5.01343 210.45665 431
-181.59447 11.96369 269.78470 487
