# .PCD v.7 - Point Cloud Data file format
VERSION .7
FIELDS x y z rgb
SIZE 4 4 4 4
TYPE F F F U
COUNT 1 1 1 1
WIDTH 508
HEIGHT 1
VIEWPOINT 6579.916992 -170.801941 143.343048 -0.640062 -0.098276 -0.083320 0.757443
POINTS 508
DATA ascii
84.60201 -0.76128 179.50880 316
69.03046 -0.77038 180.69153 462
64.67421 -0.74631 185.07837 457
60.12288 -0.78597 189.64670 453
55.35387 -0.76698 194.49796 448
50.32122 -0.78202 199.55283 443
45.04337 -0.77924 204.87180 438
39.50006 -0.78374 210.49780 432
-152.76210 -0.71479 241.13516 419
-181.63046 -0.76339 269.70755 487
-145.21104 -0.78676 277.25305 284
84.46690 -5.12180 179.49519 465
68.49695 -5.62481 180.58249 461
64.11365 -5.73116 184.99242 456
59.55975 -5.91280 189.56279 452
54.77425 -6.02116 194.41623 447
49.70539 -6.21441 199.45392 442
44.40089 -6.37974 204.83238 437
38.75880 -6.55908 210.47922 431
-153.00862 -12.55520 241.09406 416
-181.64969 -13.44385 269.76260 487
-150.53343 -12.53135 278.14005 285
84.08266 -9.47998 179.36537 464
68.07685 -10.46385 180.43326 460
63.61764 -10.75887 184.84770 455
59.00312 -11.05762 189.46649 451
54.16782 -11.35063 194.33473 446
49.11312 -11.66547 199.40215 441
43.74383 -12.01464 204.75159 436
38.07294 -12.37467 210.46259 430
-181.61043 -26.22469 269.81134 486
83.74919 -13.85478 179.19398 463
67.67885 -15.39855 180.31052 459
63.22511 -15.80165 184.72343 454
58.54420 -16.24923 189.35719 449
53.64956 -16.71784 194.18407 445
48.49669 -17.18119 199.30748 440
43.07410 -17.72255 204.70671 435
37.35763 -18.25552 210.43030 429
-181.60397 -38.96152 269.88107 486
83.42731 -18.28579 179.03595 462
67.35661 -20.32975 180.09967 457
62.82064 -20.90927 184.54739 453
58.11909 -21.48584 189.21632 448
53.17477 -22.09784 194.05429 443
47.95086 -22.77875 199.21300 438
42.43983 -23.48108 204.65941 433
36.67369 -24.17562 210.39397 428
83.13863 -22.75189 178.80862 461
66.98293 -25.32180 179.88759 456
62.44015 -26.06014 184.35695 452
57.67876 -26.82123 189.02617 447
52.68455 -27.60979 193.91769 442
47.44463 -28.40532 199.07364 419
41.47684 -29.34550 204.50995 414
34.96479 -30.38095 210.32155 402
82.89393 -27.28963 178.58598 459
66.51699 -30.42378 179.58647 435
61.56375 -31.35943 184.04289 431
56.41298 -32.35654 188.68652 426
50.91351 -33.39017 193.58336 421
45.11594 -34.47270 198.79726 416
38.74929 -35.70067 204.28745 404
31.79937 -37.04463 210.15439 399
-182.96429 -78.03886 216.46794 424
82.50149 -31.90358 178.27229 438
64.80293 -35.87505 178.97342 432
59.71423 -37.01246 183.47514 428
54.36220 -38.21950 188.18611 423
48.75385 -39.46031 193.17493 418
42.52208 -40.85140 198.42255 406
35.78431 -42.36905 204.01122 401
28.31170 -44.03223 210.02174 358
-188.23744 -92.38542 216.49818 296
81.19850 -36.85302 177.61508 435
63.04142 -41.50780 178.30940 429
57.81140 -42.82860 182.83585 424
52.33261 -44.24711 187.63100 420
46.22115 -45.84585 192.64807 408
39.66079 -47.50700 197.99805 402
32.61783 -49.33754 203.69951 397
23.71543 -51.62596 209.83012 263
79.85163 -41.95616 176.95406 430
69.77113 -44.86147 179.63428 308
55.87572 -48.91883 182.16742 421
49.86687 -50.63952 187.00288 409
43.48008 -52.49934 192.11513 404
36.52654 -54.55069 197.51808 387
28.68458 -56.79611 203.33524 371
78.51519 -47.19767 176.23964 427
71.03912 -49.62668 179.62402 308
53.57162 -55.31132 181.41061 410
46.97283 -57.48120 186.21300 393
39.90170 -59.76221 191.38191 388
32.12342 -62.26716 196.89375 372
23.02374 -65.21964 202.85376 367
77.10585 -52.67548 175.42940 423
72.07955 -54.51362 179.53842 419
50.26961 -62.37633 180.35291 393
43.33198 -64.87814 185.25819 388
35.61940 -67.63968 190.49348 372
26.71488 -70.85014 196.16055 367
16.34011 -74.58379 202.22133 332
75.71940 -58.37720 174.59641 420
70.14762 -60.55793 178.61148 386
46.74603 -69.84947 179.20718 388
39.10969 -72.84271 184.15839 373
30.11968 -76.45744 189.41759 336
17.78333 -81.29161 194.99051 316
0.21696 -88.27217 200.95343 311
73.20004 -64.78259 173.34239 386
66.83801 -67.50909 177.29799 395
42.74261 -77.92175 177.86758 373
31.74638 -82.71397 182.46413 336
18.90129 -88.23426 187.47992 315
-5.73130 -98.88364 192.14935 265
70.20725 -71.72043 171.82709 316
63.48800 -74.84771 175.93419 390
53.91513 -79.37105 179.79214 300
20.25467 -95.20161 179.89130 314
-26.75367 -117.32699 180.47255 284
72.33983 -76.44762 171.81363 316
59.90924 -82.75325 174.37764 384
50.22418 -87.72776 178.41698 325
24.03164 -101.06184 180.05083 292
74.57692 -81.09186 171.83871 316
53.45529 -92.74973 172.00325 308
37.71972 -101.39526 174.95863 319
-54.19186 -151.87590 164.75514 373
77.00462 -85.68575 171.81618 316
56.21336 -97.98827 171.95256 308
28.88014 -114.13957 172.18442 300
-47.22761 -159.16237 165.11177 286
72.01409 -89.89951 171.82808 316
51.68255 -102.83342 172.01222 308
24.95303 -119.78163 172.25497 300
75.01488 -94.32303 171.79205 316
55.10658 -107.88512 171.97470 308
-8.50334 -151.12834 163.18242 382
78.19955 -98.69771 171.78694 316
58.67965 -112.84576 171.94160 308
6.52701 -150.71440 165.64211 389
81.48367 -102.94730 171.76701 316
62.42251 -117.74744 171.92203 308
12.91658 -156.14328 165.96448 295
84.91111 -107.07178 171.75502 316
66.24636 -122.49947 171.91536 308
88.46169 -111.14213 171.68402 316
44.93641 -149.51796 164.01089 403
92.13271 -115.13341 171.68556 316
55.95257 -149.05472 165.87743 409
-1518.86035 -1627.96484 137.94545 458
95.92030 -118.96732 171.63957 316
62.14952 -152.78165 166.31032 306
-2695.41479 -2909.41162 80.83248 284
79.18902 -144.66649 163.51802 307
67.21703 -157.47037 166.30148 305
-2368.85083 -2750.81079 91.70601 386
84.80129 -147.96542 163.86478 424
-2167.34204 -2702.77148 97.93359 392
93.28072 -147.67316 165.37843 430
-1985.96973 -2661.09473 102.50285 449
100.74338 -148.18854 166.45236 314
-1981.61792 -2832.37012 98.34454 440
105.63557 -151.67836 166.45209 314
-1888.86316 -2896.42041 98.27309 444
110.68376 -155.05429 166.48621 314
121.92289 -148.64323 169.50240 441
287.26236 -1065.94897 75.87563 387
320.86053 -1061.20557 76.27814 402
27793.88281 -54112.78125 -7782.11963 0
1459.54944 -2089.81519 137.06169 446
1513.68738 -2033.11694 137.49443 482
1570.57410 -1981.14490 138.37836 497
1632.06396 -1938.37793 137.81123 497
1702.01685 -1905.43579 137.34491 483
1780.49963 -1881.24988 136.76678 480
1861.50671 -1857.09204 135.55725 477
1944.84937 -1831.57849 134.47495 473
2031.69067 -1806.89136 132.88425 466
378.17889 -103.39242 167.64397 313
381.47479 -98.55407 167.68120 315
385.11102 -93.91544 167.56313 434
392.56561 -91.32385 166.19719 429
392.72830 -88.52460 164.74840 317
395.74396 -83.09943 164.71878 317
409.95944 -89.84468 167.75916 305
1393.27380 -552.74927 88.71358 378
375.05627 -67.43988 171.55272 316
412.75912 -83.77141 167.83553 305
377.23135 -62.57270 171.56985 316
420.57928 -79.70153 166.52815 429
379.25842 -57.59125 171.58087 316
429.10864 -75.54220 165.09338 424
381.13824 -52.60380 171.59666 316
432.39600 -69.28307 164.86673 308
382.89801 -47.55872 171.63928 316
434.67001 -62.58541 164.87630 308
456.83344 -69.02886 167.88853 297
384.47095 -42.49356 171.64192 316
407.77475 -48.47002 171.85345 309
458.81357 -61.54579 167.97696 297
385.91086 -37.34513 171.64803 316
409.33994 -42.60206 171.86852 309
464.31631 -54.89249 167.20976 452
387.16074 -32.16569 171.64502 317
410.75400 -36.69060 171.87462 309
471.42563 -48.27226 166.14098 448
270.94601 -8.41230 203.50313 314
411.96310 -30.73920 171.93391 309
478.24820 -41.25808 165.12712 300
271.39227 -6.89825 203.50418 314
413.02618 -24.80114 171.91031 309
444.25229 -28.73928 172.23505 301
2350.61279 -269.85275 146.65622 432
271.80569 -5.37328 203.50572 314
413.89676 -18.78854 171.90862 309
445.20535 -21.79748 172.20854 301
2308.84058 -197.88202 148.23860 447
272.16025 -3.85798 203.50092 314
414.58505 -12.83114 171.94194 309
445.97263 -14.77252 172.21523 301
2267.55859 -129.46489 149.48247 465
272.46622 -2.32310 203.51019 314
415.11380 -6.82254 171.95338 309
446.54538 -7.81417 172.23810 301
2298.12720 -65.82641 80.50601 406
2238.91602 -64.05360 150.55014 429
272.73874 -0.79183 203.50510 314
415.42838 -0.79046 171.94342 309
446.85992 -0.82801 172.25290 301
2225.65332 -0.66844 85.30791 292
2217.27588 -0.68025 151.53166 411
2349.42139 -0.73142 216.91177 268
2246.62476 -1.10840 282.96893 492
272.95160 0.73231 203.50021 314
415.56516 5.22625 171.91841 309
446.99622 6.17545 172.24501 301
2195.86499 61.14778 87.10922 367
2198.27222 61.22646 152.29205 414
2230.48584 61.99495 216.89450 494
2230.52075 62.24026 282.33212 493
391.62109 9.73664 171.71092 317
415.52872 11.24539 171.93082 309
446.96143 13.22596 172.25275 301
2174.35303 121.86502 88.59457 431
2181.28711 122.38065 152.49251 416
2209.47827 124.26098 216.55548 495
2209.01025 124.19631 281.75897 495
391.43417 14.95315 171.68658 317
415.31552 17.19748 171.94867 309
446.63531 20.16101 172.20020 301
2157.51147 182.04204 89.44777 433
2165.79883 182.58379 152.85837 419
2198.51855 185.63467 216.46555 494
2199.08667 185.77339 281.71127 496
391.11783 20.18834 171.71455 317
414.93924 23.22272 171.94217 309
446.18872 27.16571 172.21851 301
2142.32080 241.55359 89.85659 434
2150.74756 242.63602 152.89545 420
2183.79419 246.59985 216.74020 498
2183.77686 246.62146 281.46616 497
390.63293 25.43374 171.69925 316
414.37454 29.18374 171.93452 309
480.00305 39.57451 165.27060 443
2126.97070 300.34180 90.64486 435
2135.93555 301.91492 153.32239 421
2175.24927 307.83411 216.79443 470
2256.50708 320.91739 283.91022 290
2238.37769 317.86630 350.14578 414
389.98770 30.58988 171.68275 316
413.58923 35.08550 171.88095 309
472.74921 46.39420 166.50134 448
2112.16772 359.16138 90.65170 435
2121.22241 360.61780 153.38618 421
2236.57812 382.80591 350.91074 495
2268.20947 389.08063 421.61044 275
389.22260 35.78361 171.68671 316
412.69043 41.00457 171.89775 309
465.79208 52.91959 167.60901 452
2097.16968 417.64697 91.05537 440
388.22818 40.91658 171.67221 316
411.56815 46.89008 171.89281 309
462.80917 60.01587 167.91362 297
2082.06641 475.89545 90.97713 440
387.14569 46.01501 171.63997 316
439.04285 61.04520 164.91612 307
2067.71631 533.91278 90.96879 440
2076.40869 536.63477 153.52167 399
385.87015 51.02430 171.65384 316
437.25519 67.71777 164.90463 308
2052.82275 592.57495 90.62160 440
2061.15039 595.12427 153.65028 398
384.45633 56.03776 171.63228 316
432.41858 73.31595 165.59396 424
2147.90479 690.71179 82.84132 417
2122.95703 682.21564 150.79088 493
2131.82251 684.83167 216.85115 407
382.88278 60.99870 171.60179 316
424.18887 77.37416 167.08118 430
2103.32373 742.16589 150.49023 478
404.67648 76.07867 164.74919 316
419.19293 82.34264 167.77419 305
402.37225 81.60335 164.72849 316
416.87851 88.45979 167.73448 305
399.88205 87.05056 164.72360 317
393.60745 90.42153 165.86710 429
386.36710 92.92733 167.30237 434
382.41913 97.12198 167.62431 315
379.59238 101.95408 167.60852 313
791.39679 945.69928 108.45432 444
-115.94137 1181.98413 95.08747 499
-91.79198 981.92999 80.49870 476
-90.93375 979.31897 115.01046 405
-123.73610 974.39349 80.02294 481
-120.82854 967.17700 115.22253 487
-169.07161 1100.30786 139.80856 280
-155.86528 967.26849 79.36920 481
-152.55919 958.91742 114.95734 481
-151.60912 956.59760 149.05812 496
-188.43378 959.88989 78.63625 479
-184.78883 951.84033 114.28233 480
-184.07132 949.64618 148.57744 494
-221.63712 952.93591 77.86977 475
-217.64708 944.31146 113.55689 479
-216.53458 942.32806 148.20801 493
-255.47504 946.22516 76.53881 474
-250.64708 936.45312 112.92319 477
-249.53836 934.81433 147.63322 491
-290.12451 939.59351 75.11880 471
-284.22183 928.63092 112.03883 475
-283.21768 927.29907 147.09953 489
-325.74957 933.39490 73.61507 437
-318.28226 921.02557 111.04995 473
-317.61340 919.66907 146.42818 486
-363.09128 928.56396 71.67516 435
-353.75909 913.84607 109.89624 450
-352.59085 911.89856 145.60368 484
124.72005 148.93845 168.06645 489
-390.53342 906.97131 108.30694 447
-388.25433 903.67847 144.68774 481
-545.69061 1135.56738 171.56738 483
118.32668 147.93092 167.27885 441
-427.44586 899.29700 106.81861 447
-424.62335 895.50531 143.77635 479
-589.73114 1122.22351 170.86397 492
111.51187 147.13861 166.41240 314
-465.69223 891.41302 105.28320 430
-462.25900 886.97607 142.91589 475
-468.24384 894.73407 179.53955 474
104.26692 146.53464 165.34937 419
-506.06201 884.18518 103.54611 426
-501.18054 878.68372 141.59796 466
-507.96094 886.86469 178.68860 470
95.42073 147.37065 163.63956 424
-550.81561 880.28809 100.92379 402
-545.46741 874.45740 139.92316 439
-556.02423 886.45471 177.64351 302
90.46127 143.48717 163.50710 311
78.32036 156.37856 166.28786 305
-604.15967 883.14020 97.11391 383
-597.58038 876.49554 137.67188 418
106.85243 118.14804 171.48169 316
73.34093 151.72263 166.25848 305
-667.03650 892.01508 91.98907 366
-658.50098 883.48694 134.44456 396
103.14628 114.26521 171.54547 316
66.78003 148.43831 165.71410 409
-748.03876 913.74939 85.01306 353
-737.14948 903.25287 129.89288 361
99.57978 110.28571 171.55722 316
55.79868 148.88635 163.78471 403
96.11298 106.17539 171.60757 316
77.33186 121.72113 171.73125 308
-42153.80469 35062.59375 -5202.26025 0
92.80254 102.02554 171.62874 316
73.57010 116.93408 171.75409 308
24.65195 154.86606 166.05821 297
89.59686 97.73051 171.64722 316
69.91367 112.00533 171.81703 308
17.20367 150.35344 165.45848 389
86.54987 93.37695 171.68684 316
66.45670 107.02047 171.81331 308
2.18287 150.73026 162.97647 382
83.60413 88.91385 171.69366 316
63.15147 101.95506 171.86742 308
36.23756 119.00182 172.09903 300
80.82819 84.39518 171.74797 316
59.99613 96.75185 171.88759 308
32.58989 112.96907 172.14999 300
-43.22311 157.81834 165.11218 286
78.18022 79.78183 171.76968 316
56.99493 91.45562 171.92946 308
37.48669 102.19394 174.07712 319
-52.79300 151.83115 164.23698 373
75.69628 75.11075 171.79346 316
60.40860 82.90974 173.56644 385
50.35358 87.99744 177.65282 325
27.14024 99.86372 179.95053 292
73.32223 70.38961 171.79254 316
64.04451 74.72858 175.20509 390
56.91221 78.09422 179.71388 300
21.00572 94.96920 179.39413 314
-24.04587 116.21625 180.38077 284
74.14529 64.23447 172.67064 386
67.57886 67.07024 176.72804 381
54.50398 72.71501 179.76286 300
32.56254 82.25401 182.02791 336
19.83647 87.77729 187.22314 315
-2.85894 97.59219 192.13213 266
76.50149 57.72480 173.96487 420
71.02021 59.89049 178.11984 386
47.51504 69.22235 178.71962 389
39.87126 72.25264 183.84012 373
31.00571 75.73161 189.17331 336
18.68378 80.64384 194.76932 332
1.32103 87.50735 200.84183 311
77.92516 51.87091 174.92860 423
72.82135 53.72161 179.05443 419
51.04113 61.56273 179.95030 393
44.04464 64.10241 184.93199 388
36.36676 66.84190 190.28400 373
27.38082 70.08479 195.95956 368
17.35684 73.69119 202.16304 332
79.23883 46.29035 175.76668 427
73.22474 48.25107 179.60414 308
54.28724 54.39200 181.03448 410
47.77142 56.50217 185.96230 393
40.59712 58.82156 191.15935 388
32.89948 61.32436 196.77838 372
23.76343 64.31441 202.74648 367
80.58616 40.87271 176.57722 432
71.72923 43.44656 179.60870 308
56.52471 47.87266 181.86647 421
50.57104 49.60204 186.74759 409
44.11579 51.47910 191.88298 404
37.21394 53.47627 197.42308 387
29.42368 55.74217 203.25613 382
81.91815 35.68285 177.30147 435
63.72092 40.31968 178.02060 429
58.46217 41.69085 182.60452 424
52.91542 43.09454 187.44049 420
46.85341 44.66885 192.48485 408
40.24497 46.38822 197.86319 403
33.20654 48.17984 203.66118 397
25.25744 50.21300 209.80962 355
83.07360 30.67956 177.96468 457
65.48856 34.59555 178.75650 432
60.36677 35.75084 183.28316 428
54.98003 36.92564 188.00449 423
49.31314 38.20721 193.02028 418
43.15909 39.63080 198.35294 406
36.38496 41.12593 203.97850 401
28.96098 42.74343 209.99625 358
-185.42052 90.73822 216.56180 296
83.28071 26.02774 178.31047 459
67.06963 29.09214 179.42482 455
62.20716 30.02129 183.88878 431
56.99503 31.00812 188.57249 426
51.53573 32.08085 193.48036 421
45.68552 33.18734 198.72203 416
39.37659 34.35553 204.25900 404
32.40366 35.71312 210.17946 399
-182.95479 76.79335 216.52042 424
83.49396 21.39932 178.60083 461
67.32728 23.98778 179.68468 456
62.75362 24.67784 184.20766 452
57.95145 25.45617 188.88345 447
52.96651 26.24660 193.80267 442
47.66064 27.09285 199.01289 437
42.04708 27.97232 204.52184 414
35.53881 29.02266 210.33423 402
83.75610 16.86889 178.84491 462
67.62187 18.90945 179.95819 457
63.10226 19.49104 184.40527 453
58.35983 20.10028 189.11726 448
53.36667 20.71481 193.98749 443
48.13320 21.38404 199.16150 438
42.65789 22.10374 204.60515 433
36.83123 22.83809 210.40685 428
84.02839 12.42074 179.08368 463
67.93208 13.92859 180.17940 459
63.46431 14.36166 184.64932 454
58.73922 14.79918 189.27454 450
53.82235 15.24912 194.14456 445
48.71519 15.74203 199.27148 440
43.29219 16.24957 204.70522 435
37.54997 16.80290 210.42725 429
84.30171 7.98495 179.27902 464
68.30095 8.98265 180.40675 460
63.84269 9.26255 184.82321 455
-62.73916 3.94899 -10.37782 451
54.37074 9.87463 194.30904 446
49.29762 10.17276 199.40874 441
43.90374 10.54205 204.77676 436
38.23219 10.89892 210.48531 430
-181.49934 24.76825 269.87234 486
-187.21330 25.11937 284.35522 360
84.64118 3.61602 179.46904 465
68.68294 4.11433 180.55389 461
64.31618 4.25928 184.98471 457
59.70911 4.38631 189.56589 452
54.93919 4.56337 194.40791 447
49.88835 4.71516 199.46655 442
44.54819 4.87438 204.84068 437
38.91165 5.02288 210.53047 431
-181.57207 12.00350 269.84116 487
