# .PCD v.7 - Point Cloud Data file format
VERSION .7
FIELDS x y z rgb
SIZE 4 4 4 4
TYPE F F F U
COUNT 1 1 1 1
WIDTH 500
HEIGHT 1
VIEWPOINT 6477.764648 -774.011719 146.095581 -0.648680 -0.097389 -0.089244 0.749510
POINTS 500
DATA ascii
71.08509 -0.80530 178.54022 466
67.13064 -0.79068 182.57449 462
63.02386 -0.79575 186.70726 457
58.70753 -0.82207 191.04973 453
54.20546 -0.83186 195.60597 448
49.47373 -0.83066 200.40567 443
44.46797 -0.83920 205.47475 437
39.20362 -0.83697 210.77539 432
-151.97517 -1.04572 240.43559 419
-182.26476 -1.17559 268.51660 487
-156.49811 -1.07941 277.43179 284
-111.72104 -1.10159 281.05289 494
70.72155 -5.27837 178.38530 465
66.72899 -5.39882 182.37674 461
62.58117 -5.52331 186.55797 456
58.26149 -5.65459 190.94655 452
53.68214 -5.81142 195.50571 447
48.91293 -5.99946 200.29898 442
43.88309 -6.17141 205.38354 437
38.55235 -6.32030 210.75354 431
-152.48029 -12.62458 240.50777 416
-182.21785 -13.51808 268.52686 487
-157.07303 -12.77445 277.62921 290
70.45177 -9.77608 178.17168 464
66.37445 -10.01961 182.16669 460
62.18586 -10.31117 186.39183 455
57.76786 -10.59429 190.77731 451
53.19937 -10.86322 195.37358 446
48.35309 -11.20789 200.21820 441
43.28489 -11.51423 205.30510 436
37.88526 -11.86525 210.72734 430
-182.18694 -26.00315 268.63635 486
70.19235 -14.31325 177.90755 463
66.08047 -14.71999 181.94859 459
61.84346 -15.14791 186.19626 454
57.37273 -15.58119 190.58308 449
52.69530 -16.02666 195.22009 445
47.83910 -16.45366 200.07285 440
42.68157 -16.98515 205.24432 435
37.20472 -17.49108 210.68584 429
-182.09207 -38.52087 268.81146 486
77.07741 -18.04184 179.56274 316
65.82231 -19.45362 181.70990 457
61.53558 -20.03870 185.94937 453
57.02004 -20.60456 190.40019 448
52.29907 -21.17961 195.05630 443
47.32195 -21.82292 199.94467 438
42.07057 -22.51026 205.14191 433
36.52958 -23.20475 210.60051 428
77.91933 -22.32096 179.55034 316
65.56786 -24.29767 181.42761 456
61.22198 -24.96988 185.73045 452
56.66408 -25.69360 190.18768 447
51.87190 -26.48432 194.84679 442
46.86168 -27.28084 199.78328 437
41.50842 -28.12313 205.01447 414
35.32172 -29.13729 210.53891 402
78.90482 -26.58380 179.55997 316
65.33302 -29.17201 181.12538 454
60.75080 -30.04758 185.37360 431
55.78464 -31.02647 189.83939 426
50.53529 -32.02846 194.51495 421
45.01247 -33.08765 199.51233 416
38.96879 -34.27094 204.76390 404
32.23219 -35.54071 210.42456 364
-182.98967 -76.83320 216.46526 424
80.02439 -30.79639 179.56694 316
63.84661 -34.45712 180.46780 432
58.97990 -35.55044 184.78734 427
53.86148 -36.69079 189.30226 423
48.46915 -37.89566 194.07912 418
42.53494 -39.26283 199.12776 406
36.07494 -40.70260 204.48080 401
28.83916 -42.33274 210.22240 358
-184.71411 -90.27423 216.52415 296
80.15245 -35.33339 179.22687 434
62.22531 -39.94930 179.75534 429
57.20589 -41.22499 184.11421 424
51.94248 -42.59372 188.72345 419
46.09187 -44.10807 193.55081 407
39.81125 -45.72208 198.66002 402
33.04591 -47.49389 204.16617 397
-188.44881 -104.55569 202.88855 483
78.91846 -40.31060 178.48122 430
60.57718 -45.63602 178.96611 425
55.39656 -47.14605 183.41429 421
49.64818 -48.84222 188.03650 409
43.51095 -50.60361 192.93077 404
36.95321 -52.55096 198.19058 399
29.57500 -54.68707 203.77820 382
77.67229 -45.47681 177.70370 427
58.87980 -51.59774 178.13283 421
53.22404 -53.40693 182.59029 410
47.14209 -55.40719 187.25719 393
40.31759 -57.66095 192.24651 388
32.93085 -60.02737 197.56706 383
24.22940 -62.87052 203.29436 366
76.40851 -50.82473 176.82484 423
67.03345 -54.23850 179.66739 308
50.28538 -60.28360 181.55197 393
43.57342 -62.72268 186.30592 388
36.31129 -65.30429 191.35788 372
27.69455 -68.45768 196.81699 367
18.28334 -71.82348 202.71202 362
75.08045 -56.43449 175.92342 420
69.00511 -58.88071 179.63496 308
46.92731 -67.64458 180.34862 388
39.69987 -70.49897 185.16222 373
31.24889 -73.87602 190.32976 367
20.31995 -78.22784 195.75443 331
4.24071 -84.57716 201.55011 310
73.17145 -62.57843 174.75572 386
67.15963 -65.16470 178.64401 395
43.16490 -75.58574 178.99910 373
33.56738 -79.78426 183.63489 335
21.68038 -84.93900 188.59854 331
4.57586 -92.32685 193.73671 283
70.05680 -69.57725 173.12550 381
63.90994 -72.45790 177.15425 390
49.64805 -79.20895 179.79445 300
23.06033 -91.70887 181.17392 314
-5.76047 -105.35046 184.16953 264
68.29352 -76.29547 171.87471 316
60.38815 -80.35258 175.56435 384
52.37785 -84.40638 179.79872 300
-1.36996 -111.88348 176.02391 293
70.93892 -80.95474 171.82808 316
51.69228 -91.55016 172.49196 322
40.54709 -97.67691 176.42055 318
17.66605 -110.31113 178.95332 270
73.72611 -85.51751 171.83090 316
53.04200 -97.81870 171.99652 308
25.81441 -113.96119 172.25078 300
-50.48000 -159.15773 165.11154 288
76.67747 -90.03998 171.78958 316
56.30138 -102.98113 171.99037 308
29.55719 -119.95437 172.18393 300
79.74026 -94.43341 171.78445 316
59.77599 -107.99908 171.91940 308
-3.28371 -150.98944 163.32495 383
82.92741 -98.78346 171.73563 316
63.38915 -113.00341 171.94009 308
11.68460 -150.61295 165.73393 389
86.23837 -103.01592 171.74545 316
67.14844 -117.87234 171.89128 308
18.05913 -155.99637 166.07664 295
89.72283 -107.19255 171.69556 316
71.08626 -122.61481 171.85220 308
93.32041 -111.23685 171.67047 316
50.15995 -149.27017 164.06279 404
97.01923 -115.17502 171.63782 316
61.15857 -148.86211 166.00465 409
100.84348 -119.02744 171.61700 316
67.23898 -152.71167 166.33940 306
84.34926 -144.61353 163.55304 307
72.38371 -157.33684 166.30942 305
90.04795 -147.81114 163.89990 425
98.66546 -147.33537 165.45615 420
105.90519 -148.08571 166.46951 314
-1894.99866 -2730.80273 103.17589 301
-2008.40027 -2878.08105 215.91173 346
110.85203 -151.59421 166.48634 314
-943.40955 -1604.83765 151.51024 470
-1843.98560 -2845.61719 215.65477 493
119.96674 -148.98283 168.39856 489
-1576.44409 -2648.34131 111.64840 377
127.25826 -148.38972 169.56558 486
-1441.73633 -2624.12036 114.58797 428
-1450.05139 -2829.79028 108.25554 414
866.14917 -1087.77844 90.92348 409
1997.95825 -2141.07837 123.43737 316
2061.13599 -2081.15796 124.02605 353
1737.22681 -1845.90344 -84.49743 449
2207.54175 -1980.38416 123.20635 445
2303.43140 -1949.10828 121.80406 432
2407.64746 -1921.06458 119.38963 445
2516.89038 -1893.12463 117.68885 441
2631.98901 -1863.71753 114.97066 441
372.02353 -107.21573 167.61545 313
375.49088 -102.45437 167.66548 315
378.86188 -97.67503 167.66571 315
384.36148 -94.13860 166.94868 434
391.92172 -91.55286 165.59454 429
397.79785 -87.73048 164.76010 317
400.79547 -82.33142 164.74304 317
415.09485 -89.04032 167.79536 305
403.56415 -76.82021 164.76881 317
417.83939 -82.99126 167.81097 305
382.34030 -61.85456 171.62743 316
423.70139 -78.18871 167.03677 429
384.37036 -56.90902 171.63698 317
432.14429 -74.05509 165.60989 424
1979.23730 -629.57727 93.86594 390
386.30042 -51.92449 171.67221 317
437.48770 -68.52020 164.87788 308
388.06668 -46.93160 171.65837 317
439.75504 -61.86129 164.90831 307
389.67828 -41.85257 171.70067 317
412.81360 -47.75759 171.93884 309
463.93842 -60.86066 167.93480 297
391.12817 -36.71515 171.70303 317
414.43179 -41.90865 171.91713 309
465.91669 -53.42913 167.94048 452
392.41849 -31.62465 171.73996 317
415.90179 -36.07600 171.96719 309
472.90335 -46.91175 166.94539 447
393.54974 -26.42744 171.71231 317
417.15332 -30.13778 171.94414 309
480.18042 -40.07239 165.78645 443
394.57669 -21.25547 171.73691 317
418.23364 -24.24700 171.96289 309
484.61548 -32.55352 165.16196 301
2935.67432 -340.83353 126.73344 419
395.40186 -16.03619 171.75804 317
419.13055 -18.29729 171.94821 309
450.31912 -21.21957 172.27943 301
2886.98877 -249.79973 128.70799 460
396.06284 -10.82121 171.76384 317
419.88794 -12.29144 171.97070 309
451.08908 -14.23830 172.27354 301
2843.33911 -163.57031 130.46823 456
396.55463 -5.57729 171.73439 317
420.43140 -6.32852 171.97351 309
450.66702 -7.28062 172.49776 495
2816.66699 -80.45052 131.22105 414
2867.52173 -81.65620 215.99730 499
396.92053 -0.34806 171.76520 317
420.77899 -0.32402 172.00165 309
450.62485 -0.29022 172.56013 495
2795.69385 1.22450 132.33459 417
2826.87842 1.31226 216.23891 494
397.09012 4.87548 171.75246 317
420.96875 5.64685 171.96501 309
450.66391 6.62364 172.57895 495
2778.67090 80.78366 132.32924 367
2803.35669 81.79431 215.91316 495
397.11234 10.11093 171.73907 317
420.94547 11.63288 171.95880 309
452.21069 13.59427 172.28307 301
2763.35962 160.10042 132.72527 368
2791.05664 161.84729 216.13603 497
397.02432 15.36618 171.73593 317
420.79251 17.60415 171.97127 309
451.98999 20.56268 172.27597 301
2748.95264 238.84506 133.50996 360
2893.21802 252.36748 215.81602 280
2853.69507 248.78856 302.22678 498
2944.88403 257.74600 395.02972 472
396.72177 20.55915 171.73480 317
420.43445 23.58413 171.97102 309
486.72583 31.94211 165.21396 458
3005.48779 351.16086 124.67931 498
396.25937 25.73094 171.74477 317
419.88315 29.47639 171.94655 309
480.51526 39.12576 166.29434 443
395.69934 30.91630 171.73743 317
419.20700 35.41254 171.97527 309
473.35001 45.81765 167.49104 448
2706.26758 472.74701 133.77472 315
394.91644 36.06260 171.71686 316
418.29147 41.31130 171.94272 309
469.83032 52.85226 168.00137 297
2694.56616 551.09949 133.96724 265
394.00534 41.20012 171.73418 316
446.37354 54.64626 164.88577 307
468.61749 60.36449 167.94804 297
2725.72339 641.03015 132.09128 488
392.93503 46.23714 171.68993 316
444.85611 61.35010 164.92160 307
391.71307 51.27291 171.67754 316
442.74506 67.92036 164.98955 434
390.35919 56.27790 171.68982 316
434.61505 72.25227 166.53592 424
388.81558 61.23229 171.67737 316
427.31155 76.51353 167.82602 305
410.67978 76.32489 164.75482 316
425.27301 82.65348 167.78879 305
408.39880 81.83597 164.79984 316
404.62601 86.53495 165.16609 424
397.18436 89.18315 166.68535 429
391.38553 92.38342 167.69789 315
388.75360 97.32190 167.64590 313
1418.28784 917.18939 68.99252 471
1426.22913 923.15643 117.64919 382
537.78564 956.83771 84.37223 452
502.02625 946.98657 86.82143 461
501.06723 943.84253 119.84316 467
469.43436 945.15808 88.37235 457
467.65979 939.14276 121.20516 481
436.56345 940.03979 89.86728 460
435.36523 934.60114 122.47791 484
444.41428 974.35254 151.29562 482
404.77713 934.86658 91.43069 461
404.03510 930.27539 123.33007 486
436.85977 1102.97766 143.15456 330
373.51123 929.66809 92.73918 464
372.95535 925.99738 124.40680 489
410.44724 1164.71460 139.49605 476
342.93048 924.75751 93.97630 466
342.58133 921.73358 125.21209 491
374.57437 1177.02722 138.92944 491
313.13312 919.86566 94.96269 468
312.79211 917.41394 125.93729 493
336.77841 1171.60144 139.70412 493
283.56567 915.00275 96.01511 469
283.37177 913.44672 126.44568 494
299.14233 1166.51672 140.16531 494
1238.76208 33223.16797 -6384.41992 0
254.60992 911.16541 96.69491 449
254.49864 909.27563 127.11185 496
262.14099 1161.48071 140.66277 496
225.66982 926.10034 63.81567 438
225.72644 907.80414 97.05102 450
225.77087 905.22815 127.43923 497
225.73810 1156.20544 140.87637 497
196.65811 923.35382 64.05421 438
197.19533 903.12280 97.79777 448
197.26732 901.19348 127.92551 498
191.78685 1071.01929 146.53279 456
167.53580 919.98102 64.39140 438
168.95990 898.78314 98.22679 449
168.99864 897.26068 128.03845 499
168.77939 903.59174 157.33252 499
138.61693 917.62561 64.60693 420
140.97255 894.59210 98.45716 437
141.09572 893.10419 128.19948 499
140.34711 899.73517 157.46996 499
109.47221 916.00659 64.18135 416
112.66525 891.86273 98.41997 437
112.84604 890.28241 128.33501 499
112.16333 895.97345 157.55362 499
80.56984 1144.68860 179.14091 498
83.89140 891.67798 97.83704 436
84.09217 890.71423 127.88402 493
83.02701 897.44281 157.14470 494
45.99850 1129.06421 179.49797 405
54.46610 894.12567 96.82063 425
54.51099 893.64026 126.95457 486
50.60503 914.63208 155.60648 409
23.95416 899.05591 95.31689 421
24.11719 897.83344 126.02942 481
-8.04938 906.21143 93.60188 413
-7.33161 903.72083 124.86572 476
-41.33934 915.32843 91.04893 408
-40.18064 911.54382 123.27448 455
-77.18759 928.62677 88.04115 395
-75.29827 922.88129 121.03755 444
-115.88468 944.82318 84.39481 387
-112.36647 934.76874 118.90007 439
-156.16393 960.39954 80.60069 402
-151.29616 948.36487 116.14550 415
-193.80106 965.55066 113.00858 405
121.06014 151.04173 167.38052 316
115.91454 148.13007 167.23315 440
109.20403 147.21101 166.39571 314
101.76082 146.76070 165.28391 419
93.05193 147.43489 163.60190 424
88.10597 143.53452 163.53293 307
75.99616 156.43903 166.30034 305
104.63603 118.08753 171.53224 316
70.92223 151.73819 166.27634 305
100.92198 114.23833 171.57152 316
64.35275 148.56096 165.67168 409
97.33082 110.23552 171.60440 316
53.34394 148.96432 163.79332 403
93.84341 106.15977 171.62697 316
75.09541 121.66707 171.75029 308
90.53001 101.96986 171.65944 316
71.32380 116.88182 171.81938 308
22.26395 154.87085 166.02252 297
87.32944 97.73476 171.66637 316
67.68489 111.96855 171.83923 308
14.81140 150.37169 165.43541 389
84.24485 93.36734 171.70802 316
64.17155 106.95979 171.84166 308
-0.27754 150.75642 162.94186 382
81.31198 88.88602 171.71562 316
60.85547 101.85931 171.89543 308
33.93188 118.96369 172.08026 300
78.53323 84.39236 171.72963 316
57.72335 96.67517 171.92390 308
30.27609 112.85910 172.15898 300
-45.83842 157.87444 165.07751 286
75.88879 79.78913 171.76974 316
54.68986 91.40653 171.96393 308
39.19691 99.93311 174.95322 319
-55.19409 151.78258 164.26358 373
73.36285 75.10972 171.77512 316
60.65934 81.57193 174.24400 385
51.77145 86.10179 178.47603 325
24.91630 99.78535 179.96863 292
71.00146 70.33312 171.79082 316
64.23193 73.50423 175.87260 390
54.64759 78.03104 179.74567 300
22.41129 93.20168 180.10617 314
-26.24266 116.09872 180.42705 284
74.03736 63.27096 173.37654 386
67.63035 66.05333 177.33311 381
43.68920 76.39582 177.88730 373
33.42469 80.83533 182.64211 336
21.26486 86.07873 187.75679 331
1.80891 94.51911 192.91428 283
76.21846 56.88789 174.58206 420
71.00592 58.96564 178.70541 415
47.55758 68.23405 179.23592 389
40.12974 71.20259 184.28885 373
31.43967 74.61713 189.55956 368
19.81032 79.21062 195.13068 332
3.13020 85.83752 201.08611 311
77.59655 51.16282 175.50664 423
72.54328 52.96583 179.56693 419
51.07629 60.68406 180.47711 393
44.13762 63.18984 185.36017 388
36.66541 65.87756 190.64867 373
27.80651 69.04625 196.21968 368
18.18074 72.53057 202.32553 362
78.92784 45.61889 176.36554 427
70.92186 48.18983 179.60089 308
54.13473 53.66797 181.53775 410
47.78148 55.73506 186.36575 393
40.79442 58.00102 191.49399 388
33.19868 60.46953 197.04242 383
24.26752 63.39569 202.91855 367
80.22003 40.28787 177.13211 430
69.39768 43.43357 179.62373 308
56.36975 47.20929 182.35141 421
50.48987 48.92311 187.12984 409
44.16681 50.75514 192.20039 404
37.38862 52.75635 197.67186 399
29.76961 54.92722 203.44318 382
81.54286 35.15285 177.88359 435
63.44183 39.77741 178.53508 429
58.25640 41.14226 183.07806 424
52.78308 42.52282 187.79562 420
46.84364 44.07627 192.83904 408
40.34521 45.72405 198.12030 403
33.36594 47.50871 203.81471 397
25.28807 49.56830 209.91197 269
82.60097 30.26069 178.49985 457
65.17571 34.14893 179.27960 432
60.14225 35.25658 183.71794 428
54.81074 36.44521 188.38138 423
49.23414 37.66629 193.34555 418
43.16589 39.04065 198.58598 406
36.48834 40.54662 204.11620 401
29.15688 42.19322 210.09431 358
-183.83853 89.75372 216.52148 296
82.76409 25.65450 178.84398 459
66.61823 28.71830 179.89722 455
61.94921 29.60027 184.32190 431
56.82880 30.59073 188.91972 426
51.41122 31.60258 193.81517 421
45.67589 32.70159 198.95943 416
39.47844 33.89878 204.42415 405
32.58527 35.20736 210.22852 399
-183.02347 76.34720 216.56015 424
82.98064 21.09764 179.13701 461
66.87193 23.64179 180.15979 456
62.37838 24.38095 184.62955 452
57.64753 25.11446 189.23158 447
52.71197 25.89548 194.09120 442
47.50558 26.71367 199.22914 437
41.95876 27.58128 204.67223 432
35.70879 28.57106 210.36299 402
83.25379 16.63277 179.40166 462
67.18640 18.68096 180.45755 457
62.71529 19.24454 184.84360 453
58.04292 19.83296 189.43372 448
53.14694 20.45294 194.26862 443
47.94925 21.10224 199.37497 438
42.55046 21.80210 204.73625 433
36.81603 22.47823 210.44339 428
69.91045 12.58654 178.36642 463
65.88541 12.96564 182.35413 459
61.66457 13.35566 186.53693 454
57.28361 13.75158 190.85744 450
52.66913 14.20799 195.44713 445
47.87234 14.62779 200.24191 440
42.80950 15.13214 205.35239 435
37.41465 15.64020 210.70973 429
70.30271 8.12547 178.48442 464
66.25786 8.37171 182.48816 460
62.10312 8.61879 186.61264 456
57.78885 8.88535 190.97758 451
53.21921 9.14653 195.53200 446
48.45501 9.44236 200.30772 441
43.42431 9.78969 205.39897 436
38.04260 10.08543 210.73711 430
-182.26138 23.60663 268.45877 486
-186.76524 23.92781 282.44641 496
-186.74474 23.89768 295.89645 494
70.70949 3.66259 178.56757 465
66.72034 3.80354 182.57272 461
62.60818 3.90384 186.70673 456
58.30759 4.02089 191.05037 452
53.78020 4.18290 195.59761 447
49.02888 4.31789 200.38522 442
44.04003 4.47519 205.44798 437
38.71445 4.63866 210.75577 431
-182.29034 11.28199 268.47940 487
