# .PCD v.7 - Point Cloud Data file format
VERSION .7
FIELDS x y z rgb
SIZE 4 4 4 4
TYPE F F F U
COUNT 1 1 1 1
WIDTH 442
HEIGHT 1
VIEWPOINT 6434.673340 -1892.825195 147.316956 -0.742692 -0.072690 -0.113457 0.655937
POINTS 442
DATA ascii
85.18411 -0.25328 179.32918 467
69.30179 -0.25024 180.44528 462
64.93645 -0.30016 184.85124 457
60.34158 -0.29516 189.47232 453
55.55062 -0.29284 194.30484 448
50.53254 -0.28415 199.41864 443
45.23298 -0.30189 204.76849 438
39.59101 -0.29693 210.44684 432
-152.86513 -0.52655 241.14790 419
-181.61026 -0.62283 269.88528 487
-144.12431 -0.55868 277.28748 284
84.87569 -4.63051 179.14598 465
68.86534 -5.13996 180.27458 461
64.46148 -5.30130 184.68420 456
59.85017 -5.44215 189.34270 452
55.01109 -5.61477 194.21323 447
49.94956 -5.74862 199.33185 442
44.55914 -5.93082 204.71028 437
38.90262 -6.13222 210.43996 431
-181.48781 -13.30721 269.97989 487
-148.53464 -12.24802 278.04483 284
84.60355 -9.04435 178.94221 464
68.54124 -10.05779 180.04387 460
64.03201 -10.33692 184.50275 455
59.35513 -10.63362 189.18077 451
54.46833 -10.96971 194.07185 446
49.35324 -11.28999 199.19067 441
43.93217 -11.65374 204.61539 436
38.17862 -12.00877 210.37212 430
-181.50552 -26.08066 270.03220 486
84.32504 -13.51442 178.66122 463
68.22085 -15.05543 179.80663 459
63.69178 -15.47050 184.28876 454
58.92486 -15.93282 188.99480 449
53.99179 -16.38211 193.90540 445
48.78322 -16.91291 199.06915 440
43.31918 -17.39948 204.54073 435
37.51779 -17.96886 210.30573 429
-181.41219 -38.95525 270.19855 486
84.07050 -18.03409 178.40015 462
67.94576 -20.09527 179.54758 457
63.33815 -20.66101 184.06778 453
58.54475 -21.28591 188.77014 448
53.51804 -21.91471 193.71288 443
48.24093 -22.57202 198.94911 438
42.68838 -23.29082 204.45071 433
36.81767 -24.03938 210.25693 428
83.87514 -22.59597 178.09540 461
67.67574 -25.21500 179.23869 456
63.02321 -25.92667 183.76686 452
58.20431 -26.72328 188.51628 447
53.14926 -27.50784 193.52550 442
47.77574 -28.35431 198.75331 437
41.69825 -29.32373 204.28946 414
35.11350 -30.36814 210.18057 402
83.67226 -27.28601 177.74162 459
67.22569 -30.42933 178.88084 435
62.22442 -31.38126 183.36266 431
56.94962 -32.42135 188.13834 426
51.38564 -33.45342 193.12486 421
45.48051 -34.59057 198.42570 416
38.96341 -35.82246 204.02095 404
31.88575 -37.20588 210.03552 399
-183.00827 -78.36523 216.46065 424
83.40323 -32.04411 177.33504 438
65.55933 -36.05634 178.15102 432
60.39458 -37.20164 182.71768 427
54.90593 -38.42336 187.53757 423
49.16677 -39.70890 192.61726 418
42.80462 -41.16439 198.01721 406
35.93309 -42.72238 203.69647 401
28.44630 -44.41057 209.86218 361
-189.61742 -93.38787 216.51027 296
82.13790 -37.17383 176.59071 435
73.12614 -39.50812 179.62019 308
58.48090 -43.25031 182.03798 424
52.82789 -44.68777 186.90489 419
46.58537 -46.34013 192.07758 407
39.89682 -48.05052 197.50237 402
32.67034 -49.92775 203.36496 397
24.59830 -51.99414 209.65785 341
80.82619 -42.49280 175.79648 432
74.66988 -44.29765 179.61598 308
56.55658 -49.56574 181.24519 421
50.37504 -51.34937 186.18770 409
43.82719 -53.25832 191.40555 404
36.57784 -55.41302 197.00517 387
28.45097 -57.77526 202.96896 371
79.50465 -48.02494 174.94148 429
74.46320 -49.64939 179.09608 422
54.13213 -56.28016 180.33470 397
47.32700 -58.48209 185.31081 393
40.01590 -60.87994 190.59758 388
31.92956 -63.51328 196.30333 372
22.60095 -66.55039 202.39783 366
78.14475 -53.76455 174.05179 423
72.93546 -55.64225 178.25613 419
50.68900 -63.65435 179.18639 393
43.49532 -66.27779 184.24765 388
35.47796 -69.13750 189.64229 372
26.30635 -72.45035 195.46606 367
14.62146 -76.68893 201.66339 316
76.75488 -59.76162 173.04764 420
70.70910 -62.18245 177.17612 386
55.83762 -68.06622 179.75386 300
39.11485 -74.68640 183.00047 373
28.81707 -78.77274 188.34723 336
15.40926 -84.08570 193.99750 316
-4.37914 -91.91394 200.12474 284
74.77029 -66.31164 171.81038 316
67.17388 -69.58028 175.65378 381
58.29860 -73.42899 179.73569 300
30.46665 -85.50387 180.96249 335
16.32771 -91.63647 186.16699 315
77.12535 -71.06039 171.77847 316
63.45267 -77.50665 174.04677 390
57.44113 -80.37526 178.97742 386
13.93771 -100.85325 177.39960 286
-19.86262 -116.78233 180.38315 284
79.67658 -75.81728 171.75919 316
58.22290 -86.75647 171.92801 308
47.07793 -92.39862 176.00334 324
31.38946 -100.43987 179.99785 292
82.32577 -80.43911 171.72948 316
61.22636 -92.06710 171.92215 308
33.44197 -107.40052 172.13948 300
-47.73672 -151.97974 164.40135 373
85.16898 -85.01345 171.72379 316
64.37904 -97.32409 171.88721 308
37.09126 -113.49072 172.15720 300
-37.95370 -157.86232 165.29045 286
88.11945 -89.50713 171.72212 316
67.73354 -102.48331 171.85312 308
40.89774 -119.52812 172.12520 300
91.21571 -93.95932 171.67746 316
71.23074 -107.55246 171.85573 308
7.72398 -150.72266 163.12215 383
94.45788 -98.29130 171.64542 316
74.87516 -112.53886 171.79474 308
22.81288 -150.31639 165.57210 386
88.79538 -102.54024 171.71500 316
69.62358 -117.48315 171.87672 308
20.69907 -155.75496 166.13098 297
92.30374 -106.67301 171.69037 316
73.59679 -122.25227 171.84830 308
95.93079 -110.73251 171.64110 316
52.62543 -149.20691 163.99084 404
99.66373 -114.67343 171.60001 316
63.59465 -148.77919 165.89317 410
103.54290 -118.50923 171.56662 316
70.02975 -152.31247 166.30887 305
87.22026 -144.01431 163.60594 307
75.20085 -156.88461 166.34775 305
92.56522 -147.72847 163.74440 425
-1737.91125 -2238.61499 217.53975 407
101.35007 -147.10713 165.34438 420
-1604.25403 -2223.20508 217.53133 430
108.87317 -147.47185 166.44853 314
-1492.15356 -2225.94116 217.67090 431
115.70169 -148.38942 167.30583 441
-1390.19678 -2235.91675 217.95644 436
118.92329 -154.31778 166.44476 314
-1291.09973 -2244.71899 217.51433 440
-1196.24072 -2254.15771 217.34921 443
-1104.08093 -2262.38794 217.46613 446
-1014.90637 -2270.80981 217.29639 448
-1041.03223 -2503.27563 217.61139 477
2476.45483 -2702.97290 216.45996 472
2581.71875 -2654.85059 216.37288 477
2702.41187 -2622.03467 216.44891 455
1662.66235 -1423.62842 150.58311 451
2863.81177 -2622.33228 216.09113 417
3043.72388 -2631.94824 216.95673 411
388.15939 -101.36098 167.68596 313
391.43826 -96.53469 167.71468 313
394.57190 -91.59966 167.75038 315
400.92108 -88.42881 166.72386 429
408.46518 -85.62440 165.40359 442
413.19498 -81.08118 164.83723 316
415.98862 -75.61798 164.83064 316
430.59811 -81.94704 167.81067 305
386.08548 -59.70658 171.67082 316
427.93823 -76.14374 166.98273 429
387.71634 -54.83484 171.69429 316
436.18539 -72.07727 165.47974 423
389.19635 -49.85695 171.67612 316
440.54385 -66.34673 164.90239 307
3995.07739 -1207.23425 216.77191 499
390.50400 -44.87399 171.69618 316
442.39099 -59.77402 164.95192 307
3851.51538 -1037.13586 93.00333 425
391.70105 -39.83569 171.73615 316
414.90393 -45.70587 171.93637 309
466.14459 -58.68747 167.99620 297
3798.47705 -901.39929 96.36760 378
3830.65625 -909.53687 216.90935 496
392.70050 -34.74463 171.72578 316
416.05542 -39.91802 171.94348 309
468.11111 -51.34308 167.91705 452
3796.09180 -783.81006 96.60726 441
3835.31860 -792.29626 216.32060 497
393.59021 -29.65983 171.72975 317
417.10248 -34.06855 171.98090 309
475.03091 -44.94000 166.77756 447
3804.24536 -667.81537 97.85426 477
3850.27441 -676.68396 216.15820 499
3931.98877 -692.27417 339.90442 498
394.29709 -24.54112 171.74464 317
417.89600 -28.16975 171.94424 309
482.23688 -38.17207 165.58723 442
3813.20776 -554.82385 97.37004 497
394.84091 -19.35589 171.75807 317
418.58646 -22.26585 171.95395 309
449.66275 -26.11295 172.29532 301
3822.00879 -440.95215 98.09873 497
395.24811 -14.18542 171.76216 317
419.03271 -16.35106 171.99489 309
450.25958 -19.24715 172.28329 301
855.24902 -78.08008 -28.12684 497
395.51279 -9.03189 171.73485 317
419.33978 -10.42921 171.95074 309
450.61337 -12.27959 172.29871 301
395.57675 -3.82832 171.74207 317
419.47177 -4.51126 171.94743 309
450.61807 -5.38022 172.29868 495
395.48853 1.39603 171.72874 317
419.36960 1.44539 171.96642 309
450.61227 1.56201 172.31831 495
395.25058 6.59112 171.73370 317
419.12723 7.39893 171.99541 309
450.43307 8.51964 172.29253 301
394.86136 11.81492 171.74438 317
418.75104 13.38681 171.96783 309
449.96234 15.43216 172.27155 301
394.31024 16.99121 171.70740 317
418.12073 19.32967 171.97733 309
449.28787 22.32845 172.23633 301
393.62210 22.14151 171.73235 317
417.35052 25.19699 171.93605 309
483.77704 33.79206 165.16606 301
392.74698 27.30248 171.72873 317
416.39099 31.11258 171.94804 309
478.34329 41.14363 165.96371 443
391.72064 32.43005 171.68015 317
415.24762 36.97380 171.94821 309
471.18893 47.85992 167.11298 448
390.55301 37.57209 171.67337 316
413.92200 42.83125 171.88564 309
465.26822 54.49066 167.96539 297
389.23016 42.61966 171.68480 316
412.44482 48.66552 171.87682 309
463.67346 61.92228 167.88377 297
387.75284 47.65450 171.66498 316
439.52820 62.84203 164.86914 307
386.11862 52.66171 171.61414 316
437.33932 69.45119 164.88680 308
384.32510 57.61896 171.61813 316
430.37891 74.30459 166.03642 425
382.36188 62.51869 171.62228 316
422.10785 78.33839 167.42551 430
1828.85413 639.37531 46.59702 376
1817.35962 634.61182 104.06803 390
403.73224 77.57977 164.74635 317
418.15601 83.87467 167.78084 305
1733.70215 656.96936 54.19576 381
1729.27185 654.87561 108.70145 394
401.04565 83.04760 164.75478 317
415.48483 89.90054 167.70921 305
1648.49329 673.26892 61.56891 381
1659.06213 678.57526 112.49860 282
398.18063 88.43533 164.74850 317
1570.10254 688.89246 67.55167 378
1576.40479 692.06128 116.68147 411
390.87817 91.36466 166.09250 429
1494.00720 701.13208 73.67650 382
1507.73535 708.56659 120.38476 417
383.50668 93.92847 167.38380 434
1434.06738 718.16064 77.75485 449
1449.23340 727.28076 123.03197 452
379.63669 98.29751 167.65828 315
1391.75024 743.43707 80.34051 465
1426.36194 765.54492 122.83327 414
376.41452 103.12984 167.63042 313
1370.84509 781.72333 33.66999 413
1351.34851 768.76282 82.21684 475
1440.25952 829.11029 119.79032 408
1330.03345 805.86902 36.24591 428
1316.05334 795.87976 83.20699 484
1455.15710 897.37311 116.47252 403
1293.40295 831.87909 37.94724 443
1283.27087 823.98541 84.45103 480
1257.43250 857.07635 39.61482 444
1251.87878 852.60797 84.91462 477
1223.15405 883.02795 85.20470 442
125.92149 148.09850 170.24579 452
109.19978 154.22946 166.36380 314
104.69003 150.80258 166.38123 314
100.25690 147.28249 166.37427 314
92.76128 147.44568 165.04814 429
84.76712 147.75594 163.54984 424
80.37211 143.66049 163.48024 307
68.19986 156.52843 166.25133 305
97.56766 118.07867 171.57239 316
63.63108 151.84399 166.23260 305
94.29936 114.21669 171.59402 316
57.27711 148.84465 165.59499 409
91.09470 110.24200 171.62421 316
46.69734 149.20946 163.68668 403
88.05422 106.21027 171.65520 316
69.29033 121.66988 171.83038 308
85.14524 102.00980 171.66656 316
65.91496 116.88256 171.86115 308
16.46227 155.03702 165.96082 295
82.37175 97.76365 171.71117 316
62.71803 111.98225 171.86230 308
9.43799 150.49133 165.36229 388
79.70448 93.40305 171.73181 316
59.67164 106.99490 171.88780 308
-5.18760 150.90523 162.82407 382
77.20093 89.00752 171.74185 316
56.72796 101.89605 171.94910 308
29.83275 118.89297 172.14305 300
74.83620 84.45817 171.77223 316
53.99876 96.71544 171.94705 308
26.61503 112.84045 172.16158 300
-49.84919 157.83257 165.07407 288
72.60905 79.88929 171.79585 316
52.47348 90.88243 172.23814 322
41.35163 96.97603 176.24887 319
20.71683 108.28293 179.18832 270
70.52841 75.23739 171.80142 316
60.80171 80.15204 175.09212 385
53.29953 83.98070 179.47267 325
-1.80534 111.86481 175.60379 292
70.68068 69.51421 172.44615 382
64.30071 72.46741 176.51828 390
52.23256 78.14594 179.77876 300
23.69351 91.50284 180.80534 315
-187.46852 87.78954 -27.27180 265
73.85366 62.62385 173.92892 386
67.58625 65.34224 177.84882 395
43.73891 75.60968 178.37683 373
33.97519 79.83781 183.08255 336
22.01671 84.95621 188.13156 331
4.88948 92.38783 193.45999 283
75.93992 56.57148 174.99062 420
70.78933 58.60053 179.09027 416
47.48571 67.81546 179.58170 389
40.14583 70.66442 184.60207 373
31.59764 74.06399 189.80351 368
20.38181 78.50163 195.33781 332
4.20019 84.87462 201.30794 311
77.33146 51.02665 175.79774 424
71.40520 53.16403 179.61505 308
50.96022 60.49095 180.72330 393
44.08266 62.95383 185.58458 389
36.63486 65.60415 190.78732 373
27.90765 68.71911 196.35298 368
18.34553 72.12830 202.41628 362
78.71648 45.64559 176.51422 427
70.14433 48.44699 179.62700 308
53.99608 53.67029 181.64606 410
47.70691 55.71015 186.46788 393
40.67413 57.96463 191.62219 388
33.17247 60.38863 197.11098 383
24.24040 63.24075 202.97452 367
80.07127 40.49675 177.19659 431
69.00462 43.69895 179.63664 308
56.22907 47.36345 182.39026 421
50.38360 49.08418 187.20369 409
44.02279 50.89645 192.24983 404
37.29425 52.87127 197.65207 399
29.62956 55.04749 203.44450 382
81.44588 35.48682 177.81860 436
63.37496 40.09991 178.50728 429
58.16887 41.39686 183.02429 424
52.72685 42.81314 187.76564 420
46.72874 44.31500 192.80730 408
40.20617 45.97686 198.12553 403
33.24051 47.74684 203.78633 398
25.15837 49.81128 209.88408 269
82.66634 30.63415 178.38808 458
65.13385 34.50207 179.14604 432
60.05404 35.63365 183.60056 428
54.74174 36.80374 188.28920 423
49.16011 38.09217 193.27591 418
43.02143 39.43552 198.47855 406
36.32924 40.92218 204.06728 401
28.99693 42.54401 210.07092 358
-183.75214 89.82117 216.43863 296
82.93035 26.09466 178.62968 459
66.73627 29.17914 179.71613 455
61.96313 30.08546 184.14430 431
56.77022 31.05518 188.78146 426
51.35938 32.09139 193.64519 422
45.58524 33.19102 198.82095 417
39.33459 34.35470 204.31915 405
32.39035 35.68628 210.18901 399
-183.01071 76.43813 216.54312 424
83.23441 21.61952 178.83360 461
67.07532 24.13643 179.90863 456
62.56338 24.84465 184.38426 452
57.79502 25.58657 189.02165 447
52.83581 26.38584 193.92877 442
47.56275 27.21610 199.11441 437
41.95373 28.10653 204.53792 415
35.52000 29.12626 210.30490 403
83.55411 17.17764 179.01610 462
67.46262 19.17138 180.09023 458
62.94691 19.73329 184.51834 453
58.22278 20.33425 189.16853 448
53.28931 20.96334 194.07533 444
48.08026 21.60360 199.21968 438
42.61275 22.26568 204.60666 433
36.80153 23.00698 210.38907 428
83.90445 12.77486 179.15697 463
67.85055 14.24188 180.22134 459
63.39671 14.67143 184.68036 454
58.68069 15.11604 189.31464 450
53.78682 15.56960 194.17670 445
48.64714 16.05816 199.28922 440
43.23595 16.54959 204.69504 435
37.51409 17.08806 210.42972 429
84.30190 8.38427 179.25381 464
68.28854 9.34547 180.37442 460
63.81908 9.65337 184.79538 455
59.18139 9.90641 189.39722 451
54.36651 10.23687 194.27654 446
49.28160 10.51521 199.34669 441
43.88521 10.86892 204.73946 436
38.20883 11.23374 210.43408 430
-181.62025 24.73654 269.86578 486
-187.33466 25.15974 284.37711 360
84.69608 4.00401 179.36116 465
68.73949 4.51031 180.43158 461
64.34288 4.65069 184.86964 457
59.75856 4.75357 189.48724 452
54.96758 4.89934 194.32289 447
49.92057 5.08034 199.42810 442
44.55230 5.21454 204.78719 437
38.90802 5.42417 210.46539 431
-181.57426 12.12229 269.78323 487
