# .PCD v.7 - Point Cloud Data file format
VERSION .7
FIELDS x y z rgb
SIZE 4 4 4 4
TYPE F F F U
COUNT 1 1 1 1
WIDTH 450
HEIGHT 1
VIEWPOINT 6439.320801 -1950.356934 147.453491 -0.751025 -0.072012 -0.114002 0.646358
POINTS 450
DATA ascii
85.36755 -0.19769 179.13564 467
69.46272 -0.25100 180.26134 462
65.09414 -0.24661 184.68738 457
60.48762 -0.26058 189.36021 453
55.66523 -0.26570 194.21938 448
50.62684 -0.28866 199.30011 443
45.30325 -0.26672 204.68457 438
39.63119 -0.25097 210.42007 432
-181.57391 -0.60333 269.95810 487
-143.41249 -0.51137 277.25439 284
85.05651 -4.58141 178.95750 465
69.07039 -5.13941 180.09222 461
64.64482 -5.26720 184.52617 456
60.00276 -5.42081 189.21228 452
55.16396 -5.56682 194.06479 447
50.05666 -5.76185 199.23041 442
44.67055 -5.93824 204.62001 437
38.98001 -6.09651 210.35495 431
-181.53102 -13.34361 270.05225 487
-148.23819 -12.28353 278.10724 284
84.76900 -9.02729 178.71236 464
68.72611 -10.07824 179.86195 460
64.21705 -10.33615 184.33186 455
59.50196 -10.64957 189.01535 451
54.59000 -10.95828 193.92372 446
49.45580 -11.28939 199.07707 441
44.03333 -11.65199 204.53462 436
38.23969 -11.99751 210.30258 430
-181.46635 -26.10920 270.06299 486
84.52034 -13.49402 178.48590 463
68.40335 -15.05727 179.61136 459
63.86289 -15.48593 184.12061 454
59.07610 -15.96751 188.85516 449
54.12111 -16.41156 193.76901 445
48.86929 -16.93753 198.96431 440
43.37400 -17.43105 204.45308 435
37.55755 -17.99634 210.28157 429
-181.41733 -39.03648 270.33615 486
84.30664 -18.06959 178.18893 462
68.09972 -20.09683 179.35272 457
63.53990 -20.69939 183.90872 453
58.71782 -21.31333 188.60356 448
53.65511 -21.93994 193.60657 443
48.37195 -22.65447 198.83490 438
42.76814 -23.37006 204.36089 433
36.86590 -24.08992 210.22885 428
84.07897 -22.67620 177.87842 461
67.83781 -25.23459 179.03343 456
63.21267 -26.00809 183.60266 452
58.36539 -26.78988 188.39507 447
53.24888 -27.56905 193.38986 442
47.85753 -28.44720 198.64885 419
41.77224 -29.43683 204.18440 414
35.14232 -30.49501 210.08632 402
83.90661 -27.34793 177.51601 459
67.42405 -30.50343 178.65730 435
62.36218 -31.47033 183.20479 431
57.08249 -32.52024 187.98245 426
51.46814 -33.57281 192.95978 421
45.52447 -34.71372 198.30040 416
39.04290 -35.93712 203.91270 404
31.87748 -37.30361 209.95564 399
-183.06497 -78.52971 216.47786 424
83.58555 -32.15306 177.13448 438
65.70359 -36.16040 177.92496 432
60.52225 -37.34641 182.54393 427
55.03868 -38.54175 187.37418 423
49.23227 -39.85510 192.49777 418
42.88654 -41.30770 197.87863 406
35.94821 -42.84373 203.60693 401
28.48126 -44.55273 209.75934 361
-189.87236 -93.54845 216.43491 296
82.32458 -37.30502 176.36191 435
74.11406 -39.39673 179.58485 308
58.59022 -43.41315 181.83850 424
52.94195 -44.86027 186.75150 419
46.65702 -46.48859 191.90523 407
39.91685 -48.23450 197.39917 402
32.68996 -50.08845 203.29846 397
24.54802 -52.15023 209.56902 341
80.99670 -42.66565 175.57227 432
75.71454 -44.19980 179.60631 308
56.68160 -49.73058 181.04358 421
50.46978 -51.53600 185.99409 409
43.90855 -53.45104 191.24751 404
36.58459 -55.61904 196.86337 387
28.35970 -58.00242 202.84737 371
79.69629 -48.19643 174.72908 429
74.63987 -49.84413 178.87448 422
54.18760 -56.49394 180.13554 397
47.35416 -58.74957 185.09201 393
40.04594 -61.09730 190.47403 388
31.88876 -63.78094 196.13412 372
22.49828 -66.79491 202.29420 366
78.34769 -53.99611 173.78738 423
73.10723 -55.85278 178.03059 419
50.79851 -63.93682 178.95003 393
43.56606 -66.51170 184.07994 388
35.47060 -69.42422 189.50935 372
26.27626 -72.76122 195.28902 367
14.22837 -77.07532 201.51360 316
76.94999 -60.02578 172.81123 420
70.77068 -62.45612 176.91379 386
56.90641 -67.93906 179.75163 300
39.12722 -75.01775 182.83931 373
28.65650 -79.14475 188.12930 336
15.04619 -84.56982 193.84543 316
-6.41276 -93.07015 199.85497 267
75.78661 -66.18389 171.77835 316
67.23816 -69.88422 175.39548 381
59.35868 -73.31449 179.75659 300
30.29395 -85.92096 180.74796 335
15.97880 -92.12182 185.93999 315
78.20520 -70.97092 171.76976 316
63.45086 -77.91434 173.76343 390
57.41090 -80.79422 178.69975 386
13.00919 -101.68771 177.02156 286
-18.63875 -116.61142 180.38101 284
80.76076 -75.71115 171.76250 316
59.27861 -86.63121 171.92021 308
46.70914 -93.01987 175.65656 324
32.50324 -100.26261 179.98283 292
83.42771 -80.31012 171.75203 316
62.32425 -91.97541 171.91959 308
34.52259 -107.22893 172.18037 300
-46.83613 -151.97247 164.32320 363
86.26819 -84.91935 171.73804 316
65.51445 -97.20901 171.88361 308
38.20686 -113.33094 172.14545 300
-36.62487 -157.66199 165.32785 286
89.22422 -89.42728 171.70966 316
68.82458 -102.36335 171.89432 308
42.04701 -119.34067 172.09372 300
82.85715 -93.76806 171.76590 316
62.90012 -107.46027 171.90454 308
-0.31635 -150.87367 163.20850 384
86.13010 -98.05242 171.71832 316
66.56552 -112.42268 171.87817 308
14.64215 -150.51677 165.67368 390
89.51591 -102.28279 171.67412 316
70.40296 -117.28214 171.86801 308
21.52298 -155.54826 166.08031 297
93.04586 -106.46635 171.66293 316
74.34195 -122.05466 171.85103 308
96.66010 -110.50388 171.63634 316
53.18347 -149.14546 163.92867 404
100.43706 -114.40958 171.61540 316
64.19765 -148.76585 165.78920 410
104.33490 -118.24567 171.58015 316
70.87548 -152.03813 166.33563 305
88.08962 -143.74843 163.58623 307
76.09087 -156.63136 166.35878 305
93.19287 -147.64810 163.65781 425
-1684.82532 -2182.44067 217.73286 416
102.01797 -146.99721 165.29185 420
-1564.63391 -2179.02881 217.77661 421
109.70444 -147.18762 166.46924 314
-1459.94946 -2188.19385 217.30229 433
116.43139 -148.31024 167.22682 441
-1361.63354 -2200.50220 217.54663 436
-1453.86475 -2328.19775 311.70270 463
121.79814 -151.04897 167.40192 316
-1266.01917 -2211.34521 217.61877 439
-1173.82593 -2222.58911 217.61682 442
-1084.58081 -2232.98608 217.76097 445
-1001.07318 -2249.82422 217.60895 465
-1029.20691 -2485.23413 217.55815 468
-219.30023 -1388.11633 169.38148 496
-222.93369 -1400.09021 216.80066 388
12480.85547 -37441.37891 -1066.48059 0
24094.60742 -32752.22852 -3771.34766 0
19793.70898 -26846.13672 7963.98535 0
2411.96826 -2797.01929 216.48145 368
2513.69653 -2746.72827 216.32829 478
2628.36768 -2706.68115 216.45728 461
2773.06982 -2694.53784 216.98572 417
1697.20813 -1456.73413 149.07956 389
2951.80322 -2709.44922 216.24873 411
392.57349 -96.28188 167.72562 313
395.70541 -91.36723 167.73460 315
401.89130 -88.08437 166.82999 429
409.23074 -85.22118 165.49072 442
2872.12793 -1339.28638 119.71255 497
405.33112 -79.43282 164.79536 317
419.63910 -86.07561 167.77713 305
384.06332 -63.94496 171.63635 316
421.94110 -80.10125 167.85486 305
385.86633 -59.09280 171.66632 316
428.58588 -75.76311 166.75203 428
387.49457 -54.24419 171.69917 316
436.93719 -71.73008 165.22273 423
3893.86230 -1297.46277 216.18553 467
388.97797 -49.28792 171.70886 316
440.24005 -65.67304 164.93860 307
390.28604 -44.33620 171.68719 317
442.10379 -59.14091 164.92816 307
3842.83081 -1029.92725 92.90673 307
3862.16992 -1036.01599 215.81093 494
3975.36182 -1068.09009 343.92975 496
391.48553 -39.29210 171.70035 317
414.60031 -45.11802 171.91246 309
465.71161 -57.97845 167.94644 297
3834.99414 -906.26648 93.97289 441
3871.58057 -915.51166 215.57338 497
392.50320 -34.23944 171.71864 317
415.80521 -39.37752 171.97388 309
468.58017 -50.87273 167.69522 451
3844.45605 -789.30804 94.98062 478
3890.51538 -799.74091 215.57635 498
4031.81934 -830.00500 342.77478 499
393.36343 -29.18429 171.74280 317
416.79022 -33.50155 171.97415 309
475.49466 -44.42992 166.56686 447
3855.37646 -673.24200 94.94933 478
3987.01660 -697.83301 341.40622 496
394.06006 -24.06007 171.74202 317
417.65738 -27.66186 171.98380 309
482.64856 -37.71045 165.35933 461
3867.39258 -559.09650 95.32532 497
394.63034 -18.89654 171.74966 317
418.31213 -21.78453 171.96536 309
449.34143 -25.57492 172.26991 301
3880.16260 -443.74634 95.52528 498
395.00909 -13.74704 171.71616 317
418.74188 -15.90154 171.96768 309
449.87695 -18.68251 172.24681 301
3999.49292 -339.25842 91.55764 436
395.25882 -8.59499 171.75177 317
419.04715 -10.00543 171.97682 309
450.27695 -11.79975 172.26678 301
395.33493 -3.39344 171.73332 317
419.20151 -4.03697 171.96794 309
450.42886 -4.89528 172.30083 301
395.28787 1.79569 171.72443 317
419.12042 1.85758 171.98448 309
450.38162 2.01500 172.28375 301
395.02835 6.98366 171.73358 317
418.86499 7.82981 171.96773 309
450.10080 8.91802 172.25531 301
394.65570 12.16622 171.72246 317
418.44339 13.76245 171.95627 309
449.62192 15.83293 172.26953 301
394.09763 17.34265 171.72554 317
417.83957 19.64602 171.96977 309
448.98596 22.73385 172.22612 301
393.37830 22.46513 171.73300 317
417.05115 25.55527 171.96432 309
483.45950 34.20978 165.13066 301
392.54172 27.64014 171.70128 317
416.10309 31.45933 171.92273 309
478.01508 41.46548 165.98611 444
391.50992 32.77143 171.70520 317
414.96954 37.32615 171.93880 309
470.80740 48.19124 167.14185 448
390.35574 37.85931 171.69081 316
413.68326 43.12699 171.91554 309
464.93689 54.81805 167.95949 297
389.01306 42.91346 171.66615 316
412.14334 48.94363 171.89551 309
463.31421 62.23691 167.87366 297
387.53839 47.91914 171.64790 316
439.21890 63.16102 164.89502 307
385.89108 52.90036 171.61702 316
437.05338 69.71234 164.85623 308
384.07358 57.85273 171.62601 316
429.93765 74.54584 166.05084 425
1873.69849 599.47253 43.71381 377
1858.75732 594.26752 102.29703 389
382.13953 62.75921 171.57903 316
421.70459 78.57378 167.48177 430
1779.53955 621.20935 51.51805 373
1769.38171 616.84705 107.45381 394
403.49280 77.79674 164.72040 317
417.88541 84.09267 167.75122 305
1693.81580 640.89856 58.49575 379
1691.01184 639.91162 111.80287 336
400.82544 83.30193 164.70457 317
415.25122 90.14696 167.70813 305
1611.91565 657.64758 65.46259 376
1611.50732 657.52142 115.93606 404
397.93692 88.66642 164.72679 317
1539.80225 674.52045 70.90206 392
1547.29297 678.60516 118.99412 441
390.48761 91.45234 166.13292 429
1484.35791 696.82837 74.58001 414
1505.71765 708.76489 120.51421 490
383.15390 94.00664 167.43343 434
1437.68628 721.55444 77.42448 472
1511.20703 765.27484 118.20439 415
379.42484 98.46188 167.64157 315
1399.88062 750.13794 79.12369 485
1526.73572 830.85199 115.20807 410
376.19815 103.24953 167.60344 313
1388.98828 795.43018 30.73241 429
1368.92297 781.61523 80.19238 479
1543.80859 901.12817 111.75559 405
1335.81091 811.30505 80.82471 478
1306.05408 842.58746 81.46920 475
548.36743 2596.94531 44.78232 453
548.54553 2600.87207 130.84500 488
126.08617 148.12003 170.35420 452
109.28130 154.43768 166.41197 314
104.79785 151.06828 166.38721 314
100.36777 147.49348 166.37910 314
93.10583 147.42844 165.09711 429
85.10026 147.76030 163.62759 424
80.53880 143.85179 163.51900 307
68.35103 156.77115 166.24620 305
97.81364 118.25536 171.56998 316
63.74704 152.02663 166.23235 305
94.54638 114.36591 171.62643 316
57.60427 148.83250 165.68051 409
91.37054 110.39161 171.61426 316
47.06849 149.19061 163.76387 403
88.36033 106.30958 171.67957 316
69.52370 121.77911 171.78783 308
85.46506 102.17010 171.69913 316
66.23047 117.02564 171.84027 308
16.65731 155.21683 165.96490 295
82.72376 97.89104 171.71854 316
63.01862 112.09874 171.85852 308
9.78947 150.52820 165.36018 388
-2612.82666 2044.32092 102.49574 432
80.05794 93.54474 171.73962 316
60.00633 107.13748 171.86942 308
-4.84804 150.86913 162.88161 382
77.58022 89.08728 171.74380 316
57.08761 102.05402 171.92175 308
30.13104 118.99738 172.16792 300
75.21930 84.57089 171.75177 316
54.37245 96.86517 171.93190 308
26.95114 112.98431 172.17467 300
-49.65224 158.01578 165.07022 288
73.01897 79.98363 171.80977 316
52.05081 91.43496 172.01582 322
40.89869 97.52979 176.06769 319
18.69757 109.68278 178.72768 271
70.96609 75.33910 171.81067 316
60.74051 80.52458 174.96204 385
52.86327 84.50378 179.30209 325
-0.50879 111.53062 175.77397 292
70.63940 69.82234 172.28407 382
64.20459 72.86152 176.37518 390
52.66476 78.22992 179.73067 300
23.30161 91.93678 180.66858 315
-5.41334 105.36278 183.75545 265
-54898.35156 25761.55469 14410.77637 0
73.80786 62.98747 173.77318 386
67.52933 65.66583 177.73450 395
43.61540 75.97832 178.25934 373
33.72381 80.20736 182.95200 336
21.69300 85.35844 188.06958 331
3.79698 93.03175 193.32893 284
75.97523 56.88426 174.83766 420
70.82568 58.88659 178.93932 416
47.42781 68.10918 179.47803 389
40.03614 70.98587 184.47766 373
31.42686 74.37767 189.77315 368
20.00297 78.86277 195.25882 332
3.67602 85.26318 201.27538 311
77.40142 51.31666 175.62358 424
71.94270 53.24487 179.61867 308
50.90798 60.75009 180.57898 393
43.98072 63.20125 185.46043 389
36.52819 65.89928 190.74316 373
27.77045 69.02742 196.31097 368
18.14511 72.43060 202.40663 363
78.77724 45.90997 176.36516 427
70.72589 48.53470 179.60860 308
54.00507 53.89385 181.52171 410
47.62584 55.96809 186.39735 393
40.61475 58.23132 191.51227 388
33.06428 60.63003 197.03212 373
24.12265 63.52078 202.92494 367
80.17202 40.73161 177.06961 431
69.59200 43.76742 179.59941 308
56.25408 47.59391 182.27766 421
50.32555 49.29548 187.10719 409
43.98773 51.13600 192.15294 404
37.24832 53.07889 197.63441 399
29.56668 55.29409 203.42665 382
81.52701 35.69682 177.69577 436
63.41983 40.28602 178.34529 429
58.20958 41.64166 182.88298 424
52.70453 43.03832 187.65767 420
46.69248 44.57113 192.68144 408
40.20103 46.22060 198.05733 403
33.20766 48.00404 203.72830 398
25.12457 50.06682 209.83667 269
82.77939 30.82009 178.24637 458
65.18619 34.72360 178.99802 432
60.13142 35.86956 183.46440 428
54.79603 37.00618 188.17981 423
49.17194 38.29916 193.18350 418
43.03372 39.64286 198.44092 407
36.31026 41.09701 204.00388 401
28.95238 42.73120 210.00458 358
-184.11766 89.87228 216.54283 296
83.06426 26.29081 178.48779 459
66.87846 29.35227 179.56558 455
61.98903 30.25064 183.98457 431
56.82675 31.21665 188.64119 426
51.32479 32.27779 193.56879 422
45.58011 33.35026 198.75159 417
39.29229 34.54719 204.30684 405
32.33248 35.83742 210.15285 399
-182.98863 76.53972 216.55551 424
83.35972 21.77656 178.66081 461
67.20457 24.29495 179.79117 456
62.64204 25.03770 184.26077 452
57.87918 25.78842 188.91989 447
52.87407 26.56364 193.85777 442
47.61530 27.35947 199.04796 437
41.93208 28.27210 204.50815 415
35.43843 29.25580 210.30914 403
83.71835 17.34089 178.84517 462
67.59505 19.32610 179.95818 458
63.08458 19.90966 184.42134 453
58.34577 20.47913 189.05894 448
53.35883 21.10453 193.98491 444
48.15040 21.72618 199.14014 438
42.61464 22.43700 204.55609 433
36.82475 23.16103 210.36723 428
84.05606 12.90493 179.00233 463
67.98141 14.39068 180.10628 459
63.48680 14.81020 184.52879 454
58.79280 15.22265 189.21202 450
53.87150 15.69783 194.09074 445
48.71285 16.18275 199.20483 440
43.30878 16.66810 204.64799 435
37.51401 17.20130 210.37787 429
84.42602 8.49072 179.11618 464
68.40243 9.48122 180.20753 460
63.93680 9.74294 184.65184 455
59.31448 10.03343 189.30902 451
54.45544 10.31891 194.17725 446
49.32574 10.63184 199.28937 441
43.96350 10.97160 204.66881 436
38.24903 11.35194 210.42374 430
-181.51616 24.74146 269.99979 486
-187.24518 25.15610 284.48590 360
84.84718 4.10843 179.20024 465
68.89364 4.58786 180.30298 461
64.48242 4.71756 184.75626 457
59.88108 4.87790 189.37091 452
55.03561 5.02182 194.23813 447
49.95415 5.16641 199.31778 442
44.63291 5.32021 204.71446 437
38.95596 5.47661 210.40668 431
-181.59056 12.06342 269.87961 487
