# .PCD v.7 - Point Cloud Data file format
VERSION .7
FIELDS x y z rgb
SIZE 4 4 4 4
TYPE F F F U
COUNT 1 1 1 1
WIDTH 433
HEIGHT 1
VIEWPOINT 4292.549316 -4100.526367 138.365967 -0.006953 -0.117999 -0.000260 0.992989
POINTS 433
DATA ascii
82.31725 -0.74837 179.53812 316
68.55389 -0.71243 181.14348 462
64.28043 -0.71648 185.47554 457
59.77081 -0.74201 190.02431 453
55.08436 -0.70983 194.74550 448
50.14480 -0.72479 199.75859 443
44.91006 -0.74180 205.05431 438
39.39035 -0.73645 210.62526 432
-152.75497 -0.65477 241.04565 419
-181.70499 -0.68530 269.48654 487
-147.38622 -0.68445 277.28455 284
82.37312 -5.08198 179.51060 316
68.09384 -5.53514 180.97998 461
63.74958 -5.64860 185.33995 456
59.23367 -5.82009 189.91071 452
54.50603 -5.96985 194.67981 447
49.48964 -6.08551 199.69469 442
44.23619 -6.26794 205.01286 437
38.66704 -6.45902 210.60069 431
-152.86293 -12.43559 241.08549 416
-181.71002 -13.28156 269.57263 487
-150.75227 -12.35425 277.87006 285
82.54713 -9.43069 179.52939 316
67.67805 -10.36060 180.84758 460
63.29200 -10.65224 185.23639 455
58.72907 -10.93777 189.77249 451
53.93494 -11.21492 194.60063 446
48.88659 -11.50976 199.61760 441
43.60015 -11.84392 204.91385 436
37.96732 -12.19424 210.55769 430
-181.65430 -26.03719 269.63739 486
82.87555 -13.74430 179.52095 316
67.33717 -15.20638 180.67258 459
62.88364 -15.63346 185.08809 454
58.26615 -16.08565 189.65234 449
53.39484 -16.52244 194.45729 445
48.29855 -17.01302 199.53236 440
42.96411 -17.52290 204.88658 435
37.27569 -18.07390 210.52959 429
-181.59004 -38.71834 269.80069 486
83.05451 -18.10390 179.43645 462
66.97181 -20.12626 180.49019 457
62.51487 -20.69593 184.90814 453
57.83567 -21.30698 189.50143 448
52.91600 -21.92524 194.34953 443
47.74743 -22.58796 199.41145 438
42.30962 -23.23277 204.81502 433
36.57326 -23.99178 210.51450 428
82.76733 -22.56746 179.19292 461
66.67148 -25.11064 180.23650 456
62.15779 -25.82983 184.69246 452
57.44147 -26.55962 189.30089 447
52.50763 -27.33906 194.16858 442
47.25400 -28.19048 199.29041 437
41.40857 -29.09936 204.67580 414
34.96952 -30.15496 210.42598 402
82.54890 -27.05536 178.95244 459
66.26009 -30.18171 179.97281 435
61.34976 -31.09710 184.37177 431
56.20407 -32.09501 188.96179 426
50.80620 -33.12288 193.81502 421
45.05289 -34.22417 198.99048 416
38.71894 -35.41399 204.42076 404
31.81087 -36.72259 210.26170 364
-182.91302 -77.62677 216.61342 424
82.25369 -31.65296 178.60435 438
64.56373 -35.60700 179.33177 432
59.50388 -36.75775 183.74831 428
54.19970 -37.92444 188.43797 423
48.62191 -39.18763 193.39047 418
42.46334 -40.54596 198.59799 406
35.72650 -42.06029 204.14754 401
28.31354 -43.72956 210.12711 358
-187.80728 -92.05411 216.58546 296
80.94204 -36.58516 177.97736 435
62.80910 -41.24957 178.63266 429
57.63050 -42.56556 183.13779 424
52.15110 -43.96702 187.89822 419
46.08773 -45.53534 192.89986 408
39.61149 -47.21561 198.20694 402
32.62552 -48.98004 203.84538 397
-188.36559 -105.67648 202.76219 484
79.59973 -41.68163 177.30254 430
68.35195 -44.95550 179.65434 308
55.72940 -48.64124 182.43474 421
49.77945 -50.37238 187.24097 409
43.43153 -52.19102 192.28796 404
36.51432 -54.18644 197.72800 387
28.72798 -56.47665 203.51236 371
78.26514 -46.97941 176.55043 427
69.78137 -49.72348 179.63612 308
53.43341 -55.05055 181.64078 410
46.89333 -57.15176 186.47249 393
39.87418 -59.47386 191.58589 388
32.13600 -61.94982 197.09935 372
23.13277 -64.88889 202.97191 367
76.92529 -52.43850 175.70341 423
71.29163 -54.45296 179.62325 308
50.17608 -62.07915 180.60867 393
43.20642 -64.57449 185.47496 388
35.58612 -67.35236 190.74678 372
26.71074 -70.53750 196.33011 367
16.62949 -74.17595 202.37079 332
75.55372 -58.15121 174.81662 420
70.07005 -60.35187 178.89897 386
46.67284 -69.57407 179.40556 388
39.07169 -72.60955 184.39034 373
30.20305 -76.09705 189.66739 336
17.99567 -80.93549 195.17981 331
0.56414 -87.85012 201.10722 311
73.09778 -64.55956 173.55176 386
66.78035 -67.28803 177.54344 395
42.62833 -77.70956 178.06375 373
31.78164 -82.44280 182.69058 336
19.08665 -87.93333 187.72343 315
-4.32652 -98.04370 192.48253 265
69.84133 -71.62930 171.99757 381
63.44367 -74.66018 176.13362 390
53.01042 -79.60941 179.78305 300
20.33404 -94.97826 180.08388 314
-27.88599 -117.68143 180.44093 284
71.58855 -76.63392 171.83337 316
59.82557 -82.62057 174.56212 384
50.23011 -87.50587 178.62447 325
23.09386 -101.35542 180.03308 292
73.96740 -81.32463 171.81995 316
52.76746 -92.94678 172.01758 308
37.68414 -101.26302 175.12000 319
-54.40891 -151.84293 164.86832 373
76.48484 -85.94542 171.77866 316
55.67085 -98.26506 171.99336 308
28.25667 -114.41752 172.22018 300
-48.03446 -159.55437 165.08994 288
79.16612 -90.45654 171.77249 316
58.69291 -103.46307 171.95607 308
31.81000 -120.49422 172.19795 300
81.93391 -94.89985 171.76628 316
61.90858 -108.56097 171.93175 308
-0.41342 -150.93864 163.54565 382
84.89693 -99.28080 171.71831 316
65.27424 -113.51893 171.89493 308
14.29011 -150.53891 165.95421 389
87.96955 -103.53516 171.71112 316
68.74511 -118.43271 171.86975 308
19.62591 -156.56833 166.08734 295
91.17458 -107.75743 171.66216 316
44.42762 -146.46231 163.33682 300
94.50040 -111.81931 171.64534 316
52.09258 -149.23909 164.33679 404
97.96764 -115.81039 171.64824 316
62.81738 -148.79300 166.19868 409
101.57526 -119.67857 171.61472 316
67.86327 -153.36447 166.34647 306
84.57565 -145.34383 163.50703 307
90.69335 -147.78162 164.13089 425
99.08856 -147.28368 165.73038 419
105.48648 -148.78928 166.46100 314
110.23300 -152.36914 166.46632 314
126.76380 -148.21404 169.83913 441
-275.27206 -1929.71936 87.37119 498
-278.05618 -1939.84937 152.58765 441
-5057.40869 -55705.80859 -8984.44629 1000
-4134.73047 -45975.09375 -4301.66992 1000
220.05046 -1428.67993 76.87726 490
220.33292 -1436.99548 123.44681 458
220.11337 -1447.12537 170.09583 303
717.94800 -977.88953 108.95112 398
368.33344 -108.53374 167.61771 313
371.56784 -103.77721 167.65306 315
374.65216 -98.96542 167.68153 315
380.23212 -95.56409 166.87842 434
387.65768 -92.99490 165.46007 429
392.88373 -88.94904 164.72366 317
395.64136 -83.52718 164.72992 317
410.01178 -90.25951 167.73816 305
374.77264 -67.83508 171.56482 316
412.50427 -84.21437 167.84154 305
376.70389 -62.95959 171.55199 316
419.88370 -80.04440 166.61436 429
378.51889 -57.97746 171.59045 316
428.34970 -75.90305 165.10533 424
380.19348 -53.00542 171.62067 316
431.45465 -69.67487 164.90456 308
381.71640 -47.92627 171.62447 316
433.53580 -63.00565 164.85429 308
455.74881 -69.44848 167.87114 297
267.90182 -13.26208 203.48172 289
406.41602 -48.81078 171.84976 309
457.45886 -61.96291 167.94507 298
268.35046 -11.46819 203.50084 314
407.82483 -42.73278 171.88232 309
463.91162 -55.24736 167.01538 452
268.65201 -9.95404 203.49953 314
408.98309 -36.80743 171.89819 309
471.01700 -48.63229 165.88956 448
268.90109 -8.43922 203.50323 314
409.94272 -30.81683 171.88641 309
476.23871 -41.35082 165.09224 300
269.10983 -6.90311 203.50615 314
410.77042 -24.88776 171.88606 309
441.98029 -28.80686 172.17453 301
269.26669 -5.36766 203.49739 314
411.34982 -18.86804 171.89172 309
442.67126 -21.84165 172.20338 301
269.37372 -3.83919 203.50864 314
411.81229 -12.87026 171.91931 309
443.18018 -14.82236 172.21382 301
269.43494 -2.29463 203.50491 314
412.03558 -6.84024 171.89821 309
443.47592 -7.83290 172.18488 301
269.45084 -0.75469 203.50067 314
412.13147 -0.82364 171.92731 309
443.53946 -0.80187 172.21622 301
512.77368 -0.80498 168.29491 288
269.40826 0.78859 203.49765 314
411.98407 5.23635 171.89461 309
443.44308 6.19259 172.22626 301
269.32712 2.33137 203.49754 314
411.70331 11.22651 171.88843 309
443.10458 13.22302 172.20290 301
269.18881 3.85521 203.50970 314
411.22858 17.25741 171.86806 309
442.51370 20.16521 172.16713 301
4894.19385 440.23801 215.28006 477
269.01132 5.39216 203.50713 314
410.56827 23.22360 171.89098 309
441.77054 27.13415 172.18884 301
4833.13574 581.06592 214.58382 436
268.78430 6.90550 203.50348 314
409.74426 29.21069 171.88777 309
475.92761 39.67593 165.08391 300
4812.12061 725.02179 215.15160 435
268.51123 8.41988 203.50378 314
408.76251 35.10090 171.88188 309
471.88733 47.19196 165.64131 448
4806.81152 873.51031 215.35863 434
268.18976 9.92269 203.50298 314
407.56772 41.03131 171.87022 309
464.75729 53.79692 166.75130 452
4800.72021 1022.18127 214.50063 433
267.82074 11.42542 203.49849 314
406.17307 46.88493 171.83080 309
457.07541 59.97806 167.94563 298
4796.58496 1174.10229 215.19247 408
267.40991 12.90502 203.50803 314
404.68039 52.71907 171.79532 309
455.36710 67.41955 167.84578 297
380.07828 51.05827 171.58719 317
431.25513 67.72424 164.84573 308
378.38687 56.09557 171.57855 316
428.96024 74.25263 164.88113 308
376.57205 61.05270 171.52997 316
421.33496 78.71500 166.17345 429
374.65524 65.92323 171.51245 316
413.30798 82.68438 167.53622 434
395.55191 81.57887 164.68021 317
409.74673 88.29151 167.75464 305
392.75095 87.00103 164.69774 317
389.09796 91.92353 164.95853 429
381.61267 94.52750 166.34680 434
374.51962 97.03210 167.63795 315
371.42365 101.82683 167.57758 315
368.19104 106.59516 167.57997 315
4728.72119 4800.13574 213.60995 436
4676.73340 5052.37598 213.07301 392
4669.53760 5374.62695 214.11264 405
787.65533 1031.03845 100.07078 485
787.81073 1031.32593 138.80878 486
788.05963 1031.46948 177.53819 450
788.08081 1031.76172 216.26509 450
788.27930 1032.02454 254.71300 450
788.26923 1032.26099 293.33771 450
788.44348 1032.57605 332.18018 449
3214.55420 5872.97559 214.57304 386
18745.62109 39357.18750 -9943.32812 1000
2951.18774 5801.01709 214.34508 453
2728.01123 5793.62158 215.17661 425
2517.86963 5800.62598 213.87053 427
2567.25366 5925.11328 423.48859 470
1407.37219 3295.00684 215.13840 471
1295.25085 3306.52539 215.27470 472
269.02707 1540.17346 115.37933 496
268.85480 1539.52393 165.99007 495
268.97394 1539.82153 216.47830 470
268.71652 1540.40698 266.76740 422
268.83215 1541.85742 317.34702 358
117.59574 150.96213 167.41402 316
110.64242 150.72034 166.39043 314
105.97459 147.24399 166.38583 314
98.41661 147.10054 165.16229 419
89.97545 147.53983 163.58806 424
85.18459 143.59206 163.50903 307
73.16028 156.42297 166.27403 305
101.84155 118.14316 171.52257 316
68.19688 151.76772 166.28427 306
98.28831 114.25375 171.57774 316
61.65897 148.63809 165.67467 409
94.77151 110.29658 171.58826 316
50.84061 149.10529 163.73265 403
91.70878 105.81655 171.65150 316
72.71918 121.70506 171.80865 308
88.23192 102.08553 171.67679 316
69.08997 116.93329 171.81471 308
20.07568 154.96814 166.03340 295
85.13006 97.77796 171.69269 316
65.52493 112.02811 171.83434 308
12.72119 150.46086 165.41809 389
82.17931 93.43829 171.69183 316
62.17136 107.06639 171.88983 308
-2.17160 150.83060 162.89250 382
79.37705 88.98492 171.72447 316
58.97243 101.94926 171.89975 308
32.15773 118.97061 172.10135 300
76.71571 84.45919 171.76587 316
55.88439 96.78884 171.95312 308
28.56477 112.95059 172.16089 300
-47.56091 157.98900 165.07286 286
74.16089 79.84995 171.79466 316
53.00268 91.52138 171.95050 308
40.59666 98.13997 175.66272 319
14.22393 112.87456 177.60864 270
71.76487 75.17356 171.79463 316
60.71841 80.81249 174.71815 385
52.50215 85.01530 179.02631 325
23.38599 99.87788 179.98668 292
70.74532 69.86856 172.16768 381
64.27496 72.93954 176.25389 390
53.20620 78.15753 179.76035 300
23.03213 92.30664 180.48077 314
-27.57471 116.11426 180.37816 343
73.93459 62.82388 173.73180 386
67.62725 65.54242 177.67189 395
43.70460 75.89958 178.20303 373
33.75216 80.25124 182.91541 336
21.62077 85.45133 187.97922 331
3.37949 93.39415 193.19521 283
76.01170 56.57787 174.90157 420
70.85475 58.62136 178.99850 415
47.53577 67.86223 179.54782 389
40.16914 70.78647 184.50417 373
31.54120 74.23023 189.77914 368
20.13675 78.76772 195.27188 332
3.72346 85.20975 201.24413 311
77.38873 50.91941 175.80263 424
71.43939 53.03169 179.59856 308
50.97019 60.41502 180.68915 393
44.10798 62.92072 185.55881 388
36.69957 65.60222 190.82024 373
27.93069 68.72330 196.38702 368
18.30721 72.17748 202.44731 362
78.73985 45.44684 176.59346 427
69.91744 48.29728 179.61076 308
54.01429 53.49427 181.69884 410
47.74116 55.49968 186.55301 393
40.73133 57.80009 191.66896 388
33.23661 60.26365 197.11551 383
24.29649 63.15263 203.03006 367
80.06093 40.16228 177.34633 430
61.54536 45.52510 177.97006 425
56.24720 47.08302 182.50066 421
50.37017 48.82741 187.30760 409
44.08012 50.63038 192.33531 404
37.32784 52.62241 197.77090 399
29.77678 54.79209 203.51343 382
81.35890 35.08207 178.07361 435
63.29987 39.71547 178.70576 429
58.13481 41.06482 183.18224 424
52.70750 42.44279 187.92175 420
46.73892 43.99552 192.92029 408
40.29935 45.65456 198.20824 403
33.34505 47.41286 203.84955 397
24.95034 49.58298 209.90796 269
82.44279 30.20341 178.65900 457
65.04340 34.10910 179.37895 432
60.00574 35.22076 183.83415 428
54.72075 36.41358 188.48360 423
49.14809 37.69262 193.41753 418
43.12318 39.02315 198.61636 406
36.42720 40.49556 204.17888 401
29.13726 42.16753 210.10402 358
-183.95319 89.82475 216.48897 296
82.64610 25.63459 178.96220 459
66.51575 28.75031 180.01215 455
61.82475 29.60707 184.39693 431
56.73526 30.58737 189.00073 426
51.31442 31.65488 193.87276 421
45.61453 32.72135 199.01015 416
39.39581 33.91718 204.42584 405
32.52333 35.21315 210.25986 399
-182.99312 76.34969 216.53787 424
82.91644 21.13348 179.20139 461
66.81498 23.69463 180.24951 456
62.28691 24.42371 184.69739 452
57.61154 25.17901 189.29338 447
52.65994 25.95829 194.15958 442
47.45989 26.75142 199.26593 437
41.95150 27.63228 204.67511 432
35.64894 28.63711 210.41908 402
83.15491 16.66961 179.45592 462
67.09347 18.72240 180.48746 457
62.65858 19.28942 184.87770 453
57.98989 19.89080 189.49585 448
53.11081 20.48096 194.30956 443
47.92430 21.14808 199.39758 438
42.52336 21.83636 204.77725 433
36.79404 22.54914 210.49501 428
82.92896 12.33448 179.51454 316
67.44211 13.78806 180.70175 459
63.02177 14.21622 185.08467 454
58.39734 14.67588 189.65845 450
53.55370 15.13348 194.45869 445
48.46724 15.61016 199.49959 440
43.14874 16.13162 204.86427 435
37.48635 16.67299 210.52641 429
82.60097 8.02164 179.51494 316
67.79035 8.92956 180.88020 460
63.40422 9.20727 185.23911 456
58.84887 9.49137 189.78360 451
54.10235 9.79686 194.57574 446
49.09003 10.13505 199.59705 441
43.75237 10.44746 204.93066 436
38.16685 10.83225 210.55339 430
-181.74208 24.72679 269.61154 486
-187.14276 25.09123 283.97177 360
82.38526 3.65857 179.54237 316
68.23758 4.10100 181.03346 461
63.87656 4.24064 185.36885 456
59.38885 4.39609 189.94022 452
54.65244 4.53809 194.70972 447
49.66301 4.69127 199.70253 442
44.43150 4.84980 204.96590 437
38.86745 5.07466 210.58311 431
-181.72795 12.02172 269.53876 487
