# .PCD v.7 - Point Cloud Data file format
VERSION .7
FIELDS x y z rgb
SIZE 4 4 4 4
TYPE F F F U
COUNT 1 1 1 1
WIDTH 499
HEIGHT 1
VIEWPOINT 6502.054199 -632.262634 147.193039 -0.642520 -0.098982 -0.089859 0.754517
POINTS 499
DATA ascii
82.65763 -0.74028 179.53061 316
68.62576 -0.72667 181.04411 462
64.32620 -0.72408 185.41441 457
59.83398 -0.70201 189.94727 453
55.11567 -0.72431 194.71979 448
50.16730 -0.74175 199.71535 443
44.96125 -0.74508 204.98442 438
39.42649 -0.71667 210.59332 432
-152.68864 -0.69644 241.00171 419
-181.77774 -0.70822 269.47513 487
-147.58775 -0.73624 277.31509 284
70.11502 -5.13043 179.00125 465
66.17775 -5.24781 182.96410 461
62.10673 -5.38284 187.07019 456
57.79432 -5.52748 191.40979 452
53.33380 -5.65529 195.91083 447
48.61050 -5.80161 200.67889 442
43.59855 -5.95607 205.69208 437
38.34389 -6.12514 210.99097 431
-152.20619 -12.28267 240.37418 416
-182.33154 -13.21819 268.35297 487
-158.78938 -12.52515 277.57440 290
69.86358 -9.58261 178.78625 464
65.83487 -9.83244 182.74565 460
61.70339 -10.11504 186.90045 456
57.34532 -10.35473 191.22548 451
52.82160 -10.68182 195.77361 446
48.07068 -10.97746 200.53932 441
43.02746 -11.28218 205.58612 436
37.67960 -11.64890 210.95601 430
-182.28061 -25.69549 268.40594 486
69.60298 -14.10353 178.54997 463
65.54467 -14.49161 182.53346 459
61.35753 -14.87753 186.67621 454
56.95382 -15.29348 191.04190 449
52.35527 -15.71765 195.63243 445
47.52214 -16.18964 200.41443 440
42.45057 -16.64995 205.52011 435
37.02759 -17.20248 210.89621 429
-182.25139 -38.04639 268.56793 486
69.35844 -18.65566 178.27779 462
65.29507 -19.17528 182.29666 457
61.05761 -19.72450 186.48943 453
56.56865 -20.26484 190.86864 448
51.92955 -20.86924 195.46349 443
47.02417 -21.50249 200.28435 438
41.85784 -22.14779 205.41959 433
36.39508 -22.82829 210.81413 428
69.16548 -23.27055 177.95065 460
65.06146 -23.92370 181.99779 456
60.76533 -24.61433 186.22229 452
56.24635 -25.33219 190.62991 447
51.54734 -26.09160 195.27477 442
46.54522 -26.88181 200.15332 437
41.28600 -27.69020 205.32666 432
35.29174 -28.66489 210.73796 367
76.20975 -26.61121 179.58231 316
64.82274 -28.78397 181.69025 455
60.40721 -29.60462 185.91667 431
55.49253 -30.57749 190.32457 426
50.31909 -31.53693 194.92529 421
44.86270 -32.62003 199.85818 416
38.90272 -33.75165 205.04982 404
32.10663 -35.03706 210.59583 364
-182.88374 -76.28395 216.56030 424
77.36878 -30.85890 179.57948 316
63.48046 -33.96247 181.05746 432
58.66585 -35.05757 185.29485 427
53.62675 -36.16308 189.75046 423
48.26723 -37.38996 194.47545 418
42.42527 -38.65970 199.47499 406
36.03978 -40.12205 204.77281 401
27.96613 -41.90865 210.39977 270
-183.49728 -89.38775 216.64711 296
78.64703 -35.06277 179.54498 316
61.86215 -39.39193 180.35548 429
56.93829 -40.67426 184.63271 424
51.71161 -42.01278 189.18396 419
45.97323 -43.47078 193.96283 407
39.72865 -45.07719 199.02609 402
33.05924 -46.80890 204.46892 397
-188.51706 -103.91099 203.04070 483
78.47013 -39.71761 179.11548 430
60.21704 -45.02981 179.55513 425
55.08599 -46.52533 183.95311 421
49.48672 -48.19729 188.53761 409
43.39503 -49.95312 193.38882 404
36.89509 -51.85980 198.55785 399
29.73962 -53.93029 204.12325 382
77.24957 -44.84352 178.32877 427
58.55551 -50.95478 178.72652 421
53.00997 -52.73856 183.12750 410
47.06565 -54.69851 187.76201 405
40.28621 -56.90287 192.66727 388
33.06516 -59.26311 197.95056 383
24.53679 -61.99845 203.59782 366
76.01233 -50.15358 177.46423 423
64.48354 -54.33846 179.67757 308
50.17254 -59.46976 182.07013 393
43.53699 -61.88499 186.76544 388
36.39685 -64.48249 191.82605 383
27.94757 -67.50861 197.17455 367
18.63524 -70.87535 203.01584 362
74.71060 -55.71978 176.52382 420
66.47805 -58.99254 179.66673 308
46.84332 -66.77624 180.89847 388
39.73022 -69.58801 185.70407 373
31.41769 -72.89874 190.77449 367
21.08333 -76.99083 196.18849 331
5.64751 -83.12720 201.94128 310
72.97220 -61.75158 175.41435 386
67.15710 -64.25451 179.28807 395
43.19599 -74.63477 179.56094 373
34.17976 -78.55647 184.21994 335
22.44353 -83.65797 189.09872 331
6.28575 -90.61951 194.30328 310
69.91074 -68.66470 173.82716 381
63.91975 -71.46681 177.85248 390
35.79221 -84.71501 177.35800 334
23.95652 -90.30102 181.86075 330
1.17009 -101.04220 185.58598 281
66.62302 -76.08878 172.08197 376
60.46233 -79.24152 176.26001 384
49.85876 -84.63265 179.81032 300
-6.52411 -113.46594 175.61185 293
68.61677 -81.12982 171.87318 316
52.68526 -89.90225 173.43207 322
41.80243 -95.87070 177.32054 318
21.04182 -107.34927 180.08395 292
71.45458 -85.73038 171.82617 316
50.65001 -98.03835 172.00732 308
23.30078 -114.18880 172.24893 300
-53.25000 -159.57071 165.12239 288
74.42122 -90.21840 171.80273 316
53.97314 -103.22781 171.98196 308
27.13908 -120.28041 172.22313 300
77.51413 -94.65723 171.77696 316
57.48052 -108.29569 171.98128 308
-5.29622 -151.03073 163.44539 383
80.74987 -98.99593 171.76685 316
61.13543 -113.26306 171.95148 308
9.78312 -150.68581 165.82487 389
84.09820 -103.25371 171.72217 316
64.98022 -118.16484 171.89517 308
15.53783 -156.53783 165.99313 295
87.62125 -107.42861 171.72705 316
68.90302 -122.93117 171.88937 308
91.22930 -111.47750 171.70549 316
48.34831 -149.35132 164.18701 404
95.01839 -115.47533 171.63995 316
59.38089 -148.92471 166.11732 409
98.87003 -119.31683 171.62267 316
65.13251 -153.16048 166.30403 306
82.29360 -145.02594 163.51407 307
88.37457 -147.86679 164.01376 425
96.93354 -147.48877 165.52231 420
104.08596 -148.43727 166.46494 314
-1968.66650 -2823.74927 216.49197 408
109.05965 -151.97459 166.43805 314
-1756.41394 -2722.15039 106.16570 386
-1827.69165 -2821.26099 216.35774 412
-1599.92676 -2681.10913 110.47570 304
125.87783 -148.29359 169.69911 441
-1549.67664 -2790.67676 108.83105 425
239.19014 -56858.85938 3946.36230 0
769.27673 -1060.96997 99.39509 456
771.76581 -1065.53650 138.00325 271
1878.64697 -2133.11646 128.21794 465
1936.85571 -2069.94995 129.29890 482
1998.16797 -2011.96497 129.37187 496
2067.04810 -1961.93640 128.92079 494
2148.04932 -1923.00830 127.49622 469
2243.10181 -1894.78955 126.18356 466
2341.18384 -1864.76196 124.62737 462
2443.16211 -1834.07019 122.91782 457
375.15283 -102.89749 167.66324 315
378.52850 -98.10266 167.68459 315
383.77335 -94.38224 167.07513 434
391.31873 -91.74763 165.71077 429
397.54465 -88.06386 164.75481 317
400.53528 -82.64153 164.77486 317
414.95865 -89.40710 167.78696 305
403.32230 -77.09283 164.74321 317
417.74869 -83.33265 167.79350 305
382.05283 -62.03732 171.63420 316
423.30313 -78.35183 167.09969 429
384.12598 -57.08697 171.66106 316
431.81668 -74.24989 165.64290 424
1850.37732 -583.93884 103.57463 468
386.07465 -52.11390 171.67841 316
437.39404 -68.71014 164.90688 308
387.80118 -47.04154 171.68005 316
439.68481 -62.04662 164.92529 307
389.42038 -41.97711 171.67259 316
412.67731 -47.92970 171.89659 309
463.88956 -61.02555 167.93254 297
390.87833 -36.85468 171.70023 316
414.28506 -42.07413 171.90771 309
465.77530 -53.51884 167.98712 452
392.18011 -31.69547 171.69231 316
415.70471 -36.16912 171.93941 309
472.73178 -47.00770 166.93945 447
393.31525 -26.51407 171.73480 317
416.99539 -30.24242 171.94151 309
480.07043 -40.20396 165.81654 443
394.33835 -21.30188 171.71611 317
418.08456 -24.31906 171.95619 309
484.60501 -32.64540 165.20245 301
2875.19019 -333.19714 129.41141 292
395.14670 -16.09384 171.73967 317
418.96533 -18.32166 171.97255 309
450.19901 -21.25215 172.27521 301
2777.89453 -239.88901 132.76614 499
395.81314 -10.87026 171.73749 317
419.72104 -12.31737 171.98085 309
450.98398 -14.29903 172.28983 301
2730.41919 -156.30402 134.50282 447
396.31766 -5.61491 171.73357 317
420.21399 -6.33517 171.98621 309
450.61456 -7.32020 172.49254 495
2699.72583 -77.03419 135.41017 398
396.67569 -0.38205 171.77383 317
420.63205 -0.36564 171.98318 309
450.65421 -0.31206 172.56636 495
2714.96826 0.57763 53.88416 444
2677.09644 0.72103 136.13078 403
2706.81641 0.57215 216.64612 492
2827.26392 0.42267 301.57831 491
396.90256 4.85639 171.74088 317
420.80264 5.62729 171.99371 309
450.65491 6.56441 172.57515 495
2673.44141 77.59815 56.19407 492
2659.94824 77.12579 137.26833 352
2682.12476 77.46837 216.64630 491
2698.39355 78.28481 297.18387 472
396.90451 10.12528 171.76250 317
420.77371 11.63532 172.00955 309
452.08127 13.63732 172.29811 301
2638.77222 151.89963 58.24911 311
2643.17383 152.28041 137.65543 354
2669.80566 154.04427 216.65242 495
396.77628 15.35863 171.72588 317
420.63184 17.60486 171.96490 309
451.83426 20.56414 172.25272 301
2615.84155 225.84521 59.19870 311
2647.72046 229.12402 137.00896 497
2651.93018 229.24170 216.69067 497
2736.82104 237.89841 299.17303 496
396.48779 20.53976 171.72316 317
420.26807 23.56710 172.00159 309
486.73520 32.01249 165.17038 301
2594.26343 299.30817 60.10971 386
2730.82812 316.53696 298.92499 497
396.06601 25.72616 171.75734 317
419.68405 29.47227 171.95723 309
480.45972 39.15888 166.24187 443
2575.08691 371.69949 61.30281 386
2731.82227 396.82565 299.54187 328
395.49353 30.90807 171.72476 316
419.00772 35.38728 171.96292 309
473.37344 45.81457 167.50740 448
2555.97681 443.71866 61.18280 393
394.71262 36.02584 171.73065 316
418.12268 41.25975 171.92993 309
469.67722 52.84143 167.99411 297
2537.66748 515.73944 61.52314 393
2586.31372 526.60016 137.84363 499
393.79272 41.15300 171.69417 316
446.16763 54.63840 164.88696 307
468.46472 60.38296 167.95074 297
2519.53394 587.62885 61.85888 393
2567.45728 600.11243 137.58151 499
392.73615 46.19891 171.69736 316
444.66721 61.30539 164.89545 307
2606.46313 690.11481 54.60852 486
2544.55981 672.26422 137.97223 499
391.54956 51.23672 171.67667 316
442.73804 67.89234 164.92747 433
390.17657 56.22660 171.66772 316
434.62497 72.23138 166.49471 424
388.66815 61.15215 171.66574 316
427.13229 76.39448 167.83194 305
410.51025 76.23644 164.77318 316
425.14517 82.54098 167.79242 305
408.28415 81.73878 164.80241 316
404.67368 86.51662 165.12756 424
397.21231 89.14736 166.66942 429
391.26132 92.24414 167.66542 315
388.68015 97.14577 167.66777 313
380.95157 965.64117 87.62039 468
349.16949 959.29590 89.16082 471
348.31216 953.66644 121.60913 433
317.77960 952.68549 90.31988 468
317.45291 947.15131 122.57768 491
287.18646 947.18005 91.48827 471
287.01413 942.13232 123.29006 493
288.39328 963.60010 153.09540 428
257.18845 941.53320 92.47683 471
257.03394 936.95490 124.17848 495
262.33044 1111.93616 143.31906 496
227.42601 936.12036 93.21819 473
227.37355 931.93640 124.68128 496
227.33380 941.81421 154.61411 459
203.01036 36386.75391 6220.83252 0
198.11848 930.60529 93.67313 474
198.14828 926.92920 124.98794 497
197.80579 936.97186 154.93217 463
168.84160 925.03558 94.33727 475
169.19754 921.92480 125.39273 498
168.43265 932.54681 155.08939 399
140.03326 919.79578 94.71913 475
140.41162 917.23773 125.52079 499
116.54733 1165.78943 139.66109 498
111.27741 915.52112 94.94615 454
111.52373 912.18750 125.84011 499
79.90481 1161.12329 139.80542 499
-3918.34912 26071.14062 -5036.88330 0
82.44411 911.24219 94.81218 454
82.92452 907.35254 125.82230 499
53.48901 907.01587 94.84953 452
54.35666 902.44708 126.02176 499
39.76799 978.57245 151.19078 264
24.74437 901.59778 94.62886 452
25.74222 897.51172 125.82559 499
24.23734 903.89465 155.60300 499
-3.98228 897.08582 94.48880 438
-2.80602 892.63751 125.70409 499
-4.65834 899.33490 155.46825 498
-33.47720 893.36493 93.81729 437
-31.87934 887.75293 125.20294 496
-33.90823 894.71643 155.20697 497
-103.74918 1134.60144 177.64153 499
-63.53944 890.98499 92.92287 435
-61.75562 885.69623 124.62268 489
-64.21139 893.07806 154.83330 485
-126.46697 1084.52637 179.05281 270
-95.59755 892.56659 91.53661 419
-93.54356 886.60834 123.57333 478
-99.43170 903.17108 153.60486 393
-129.54013 896.97803 89.31762 410
-126.93164 890.25122 122.19330 468
-165.62981 903.97223 86.61628 403
-161.84003 895.00061 120.29996 458
-204.62485 913.56897 83.37813 382
-199.17287 901.79974 118.22592 438
-248.67889 929.52679 78.93792 376
-240.23863 913.35364 115.52655 423
-283.96808 925.52399 112.21151 418
-329.59039 937.54852 109.23414 403
124.04221 148.36404 168.25812 489
117.16091 148.04530 167.29204 440
110.36870 147.16396 166.38460 314
103.01630 146.63387 165.31645 419
94.23976 147.39607 163.62788 424
89.20645 143.49809 163.54179 307
77.16276 156.36253 166.30742 305
105.69403 118.13198 171.50157 316
72.12450 151.68245 166.24809 305
101.94585 114.25264 171.55409 316
65.47439 148.52068 165.71675 409
98.35236 110.29020 171.55089 316
54.48446 148.93295 163.79808 403
94.90063 106.20894 171.61130 316
76.14262 121.72016 171.77812 308
91.53228 102.02621 171.63248 316
72.29219 116.91714 171.81578 308
23.35439 154.85501 166.05544 297
88.31792 97.75684 171.64824 316
68.68782 112.01664 171.79807 308
15.86037 150.36427 165.37523 389
85.24095 93.39561 171.70172 316
65.15979 107.01281 171.86256 308
0.76626 150.70651 162.93202 382
82.27563 88.92479 171.71497 316
61.85516 101.88702 171.85405 308
34.92395 118.96187 172.07722 300
79.46365 84.41944 171.73082 316
58.65083 96.71215 171.92360 308
31.29948 112.87556 172.14908 300
-44.68691 157.82172 165.14581 286
76.78165 79.81373 171.75739 316
55.60763 91.44025 171.95869 308
38.48098 100.88518 174.58133 319
-54.25796 151.76576 164.23874 373
74.25228 75.14555 171.77016 316
60.54465 82.14119 173.99629 385
51.21775 86.85348 178.14552 325
25.82029 99.79311 179.96461 292
71.90249 70.36940 171.81209 316
64.18830 74.01773 175.61098 390
55.54146 78.07143 179.73831 300
21.83988 93.88054 179.80968 314
-25.34948 116.09479 180.36600 284
-2431.35352 1248.03979 120.45837 495
-2429.34912 1246.63245 216.19783 496
-2427.00049 1245.59167 312.43839 496
74.05190 63.64970 173.10063 386
67.58210 66.45583 177.07675 381
53.09580 72.74308 179.74060 300
33.09358 81.37070 182.37827 336
20.71371 86.75293 187.52182 315
0.26113 95.60180 192.65306 283
76.34018 57.24036 174.36923 420
70.99712 59.32996 178.49393 386
47.51927 68.62952 179.07602 389
40.01547 71.57584 184.07674 373
31.31390 75.02380 189.43529 368
19.39135 79.75842 195.01521 332
2.48776 86.47821 200.99646 311
77.70570 51.45586 175.27336 424
72.63506 53.25821 179.40912 419
51.03955 61.02238 180.25554 393
44.11961 63.51682 185.22624 388
36.56997 66.26334 190.48022 373
27.65636 69.46066 196.14731 368
17.95906 72.93826 202.27260 362
79.01768 45.88702 176.16583 427
71.72308 48.24072 179.60428 308
54.20963 53.94147 181.35735 410
47.77369 56.04205 186.22752 393
40.71328 58.30804 191.36006 388
33.13501 60.75988 196.90923 372
24.06997 63.71626 202.83041 367
80.34359 40.50514 176.94273 432
70.18981 43.46931 179.61597 308
56.43642 47.45480 182.16913 421
50.48912 49.19895 187.00243 409
44.11306 51.04967 192.09346 404
37.34547 52.99503 197.57361 399
29.61506 55.26301 203.35042 382
81.64971 35.33512 177.66856 435
63.52081 39.98434 178.35048 429
58.34284 41.34113 182.90984 424
52.86374 42.73184 187.65575 420
46.84475 44.31418 192.70302 408
40.28520 45.98199 198.04539 403
33.31318 47.77930 203.73438 397
25.42973 49.77573 209.86325 269
82.75381 30.42107 178.31667 457
65.25059 34.29349 179.11757 432
60.17781 35.46164 183.56488 428
54.89206 36.62189 188.27834 423
49.27412 37.90363 193.22791 418
43.16653 39.25714 198.45302 406
36.43558 40.75312 204.08609 401
29.09469 42.41359 210.04662 358
-184.30443 90.01694 216.53030 296
82.94531 25.77746 178.66756 459
66.74957 28.85799 179.73697 455
62.01958 29.75504 184.18140 431
56.86340 30.75377 188.82231 426
51.44794 31.79819 193.66827 421
45.66373 32.88150 198.87106 416
39.45023 34.06599 204.35638 405
32.51291 35.40479 210.19772 399
-183.05510 76.52232 216.48154 424
83.15160 21.24068 178.94775 461
67.00653 23.76521 180.03922 456
62.47648 24.50728 184.49092 452
57.74921 25.25548 189.12355 447
52.79240 26.04037 194.03906 442
47.54443 26.85129 199.16342 437
41.99642 27.75823 204.61943 432
35.67046 28.76208 210.32756 402
83.36453 16.74914 179.21767 462
67.29496 18.78016 180.28801 457
62.82082 19.34697 184.71170 453
58.11920 19.92748 189.33069 448
53.21832 20.53144 194.21677 443
48.02724 21.17757 199.30855 438
42.57671 21.90344 204.70079 433
36.83048 22.59183 210.42136 428
83.63008 12.31077 179.45554 463
67.63796 13.80400 180.53824 459
63.18369 14.21834 184.90485 454
58.51588 14.69364 189.53540 450
53.66827 15.13499 194.37296 445
48.57457 15.61694 199.41878 440
43.21747 16.10354 204.81500 435
37.53476 16.68844 210.46686 429
83.33126 7.96202 179.51909 316
67.93810 8.93517 180.70854 460
63.56498 9.21104 185.11545 456
58.96707 9.47151 189.69708 451
54.19764 9.79840 194.50105 446
49.15139 10.09651 199.52480 441
43.81230 10.43690 204.85573 436
38.18624 10.79328 210.51183 430
-181.64722 24.61095 269.67899 486
-186.99904 24.93862 284.08017 360
83.00281 3.63533 179.50604 316
68.35399 4.10044 180.90483 461
64.00271 4.21653 185.26184 457
59.49186 4.36616 189.81540 452
54.70626 4.51528 194.62794 447
49.74852 4.67604 199.65842 442
44.43686 4.84362 204.96371 437
38.89157 5.01203 210.57603 431
-181.69171 11.93640 269.59354 487
