# .PCD v.7 - Point Cloud Data file format
VERSION .7
FIELDS x y z rgb
SIZE 4 4 4 4
TYPE F F F U
COUNT 1 1 1 1
WIDTH 491
HEIGHT 1
VIEWPOINT 6446.712891 -1001.447388 146.186188 -0.661446 -0.091298 -0.095430 0.738273
POINTS 491
DATA ascii
71.51338 -0.79933 178.12932 466
67.50298 -0.82843 182.17558 462
63.34403 -0.81568 186.38782 457
58.96945 -0.82109 190.80325 453
54.41071 -0.85455 195.44981 448
49.59618 -0.84813 200.26401 443
44.52644 -0.85012 205.37973 438
39.14744 -0.84935 210.83839 432
-152.15459 -1.12892 240.57268 419
-182.07068 -1.11959 268.85306 487
-153.65074 -1.04889 277.40863 284
-111.72045 -1.05115 281.53494 494
71.14986 -5.33898 177.91953 465
67.08559 -5.45364 182.00861 461
62.87239 -5.60772 186.25688 456
58.50396 -5.73919 190.68202 452
53.88708 -5.89521 195.33194 447
49.02742 -6.04683 200.20444 442
43.92847 -6.20732 205.31485 437
38.48396 -6.38460 210.77226 431
-152.63904 -12.61735 240.67642 416
-182.09547 -13.59730 268.84299 487
-155.71710 -12.72309 277.75931 284
77.71227 -9.44511 179.54968 316
66.75085 -10.18148 181.82700 460
62.45786 -10.43246 186.06517 455
58.03043 -10.74226 190.53554 451
53.37688 -11.02528 195.17194 446
48.47942 -11.36024 200.10155 441
43.32080 -11.65302 205.24083 436
37.85563 -12.01729 210.75331 430
-181.97246 -26.08049 268.92282 486
78.29797 -13.78792 179.55978 316
66.45070 -14.93407 181.60718 459
62.11996 -15.35023 185.86143 454
57.63114 -15.77440 190.31958 449
52.86575 -16.21969 195.02905 445
47.91385 -16.68361 199.95973 440
42.69667 -17.20559 205.19276 435
37.16383 -17.70818 210.70900 429
-181.93462 -38.64505 269.06906 486
78.99929 -18.08177 179.57384 316
66.17624 -19.72038 181.33391 457
61.81294 -20.26914 185.62073 453
57.22371 -20.85104 190.14822 448
52.47428 -21.46785 194.87418 443
47.43311 -22.13605 199.84079 438
42.12114 -22.80130 205.07169 433
36.49551 -23.50154 210.64552 428
79.88670 -22.37535 179.54439 316
65.92627 -24.58417 181.07603 456
61.50788 -25.28728 185.39729 452
56.91516 -26.05459 189.93466 447
52.05280 -26.81784 194.65431 442
46.94934 -27.62819 199.68745 437
41.38145 -28.51923 204.93210 414
35.11634 -29.51126 210.54396 402
80.87942 -26.65456 179.54184 316
65.67843 -29.56684 180.73457 455
60.90093 -30.46426 185.05150 431
55.88990 -31.45043 189.57167 426
50.56875 -32.46869 194.32951 421
44.95716 -33.54868 199.36807 416
38.82153 -34.71592 204.69736 404
31.93619 -36.02166 210.40053 364
-182.95656 -77.27155 216.45119 424
81.61600 -30.96135 179.41293 457
64.08652 -34.93100 180.06697 432
59.14587 -36.00455 184.43175 427
53.97469 -37.17680 189.00104 423
48.46318 -38.44600 193.85118 418
42.47580 -39.75840 198.96756 406
35.90304 -41.23551 204.39511 401
28.53182 -42.91883 210.23036 358
-186.03606 -91.12798 216.53235 296
80.45043 -35.84428 178.76482 434
62.46308 -40.48042 179.33124 429
57.34752 -41.79229 183.72661 424
51.98690 -43.15254 188.42441 419
46.08395 -44.71005 193.32034 407
39.68658 -46.34462 198.49870 402
32.82684 -48.13705 204.07321 397
-188.42195 -105.17712 202.79649 484
79.18695 -40.88462 178.00262 430
60.73817 -46.24153 178.52065 425
55.50212 -47.77293 183.00610 421
49.67310 -49.47863 187.74161 409
43.45201 -51.33536 192.71974 404
36.78447 -53.25668 198.00359 399
29.17661 -55.46301 203.67798 382
77.90519 -46.14663 177.20665 427
67.15833 -49.63470 179.64194 308
53.30764 -54.16397 182.16646 410
47.01819 -56.20496 186.93275 393
40.05090 -58.47488 191.96500 388
32.60343 -60.92115 197.36977 372
23.67787 -63.82468 203.19716 366
76.63491 -51.59938 176.30710 423
68.99297 -54.35387 179.66002 308
50.22631 -61.12704 181.11450 393
43.37739 -63.59907 185.92451 388
35.97572 -66.26881 191.09142 372
27.19762 -69.43255 196.59093 367
17.68510 -72.84856 202.58434 362
75.32974 -57.29116 175.39725 420
70.14242 -59.30971 179.44211 386
46.77005 -68.58876 179.90762 388
39.38048 -71.56236 184.79936 373
30.78140 -74.93729 190.00087 367
19.13842 -79.58012 195.44724 331
2.39303 -86.21920 201.33366 310
73.11677 -63.60032 174.12556 386
66.99285 -66.27601 178.06532 395
42.92968 -76.70504 178.49605 373
32.63834 -81.14409 183.09790 335
20.47927 -86.43445 188.16896 315
0.53814 -95.08380 193.15440 283
69.99435 -70.69264 172.50685 381
63.64110 -73.69014 176.62106 390
51.55196 -79.36960 179.79909 300
21.56038 -93.48644 180.58943 314
-29.00173 -117.37103 180.48746 284
70.30737 -76.42766 171.83974 316
60.10905 -81.62271 174.95392 384
51.34247 -86.12667 179.13741 325
22.06128 -101.03780 180.02702 292
72.98200 -81.10069 171.83078 316
51.84831 -92.74225 172.02200 308
38.85808 -99.90763 175.56526 318
9.14562 -116.24451 176.95602 270
75.74629 -85.67944 171.79994 316
54.97803 -97.98007 171.99162 308
27.70123 -114.11717 172.23642 300
-48.43170 -159.26663 165.13821 288
78.66521 -90.16942 171.80687 316
58.31060 -103.11013 171.96126 308
31.49388 -120.17673 172.19684 300
81.75588 -94.61122 171.75960 316
61.77181 -108.20914 171.90811 308
-0.93165 -150.94650 163.39841 383
84.93099 -98.93582 171.75043 316
65.36256 -113.21539 171.90303 308
13.98890 -150.52928 165.84775 389
88.27453 -103.19846 171.68468 316
69.14201 -118.05830 171.86607 308
20.20892 -156.05609 166.08873 295
91.74541 -107.36684 171.68614 316
45.17315 -145.97585 163.37741 300
95.32874 -111.40577 171.64146 316
52.51797 -149.21896 164.12476 404
99.06084 -115.38233 171.62267 316
63.52121 -148.77716 166.08351 409
102.91614 -119.20801 171.56618 316
69.33066 -152.81880 166.31674 306
86.48161 -144.72691 163.57686 307
92.38269 -147.67711 163.97887 425
101.11327 -147.11581 165.60338 420
-2069.52026 -2773.63013 216.14687 300
108.02483 -148.20509 166.46483 314
-2023.29626 -2899.81738 216.31641 331
115.16882 -148.70424 167.45744 316
-1750.06091 -2718.82959 215.66197 423
-1614.77100 -2707.97998 216.05084 419
2219.28882 -2256.29248 118.65026 272
2249.73291 -2150.66504 120.54663 447
2328.67700 -2098.64233 119.91396 439
2368.67480 -2138.08252 217.08296 370
2422.74780 -2059.18140 118.29269 420
2412.91724 -2049.77930 217.25479 458
2533.32446 -2029.65686 116.39051 445
2649.57349 -2001.14111 114.27179 441
2773.84790 -1971.68213 111.19077 433
378.46063 -102.63542 167.69046 313
381.77057 -97.78890 167.70544 315
386.11417 -93.54333 167.33936 434
393.63831 -90.96851 165.96815 429
400.62045 -87.71928 164.77528 317
403.60550 -82.27193 164.79910 317
418.10645 -89.12798 167.73943 305
406.35562 -76.73643 164.77052 317
420.85895 -83.03524 167.83524 305
385.01562 -61.70689 171.64667 316
425.03610 -77.49482 167.42422 429
89.63654 -32.19541 -25.51059 316
433.49298 -73.42447 165.99553 424
2183.92236 -702.14233 80.54436 372
388.93933 -51.76723 171.69058 316
440.30310 -68.40520 164.94984 307
390.68613 -46.71727 171.70509 316
442.57236 -61.76123 164.90662 307
392.27457 -41.60849 171.71509 316
415.52344 -47.56643 171.96777 309
466.93243 -60.75570 167.91721 297
393.70932 -36.50852 171.74104 316
417.11359 -41.70911 171.93332 309
468.64914 -53.16194 167.98816 297
394.94067 -31.33726 171.74709 316
418.48587 -35.83808 171.96098 309
473.57117 -46.27412 167.37392 447
396.04633 -26.14751 171.75194 317
419.74121 -29.87770 171.96144 309
480.76617 -39.54340 166.20529 443
3165.01172 -462.80048 119.78386 402
397.02148 -20.95088 171.75757 317
420.77600 -23.94924 171.98602 309
487.01456 -32.26244 165.26228 458
3105.36108 -361.62967 121.71348 459
397.81274 -15.74612 171.74611 317
421.66791 -17.96892 172.01610 309
452.90317 -20.91710 172.32114 301
3064.42676 -266.16458 123.44117 471
398.42792 -10.50576 171.78932 317
422.34576 -11.98085 171.98192 309
453.62949 -13.92503 172.32329 301
3033.37061 -174.67253 124.53379 466
3083.41479 -178.28937 216.86778 298
398.91760 -5.26295 171.77350 317
422.85510 -6.02234 171.98155 309
450.67975 -6.86973 172.98686 485
3012.11279 -86.42109 125.32964 441
3055.01050 -87.16582 216.94594 494
399.22543 -0.00186 171.79060 317
423.17523 0.02254 172.02469 309
450.75922 0.04262 173.09599 485
2997.12524 0.83779 126.13622 444
3033.56812 1.52262 216.66585 496
399.42792 5.21295 171.75700 317
423.32034 6.00905 172.00902 309
450.78995 6.88399 173.08405 485
2983.96948 87.28519 126.52361 445
3024.88086 89.21201 217.04144 497
3105.31128 91.34162 310.98465 497
399.40866 10.45955 171.75824 317
423.31110 11.98887 172.01524 309
454.61304 13.98016 172.30801 301
2970.83691 173.46097 126.52452 420
3090.37573 181.08160 310.19333 491
399.27075 15.69792 171.77826 317
423.05731 17.95854 172.00905 309
454.28107 20.94690 172.32555 301
398.95264 20.91640 171.77568 317
422.67444 23.93984 171.99377 309
486.67487 32.04016 165.70290 458
2944.05347 343.37308 127.19721 399
3097.33008 363.30261 216.98705 437
398.47342 26.10409 171.74840 316
422.10873 29.88828 171.98341 309
480.50275 39.15515 166.75253 443
2931.02417 427.97125 126.98211 399
397.82642 31.25969 171.74333 316
421.37708 35.75304 171.97296 309
473.44931 45.76001 167.95442 448
2993.04956 527.42145 124.28004 486
397.03354 36.43996 171.74792 316
420.42709 41.66846 171.95657 309
472.14636 53.24200 167.98848 297
396.10135 41.52698 171.71690 316
448.56393 55.00027 164.91196 307
394.99429 46.59451 171.73103 316
446.94580 61.71036 164.94424 307
36840.75781 10646.50684 -4800.96289 0
393.77502 51.62383 171.70007 316
443.06287 67.68484 165.44385 433
392.32947 56.62168 171.69040 316
435.10760 72.04420 166.92616 424
414.81021 71.02905 164.76723 316
429.42841 76.86817 167.83989 305
412.63828 76.63381 164.77737 316
427.37140 82.99319 167.75029 305
410.35034 82.14471 164.81209 316
405.43900 86.26627 165.54059 424
398.00174 88.85567 167.02293 429
393.29330 92.65082 167.68983 315
1685.27380 856.81628 50.90267 495
1694.82397 862.56708 105.39420 495
390.68649 97.59354 167.64569 313
774.43359 927.25342 74.52646 436
774.00397 926.48199 110.54620 287
734.58154 925.07080 77.48347 438
731.90167 919.88861 113.07384 459
695.39801 920.94629 80.44476 442
693.24530 916.95923 115.12823 463
657.63605 916.76392 82.99762 444
656.07709 914.09814 116.90096 467
621.00122 912.89008 85.37156 447
620.50879 911.38239 118.71697 471
699.57501 1094.86169 138.30235 328
591.65063 924.13397 52.40421 453
585.83459 909.20776 87.58868 451
585.77753 908.91534 120.11880 473
557.64355 921.68933 54.66119 456
551.86725 905.53522 89.67152 454
552.29852 906.76416 121.38027 475
645.64355 1167.44971 135.07278 477
524.30115 919.24500 56.88503 458
518.90515 901.99744 91.64735 457
519.69196 904.57501 122.80531 478
492.08356 917.08563 58.69725 432
486.83594 898.89355 93.20863 436
487.61737 901.31104 124.00451 483
562.71082 1161.48206 136.95509 362
460.60391 915.32599 60.36739 431
455.35468 894.78400 94.73830 433
456.29337 899.03815 125.03242 485
429.61783 912.89008 61.83390 433
424.65942 891.40948 96.13999 387
425.85901 896.65820 125.80409 488
398.92889 910.63586 63.44844 427
395.06567 888.76111 97.27336 489
396.01770 894.65710 126.78754 490
397.17725 900.92145 156.31456 491
369.19824 908.77411 64.51917 431
365.93488 888.59332 97.93279 496
366.92847 894.63800 127.03504 494
367.86731 900.19086 156.69385 499
340.06534 910.44049 64.89185 433
337.80264 890.76135 98.22205 497
338.54224 898.00116 127.16882 495
339.54987 905.15271 156.47775 447
311.66312 915.39319 64.63631 418
309.53265 894.40552 98.15328 442
310.55692 903.34247 126.91280 476
315.78250 958.79504 153.26059 295
282.85733 921.87897 63.77406 421
281.44287 899.42804 97.57387 496
282.19165 910.64252 126.43992 435
254.07050 930.38062 62.58640 413
253.45067 906.33044 96.93432 492
253.72893 918.28693 125.83917 274
224.75977 939.94989 61.07871 414
224.81676 914.57184 95.84033 482
224.68384 927.95972 124.95638 438
194.73781 952.38135 59.04968 412
195.48546 925.41138 94.52413 476
195.02620 940.06604 123.74371 418
163.66139 966.68304 56.31030 408
165.30467 938.54572 92.59340 472
164.39836 953.21570 122.33804 446
133.99718 954.56207 90.02601 415
132.70212 968.28827 120.63527 414
101.63417 970.69830 87.50237 412
99.73627 985.87994 118.54018 417
67.33798 990.32373 84.30801 421
120.98135 149.51488 167.91728 489
114.76227 148.24416 167.26421 440
108.02316 147.29626 166.41695 314
100.56965 146.88637 165.21915 419
91.94733 147.50696 163.65569 424
86.93346 143.63187 163.52678 307
74.82910 156.49924 166.27460 305
103.49453 118.13453 171.53976 316
69.81163 151.77943 166.27501 305
99.78202 114.27671 171.55728 316
63.19817 148.60202 165.69148 409
96.19071 110.26527 171.59665 316
52.21593 149.02182 163.78502 403
92.71589 106.19246 171.61620 316
73.97030 121.69639 171.79010 308
89.36268 102.00826 171.64653 316
70.15451 116.91815 171.79425 308
21.11721 154.89780 166.00580 297
86.17326 97.70651 171.65660 316
66.56572 111.99487 171.81071 308
13.59977 150.41748 165.36372 389
83.11207 93.37747 171.70108 316
63.07924 107.01147 171.84053 308
-1.39788 150.78632 162.95164 382
80.19346 88.92035 171.74802 316
59.75218 101.87313 171.90816 308
32.86956 118.92377 172.09103 300
77.38298 84.39345 171.74413 316
56.56916 96.70532 171.93845 308
29.17966 112.85403 172.15298 300
-47.04805 157.92188 165.10690 286
74.75428 79.74062 171.76735 316
53.56392 91.41409 171.95895 308
39.99366 98.88970 175.42773 319
13.20490 113.57841 177.37280 270
72.22132 75.08205 171.81276 316
60.74091 80.91101 174.59348 385
52.47200 85.15754 178.91223 325
23.80384 99.75183 180.02122 292
70.81699 69.88746 172.13083 381
64.33397 72.91541 176.21568 390
53.53748 78.02850 179.73190 300
23.15372 92.29642 180.41959 314
-27.50997 116.12973 180.38596 343
74.06100 62.72435 173.72241 386
67.68689 65.51000 177.66916 395
43.76428 75.81529 178.17845 373
33.86651 80.09846 182.89641 336
21.80017 85.38673 187.98479 331
3.73729 93.18845 193.22812 283
74.90323 53.39910 177.19020 420
64.35211 57.55182 179.65733 308
47.72980 64.10344 181.54713 389
40.86676 66.81454 186.27107 384
32.88810 69.93893 191.30928 368
24.03822 73.42404 196.72385 363
10.84914 78.61523 202.43678 311
76.22496 48.07365 177.94278 424
57.03207 54.97715 178.19630 411
51.04025 57.13985 182.57445 393
44.52772 59.44522 187.22301 389
37.51795 61.97430 192.20145 384
29.42972 64.85522 197.51398 368
20.35708 68.09739 203.25906 362
77.54115 43.00167 178.67480 427
58.96272 48.97438 179.02803 422
53.56730 50.73343 183.40643 410
47.68668 52.64845 188.01753 405
41.31834 54.69289 192.95857 388
34.16788 57.04210 198.17046 383
26.00508 59.66827 203.74446 367
78.84027 38.04440 179.31323 431
60.70617 43.29881 179.76149 425
55.60546 44.77874 184.10359 421
50.09715 46.37279 188.68770 409
44.05137 48.12558 193.51320 404
37.64961 49.94701 198.68350 399
30.73477 51.96408 204.18324 394
78.80108 33.64204 179.55075 316
62.37595 37.82396 180.39601 429
57.46772 39.08113 184.69894 424
52.23696 40.41805 189.24500 420
46.64285 41.84175 194.02908 408
40.46797 43.43693 199.10091 403
33.84426 45.12667 204.51144 398
-199.87041 104.78032 202.65100 288
78.08857 29.41691 179.56316 316
64.05142 32.50800 181.01317 432
59.24461 33.56921 185.24513 428
54.22912 34.71013 189.75027 423
48.87579 35.86712 194.44659 418
43.15289 37.15944 199.47302 406
36.78224 38.58691 204.75104 401
29.57969 40.18219 210.44778 358
-182.74759 87.35546 216.56789 438
77.46623 25.15009 179.55153 316
65.19645 27.46967 181.44768 455
60.81428 28.31849 185.73392 450
56.15617 29.17549 190.19418 426
50.97127 30.19259 194.84692 422
45.46585 31.21786 199.75043 417
39.61900 32.30458 205.00610 405
32.86903 33.57694 210.61130 364
-182.99876 74.46115 216.55714 424
77.00597 20.87050 179.57384 316
65.53403 22.68439 181.65118 456
61.18410 23.33790 185.91438 452
56.63767 24.07409 190.38637 447
51.90507 24.81543 195.07138 442
46.86164 25.59711 199.96103 437
41.59623 26.42770 205.20645 432
35.95102 27.30242 210.72856 427
76.67567 16.56058 179.57076 316
65.85892 17.91576 181.82193 458
61.53779 18.46756 186.06346 453
57.05933 19.00575 190.51562 448
52.32668 19.61164 195.16684 444
47.36784 20.21618 200.05949 438
42.16485 20.88750 205.26239 434
36.61588 21.57083 210.76273 428
70.33441 12.81437 177.93204 463
66.22495 13.22225 181.99045 459
61.96953 13.60266 186.21687 454
57.48984 14.04645 190.62106 450
52.82242 14.45534 195.26799 445
47.94890 14.91976 200.14581 440
42.77518 15.41232 205.32430 435
37.30374 15.89104 210.79153 429
70.71382 8.28495 178.05557 464
66.62719 8.53805 182.08592 460
62.38678 8.78566 186.30492 456
57.97525 9.07688 190.73582 451
53.36498 9.35236 195.35457 446
48.52984 9.64197 200.24181 441
43.40259 9.96644 205.36308 436
37.99790 10.30615 210.81723 430
-182.01755 23.91497 268.80139 486
-186.77505 24.14333 282.84976 496
-186.66315 24.20186 296.42810 495
71.13245 3.76591 178.14244 465
67.09608 3.87636 182.18369 461
62.92614 4.02972 186.40002 457
58.54334 4.12762 190.81949 452
53.92791 4.29543 195.45041 447
49.12774 4.41728 200.29358 442
44.04593 4.59903 205.38751 437
38.64089 4.73162 210.84766 431
-182.04680 11.45638 268.77826 487
