# .PCD v.7 - Point Cloud Data file format
VERSION .7
FIELDS x y z rgb
SIZE 4 4 4 4
TYPE F F F U
COUNT 1 1 1 1
WIDTH 469
HEIGHT 1
VIEWPOINT 6407.922363 -1430.377197 146.610229 -0.705553 -0.088415 -0.100092 0.695960
POINTS 469
DATA ascii
80.79328 -0.50838 179.55400 316
68.28204 -0.51404 181.43401 462
64.02436 -0.53900 185.73686 457
59.56764 -0.54872 190.22379 453
54.92590 -0.52062 194.95819 448
50.00125 -0.54985 199.88115 443
44.86599 -0.56735 205.09499 437
39.38016 -0.57087 210.63753 432
-152.48906 -0.92537 240.84193 419
-181.80780 -0.91438 269.30194 487
-149.32877 -0.87380 277.36035 284
81.14482 -4.81812 179.54105 316
67.89177 -5.24445 181.23715 461
63.56738 -5.38816 185.58624 456
59.11339 -5.54390 190.09569 452
54.37865 -5.69820 194.80385 447
49.42521 -5.85170 199.80821 442
44.24066 -6.05177 205.05806 437
38.70466 -6.22978 210.60580 431
-152.83351 -12.61782 240.88998 416
-181.85721 -13.50445 269.37851 487
-152.55608 -12.51031 277.93362 284
81.63042 -9.13038 179.51796 316
67.52813 -10.04367 181.04396 460
63.17044 -10.35522 185.36835 455
58.62286 -10.62383 189.92517 451
53.88667 -10.94228 194.68323 446
48.85581 -11.24551 199.70233 441
43.58339 -11.60651 204.96854 436
38.01802 -11.94725 210.54958 430
-181.80836 -26.18435 269.44778 486
82.22568 -13.45951 179.54001 316
67.21149 -14.89251 180.79399 458
62.82007 -15.35159 185.16951 454
58.18501 -15.78946 189.73924 449
53.34506 -16.25667 194.50121 445
48.29086 -16.72698 199.57480 440
43.00383 -17.25552 204.85780 435
37.31393 -17.80047 210.51117 429
-181.64952 -38.85507 269.65244 486
82.97872 -17.77833 179.52087 316
66.95740 -19.81763 180.55385 457
62.49743 -20.41624 184.94054 453
57.83387 -20.97565 189.54225 448
52.96150 -21.61008 194.33896 443
47.77953 -22.26572 199.42041 438
42.34412 -22.95204 204.78716 433
36.66430 -23.70197 210.47261 428
82.77524 -22.22748 179.24098 461
66.69775 -24.80171 180.28433 456
62.17865 -25.53741 184.69260 451
57.49362 -26.30812 189.32608 447
52.54625 -27.08437 194.16905 442
47.31600 -27.91483 199.27170 437
41.54710 -28.80785 204.64479 414
35.14132 -29.86041 210.39020 402
82.59636 -26.76723 178.91461 459
66.39607 -29.87475 179.93590 435
61.49821 -30.80850 184.32675 431
56.34945 -31.81578 188.91460 426
50.92472 -32.87758 193.78116 421
45.22040 -33.94567 198.94667 416
38.90194 -35.15660 204.37491 404
31.98159 -36.47947 210.21869 364
-182.88913 -77.84042 216.54788 424
82.43317 -31.38210 178.53841 438
64.74928 -35.36338 179.24739 432
59.72485 -36.48898 183.68280 427
54.41480 -37.67852 188.37912 423
48.77764 -38.94407 193.32152 418
42.60817 -40.35433 198.52611 406
35.93723 -41.87279 204.12271 401
28.53059 -43.52806 210.05354 358
-188.16786 -92.33624 216.53847 296
81.17349 -36.38913 177.80664 435
63.03523 -41.07948 178.48103 428
57.84148 -42.39780 183.00650 424
52.37269 -43.81626 187.76985 419
46.30889 -45.36524 192.77032 407
39.76535 -47.08282 198.09132 402
32.77948 -48.88909 203.78648 397
23.92039 -51.16262 209.85979 269
79.90330 -41.54707 177.06335 430
69.51283 -44.57481 179.66116 308
55.96870 -48.54106 182.25725 420
50.00796 -50.30000 187.07410 409
43.62683 -52.15374 192.13980 404
36.70164 -54.14877 197.57515 387
28.88578 -56.43378 203.40404 371
78.62886 -46.92533 176.23660 427
71.20518 -49.36232 179.63782 308
53.66397 -55.04546 181.40811 410
47.13397 -57.20104 186.22113 392
40.04692 -59.50551 191.35556 388
32.30794 -62.05918 196.88232 372
23.17849 -65.00658 202.84911 366
77.30239 -52.53273 175.32408 423
72.24138 -54.33175 179.41412 419
50.43906 -62.22325 180.24506 393
43.42518 -64.76523 185.19983 388
35.72285 -67.55750 190.45201 372
26.82426 -70.77560 196.08371 367
16.44237 -74.49519 202.22394 332
75.96282 -58.36290 174.35165 420
70.39594 -60.58759 178.44208 386
46.88873 -69.91040 178.99696 388
39.24516 -72.94012 184.02365 372
30.07271 -76.59124 189.30690 336
17.67076 -81.49590 194.84328 315
-0.06261 -88.58911 200.84319 310
73.45741 -64.92840 173.01665 386
66.95187 -67.73759 177.02203 395
53.03122 -73.81725 179.77336 300
31.63458 -83.11901 182.19608 335
18.54033 -88.75757 187.25967 315
-8.98144 -100.71107 191.67554 265
71.90775 -71.46089 171.83147 316
63.54589 -75.38313 175.51123 389
55.58513 -79.13304 179.75224 300
19.20955 -96.30904 179.36966 286
-25.17295 -117.23444 180.43814 284
74.40526 -76.17417 171.81944 316
59.60496 -83.73713 173.74794 328
49.39339 -88.95203 177.75246 325
26.06596 -100.89946 180.00464 292
77.08910 -80.84314 171.78264 316
55.94862 -92.51119 171.98602 308
36.01948 -103.48806 173.97496 272
-51.86261 -151.89339 164.67105 373
79.89761 -85.45550 171.76733 316
59.07859 -97.74281 171.95929 308
31.77280 -113.97546 172.21068 300
-44.09809 -158.92546 165.17827 286
82.82272 -89.94244 171.74097 316
62.40290 -102.91331 171.93680 308
35.59633 -119.97774 172.15994 300
85.91895 -94.36419 171.71144 316
65.90617 -107.97870 171.90511 308
3.03859 -150.82767 163.32637 383
89.11153 -98.70712 171.71298 316
69.52686 -113.01059 171.88554 308
18.03033 -150.44742 165.78735 389
92.49754 -102.95262 171.68620 316
73.29422 -117.87481 171.84935 308
24.52054 -155.80104 166.13260 297
95.96111 -107.13728 171.63046 316
49.53867 -145.64577 163.41156 300
99.58572 -111.19606 171.61617 316
56.69455 -149.06371 164.12059 404
103.32781 -115.17396 171.60390 316
67.70814 -148.61348 166.01646 410
107.20915 -118.99739 171.53474 316
73.74174 -152.50706 166.37929 306
90.89734 -144.41025 163.59599 307
78.89555 -157.14078 166.36665 305
96.66583 -147.53973 163.95009 414
105.63099 -146.62379 165.61534 420
-1808.52625 -2462.80371 112.13676 394
112.46897 -147.94809 166.43718 314
-1649.28711 -2422.11426 116.62926 389
-1759.77991 -2563.69849 216.74786 378
119.55568 -148.53447 167.41742 316
-1526.33789 -2415.59839 118.79100 393
-1617.30847 -2541.28955 216.70949 447
-1408.94763 -2410.17334 121.58734 397
-1511.58826 -2560.52246 216.89503 397
-1297.60339 -2405.33716 123.25357 400
-1419.12646 -2597.75439 317.12262 351
-1194.31763 -2406.20142 125.11172 436
-1194.73340 -2590.11157 120.26754 377
2301.11914 -2495.83618 110.45023 279
1346.78467 -1262.84338 106.20054 467
2377.80566 -2428.80615 111.03585 444
2473.61304 -2381.97852 109.49323 433
2590.33545 -2353.10254 108.06007 405
2730.09497 -2340.14136 105.03535 411
2878.18848 -2327.01440 101.25461 417
382.81125 -102.02217 167.67030 313
386.09280 -97.13269 167.72249 315
389.50677 -92.39540 167.67746 434
396.92804 -89.79915 166.34924 429
404.82660 -87.08005 164.85365 423
407.94708 -81.76231 164.82281 316
410.70868 -76.27250 164.81306 316
425.27505 -82.53582 167.81894 305
389.40881 -61.22317 171.68846 316
427.83072 -76.44329 167.88184 305
391.45270 -56.29207 171.69170 316
435.83252 -72.23412 166.53857 424
393.33447 -51.35499 171.71831 316
444.01895 -67.74174 165.14503 433
395.12399 -46.33348 171.74223 316
446.99414 -61.38197 164.95702 307
396.72830 -41.25572 171.75278 316
449.07684 -54.68167 164.94131 307
471.32193 -60.39293 167.91490 297
3492.64575 -834.14435 106.34063 384
398.14752 -36.15810 171.79753 317
421.49393 -41.36575 171.99487 309
473.12024 -52.87402 167.97404 297
3448.79858 -716.25732 108.41947 465
399.48431 -31.03996 171.77818 317
422.93579 -35.50522 171.99370 309
474.57706 -45.33347 168.05130 298
3424.87915 -606.06091 109.79778 484
400.60529 -25.88173 171.81674 317
424.15329 -29.60237 172.04756 309
481.67291 -38.73246 166.95578 443
3406.68433 -500.37747 110.83468 490
3450.71533 -507.20343 216.32100 495
401.56757 -20.71108 171.79587 317
425.24759 -23.72057 172.04813 309
487.66180 -31.55433 166.01646 458
3400.69702 -398.01132 112.10725 495
3441.21289 -403.56247 216.77888 498
402.42026 -15.54092 171.83240 317
426.15549 -17.79874 172.02696 309
457.29883 -20.68941 172.31369 301
3397.31128 -297.37729 112.83314 474
3443.41333 -302.06195 216.77599 497
403.10788 -10.35799 171.80597 317
426.87726 -11.83743 172.02634 309
458.08191 -13.79014 172.37033 301
3394.69580 -197.16412 113.17669 475
3522.37280 -205.73302 323.98822 497
403.60751 -5.13626 171.84270 317
427.41827 -5.85735 172.04045 309
458.64481 -6.85738 172.34927 301
3686.46533 -106.70000 103.40425 499
403.94135 0.07964 171.84146 317
427.76675 0.11920 172.04971 309
459.01730 0.12138 172.35191 301
3388.04395 0.83351 113.00845 480
404.14194 5.29486 171.81841 317
428.00104 6.09017 172.06000 309
459.24054 7.04208 172.36180 301
3489.36255 103.34863 109.64844 499
404.18338 10.50942 171.82327 317
427.99554 11.99913 172.03210 309
459.15207 13.97662 172.33759 301
3433.34692 201.43594 216.26411 442
404.05856 15.72610 171.84251 317
427.80731 17.94861 172.06729 309
493.11746 24.13226 165.50591 454
403.81677 20.93061 171.80055 317
427.46796 23.90391 172.07083 309
487.19083 31.47324 166.58214 458
403.38220 26.07228 171.78877 317
426.93091 29.82244 172.01903 309
481.25763 38.45099 167.64612 443
393.08566 32.39442 171.68530 317
416.47971 36.92104 171.93120 309
471.49350 47.60289 167.25505 448
391.94504 37.48196 171.69969 317
415.15622 42.71588 171.89548 309
466.29724 54.32594 168.00314 298
390.59946 42.54352 171.70619 317
442.66318 56.05478 164.91650 308
464.68054 61.83390 167.90346 297
389.14032 47.54534 171.67395 317
440.71909 62.71566 164.88737 308
387.49728 52.53792 171.64677 317
438.59232 69.30441 164.86143 308
385.73016 57.50873 171.62605 317
431.10010 73.98940 166.17543 425
383.81534 62.38452 171.58932 316
422.85452 78.00291 167.55244 430
405.13837 77.40911 164.71962 317
419.50925 83.69692 167.77753 305
402.48880 82.87835 164.72704 317
416.81430 89.67495 167.68880 305
399.65140 88.23960 164.75177 317
391.95813 90.93770 166.18983 429
384.64575 93.50307 167.54016 434
381.15912 98.10643 167.64630 315
377.99820 102.92816 167.59251 313
1330.03003 805.10614 81.22084 400
1263.34631 807.94006 86.39826 403
1265.95911 809.69421 129.44676 349
1202.53809 811.06396 90.81409 406
1258.04126 856.97278 127.97499 428
1145.58777 813.58307 95.09338 411
1250.42395 906.70264 126.19450 323
1110.12085 833.22449 55.91976 420
1090.90308 814.71686 98.89483 434
1224.52783 941.26709 125.65938 288
1060.15625 837.23242 60.46546 424
1045.11621 821.82428 101.67897 281
1266.09778 1044.06958 119.15610 485
1012.46631 840.32281 64.39770 396
998.74103 825.63855 104.36526 445
1004.01776 831.43750 141.36787 447
966.51691 842.93573 68.26139 400
954.69989 829.50934 107.13454 450
960.63068 836.08771 142.99835 452
923.02856 845.59607 71.80793 405
913.90125 834.44952 109.29511 473
918.43146 839.79132 144.59921 470
884.69604 851.93030 74.21315 423
878.32452 843.88837 111.01588 484
882.60004 849.54291 145.58438 490
850.15186 862.25525 75.93099 427
845.49615 855.74695 111.84010 491
864.38831 882.06799 144.64642 374
817.93451 874.22784 76.91863 430
814.27161 869.00146 112.71128 495
867.90332 948.30457 140.79761 368
787.01300 887.56616 77.68723 433
784.06189 883.23364 112.90487 498
871.70203 1021.62463 136.64807 362
757.66821 902.81604 77.89667 437
755.52515 899.50323 112.99129 497
729.23114 919.89124 78.00034 437
727.83832 917.24194 112.82440 492
701.42480 937.56012 77.67774 432
700.06744 935.11554 112.80146 481
672.97809 955.28680 77.19583 443
672.65948 954.18848 112.29736 461
19452.97852 41046.98047 -2774.22729 0
644.67377 973.53302 76.53233 464
645.24078 974.66974 111.37703 471
118.10588 150.86928 167.38966 316
111.02223 150.64996 166.38522 314
106.20033 147.08237 166.39368 314
98.37733 147.10954 165.11696 419
79.35545 147.99324 163.36188 424
75.33317 143.44821 163.51660 307
63.18203 156.28775 166.19965 305
92.65620 117.78510 171.61737 316
58.61374 151.65709 166.23335 306
89.39641 113.94196 171.66876 316
51.75336 149.05196 165.47472 409
86.20855 109.98344 171.68019 316
41.15959 149.43810 163.50958 403
83.16245 105.93163 171.67889 316
64.47139 121.31560 171.84142 308
80.26704 101.79511 171.72722 316
61.06875 116.54653 171.85918 308
11.31398 155.00371 165.88057 295
77.48693 97.53896 171.73875 316
57.87012 111.71218 171.88823 308
3.88986 150.68533 165.21021 388
74.79431 93.22077 171.76581 316
54.78749 106.75359 171.91747 308
28.46531 124.52247 172.17915 300
72.29870 88.79573 171.81223 316
51.90683 101.64585 171.98051 308
25.05054 118.58810 172.16208 300
69.91956 84.28812 171.82109 316
49.15493 96.48857 171.98557 308
21.82841 112.55219 172.20581 300
-207.28987 121.81071 -39.73067 288
-33541.07031 19837.31055 -3645.34058 0
67.67634 79.69752 171.85608 316
55.67341 86.24699 174.43541 322
45.18992 92.03882 178.24785 319
20.18351 105.70452 180.04099 292
67.49245 74.07618 172.45634 377
61.36641 77.18276 176.56168 385
49.58220 83.19305 179.78528 300
2.63604 106.95773 177.31865 263
70.75224 67.01886 173.97603 382
64.72070 69.80720 177.94017 390
37.77452 82.46349 177.65807 335
26.18538 87.86578 182.18773 330
8.42860 96.17596 186.50699 282
73.77731 60.40032 175.37286 386
67.89576 62.94147 179.21559 395
44.12421 73.14419 179.56718 384
35.92627 76.69604 184.33894 336
24.43819 81.65104 189.22897 331
9.30051 88.12630 194.46657 311
75.31148 54.73442 176.26654 420
67.87917 57.64658 179.64598 308
47.66808 65.60539 180.71388 389
40.67154 68.39561 185.55426 384
32.38814 71.64125 190.63205 368
22.86579 75.36287 196.14590 332
8.24683 81.15438 201.92804 311
76.65930 49.34426 177.05974 424
66.48251 53.01957 179.63329 308
51.00175 58.52290 181.80103 393
44.31703 60.93356 186.52614 389
37.18775 63.46804 191.57668 384
28.87113 66.48708 196.99319 368
19.58644 69.77000 202.87460 363
78.02475 44.15094 177.76170 427
59.27846 50.22110 178.22356 422
53.74763 52.00195 182.68608 410
47.77355 53.91587 187.37614 405
41.05463 56.07580 192.35867 388
33.80305 58.42600 197.70442 383
25.33815 61.14723 203.40761 367
79.32696 39.13593 178.44623 431
61.04481 44.42251 178.94279 425
55.84718 45.90497 183.38530 421
-68.37109 19.68509 -11.74492 409
44.06610 49.32299 192.95164 404
37.50349 51.21397 198.21310 399
30.39562 53.28237 203.86765 382
80.67292 34.29419 179.03006 434
62.79413 38.85383 179.61606 429
57.74153 40.10165 183.97849 424
52.43438 41.48317 188.61751 420
46.67212 42.94479 193.47301 408
40.38604 44.54268 198.64320 403
33.62670 46.26513 204.17615 398
-188.69534 102.80032 202.83093 483
81.64973 29.62136 179.50443 458
64.48946 33.41605 180.21710 432
59.59369 34.50106 184.55000 428
54.45691 35.65157 189.09595 423
49.01674 36.87360 193.91541 418
43.10262 38.18166 198.99634 407
36.62152 39.59834 204.41464 401
29.41863 41.22783 210.23329 358
-182.83701 88.18547 216.50749 438
81.12614 25.39044 179.54274 316
65.84042 28.27432 180.70485 455
61.40139 29.11103 185.08589 450
56.41172 30.05165 189.54683 426
51.11476 31.03933 194.31683 422
45.50668 32.12239 199.34302 417
39.48362 33.23822 204.69408 405
32.73492 34.51274 210.39864 364
-182.97235 75.19089 216.53673 424
80.67789 21.12491 179.53522 316
66.15505 23.36814 180.90121 456
61.74884 24.07198 185.24966 452
57.15482 24.77896 189.81276 447
52.28525 25.56222 194.56650 442
47.17903 26.37088 199.57732 437
41.76875 27.18733 204.88171 432
35.81075 28.12862 210.50719 403
80.36871 16.83790 179.55537 316
66.51917 18.53480 181.08289 458
62.16745 19.09303 185.40614 453
57.55123 19.65686 189.95406 448
52.77324 20.25380 194.70274 444
47.68711 20.87181 199.67297 438
42.34914 21.53150 204.95561 434
36.75465 22.24395 210.56354 428
80.18323 12.50229 179.53662 316
66.91461 13.74806 181.21574 459
62.55834 14.13601 185.55290 454
58.02468 14.58778 190.06236 450
53.26753 14.99708 194.78302 445
48.28317 15.49957 199.77727 440
43.00418 15.94226 205.01743 435
37.43930 16.46115 210.60358 429
80.13742 8.19541 179.55196 316
67.31692 8.96474 181.35147 460
63.00804 9.23783 185.64249 456
58.49131 9.53706 190.14320 451
53.81614 9.81372 194.86287 446
48.85475 10.09495 199.82358 441
43.62965 10.42613 205.09836 436
38.09007 10.78994 210.59676 430
-181.88954 24.21580 269.23309 486
-186.80576 24.50686 283.46692 496
80.22089 3.87771 179.52846 316
67.78260 4.23075 181.45328 461
63.53685 4.35228 185.75911 457
59.03256 4.48949 190.22562 452
54.38953 4.65926 194.95531 447
49.47563 4.77014 199.88344 442
44.25674 4.92858 205.09470 437
38.80092 5.11023 210.64832 431
-181.82637 11.68253 269.20029 487
