# .PCD v.7 - Point Cloud Data file format
VERSION .7
FIELDS x y z rgb
SIZE 4 4 4 4
TYPE F F F U
COUNT 1 1 1 1
WIDTH 458
HEIGHT 1
VIEWPOINT 6403.763672 -1591.178589 144.038925 -0.723694 -0.086258 -0.097627 0.677714
POINTS 458
DATA ascii
82.35677 -0.63399 179.54039 316
68.60776 -0.62912 181.09648 462
64.27025 -0.65227 185.48035 457
59.79997 -0.67023 189.97919 453
55.10606 -0.65307 194.74979 448
50.13349 -0.64546 199.75879 443
44.93798 -0.68346 205.02927 438
39.43434 -0.68537 210.58202 432
-152.60480 -0.91273 240.91106 419
-181.74353 -0.89935 269.45294 487
-147.75700 -0.94791 277.27634 284
82.67185 -4.94912 179.53967 316
68.18200 -5.44511 180.92989 461
63.82679 -5.56246 185.28822 456
59.29294 -5.72715 189.83829 452
54.56865 -5.87790 194.63087 447
49.57264 -6.04922 199.66014 442
44.29700 -6.22970 204.94337 437
38.71847 -6.41478 210.54405 431
-152.88991 -12.65970 240.98085 416
-181.73540 -13.53639 269.45865 487
-152.22632 -12.57647 278.13568 284
83.09053 -9.30684 179.52859 316
67.80781 -10.28125 180.75450 460
63.40282 -10.57519 185.10832 455
58.83344 -10.84812 189.69685 451
54.00035 -11.17333 194.49835 446
49.00845 -11.46837 199.52522 441
43.68448 -11.84291 204.85501 436
38.03236 -12.17614 210.53497 430
-181.67149 -26.23074 269.66135 486
83.54071 -13.63061 179.46236 463
67.50253 -15.16360 180.53473 459
63.05403 -15.57802 184.91818 454
58.40590 -16.03978 189.53992 449
53.51104 -16.49628 194.34537 445
48.40549 -17.00894 199.42374 440
43.03669 -17.47679 204.80446 435
37.33158 -18.04336 210.48747 429
-181.58737 -38.95682 269.81693 486
83.26281 -18.07113 179.20903 462
67.20480 -20.12235 180.26210 457
62.71783 -20.69957 184.68651 453
57.99128 -21.28344 189.34364 448
53.10221 -21.89884 194.19637 443
47.90308 -22.55465 199.29065 438
42.43476 -23.27134 204.67033 433
36.63741 -23.98580 210.44135 428
83.05952 -22.55656 178.91177 461
66.90139 -25.15421 179.97412 456
62.38819 -25.84308 184.43172 452
57.66329 -26.63562 189.11073 447
52.64990 -27.39551 194.00627 442
47.43933 -28.24207 199.12320 437
41.51080 -29.16558 204.58228 414
35.01407 -30.20192 210.32887 402
82.86436 -27.11994 178.61612 459
66.53755 -30.25739 179.65768 435
61.59568 -31.20533 184.05640 431
56.44428 -32.22633 188.72127 426
50.93989 -33.25462 193.59048 421
45.17288 -34.34303 198.80623 416
38.79683 -35.60057 204.30731 404
31.87470 -36.91591 210.16962 399
-182.99031 -78.11436 216.52304 424
82.60260 -31.77996 178.20836 438
64.84888 -35.76859 178.93750 432
59.80195 -36.91767 183.41777 427
54.41615 -38.11670 188.12688 423
48.79641 -39.41369 193.13190 418
42.54792 -40.81005 198.37285 406
35.80246 -42.30454 203.98578 401
28.36793 -43.98795 210.02791 358
-188.61388 -92.67328 216.49173 296
81.35570 -36.81579 177.49663 435
63.22068 -41.55724 178.10213 429
57.93954 -42.85037 182.76202 424
52.40836 -44.26205 187.54346 419
46.25842 -45.84095 192.57785 407
39.69468 -47.53235 197.96558 402
32.64217 -49.36526 203.66235 397
23.86044 -51.62213 209.80099 263
80.04427 -42.03333 176.75554 430
70.69160 -44.77188 179.65263 308
55.98249 -49.03495 181.98582 421
49.97577 -50.80408 186.84583 409
43.54620 -52.65105 191.96976 404
36.51460 -54.71712 197.41266 387
28.57445 -57.04846 203.26659 371
78.74812 -47.42914 175.92418 427
72.36373 -49.51215 179.60973 308
53.71318 -55.60477 181.15323 410
47.02091 -57.78336 185.98247 393
39.87179 -60.06995 191.16557 388
32.03545 -62.63703 196.78194 372
22.84242 -65.64893 202.75815 366
77.40632 -53.05989 175.02461 423
72.31561 -54.89817 179.16502 419
50.31543 -62.82104 179.97423 393
43.30661 -65.35648 184.94563 388
35.46633 -68.20608 190.25609 372
26.50286 -71.43031 195.96437 367
15.68405 -75.34285 202.06651 332
76.04761 -58.91199 174.05949 420
70.25500 -61.23412 178.12958 386
46.80601 -70.52761 178.74551 388
39.00432 -73.63255 183.80350 373
29.49072 -77.39908 189.06480 336
16.69818 -82.45705 194.63422 316
-1.20216 -89.53963 200.69524 310
73.34985 -65.60100 172.67867 386
66.83798 -68.45869 176.71027 395
54.04676 -74.00240 179.78076 300
31.01337 -83.98842 181.86806 335
17.66627 -89.76373 186.97020 315
-14.13766 -103.57231 190.99855 265
72.89568 -71.62711 171.82445 316
63.36362 -76.13465 175.17046 390
56.58916 -79.31984 179.76848 300
17.19191 -97.85425 178.79865 286
-24.10489 -117.31171 180.47415 284
75.39315 -76.34013 171.82033 316
58.80886 -84.81568 173.25931 328
48.50935 -90.08531 177.35793 325
27.04102 -101.00580 179.98827 292
77.99789 -81.04531 171.80228 316
56.84375 -92.67545 171.94168 308
32.11558 -106.27005 172.87961 272
-50.86045 -151.98038 164.66614 373
80.79075 -85.63305 171.78784 316
60.00720 -97.94872 171.94792 308
32.66684 -114.10833 172.18771 300
-42.97517 -158.91508 165.15431 286
83.65893 -90.17343 171.74155 316
63.28840 -103.10999 171.93501 308
36.43174 -120.20447 172.15088 300
86.70134 -94.60307 171.72412 316
66.70029 -108.20360 171.90511 308
4.09531 -150.79202 163.36000 383
89.89341 -98.96437 171.70183 316
70.30966 -113.21590 171.84462 308
19.12354 -150.42326 165.85637 389
93.22581 -103.21970 171.68202 316
74.04416 -118.09373 171.82986 308
25.30747 -155.97144 166.08728 297
96.64912 -107.37695 171.65675 316
50.19305 -145.86264 163.39969 300
100.25840 -111.44948 171.60408 316
57.65857 -148.97557 164.22664 404
103.92191 -115.42004 171.57954 316
68.66594 -148.57310 166.10394 409
107.75638 -119.32944 171.56364 316
74.31741 -152.74434 166.34688 306
91.38677 -144.69894 163.56218 307
97.47190 -147.43379 164.06190 414
-1890.98804 -2403.83008 111.59338 354
106.41663 -146.59378 165.76372 419
-1713.62500 -2348.04956 116.94559 383
112.87596 -148.28932 166.47392 314
-1586.48340 -2339.38940 119.34842 449
119.93874 -148.88712 167.43555 316
-1472.61414 -2341.65479 121.74448 454
-1364.25110 -2343.44385 123.75871 458
-1260.08411 -2345.88965 125.57909 462
-1395.28943 -2559.16333 216.89569 275
-1163.08228 -2351.77954 126.45750 493
-1079.69690 -2377.72925 126.78487 480
-1102.63501 -2612.24023 119.85201 490
-449.20758 -1432.40967 112.44144 464
-453.14587 -1440.93481 163.86345 348
2366.77954 -2577.88037 106.72794 277
2462.16626 -2526.40015 106.13638 430
2573.64844 -2491.17017 104.43385 412
2716.72217 -2482.14209 100.79614 410
2871.51074 -2475.98584 97.36956 418
383.19296 -102.81821 167.63829 313
386.46149 -97.94748 167.70752 313
389.60669 -92.99746 167.74683 315
396.33005 -90.02368 166.60704 429
404.13177 -87.34148 165.17560 423
408.24512 -82.46063 164.81876 316
411.01022 -76.94052 164.79294 316
425.67679 -83.28352 167.80006 305
413.62592 -71.37356 164.77177 316
428.24164 -77.15701 167.85590 305
391.72336 -56.94744 171.73215 316
435.16406 -72.58607 166.79399 424
393.64590 -52.00256 171.74997 316
443.38422 -68.11504 165.36929 433
395.39517 -46.92345 171.73317 316
447.32916 -61.99493 164.96053 307
3664.82446 -995.19855 99.10851 366
396.93683 -41.87674 171.77266 316
449.42307 -55.29966 164.93828 307
3572.49072 -856.51440 103.81609 356
398.38336 -36.77161 171.75777 317
421.78058 -41.96954 172.02991 309
473.60495 -53.52423 168.00597 297
3542.72314 -739.15448 105.14349 465
3643.06714 -761.02655 216.58029 278
399.67877 -31.59032 171.76636 317
423.23560 -36.11076 172.00449 309
475.08282 -45.96130 168.07339 298
3535.83862 -628.90332 106.14163 493
3576.68921 -636.93042 216.86140 290
3588.40845 -638.75909 328.60226 498
400.80902 -26.42999 171.80798 317
424.45538 -30.17206 172.02585 309
481.23605 -39.12497 167.16939 443
3537.19092 -522.77356 106.72894 495
3584.93311 -529.72913 216.25433 497
401.77045 -21.24559 171.78389 317
425.52606 -24.23939 172.01549 309
487.24075 -32.01593 166.24063 458
3539.69971 -417.50183 107.78569 496
3736.27856 -441.77478 216.57355 498
3668.48145 -433.06003 329.79025 498
402.56360 -16.00654 171.80673 317
426.39139 -18.23157 172.02113 309
493.00970 -24.54273 165.26776 301
3541.96777 -311.97742 107.94359 496
403.19235 -10.79278 171.83748 317
427.12244 -12.28867 172.05963 309
458.44516 -14.24344 172.35909 301
3544.76440 -208.04453 108.52338 497
403.68411 -5.50992 171.80623 317
427.64850 -6.26175 172.06877 309
459.03256 -7.29128 172.34653 301
3547.56006 -104.03648 107.75244 497
396.07697 0.58767 171.73222 317
420.03592 0.60789 171.96544 309
450.64139 0.71143 172.46548 495
395.88046 5.82263 171.75749 317
419.85507 6.59607 171.95428 309
451.23279 7.65364 172.24902 301
15053.53125 499.80368 701.70789 0
395.51111 11.07265 171.73949 317
419.46332 12.62291 171.94333 309
450.82370 14.65308 172.28886 301
394.98309 16.26165 171.73711 317
418.85800 18.61132 171.95291 309
450.18210 21.60568 172.24889 301
394.30099 21.48395 171.72150 317
418.08951 24.53302 171.95428 309
484.65714 33.11903 165.18507 301
393.42987 26.70914 171.71230 317
417.15231 30.47452 171.94856 309
479.07135 40.44788 166.04456 443
392.45328 31.83772 171.69139 317
416.00534 36.42767 171.94197 309
471.89624 47.19397 167.18466 448
391.29303 36.97448 171.70630 316
414.73004 42.31672 171.89217 309
466.21652 53.90926 167.97562 297
389.96881 42.12756 171.65607 316
413.25824 48.14300 171.88756 309
464.61548 61.43938 167.94113 297
388.51468 47.19164 171.67917 316
440.39761 62.36313 164.88426 307
386.87460 52.19173 171.63094 316
438.22903 68.98044 164.89937 308
385.11990 57.19316 171.60869 316
431.20764 73.91035 166.00558 425
383.18951 62.14752 171.60291 316
422.94946 77.97651 167.47696 430
404.55185 77.24009 164.74413 317
419.06180 83.55084 167.78490 305
401.91000 82.74924 164.75220 317
416.41644 89.62130 167.74084 305
399.02383 88.11550 164.72607 317
391.70197 91.06041 166.11365 429
384.32843 93.64102 167.41412 434
1482.74976 745.97955 72.73592 391
1464.98059 735.12524 122.02045 407
380.54700 98.07233 167.63322 315
1410.91516 754.55768 78.06770 385
1396.55115 745.49072 125.64017 413
377.34842 102.90826 167.62074 313
1345.06384 763.03894 83.32043 390
1333.09485 754.56732 128.58966 418
1283.72302 770.87457 87.52119 395
1273.34583 763.39850 131.65627 424
1226.26233 778.15869 91.74573 393
1217.41699 771.52643 134.37277 429
1170.20776 783.46014 95.77265 394
1164.88232 779.05945 136.57158 435
1119.60498 790.12299 98.97587 405
1117.02954 787.85199 138.62292 462
1122.78601 793.00616 177.35121 457
1076.52466 801.51196 101.27510 421
1077.58203 802.46405 139.98714 478
1087.84192 811.63300 177.65176 488
1038.87793 815.44788 103.20667 427
1042.61829 819.23218 140.70674 459
1081.33606 857.84070 176.85043 389
1004.16382 831.23999 104.30634 432
1018.57410 846.76910 140.52231 267
1089.98108 923.05017 175.20036 383
971.87158 848.70752 105.26938 441
1072.60437 963.72290 132.51584 454
1099.03992 993.75555 173.28152 377
941.49036 867.79944 105.72113 392
1062.96375 1015.06573 130.27393 438
911.65704 887.45325 106.14915 498
1001.54510 1003.34460 133.45314 396
883.00677 907.86169 106.25528 401
939.84424 986.38861 136.70323 377
855.19812 929.69086 105.77518 400
827.94745 953.00305 105.43259 496
2224.08350 12696.77051 637.10345 0
123.78229 148.21019 170.15195 445
107.23357 153.92331 166.39445 314
102.73164 150.57248 166.37801 314
98.21259 147.16246 166.33109 424
90.46655 147.56158 164.92760 429
82.40120 147.85883 163.39645 424
78.23290 143.47656 163.47481 307
66.08772 156.35370 166.23521 305
95.41607 117.84199 171.57616 316
61.45200 151.69334 166.24745 306
92.09529 113.99603 171.64125 316
54.79656 148.94247 165.52983 409
88.89744 110.04410 171.66495 316
44.16817 149.32794 163.56412 403
85.80445 105.97854 171.69547 316
67.12112 121.44426 171.82529 308
82.84422 101.85314 171.71053 316
63.66434 116.66137 171.85367 308
14.11560 154.93243 165.97243 295
80.01043 97.59108 171.72493 316
60.44179 111.76189 171.87489 308
6.83542 150.61166 165.22275 388
77.29758 93.25753 171.75735 316
57.28715 106.81193 171.91228 308
-7.90555 150.92825 162.79393 382
74.76730 88.85124 171.78734 316
54.33088 101.76965 171.94003 308
27.54723 118.72107 172.17172 300
72.33485 84.35328 171.78745 316
51.57842 96.60037 171.98819 308
24.25524 112.69630 172.20021 300
-52.32052 157.71774 165.07420 288
70.07436 79.75996 171.82126 316
54.17950 88.45909 173.39339 322
43.40043 94.37074 177.25728 319
22.51548 105.75449 180.02733 292
67.92506 75.11740 171.82115 316
61.13323 78.55280 175.84636 385
51.91834 83.23856 179.75543 300
-8.73775 113.99844 174.73926 293
70.72769 68.08817 173.26186 382
64.58089 71.02299 177.28909 390
49.65970 77.98929 179.80009 300
25.12950 89.48235 181.53546 330
4.15635 99.31124 185.53117 282
73.85267 61.36349 174.71539 386
67.81438 63.96352 178.59535 395
43.99962 74.23689 179.01920 373
35.09193 78.06274 183.80472 336
23.37625 83.15110 188.72205 331
7.51113 89.98705 193.97687 311
75.60199 55.50271 175.71072 420
70.10378 57.68166 179.59195 308
47.63257 66.55251 180.21657 389
40.48391 69.33701 185.12445 373
32.07171 72.67360 190.26959 368
21.78966 76.75473 195.78008 332
6.50888 82.75922 201.61122 311
76.96971 50.02686 176.48718 424
68.63681 53.00664 179.63780 308
51.01912 59.35036 181.33597 393
44.26923 61.74109 186.12013 389
37.02959 64.35737 191.25755 384
28.48397 67.40317 196.70609 368
19.11723 70.77007 202.66199 362
78.33933 44.74434 177.23688 427
67.34164 48.29915 179.64728 308
53.88574 52.66040 182.23273 410
47.80872 54.61940 187.00455 405
40.91964 56.84299 192.05026 388
33.56706 59.23288 197.42752 383
24.92150 62.01755 203.20035 367
79.67544 39.63427 177.92665 431
61.30138 44.93916 178.46539 425
56.05454 46.46153 182.96854 421
50.32050 48.13916 187.66423 409
44.08858 49.93061 192.68611 404
37.44461 51.86092 197.98692 399
30.09199 54.00117 203.68680 382
81.02515 34.68324 178.56223 436
63.04327 39.26730 179.13824 429
57.92247 40.59329 183.58035 424
52.54851 41.96074 188.26515 420
46.71750 43.46624 193.21123 408
40.34113 45.07503 198.41493 403
33.51803 46.85778 204.00331 398
25.05072 48.99390 209.95929 269
82.07154 29.95165 179.04539 458
64.74955 33.78984 179.77838 432
59.79935 34.91752 184.17450 428
54.60811 36.08597 188.77570 423
49.10042 37.27124 193.63661 418
43.12259 38.63883 198.82590 406
36.52944 40.08070 204.26791 401
29.30778 41.70303 210.16861 358
-182.74072 88.79777 216.48439 438
82.32442 25.50056 179.32867 459
66.22712 28.52777 180.31252 455
61.62686 29.40483 184.68581 431
56.58153 30.38263 189.26167 426
51.24817 31.38331 194.05060 422
45.57042 32.46356 199.12816 417
39.44038 33.64563 204.56166 405
32.66512 34.93110 210.28642 399
-183.00929 75.79822 216.54561 424
82.58685 21.10056 179.51875 316
66.54033 23.61611 180.54250 456
62.07341 24.29813 184.93753 452
57.42531 25.05591 189.50906 447
52.51188 25.81444 194.32225 442
47.34433 26.61421 199.40308 437
41.86595 27.46700 204.74371 432
35.72740 28.46639 210.40459 403
82.23843 16.77361 179.50696 316
66.88856 18.72637 180.70177 458
62.46544 19.27631 185.06827 453
57.83656 19.84985 189.65491 448
52.96175 20.46351 194.43910 444
47.86686 21.10858 199.51189 438
42.47506 21.75557 204.84320 433
36.76741 22.48112 210.47835 428
82.00724 12.48661 179.53928 316
67.25458 13.83516 180.88800 459
62.87522 14.26150 185.21591 454
58.27244 14.68873 189.76350 450
53.45050 15.15681 194.57195 445
48.40094 15.61639 199.61044 440
43.11011 16.10857 204.88620 435
37.44645 16.65186 210.51703 429
81.93269 8.16328 179.54108 316
67.68985 9.05307 180.99310 460
63.29716 9.29456 185.34898 456
58.74974 9.59046 189.88559 451
53.99107 9.88296 194.66939 446
48.99271 10.20650 199.67079 441
43.73072 10.50981 204.94537 436
38.13959 10.87927 210.55055 430
-181.71815 24.43194 269.43790 486
-186.80692 24.73886 283.79379 496
81.97746 3.83923 179.51909 316
68.13802 4.24934 181.10466 461
63.83201 4.36635 185.45848 457
59.31989 4.50213 189.99568 452
54.57153 4.64791 194.73138 447
49.63448 4.81539 199.72942 442
44.39997 4.97529 204.99242 437
38.86591 5.15055 210.56572 431
-181.79404 11.81003 269.39169 487
