# .PCD v.7 - Point Cloud Data file format
VERSION .7
FIELDS x y z rgb
SIZE 4 4 4 4
TYPE F F F U
COUNT 1 1 1 1
WIDTH 456
HEIGHT 1
VIEWPOINT 6428.299805 -1838.477173 146.582321 -0.737667 -0.074313 -0.111367 0.661757
POINTS 456
DATA ascii
85.00832 -0.41954 179.45944 466
69.16610 -0.43657 180.58089 462
64.79329 -0.45127 184.99272 457
60.23678 -0.42538 189.55568 453
55.46348 -0.44294 194.39345 448
50.43975 -0.43338 199.47289 443
45.17224 -0.47721 204.81534 438
39.56659 -0.44529 210.44872 432
-152.82722 -0.68750 241.08118 419
-181.59618 -0.69028 269.80060 487
-145.04778 -0.62522 277.30899 284
84.72231 -4.77359 179.29521 465
68.72049 -5.26052 180.37956 461
64.32391 -5.41510 184.79579 456
59.72925 -5.58895 189.45453 452
54.93645 -5.73885 194.27615 447
49.88035 -5.88770 199.37045 442
44.50359 -6.05778 204.74902 437
38.87831 -6.23370 210.41341 431
-152.96388 -12.46299 241.11237 416
-181.59320 -13.40359 269.78564 487
-149.46423 -12.37114 278.12369 285
84.43480 -9.14981 179.08215 464
68.40251 -10.18886 180.17625 460
63.90915 -10.47986 184.61957 455
59.24759 -10.78134 189.25508 451
54.41645 -11.08481 194.12560 446
49.26832 -11.38449 199.26073 441
43.89697 -11.72470 204.63818 436
38.17894 -12.08295 210.36844 430
-181.50903 -26.08848 269.88358 486
84.18134 -13.59296 178.81609 463
68.08085 -15.14606 179.96259 459
63.56914 -15.54310 184.38779 454
58.81998 -16.00311 189.06677 449
53.90429 -16.47690 193.98743 445
48.73824 -16.98755 199.12849 440
43.24566 -17.49116 204.57362 435
37.47770 -18.06096 210.32150 429
-181.44804 -38.89775 270.02777 486
83.94637 -18.07965 178.57065 462
67.79208 -20.12767 179.66585 457
63.24046 -20.71926 184.17345 453
58.45016 -21.34631 188.87483 448
53.44365 -21.99091 193.80728 443
48.19426 -22.61960 199.00282 438
42.63392 -23.35802 204.45486 433
36.76974 -24.10934 210.28424 428
83.73467 -22.64465 178.22493 461
67.50103 -25.25167 179.37436 456
62.90426 -25.95411 183.89104 452
58.09158 -26.72686 188.60840 447
53.03202 -27.51738 193.58897 442
47.74155 -28.41119 198.83754 437
41.66462 -29.36693 204.30573 414
35.06999 -30.38214 210.18010 402
83.54884 -27.31224 177.90309 459
67.11601 -30.44285 178.99579 435
62.11842 -31.38783 183.51300 431
56.82335 -32.41434 188.18996 426
51.27810 -33.47753 193.21097 421
45.42205 -34.57298 198.46371 416
38.98467 -35.83903 204.02383 404
31.88323 -37.19315 210.04016 399
-183.08078 -78.31346 216.44826 424
83.24622 -32.01902 177.49315 438
65.41405 -36.03315 178.27206 432
60.23663 -37.20842 182.85506 427
54.83501 -38.39306 187.61967 423
49.08620 -39.67489 192.71182 418
42.76854 -41.11162 198.04439 406
35.89864 -42.63550 203.71809 401
28.46540 -44.31192 209.85130 361
-189.20322 -93.12350 216.49263 296
81.98253 -37.14909 176.76260 435
72.43886 -39.58397 179.61636 308
58.37898 -43.21291 182.12546 424
52.77469 -44.65792 187.02647 419
46.54075 -46.24384 192.13966 407
39.84672 -47.98409 197.57454 402
32.73824 -49.81076 203.42442 397
24.65511 -51.87474 209.67224 341
80.69598 -42.42122 175.99861 432
73.98163 -44.38253 179.58504 308
56.46548 -49.48562 181.38739 421
50.30393 -51.23747 186.28087 409
43.78778 -53.17771 191.47955 404
36.60105 -55.26802 197.05858 387
28.48564 -57.60103 202.96089 371
-3015.86621 -943.68683 215.83760 494
79.38715 -47.90695 175.14668 429
74.37289 -49.53205 179.25793 422
54.06364 -56.18196 180.46037 397
47.24706 -58.37003 185.42055 393
40.00311 -60.70596 190.68597 388
32.01609 -63.34379 196.33635 372
22.68539 -66.38620 202.44144 367
78.03650 -53.63924 174.22935 423
72.86714 -55.48497 178.42007 419
50.63417 -63.47180 179.32320 393
43.51002 -66.10066 184.36377 388
35.53810 -68.95849 189.73134 372
26.38985 -72.27307 195.51404 367
14.96849 -76.36452 201.74185 316
76.64902 -59.58670 173.25645 420
70.61935 -61.95562 177.35596 386
47.05845 -71.30101 178.03876 388
39.13757 -74.43562 183.16539 373
29.04821 -78.48045 188.48563 336
15.78545 -83.70954 194.12640 316
-3.33199 -91.30333 200.19702 284
74.02157 -66.33935 171.83926 316
67.13712 -69.33511 175.85034 381
57.59383 -73.49066 179.72722 300
30.63185 -85.17055 181.13232 335
16.76495 -91.14947 186.26685 315
76.40398 -71.14143 171.80789 316
63.48853 -77.21100 174.25952 390
57.49152 -80.01015 179.14873 386
14.85922 -100.12686 177.71297 286
-20.40635 -116.69278 180.38196 284
78.89916 -75.85860 171.77441 316
58.02404 -86.45465 172.09453 328
47.52002 -91.84765 176.25256 325
30.72127 -100.42171 179.97415 292
81.55750 -80.45610 171.74710 316
60.45722 -92.08204 171.95760 308
32.73086 -107.35023 172.19017 300
-48.43734 -152.01747 164.35426 373
84.36182 -85.04290 171.74615 316
63.64085 -97.30186 171.90675 308
36.33513 -113.49270 172.15993 300
-38.65922 -157.84868 165.27562 286
87.33510 -89.52414 171.70236 316
66.95508 -102.46717 171.90540 308
40.18549 -119.49317 172.10818 300
90.41199 -93.93251 171.69405 316
70.44977 -107.55233 171.85478 308
6.88350 -150.76549 163.11197 383
93.61134 -98.28067 171.65845 316
74.05991 -112.48659 171.85066 308
21.99055 -150.37686 165.52879 386
97.00523 -102.49006 171.61212 316
77.86186 -117.34620 171.80829 308
29.38786 -154.93704 166.14703 297
100.47176 -106.63648 171.61928 316
54.29761 -144.79666 163.44458 300
95.39402 -111.00742 171.63637 316
52.29918 -149.21201 163.97870 404
99.17204 -114.96270 171.60092 316
63.27085 -148.77342 165.88510 410
103.00506 -118.76569 171.58054 316
69.61197 -152.33006 166.33636 306
86.69403 -144.21651 163.55396 307
74.77642 -156.94145 166.34224 305
92.12175 -147.69308 163.79620 425
-1777.51465 -2278.83105 214.43506 376
100.84187 -147.09657 165.37003 420
-37485.05078 -45791.25000 -7632.47021 0
-1634.09814 -2254.91455 214.81415 427
108.30081 -147.61977 166.47665 314
-1518.52490 -2254.44238 214.84692 432
115.16565 -148.49406 167.32784 441
-1413.60376 -2262.29639 214.59424 437
-1312.02405 -2269.62427 214.98781 441
-1214.82971 -2276.76147 214.99741 381
-12042.64648 -20839.21680 -6279.45703 0
-1121.41785 -2284.65210 214.88336 383
-1029.95605 -2292.16333 214.60011 385
-1053.86304 -2520.95166 214.89482 477
-970.74585 -2552.44604 214.88353 398
-276.61060 -1401.62561 166.93396 438
2445.15454 -2668.76099 215.63963 496
2549.09863 -2621.83862 216.05070 473
2663.51758 -2583.48901 216.28627 469
1630.72839 -1394.07617 151.57480 485
2810.75708 -2573.37988 216.24051 420
2984.79126 -2578.56177 216.47366 414
43541.39844 -35789.23828 -7183.86719 0
386.38867 -101.46293 167.67142 313
20100.64062 -13487.93359 -5383.33398 0
389.64929 -96.59643 167.71712 313
392.79822 -91.68989 167.71695 315
399.74344 -88.86343 166.56027 429
407.46326 -86.10884 165.16016 442
411.36850 -81.21307 164.81163 316
2816.23926 -1212.20520 122.98981 498
414.15042 -75.70027 164.80563 316
428.60965 -81.98105 167.82382 305
416.72736 -70.12364 164.80611 316
431.22101 -75.86522 167.84248 305
394.78128 -55.70662 171.74492 316
437.93314 -71.23663 166.80867 424
388.67422 -50.74864 171.66133 317
439.91833 -67.26230 164.89777 307
3839.82837 -1164.08057 215.64259 499
390.05786 -45.78485 171.70940 317
441.80731 -60.71036 164.91139 307
391.27368 -40.72857 171.69931 317
414.42139 -46.65556 171.92226 309
465.53934 -59.61929 167.96399 297
3763.59497 -899.15009 96.44510 302
3830.65625 -909.53687 216.90935 496
392.35675 -35.67222 171.70845 317
415.62921 -40.82538 171.95122 309
467.21350 -52.19989 167.99316 452
3749.97314 -778.22321 97.70718 436
3786.21436 -787.19012 216.38120 497
393.22495 -30.53750 171.73801 317
416.68756 -34.98541 171.93510 309
474.06363 -45.81313 166.89294 447
3754.25854 -664.13837 98.98508 476
3799.57715 -673.24799 216.17587 498
394.01685 -25.41361 171.73756 317
417.60614 -29.08915 171.94621 309
481.31726 -39.03979 165.63251 443
3760.18555 -551.85089 99.27979 497
4049.77319 -597.19769 216.56096 487
394.58917 -20.23378 171.72221 317
418.29578 -23.19934 171.96140 309
484.72525 -31.41697 165.17522 301
3767.85254 -439.30780 99.23896 497
395.05698 -15.05674 171.74564 317
418.83130 -17.29719 171.97446 309
450.02090 -20.15213 172.25032 301
3776.44141 -327.68796 99.85926 497
395.30707 -9.89073 171.72812 317
419.15747 -11.30772 171.98624 309
450.42896 -13.23159 172.24565 301
3838.28271 -219.94618 98.05643 499
395.43372 -4.66774 171.75159 317
419.33661 -5.35995 171.98553 309
450.65005 -6.28008 172.28931 301
395.40060 0.54375 171.72217 317
419.30078 0.60275 171.95392 309
450.62952 0.68033 172.29984 301
395.21805 5.79195 171.75908 317
419.10699 6.58076 171.94200 309
450.40839 7.64645 172.27551 301
394.85394 10.98116 171.71519 316
418.69601 12.57152 171.97171 309
450.04535 14.59063 172.29066 301
394.33459 16.22060 171.70454 316
418.15616 18.49187 171.95801 309
449.36417 21.50603 172.26277 301
393.64084 21.39560 171.71280 316
417.40158 24.43655 171.93425 309
483.98221 32.94609 165.14235 301
392.80252 26.56173 171.69418 316
416.47083 30.36718 171.93344 309
479.15240 40.39145 165.88646 443
2681.00610 393.04117 54.49075 415
391.80997 31.72094 171.69450 316
415.39008 36.25928 171.93314 309
471.94437 47.19007 167.00136 448
390.65903 36.89265 171.68541 316
414.08212 42.12286 171.90041 308
465.56485 53.72879 167.96605 297
389.39313 41.97717 171.65419 316
412.62170 47.97843 171.88177 308
463.97626 61.27482 167.89818 297
387.89908 47.05094 171.64104 316
439.82416 62.22250 164.89690 307
386.31277 52.04463 171.64093 316
437.69135 68.82242 164.89272 308
384.51297 57.03499 171.64204 316
431.20456 73.92426 165.87741 425
382.59674 61.99085 171.61949 316
422.86932 78.00137 167.32671 430
404.02423 77.05799 164.72575 316
418.52100 83.37569 167.76558 305
1763.42334 667.97388 52.23965 380
1753.95532 663.34082 108.07037 392
401.37988 82.59635 164.71094 316
415.86484 89.41959 167.73079 305
1672.72302 682.99908 59.69114 385
1668.67651 681.10919 112.50906 396
398.52243 87.98657 164.74597 317
1590.10559 697.21509 66.26381 384
1595.10596 699.45972 116.12170 334
391.54279 91.11542 165.96326 429
1515.70422 711.12640 72.00727 382
1518.61963 712.88629 120.52020 406
384.15561 93.66716 167.31038 434
1442.39185 721.42474 77.64420 387
1455.12085 729.00305 123.23404 419
379.97412 97.91725 167.61183 315
1380.97021 735.17572 82.30312 375
1395.54224 744.15765 126.25139 454
376.77295 102.75120 167.58870 313
1360.29211 773.06158 36.32482 403
1334.67944 755.53436 84.89493 467
1359.44006 772.62445 127.30401 489
1315.08411 793.59625 39.69228 416
1297.16711 780.32043 86.54326 474
1366.83789 830.92358 124.50347 405
1273.95935 815.19470 42.39258 423
1261.00061 804.77936 87.93815 482
1380.44812 897.70233 121.15221 400
1237.39099 839.14319 44.01661 437
1228.58887 831.66608 88.79085 485
1394.43823 969.37238 117.61383 398
1202.47791 863.40289 45.49020 447
1197.02332 858.62866 89.41858 479
1170.76526 889.75165 46.21179 267
1167.46143 886.90619 89.72135 458
1143.84741 920.72803 88.86622 331
38900.36328 46849.50781 -13921.74512 0
125.60796 148.17189 170.36636 453
108.62484 154.63667 166.37053 314
104.09249 151.23001 166.39264 314
99.66037 147.63733 166.39862 314
92.40463 147.44435 165.16249 429
84.31084 147.79805 163.65228 424
79.62636 143.94609 163.48459 307
67.41103 156.98259 166.25862 305
96.90019 118.22181 171.60349 315
62.76000 152.24240 166.22487 305
93.58037 114.31744 171.59203 316
56.76337 148.83105 165.69748 409
90.42551 110.35628 171.65590 316
46.17867 149.23586 163.75961 403
87.34650 106.22826 171.64697 316
68.51172 121.79792 171.81938 308
84.42995 102.05911 171.67862 316
65.15421 116.97748 171.83853 308
15.43008 155.43114 165.95116 295
81.67856 97.75224 171.69748 316
61.89659 112.05242 171.89922 308
8.84728 150.55551 165.42465 388
79.01521 93.38664 171.74852 316
58.83755 107.07122 171.92111 308
-5.81127 150.91351 162.97919 382
76.48861 88.96350 171.74309 316
55.98176 101.92855 171.93042 308
28.93675 119.02821 172.14528 300
74.10104 84.43185 171.76617 316
53.18604 96.72535 171.92850 308
25.74125 112.97434 172.14668 300
-51.03093 158.27373 165.03302 288
71.87570 79.81109 171.82329 316
52.98555 90.18595 172.57808 322
41.89948 96.24910 176.58702 319
23.28189 106.43591 179.86571 270
69.79368 75.13943 171.82544 316
60.92540 79.62375 175.33838 385
53.53199 83.38185 179.73044 300
-3.80741 112.49342 175.38182 293
70.79527 69.01065 172.68719 381
64.42517 71.98159 176.76198 390
51.38612 78.08925 179.78462 300
24.18902 90.82787 181.06190 330
-0.07043 102.26299 184.72240 264
73.95813 62.15907 174.14087 386
67.69626 64.82061 178.07602 395
43.81657 75.13536 178.58005 373
34.35787 79.23041 183.34776 336
22.39577 84.40520 188.35719 331
5.81229 91.50163 193.67793 310
75.86987 56.15231 175.18011 420
70.74558 58.16470 179.25436 415
47.56789 67.32753 179.77768 389
40.28988 70.19781 184.76877 373
31.71231 73.58726 190.02225 368
20.80604 77.88882 195.53380 332
4.83032 84.20354 201.47966 311
77.27590 50.62500 175.97594 424
70.65641 52.97767 179.59760 308
50.99230 60.04953 180.87419 393
44.15535 62.49756 185.75623 388
36.81911 65.12344 190.98184 373
28.08330 68.27069 196.53085 368
18.56774 71.68692 202.57895 362
78.68156 45.27068 176.71605 427
69.41492 48.25349 179.63670 308
54.02031 53.26199 181.82593 410
47.78432 55.26699 186.64542 393
40.81274 57.50315 191.77101 388
33.30327 59.96084 197.24782 383
24.46902 62.78404 203.06900 367
80.04900 40.10084 177.38829 431
61.55410 45.44131 177.99217 425
56.23137 46.96818 182.56836 421
50.40749 48.68109 187.33209 409
44.07248 50.47116 192.38226 404
37.36023 52.42482 197.81328 399
29.84348 54.61629 203.57838 382
81.38475 35.07919 178.01634 435
63.33945 39.73349 178.68491 429
58.16092 41.05455 183.17093 424
52.72907 42.43322 187.93018 420
46.76220 43.96810 192.91820 408
40.29579 45.61757 198.21928 403
33.38285 47.38631 203.88683 398
24.67213 49.55194 209.94727 269
82.51835 30.29431 178.56192 458
65.07679 34.15996 179.32605 432
60.04008 35.27278 183.75215 428
54.78471 36.48009 188.44357 423
49.20113 37.72360 193.40094 418
43.11418 39.07555 198.58224 406
36.45791 40.50494 204.14818 401
29.10331 42.15218 210.11919 358
-183.49727 89.44126 216.60820 296
82.80229 25.76472 178.77142 459
66.62788 28.82409 179.85793 455
61.91857 29.74369 184.29648 431
56.79875 30.68519 188.92239 426
51.38771 31.73079 193.79562 421
45.60549 32.79681 198.93349 416
39.40547 33.97484 204.43996 405
32.50676 35.31746 210.23778 399
-182.94974 76.18859 216.54716 424
83.09958 21.29798 179.01294 461
66.97300 23.84715 180.06126 456
62.43564 24.54611 184.48915 452
57.70768 25.30424 189.15083 447
52.76544 26.07438 194.06946 442
47.50782 26.87885 199.20120 437
41.97426 27.74688 204.61755 432
35.61176 28.78116 210.36162 403
83.42496 16.89244 179.16478 462
67.33957 18.88278 180.24458 457
62.84716 19.46019 184.65013 453
58.14771 20.03009 189.31984 448
53.22928 20.65389 194.14801 444
48.03038 21.32721 199.27573 438
42.58008 21.99131 204.70633 433
36.80013 22.70660 210.40108 428
83.77383 12.46738 179.31361 463
67.74878 13.99241 180.37245 459
63.28607 14.38658 184.81729 454
58.62506 14.83161 189.41525 450
53.71371 15.31208 194.28299 445
48.61158 15.76907 199.35785 440
43.24353 16.25455 204.74644 435
37.53053 16.79705 210.43330 429
84.18072 8.12124 179.42372 464
68.13763 9.09997 180.48909 460
63.71726 9.41345 184.91948 455
59.14053 9.65617 189.50951 451
54.30068 9.97182 194.34540 446
49.23020 10.29818 199.43127 441
43.86746 10.59505 204.80684 436
38.23602 10.96800 210.45766 430
-181.62732 24.54903 269.82816 486
-186.92444 24.91371 284.16800 360
84.52148 3.79982 179.49655 316
68.63192 4.28784 180.60493 461
64.25951 4.42219 185.01424 457
59.66369 4.56771 189.62100 452
54.88267 4.67141 194.40868 447
49.86249 4.82158 199.50055 442
44.56273 5.01713 204.82082 437
38.93687 5.14655 210.47395 431
-181.63487 11.96455 269.67789 487
