# .PCD v.7 - Point Cloud Data file format
VERSION .7
FIELDS x y z rgb
SIZE 4 4 4 4
TYPE F F F U
COUNT 1 1 1 1
WIDTH 436
HEIGHT 1
VIEWPOINT 6507.262207 -2429.839111 143.798401 -0.844547 -0.077092 -0.104826 0.519431
POINTS 436
DATA ascii
85.65606 -0.98132 178.74655 467
69.70794 -0.98530 179.93405 462
65.27563 -0.98730 184.43613 457
60.63873 -0.98600 189.09451 453
55.77103 -1.00922 193.99991 448
50.70494 -0.98935 199.18884 443
45.27522 -1.01979 204.61856 438
39.59042 -0.98476 210.38205 432
-181.40858 -0.94646 270.22589 487
-136.36830 -1.01913 276.44339 495
85.31126 -5.44906 178.57555 465
69.24203 -5.96198 179.76332 460
64.79411 -6.10775 184.27777 456
60.12082 -6.22805 188.98068 452
55.21789 -6.41963 193.91113 447
50.05451 -6.53007 199.10248 442
44.65012 -6.70709 204.55910 437
38.88618 -6.93565 210.31490 431
-181.33788 -13.80172 270.19376 487
85.00645 -9.92814 178.38148 464
68.91766 -10.94275 179.55420 460
64.34502 -11.22090 184.07680 455
59.63900 -11.52237 188.79391 451
54.65866 -11.81423 193.78761 446
49.48431 -12.17651 198.95540 441
43.95985 -12.53136 204.47510 436
38.16323 -12.89039 210.31145 430
84.75114 -14.47215 178.16083 463
68.57319 -16.00316 179.36035 459
63.99973 -16.43922 183.89206 454
59.18320 -16.90909 188.64940 449
54.15314 -17.36883 193.62080 445
48.89605 -17.87179 198.85484 440
43.33467 -18.38101 204.40396 435
37.45580 -18.94909 210.25554 429
83.13108 -18.33762 179.34337 462
67.09435 -20.36272 180.35658 457
62.62396 -20.91134 184.78819 453
57.93520 -21.50103 189.36374 448
53.04956 -22.16307 194.20415 443
47.84689 -22.80490 199.29335 438
42.43698 -23.49239 204.66899 433
36.70693 -24.24030 210.36223 428
82.90533 -22.79796 179.05763 461
66.79707 -25.36692 180.07301 456
62.26876 -26.08344 184.49341 452
57.56883 -26.84163 189.14853 447
52.61969 -27.62672 194.00209 442
47.38900 -28.47460 199.12816 419
41.46691 -29.41256 204.53639 414
34.99518 -30.41539 210.24554 402
82.71590 -27.36863 178.72064 459
66.33514 -30.47579 179.73018 435
61.44079 -31.40523 184.11263 431
56.29123 -32.36603 188.73952 426
50.85194 -33.44874 193.60252 421
45.11428 -34.55141 198.80263 416
38.78497 -35.73709 204.24057 404
31.83651 -37.05708 210.09897 399
-183.07585 -77.93808 216.41203 424
82.41502 -32.01907 178.31584 439
64.67989 -35.96280 179.01585 432
59.66725 -37.07256 183.48883 428
54.35141 -38.26919 188.16780 423
48.71780 -39.55506 193.14771 418
42.51600 -40.95213 198.40492 406
35.79817 -42.40393 203.94647 401
28.42071 -44.06161 209.91548 358
-187.79395 -92.35921 216.41991 296
81.14055 -36.97458 177.62920 435
62.99526 -41.65594 178.30722 429
57.80513 -42.97636 182.83569 424
52.31487 -44.40071 187.58984 420
46.20455 -45.96192 192.60558 408
39.67038 -47.62798 197.90536 402
32.67274 -49.44513 203.62407 397
24.75797 -51.46307 209.77184 355
79.85072 -42.16145 176.89258 431
70.10794 -44.96218 179.63545 308
55.85452 -49.11929 182.06393 421
49.90521 -50.85322 186.87299 409
43.50349 -52.74264 191.98940 404
36.49075 -54.78995 197.43648 387
28.65134 -57.04425 203.20528 371
78.56383 -47.50645 176.07091 427
71.73982 -49.75378 179.62079 308
53.54553 -55.63627 181.22176 398
46.94144 -57.76178 186.05844 393
39.85091 -60.11633 191.21529 388
32.03819 -62.63443 196.71951 372
22.97152 -65.59358 202.70152 367
77.21788 -53.09510 175.18762 424
72.16576 -54.92505 179.25967 419
50.22063 -62.81942 180.07982 393
43.27539 -65.34277 185.03960 388
35.50513 -68.10232 190.30777 372
26.55338 -71.35764 195.93713 367
15.90667 -75.16699 202.03407 332
75.85122 -58.92059 174.22708 420
70.13625 -61.21442 178.24791 386
46.72798 -70.42852 178.86932 389
39.00562 -73.52707 183.85153 373
29.60795 -77.20780 189.12250 336
17.04273 -82.22800 194.64166 316
-0.70634 -89.20763 200.66444 311
73.21729 -65.55712 172.82492 386
66.75429 -68.36773 176.85036 395
53.48875 -74.04291 179.76929 300
31.19406 -83.74789 181.98106 336
17.94669 -89.44283 187.05334 315
-11.61891 -102.24750 191.27760 265
72.15097 -71.79839 171.85379 316
63.32307 -75.91078 175.36252 390
56.01698 -79.37146 179.77011 300
18.00301 -97.26539 179.03374 286
-24.29053 -117.14368 180.44907 284
74.56136 -76.52474 171.83311 316
59.01231 -84.44975 173.52982 328
48.85291 -89.63273 177.56516 325
26.56955 -100.93088 179.99327 292
77.16511 -81.18008 171.81511 316
56.08913 -92.74502 171.96712 308
34.10760 -104.80309 173.48712 272
-51.63441 -151.92935 164.56161 373
79.91357 -85.74847 171.76962 316
59.21909 -97.98038 171.96764 308
31.96190 -114.07230 172.17166 300
-43.48674 -158.62502 165.22934 286
82.80813 -90.24100 171.73228 316
62.46231 -103.12893 171.92957 308
35.76159 -120.07331 172.14830 300
85.77650 -94.68338 171.74142 316
65.86331 -108.20300 171.88197 308
3.10116 -150.78445 163.33562 382
88.93275 -98.98650 171.71396 316
69.41824 -113.19034 171.85658 308
18.09196 -150.48534 165.77499 389
92.19480 -103.26688 171.65646 316
73.13551 -118.06889 171.81235 308
24.50138 -155.72601 166.14030 297
-1920.14941 -1663.07617 38.11707 395
-1996.35950 -1722.12463 123.43285 351
95.61942 -107.40315 171.64951 316
49.27469 -145.75200 163.39793 300
-1799.27795 -1674.04053 43.17416 439
99.13967 -111.47694 171.62953 316
56.52646 -149.07820 164.15532 403
-1692.96899 -1690.87793 47.81467 319
-1747.14282 -1738.30920 129.44218 476
102.82536 -115.40467 171.59427 316
67.42318 -148.60905 166.06267 409
-1598.72949 -1712.33447 51.48093 423
106.64374 -119.26577 171.57864 316
73.26241 -152.61104 166.37407 306
-1519.33740 -1744.18237 53.54706 426
-1621.40540 -1846.15601 215.15073 418
90.18159 -144.63617 163.54010 307
-1442.24597 -1775.83777 55.71492 428
-1505.23291 -1842.35510 133.04185 327
96.06792 -147.55501 164.01463 424
-1367.64746 -1806.51550 57.60770 430
-1429.42224 -1876.64307 215.56602 328
104.96075 -146.70387 165.69136 419
-1294.23645 -1836.63892 59.54053 488
111.52757 -148.17448 166.48091 314
-1223.17273 -1867.69678 60.86406 490
118.54512 -148.75343 167.41042 316
-1159.76160 -1907.45007 60.97402 443
2161.84326 -3509.02734 85.18940 428
2291.00171 -3481.06763 83.39819 392
2497.04688 -3568.42798 77.72626 388
3731.70239 -2548.79102 72.50941 323
376.65213 -103.17080 167.68086 313
3721.98267 -2376.95679 76.49626 477
379.65393 -98.38647 167.69910 315
3756.96655 -2242.42236 77.34757 488
3855.52368 -2305.51831 214.28360 296
383.87573 -94.33778 167.25247 434
3799.81543 -2114.88696 79.56756 496
3836.09717 -2137.10742 215.11057 499
391.16782 -91.78772 165.89761 429
3856.27734 -1996.91577 79.34160 499
3894.97144 -2019.43982 214.36388 499
397.48398 -88.41623 164.76405 317
3916.71069 -1881.62769 79.54778 499
4062.44775 -1956.88733 355.87582 479
400.11420 -83.05666 164.77699 317
414.44379 -89.76377 167.75357 305
3971.16260 -1764.60291 79.42548 499
402.55734 -77.53271 164.74429 317
416.87863 -83.74014 167.80548 305
4032.43286 -1648.56982 79.27734 499
381.00311 -62.55728 171.59622 316
422.26538 -78.90838 167.07959 429
382.69763 -57.62333 171.61212 316
430.55267 -74.83291 165.59123 424
384.27365 -52.61791 171.65262 317
435.44537 -69.26443 164.91525 308
385.69125 -47.59648 171.67267 317
437.36172 -62.61093 164.87856 308
386.93271 -42.51920 171.65015 317
410.09607 -48.48483 171.88364 309
461.01733 -61.57455 167.97792 297
388.05222 -37.43166 171.69504 317
411.33957 -42.61883 171.89668 309
464.64072 -54.56499 167.54482 452
389.00238 -32.27853 171.69075 317
412.46063 -36.80153 171.91829 309
471.63745 -48.05811 166.45248 448
389.77887 -27.10802 171.67938 317
413.36142 -30.88840 171.93980 309
478.92847 -41.25074 165.24487 443
390.41895 -21.92022 171.70482 317
414.11670 -24.92367 171.94662 309
445.12006 -28.86033 172.25777 301
390.89294 -16.70003 171.69983 317
414.65649 -18.94524 171.90776 309
445.76938 -21.92180 172.22795 301
391.20532 -11.50013 171.69220 317
415.01111 -12.99173 171.93465 309
446.26184 -14.97535 172.22418 301
272.88098 -2.50788 203.47740 285
415.20615 -6.98634 171.91939 309
446.50272 -8.02086 172.25079 301
2457.64258 -71.25348 142.66695 398
272.73343 -0.98798 203.49817 314
415.21896 -1.01597 171.94084 309
446.55670 -1.02750 172.22906 301
2369.39771 -1.03392 146.19405 403
272.61121 0.53356 203.49889 314
415.06000 4.99271 171.92038 309
446.34393 5.97828 172.22366 301
2314.07397 64.59408 79.24177 402
2288.88770 63.68131 148.40178 392
272.44748 2.04495 203.49940 314
414.73218 10.96701 171.91243 309
445.99902 12.92936 172.23544 301
2241.38354 125.73570 83.65231 387
2211.19238 123.93021 150.93942 416
272.23575 3.57034 203.49785 314
414.21609 16.96135 171.89969 309
445.39999 19.91359 172.22269 301
2172.34351 182.90201 87.87298 387
2150.85278 180.90630 152.61731 456
271.96954 5.08553 203.50110 314
413.50043 22.96048 171.88582 309
444.56409 26.87863 172.23459 301
2127.96582 239.25537 90.38664 415
2114.21167 237.73456 154.10345 263
271.65488 6.58934 203.50658 314
412.62634 28.92457 171.91817 309
478.80420 39.38422 165.12328 300
2092.79102 294.92160 92.53239 421
2085.85010 293.80414 154.64824 263
388.00656 30.33699 171.64525 317
411.54492 34.85968 171.86234 309
472.67459 46.50379 166.02946 448
2066.10010 350.54584 93.44398 443
2060.73462 349.58957 155.35107 396
386.88531 35.53500 171.64719 316
410.26401 40.73932 171.88541 309
465.58542 53.08330 167.16167 452
2112.75977 421.13684 89.64353 267
2043.26160 405.42722 155.14352 346
385.64371 40.66203 171.65387 316
408.89291 46.61015 171.85112 309
459.81537 59.68221 167.91731 297
384.21832 45.74144 171.60245 316
436.00815 60.76160 164.86296 308
458.06345 67.19251 167.88814 297
382.63556 50.76436 171.62117 316
433.89810 67.43429 164.86720 308
380.91663 55.80608 171.59566 316
431.20544 73.90298 164.91476 424
379.02225 60.77577 171.58575 316
422.73111 78.04981 166.43408 429
377.00302 65.67345 171.53473 316
414.69620 81.98486 167.78818 305
397.86621 81.35661 164.68420 317
412.09860 88.08361 167.72845 305
395.04950 86.80939 164.70363 317
390.72083 91.36779 165.12697 429
3546.40234 1825.96631 216.48689 1000
383.19608 94.01816 166.53185 434
376.57266 96.81967 167.64145 315
373.39465 101.66125 167.62378 315
370.08197 106.42120 167.60306 313
1095.05298 2019.58557 288.39771 292
124.66029 148.83783 169.07324 488
116.79591 150.81523 167.42407 316
110.05913 150.61230 166.39493 314
105.55847 147.06114 166.38438 314
98.05158 147.17824 165.06415 419
89.88474 147.56505 163.53247 424
85.41128 143.39688 163.49788 307
73.29527 156.34520 166.25087 305
102.34229 117.93544 171.52771 316
68.59392 151.69217 166.25902 305
98.97357 114.05183 171.57491 316
62.12763 148.64844 165.62759 409
95.71974 110.06665 171.60957 316
51.49479 149.02916 163.66974 403
92.55395 105.97542 171.62186 316
73.81327 121.50603 171.79149 308
89.55300 101.80384 171.64975 316
70.38138 116.70887 171.81395 308
21.29284 154.79037 166.03665 297
86.69667 97.55351 171.66254 316
67.02387 111.81030 171.82341 308
13.91065 150.43871 165.34340 389
83.95675 93.15968 171.70656 316
63.88051 106.82495 171.86748 308
-0.73382 150.78574 162.84789 382
81.36261 88.73259 171.73773 316
60.88440 101.72611 171.87489 308
33.95884 118.80595 172.10231 300
78.87309 84.19901 171.75546 316
58.07750 96.55184 171.92766 308
30.63160 112.71936 172.10695 300
-45.40461 157.77225 165.12708 286
76.57461 79.61900 171.74199 316
55.36691 91.24680 171.92963 308
38.97810 100.28268 174.78125 319
-54.73714 151.74998 164.22954 373
74.37942 74.92801 171.76855 316
60.66010 81.92014 174.00354 385
51.46375 86.60198 178.18027 325
25.91206 99.62718 179.94936 292
72.37814 70.18527 171.81995 316
64.27657 74.00095 175.54138 390
56.00894 77.89783 179.72853 300
21.98060 93.91987 179.79137 314
-25.06895 116.04860 180.37987 343
74.23943 63.75531 172.90662 386
67.72368 66.54613 176.93332 381
53.93011 72.54326 179.76842 300
33.13271 81.51361 182.27762 336
20.61164 86.97151 187.39716 315
-0.28338 95.98861 192.46977 283
76.55347 57.38928 174.06285 420
71.18493 59.51456 178.24509 386
47.62920 68.84725 178.83206 389
40.10325 71.82763 183.92668 373
31.30773 75.31805 189.24205 368
19.18912 80.10357 194.84915 332
1.99033 86.91319 200.89603 311
77.96259 51.66642 174.92552 423
72.86974 53.50485 179.05345 419
51.17736 61.32848 179.99242 393
44.19540 63.85291 184.93968 388
36.53179 66.61621 190.27463 373
27.55815 69.80575 195.97792 368
17.68508 73.34496 202.17690 332
79.39613 46.14510 175.72914 427
73.60323 48.04765 179.60577 308
54.41821 54.25565 181.00665 410
47.91156 56.39660 185.92621 393
40.71554 58.69510 191.09534 388
33.04247 61.19247 196.70094 372
23.89185 64.17415 202.73659 367
80.76327 40.83620 176.41878 432
72.37514 43.27777 179.57654 308
56.66497 47.80338 181.74730 421
50.68057 49.57373 186.65633 409
44.23751 51.42491 191.82629 404
37.37049 53.44803 197.31453 387
29.48879 55.70016 203.21716 382
82.14375 35.67483 177.10643 435
71.31985 38.44651 179.61200 308
58.67354 41.69788 182.41217 424
53.09796 43.11607 187.25583 420
46.97926 44.70328 192.36394 408
40.35060 46.38613 197.78354 403
33.30578 48.19876 203.55470 397
25.36005 50.22213 209.78011 355
83.36547 30.71027 177.65712 457
65.73154 34.62563 178.48564 432
60.56522 35.77690 183.05116 428
55.16287 37.00204 187.81288 423
49.48338 38.28805 192.84225 418
43.25876 39.63829 198.20316 406
36.45539 41.16197 203.88091 401
29.03540 42.84653 209.92772 361
-185.58325 90.87315 216.53839 296
83.61102 26.06001 177.95079 459
67.37284 29.16794 179.09868 455
62.49506 30.09574 183.59517 431
57.21378 31.08133 188.29417 426
51.69521 32.14670 193.29271 421
45.86782 33.26220 198.56367 416
39.46141 34.46572 204.11136 404
32.42780 35.80075 210.07431 399
-182.91153 76.90661 216.47530 424
83.88359 21.44929 178.18970 461
67.68749 24.00119 179.33508 456
63.10637 24.75458 183.84659 452
58.24080 25.50003 188.58940 447
53.17796 26.34194 193.60364 442
47.84245 27.16472 198.80049 437
42.13923 28.07536 204.34502 414
35.61071 29.09459 210.22423 402
84.24163 16.91331 178.39035 462
68.05131 18.93678 179.52078 457
63.47689 19.52558 184.04388 453
58.68711 20.13689 188.74748 448
53.65401 20.74575 193.69679 443
48.37840 21.44000 198.91057 438
42.79037 22.10942 204.42236 433
36.93275 22.88381 210.30087 428
84.54970 12.38312 178.52365 463
68.45254 13.92545 179.70712 459
63.89779 14.36547 184.19028 454
59.15521 14.78505 188.89592 450
54.23695 15.23733 193.77544 445
48.93940 15.76264 199.02666 440
43.45312 16.30569 204.53282 435
37.61746 16.83648 210.33517 429
84.94337 7.89533 178.69002 464
68.85773 8.94700 179.80971 460
64.31401 9.21233 184.33958 455
59.62453 9.49021 188.99675 451
54.74939 9.81123 193.91559 446
49.56982 10.12313 199.09859 441
44.09616 10.48328 204.60039 436
38.34790 10.84331 210.33812 430
-181.41585 24.66037 270.27643 486
-187.07729 24.98906 284.77701 360
85.31567 3.46598 178.77188 465
69.31087 3.97963 179.94612 461
64.84833 4.12010 184.41449 457
60.20774 4.26211 189.09666 452
55.32602 4.39504 194.00740 447
50.19572 4.58295 199.20230 442
44.78143 4.73701 204.60199 437
39.05213 4.90942 210.36601 431
-181.44844 11.87516 270.14273 487
