# .PCD v.7 - Point Cloud Data file format
VERSION .7
FIELDS x y z rgb
SIZE 4 4 4 4
TYPE F F F U
COUNT 1 1 1 1
WIDTH 500
HEIGHT 1
VIEWPOINT 6469.790527 -825.900757 145.256119 -0.651527 -0.095307 -0.090038 0.747210
POINTS 500
DATA ascii
71.28182 -0.75668 178.39073 466
67.29299 -0.73526 182.40491 462
63.15997 -0.75571 186.57431 457
58.83689 -0.76325 190.96318 453
54.31738 -0.76411 195.52603 448
49.53772 -0.77804 200.31888 443
44.53056 -0.79941 205.38925 438
39.23316 -0.79352 210.75430 432
-152.08527 -1.05292 240.39639 419
-182.24364 -1.06844 268.55530 487
-155.92183 -1.02147 277.49350 284
-111.70201 -0.97924 281.17712 494
70.88661 -5.24821 178.21463 465
66.86676 -5.35277 182.24257 461
62.71172 -5.48573 186.44580 456
58.33714 -5.64542 190.84113 452
53.77155 -5.80497 195.41278 447
49.00832 -5.94121 200.23537 442
43.92047 -6.09418 205.32202 437
38.57815 -6.30462 210.73924 431
-152.45821 -12.48640 240.50273 416
-182.18842 -13.48060 268.62595 487
-156.47420 -12.65018 277.66846 290
70.61529 -9.75572 178.01880 464
66.51472 -10.03601 182.05070 460
62.27977 -10.28360 186.25130 455
57.89278 -10.56458 190.64914 451
53.29307 -10.85475 195.28687 446
48.41526 -11.16873 200.12955 441
43.32313 -11.53462 205.25568 436
37.89669 -11.86197 210.71733 430
-182.11581 -26.02844 268.69791 486
77.02309 -13.67645 179.58195 316
66.22495 -14.73986 181.84575 459
61.93688 -15.14429 186.05943 454
57.46706 -15.57213 190.49731 449
52.78339 -16.01630 195.11270 445
47.86323 -16.46569 200.02713 440
42.73685 -16.96824 205.19521 435
37.22216 -17.49904 210.63193 429
-182.08618 -38.55982 268.85165 486
77.73413 -18.00293 179.56541 316
65.96919 -19.48870 181.58614 457
61.61628 -20.04610 185.83855 453
57.10740 -20.63857 190.29491 448
52.37837 -21.20678 194.98715 443
47.35269 -21.87123 199.89990 438
42.11012 -22.55093 205.08398 433
36.59077 -23.25445 210.62679 428
78.56668 -22.25731 179.55911 316
65.68394 -24.33855 181.32967 456
61.34564 -25.04691 185.57741 452
56.76851 -25.76544 190.09406 447
51.96629 -26.51694 194.81079 442
46.92834 -27.32090 199.75426 437
41.48964 -28.21863 204.99745 414
35.33749 -29.18048 210.53947 402
79.54752 -26.54473 179.54663 316
65.46340 -29.24819 180.99373 454
60.82277 -30.13422 185.26767 431
55.87090 -31.09332 189.73593 426
50.61167 -32.09807 194.43140 421
45.02350 -33.16647 199.44374 416
38.96162 -34.34156 204.71365 404
32.19656 -35.65651 210.38562 364
-183.06929 -76.94238 216.47115 424
80.65939 -30.77966 179.53886 316
63.95546 -34.53485 180.33455 432
59.07587 -35.60583 184.67667 427
53.91823 -36.78519 189.20485 423
48.50644 -38.01540 193.98160 418
42.55856 -39.36318 199.07758 406
36.07243 -40.78617 204.41988 401
28.83601 -42.43199 210.24652 358
-184.96155 -90.50436 216.49318 296
80.23956 -35.42978 179.10553 434
62.31161 -40.02733 179.61060 429
57.27710 -41.32744 183.98531 424
51.95855 -42.73546 188.62700 419
46.14511 -44.20228 193.44588 407
39.81644 -45.86665 198.63138 402
33.05939 -47.59932 204.12300 397
-188.41817 -104.75092 202.80450 483
79.01981 -40.42829 178.32883 430
60.65609 -45.77443 178.84438 425
55.44276 -47.27597 183.26526 421
49.69058 -48.96409 187.93782 409
43.53254 -50.79049 192.86250 404
36.89807 -52.67353 198.15891 399
29.49423 -54.83556 203.77997 382
77.75342 -45.61937 177.56331 427
58.94580 -51.72539 178.00520 421
53.26662 -53.58269 182.45467 410
47.12309 -55.57419 187.15002 393
40.26974 -57.80305 192.17320 388
32.90563 -60.20897 197.54356 383
24.15873 -63.10892 203.25188 366
76.47578 -51.01405 176.70522 423
67.60658 -54.19260 179.67252 308
50.30963 -60.43816 181.39183 393
43.54320 -62.88226 186.15755 388
36.22111 -65.51571 191.27284 372
27.63566 -68.64001 196.75038 367
18.16189 -72.05666 202.67381 362
75.15816 -56.64038 175.75880 420
69.55418 -58.86155 179.63574 308
46.91247 -67.87321 180.19275 388
39.63393 -70.75613 185.06046 373
31.12331 -74.12708 190.22406 367
20.02858 -78.54006 195.67046 331
3.84425 -84.93471 201.51791 310
73.17091 -62.82095 174.58817 386
67.15447 -65.41109 178.48932 395
43.13690 -75.87447 178.85703 373
33.40055 -80.06046 183.52562 335
21.46876 -85.26100 188.48378 331
3.64131 -92.95955 193.62466 283
70.02547 -69.83248 172.99396 381
63.84212 -72.76504 177.04706 390
50.15561 -79.21193 179.81754 300
22.72090 -92.14262 181.06201 314
-30.29967 -117.16599 180.50935 284
68.80850 -76.29178 171.84785 316
60.32600 -80.64003 175.43294 384
52.50723 -84.63111 179.71867 325
-0.05024 -111.49242 176.22031 293
71.46457 -80.97978 171.82129 316
51.33285 -92.04285 172.29829 322
40.13121 -98.23502 176.21017 318
15.65632 -111.69573 178.41815 270
74.25167 -85.54975 171.83649 316
53.50883 -97.80863 171.98225 308
26.26138 -113.96941 172.21106 300
-50.02685 -159.19783 165.14333 288
77.17439 -90.06172 171.77289 316
56.80860 -103.00939 171.96031 308
29.99333 -120.02158 172.21207 300
80.19052 -94.46000 171.78696 316
60.25926 -108.07761 171.93935 308
-2.73178 -150.93968 163.34076 383
83.40741 -98.82495 171.75659 316
63.80951 -113.03854 171.90491 308
12.21084 -150.59634 165.79207 389
86.70750 -103.07513 171.69868 316
67.60096 -117.92868 171.88658 308
18.46819 -156.04971 166.08797 295
90.14516 -107.24238 171.68155 316
71.50096 -122.70088 171.84134 308
93.71959 -111.32526 171.64827 316
50.75136 -149.28978 164.09557 404
97.45144 -115.26406 171.63612 316
61.69816 -148.88765 166.03503 409
101.27739 -119.14661 171.59093 316
67.63285 -152.82365 166.34552 306
84.74397 -144.71341 163.53523 307
90.56272 -147.75304 163.95378 425
99.17431 -147.29108 165.48067 420
106.31114 -148.21971 166.47510 314
-1893.10535 -2729.83569 103.47569 290
-1981.25232 -2843.48779 216.45645 440
111.25291 -151.70294 166.47807 314
-921.16193 -1574.46680 88.81989 470
-1723.20007 -2680.37866 107.77644 304
120.26043 -149.20058 168.37935 489
-1572.02686 -2642.57104 111.59541 378
127.56972 -148.67834 169.53233 486
-1433.40015 -2611.70801 114.96169 383
-1425.06592 -2789.54126 110.40622 413
25427.27930 -63428.76172 2432.43213 0
914.11554 -1088.07800 89.22395 493
917.11768 -1092.80017 131.30232 463
920.38708 -1097.80396 173.46268 463
2023.22839 -2171.29565 123.59637 477
2087.69922 -2110.41870 123.57096 453
2155.68530 -2053.47778 123.45851 448
2233.94507 -2006.15686 122.84982 441
2328.58545 -1972.11890 121.62518 424
2434.10962 -1945.21204 119.65553 431
2545.00537 -1915.72791 117.34314 438
2658.80859 -1885.23059 114.97144 428
376.26743 -102.69952 167.67348 315
379.60767 -97.87192 167.68103 315
384.67615 -94.08065 167.12346 434
392.17212 -91.46809 165.78790 429
398.54504 -87.90424 164.78946 317
401.55423 -82.45844 164.79263 317
415.94547 -89.23703 167.79303 305
404.31595 -76.96795 164.74474 317
418.71527 -83.19732 167.84441 305
383.07288 -61.96495 171.64818 316
423.91852 -78.06253 167.19734 429
385.09006 -57.01399 171.66081 316
432.33936 -73.94806 165.79457 424
387.01392 -52.00093 171.66869 316
438.28552 -68.65062 164.88895 308
388.78253 -46.99474 171.70206 317
440.58154 -62.00585 164.95035 307
390.34613 -41.90986 171.69720 317
413.55673 -47.84159 171.90718 309
464.81253 -60.94194 167.93027 297
391.80811 -36.76389 171.72125 317
415.18585 -41.99091 171.96350 309
466.58423 -53.44021 168.01509 297
393.10217 -31.61553 171.71323 317
416.63599 -36.12718 171.93929 309
473.00903 -46.79898 167.09433 447
394.21732 -26.44844 171.73656 317
417.89413 -30.20872 171.94865 309
480.26392 -40.04436 165.95837 443
395.17908 -21.24314 171.72758 317
418.93329 -24.24024 171.95412 309
485.43423 -32.61428 165.18588 301
2973.68774 -345.32318 125.64724 438
395.97296 -16.03176 171.77089 317
419.85043 -18.25539 171.99646 309
451.04276 -21.19107 172.29942 301
2923.30493 -253.16739 127.42889 461
396.64676 -10.77875 171.74179 317
420.51160 -12.27065 172.00604 309
451.84973 -14.21968 172.28685 301
2882.93408 -165.31168 129.46599 474
397.13754 -5.54536 171.77199 317
421.06390 -6.29964 171.98468 309
450.62228 -7.18862 172.63791 495
2855.64136 -81.41289 130.06604 441
2887.52466 -82.05363 216.45605 489
397.50650 -0.32046 171.74474 317
421.43668 -0.31366 171.99635 309
450.61496 -0.30481 172.75067 495
2835.72437 0.85248 130.75861 446
2865.02979 1.10952 216.66602 494
397.68134 4.95492 171.77989 317
421.57138 5.70502 171.97559 309
450.66626 6.63310 172.78076 495
2818.99536 82.28921 131.67712 424
2853.79248 83.39685 216.44514 496
397.68579 10.20640 171.75372 317
421.59189 11.70181 172.01404 309
452.87482 13.67361 172.32054 301
2803.73267 162.95808 131.81032 425
2836.84058 165.09473 216.23972 497
2915.34619 169.52960 304.37430 497
397.53497 15.40122 171.74724 317
421.39682 17.70144 171.96181 309
452.64212 20.67252 172.31281 301
2788.66650 242.72903 132.26212 426
2901.74463 253.40596 304.46240 366
397.22427 20.61833 171.75781 317
421.00897 23.62952 172.00548 309
486.73444 31.98730 165.38118 458
3053.66431 357.52576 123.11681 498
396.78497 25.85808 171.76711 317
420.45917 29.62133 171.98903 309
480.51608 39.12553 166.44159 443
3035.83789 445.37158 123.79591 499
396.15201 31.04149 171.72653 317
419.74231 35.52984 171.98174 309
473.39862 45.78873 167.67168 448
2743.67603 479.67252 132.36456 405
395.39764 36.19839 171.74240 316
418.80078 41.42665 171.95633 309
470.49966 53.00287 167.98772 297
2809.06836 576.41345 129.66145 487
394.45682 41.30606 171.74420 316
446.88196 54.77644 164.91324 307
469.28296 60.53646 167.89600 297
2782.83887 655.32782 129.91980 490
2974.51807 705.11322 216.17987 498
393.37653 46.39702 171.72670 316
445.33127 61.52263 164.94444 307
392.14093 51.41292 171.71919 316
442.74573 67.90759 165.10052 433
390.74261 56.42242 171.69165 316
434.63437 72.21890 166.61931 424
389.20831 61.38176 171.65588 316
427.83191 76.69995 167.80551 305
411.09302 76.47777 164.79533 316
425.76859 82.85969 167.79337 305
408.78940 81.98326 164.80165 316
404.63803 86.53316 165.32669 424
397.16089 89.18250 166.81422 429
391.72827 92.59406 167.69089 315
389.07025 97.54737 167.64539 313
1479.05798 903.40356 65.36980 496
1485.95190 908.32562 115.40112 470
604.94427 955.46936 81.28496 446
566.80719 945.37048 84.18966 456
565.43665 941.78290 117.86268 460
532.99152 943.72571 85.96845 454
530.89429 937.11224 119.52895 476
499.07584 938.93414 87.75323 458
497.53598 932.94037 120.92319 479
506.40610 963.53430 150.83891 318
466.10730 934.01691 89.70612 459
464.77316 928.99774 122.09936 482
502.18112 1075.76233 143.64914 341
433.75150 928.99811 91.08092 462
432.87338 925.03021 123.18493 485
435.41223 935.58539 153.62379 393
402.40527 924.36743 92.68103 464
401.83240 921.19037 124.10864 487
450.73669 1178.30200 137.88535 487
371.65912 919.60083 93.96230 466
371.25696 917.18604 125.15055 490
411.70541 1173.40051 138.64778 489
343.51379 930.60388 61.74870 468
341.57047 915.17792 95.05332 448
341.16068 913.35303 125.72607 492
313.58008 928.09735 62.46564 439
312.02097 911.92590 95.81227 450
311.76593 909.70789 126.40034 494
284.03116 926.55133 63.29362 440
282.79547 908.75604 96.54384 451
282.71591 906.08020 127.20644 495
254.47125 923.80042 63.79141 439
253.86839 904.17639 97.43428 449
253.81355 902.38318 127.71474 496
261.64993 1156.90808 140.60463 499
225.48820 920.80823 64.61748 440
225.53093 900.02277 97.96255 450
225.47975 898.61603 127.96179 497
225.37971 905.59766 157.07596 498
196.39342 918.65607 64.82512 423
197.01366 896.30371 98.47592 439
197.08092 895.15234 128.28749 498
196.88370 902.23712 157.40028 499
167.55856 917.07977 64.92213 419
168.87639 893.96014 98.57805 442
169.01164 892.92462 128.39647 499
168.58629 899.64935 157.53848 498
138.28514 917.89648 64.18897 416
140.61981 894.26929 98.36575 440
140.56645 894.13287 127.95122 495
139.99197 901.03802 157.27672 496
108.53196 921.76837 63.08183 419
111.59042 897.11493 97.50418 431
111.53248 897.55609 127.38856 489
102.52602 969.51453 152.62212 256
81.96514 902.06268 96.28127 427
81.78475 902.21240 126.50873 486
51.24126 909.00098 94.73453 420
51.44099 908.29254 125.52856 480
19.31014 917.89417 92.67719 415
19.59295 916.36108 124.01639 461
-14.52218 930.34283 90.10926 404
-13.80768 927.93024 122.19237 449
-50.42950 945.45117 86.78764 395
-49.05756 940.28009 120.13677 446
-88.00021 960.83752 83.56682 399
-85.63937 953.71704 117.90905 421
-125.42007 970.73267 114.87234 410
115.52721 148.19046 167.26515 440
108.74100 147.34241 166.40976 314
101.40301 146.84621 165.28600 419
92.70387 147.43399 163.67444 424
87.65957 143.65111 163.53162 307
75.52009 156.53952 166.26434 305
104.19403 118.21812 171.52486 316
70.50272 151.87491 166.28609 305
100.48984 114.29697 171.53867 316
63.98293 148.54428 165.74219 409
-1795.80981 1893.97949 126.19093 461
-1797.74097 1895.21777 216.88614 461
96.92140 110.34916 171.57970 316
53.03127 148.96068 163.78670 403
93.44485 106.24303 171.59981 316
74.70695 121.78230 171.78674 308
90.11825 102.04678 171.66380 316
70.89582 116.95884 171.79443 308
21.82541 155.01799 166.03079 297
86.92872 97.76923 171.67198 316
67.29279 112.03986 171.84749 308
14.48552 150.37825 165.41246 389
83.88225 93.40826 171.69675 316
63.82627 107.03313 171.87387 308
-0.56812 150.78174 162.98065 382
80.94604 88.97180 171.71695 316
60.49489 101.95103 171.89519 308
33.57523 119.00903 172.12781 300
78.17641 84.44044 171.76091 316
57.35044 96.74355 171.91457 308
29.93738 112.96680 172.11594 300
-46.25217 157.94812 165.10800 286
75.49848 79.81927 171.75154 316
54.35558 91.44476 171.93793 308
39.30338 99.69112 175.11353 319
10.00475 115.80660 176.63625 270
72.99955 75.13260 171.77583 316
60.63089 81.40774 174.37036 385
51.89891 85.89379 178.63208 325
24.49996 99.84002 179.97876 292
70.82534 70.30365 171.87352 381
64.25057 73.38803 175.98529 390
54.32845 78.07414 179.73567 300
22.57044 93.01234 180.20776 314
-26.64530 116.15186 180.43253 284
74.02165 63.13941 173.46698 386
67.63149 65.91608 177.43983 395
43.69969 76.26157 177.98721 373
33.53031 80.69864 182.70126 336
21.33431 85.91087 187.81879 331
2.14745 94.22563 192.96436 283
76.18605 56.84039 174.67433 420
70.99242 58.88744 178.79062 415
47.53561 68.11917 179.33412 389
40.15139 71.07178 184.32806 373
31.49385 74.50148 189.65076 368
19.92567 79.07962 195.15605 332
3.30830 85.65984 201.16649 311
77.51743 51.06083 175.59013 423
72.29047 52.95924 179.60608 308
51.05571 60.60429 180.55060 393
44.15743 63.08504 185.44437 388
36.65594 65.76493 190.71059 373
27.87358 68.95586 196.30322 368
18.21409 72.37957 202.36021 362
78.87044 45.52585 176.41245 427
70.62012 48.21169 179.61002 308
54.14376 53.56076 181.59721 410
47.79345 55.60775 186.44391 393
40.76956 57.92568 191.55579 388
33.22573 60.33756 197.07912 383
24.26882 63.24119 202.93933 367
80.19442 40.20870 177.22635 430
69.08402 43.44011 179.64005 308
56.30849 47.13090 182.40543 421
50.44000 48.86058 187.21291 409
44.11343 50.66410 192.26068 404
37.40022 52.63898 197.69179 399
29.78406 54.84335 203.48154 382
81.45612 35.09276 177.94347 435
63.39432 39.74430 178.60994 429
58.23325 41.06403 183.10475 424
52.76859 42.44889 187.87224 420
46.81072 43.97909 192.87775 408
40.33334 45.66635 198.15182 403
33.40054 47.44576 203.81372 397
25.14124 49.55108 209.92929 269
82.52560 30.19847 178.57738 457
65.11526 34.10257 179.33876 432
60.10169 35.19196 183.77393 428
54.80116 36.36478 188.44464 423
49.20514 37.65374 193.40195 418
43.17649 38.97481 198.61133 406
36.51066 40.46276 204.16632 401
29.15660 42.08984 210.08400 358
-183.70271 89.64266 216.52431 296
82.70550 25.59752 178.87357 459
66.58213 28.67900 179.94862 455
61.90737 29.56161 184.36676 431
56.79414 30.56199 188.97946 426
51.40243 31.58761 193.82312 421
45.64491 32.63797 198.96950 416
39.45095 33.84568 204.41640 405
32.58223 35.17204 210.23439 399
-183.00415 76.23281 216.52345 424
75.74576 20.78019 179.56467 316
65.30907 22.45347 181.91386 456
61.02045 23.13753 186.10063 452
56.52315 23.81123 190.52512 447
51.80304 24.57175 195.17496 442
46.83082 25.32347 200.02228 437
41.59967 26.17656 205.19283 432
36.02501 27.04700 210.67436 426
69.70509 17.22148 178.03220 462
65.65424 17.74097 182.09396 457
61.39642 18.28947 186.29123 453
56.94644 18.83768 190.66414 448
52.25675 19.39620 195.25868 443
47.31409 20.01632 200.14420 438
42.18858 20.68072 205.25908 433
36.68708 21.34150 210.68295 428
70.08759 12.69604 178.20808 463
65.99261 13.07783 182.19994 459
61.76720 13.48151 186.41196 454
57.35761 13.90058 190.76968 450
52.74835 14.32117 195.37857 445
47.92627 14.75646 200.20709 440
42.79962 15.22830 205.29770 435
37.37462 15.75182 210.75060 429
70.44232 8.21296 178.31883 464
66.41582 8.43410 182.32152 460
62.21733 8.71931 186.50642 456
57.87624 8.99121 190.89922 451
53.28495 9.23846 195.45262 446
48.46746 9.54643 200.27531 441
43.40050 9.84902 205.36537 436
38.04052 10.18514 210.75841 430
-182.10971 23.73727 268.60886 486
-186.76212 24.06296 282.68320 496
-186.67143 23.99372 296.16367 494
70.83744 3.71483 178.41911 465
66.87033 3.83308 182.41685 461
62.71607 3.97996 186.59982 456
58.37235 4.09164 190.96696 452
53.85212 4.21848 195.51765 447
49.04881 4.37853 200.33958 442
44.02414 4.50414 205.39690 437
38.71571 4.69221 210.76155 431
-182.15485 11.37995 268.55954 487
