# .PCD v.7 - Point Cloud Data file format
VERSION .7
FIELDS x y z rgb
SIZE 4 4 4 4
TYPE F F F U
COUNT 1 1 1 1
WIDTH 459
HEIGHT 1
VIEWPOINT 6406.113770 -1664.869507 143.555435 -0.729922 -0.084801 -0.098936 0.670995
POINTS 459
DATA ascii
83.01379 -0.64856 179.51828 316
68.71320 -0.69093 180.97064 462
64.40714 -0.66380 185.35847 457
59.88918 -0.70942 189.90286 453
55.15572 -0.69043 194.68425 448
50.20577 -0.69007 199.68338 443
44.98165 -0.69710 204.99084 438
39.44798 -0.69524 210.56255 432
-152.57913 -0.86383 241.02257 419
-181.72824 -0.88226 269.51901 487
-147.02722 -0.86541 277.24252 284
83.34898 -5.00979 179.50502 316
68.31096 -5.46606 180.79373 461
63.92933 -5.61935 185.18796 456
59.39473 -5.78589 189.73911 452
54.62136 -5.90885 194.56979 447
49.62363 -6.10043 199.56812 442
44.35172 -6.28323 204.92952 437
38.76982 -6.42349 210.53348 431
-152.97462 -12.60622 241.03877 416
-181.70634 -13.58938 269.55228 487
-151.66203 -12.61903 278.13406 285
83.79239 -9.31122 179.50488 316
67.92290 -10.35393 180.63158 460
63.53194 -10.60705 185.00174 455
58.91562 -10.92763 189.61737 451
54.07746 -11.20939 194.41687 446
49.06682 -11.55771 199.46370 441
43.70507 -11.86123 204.84839 436
38.05838 -12.26812 210.50482 430
-181.69168 -26.21853 269.70978 486
83.65759 -13.73187 179.32568 463
67.62209 -15.26241 180.38673 459
63.16526 -15.64889 184.80768 454
58.47543 -16.10954 189.41719 449
53.59059 -16.58096 194.25885 445
48.50037 -17.08163 199.35733 440
43.10975 -17.56828 204.72327 435
37.39050 -18.14792 210.45218 429
-181.56152 -39.00749 269.82822 486
83.42854 -18.18481 179.05621 462
67.34428 -20.19954 180.13654 457
62.80852 -20.78377 184.59035 453
58.12767 -21.40841 189.20818 448
53.15569 -22.02264 194.09973 443
47.95115 -22.68505 199.19075 438
42.46804 -23.39448 204.64235 433
36.68505 -24.08927 210.38942 428
83.22419 -22.68319 178.77078 461
67.05961 -25.25116 179.85585 456
62.52078 -25.99512 184.29395 452
57.75454 -26.72330 188.96313 447
52.75381 -27.54326 193.90587 442
47.50295 -28.35379 199.06761 437
41.52783 -29.30038 204.47362 414
34.97549 -30.37569 210.29317 402
83.01545 -27.24975 178.44228 459
66.65202 -30.39121 179.47823 435
61.70786 -31.37088 183.91521 431
56.47382 -32.34922 188.57930 426
50.99686 -33.41560 193.49669 421
45.18418 -34.51573 198.70151 416
38.82718 -35.75581 204.20297 404
31.84215 -37.07507 210.11568 399
-183.07289 -78.14584 216.49194 424
82.73925 -31.95822 178.01498 438
64.95926 -35.94367 178.75101 432
59.87516 -37.10051 183.25137 428
54.49877 -38.29929 188.00279 423
48.83173 -39.56549 193.02290 418
42.60151 -40.93294 198.29854 406
35.81972 -42.50045 203.93196 401
28.36504 -44.14698 209.97298 358
-188.60699 -92.80303 216.41338 296
81.46621 -36.97189 177.30103 435
63.27580 -41.65659 177.99297 429
58.02275 -43.00917 182.59236 424
52.47440 -44.43914 187.38603 419
46.30853 -46.04108 192.46245 408
39.70007 -47.71852 197.83752 402
32.64330 -49.57583 203.59767 397
24.51961 -51.63484 209.75150 263
80.17767 -42.22857 176.56569 432
71.50748 -44.73114 179.61272 308
56.11374 -49.20992 181.85997 421
50.05697 -50.97822 186.67731 409
43.58485 -52.87928 191.86221 404
36.47889 -54.94891 197.29518 387
28.55046 -57.26527 203.20442 371
78.87397 -47.65053 175.72067 427
73.17589 -49.47334 179.59344 308
53.75095 -55.83359 180.97768 397
47.07418 -58.01524 185.84171 393
39.89158 -60.34758 191.06746 388
31.98924 -62.88594 196.62230 372
22.80350 -65.87764 202.61781 367
77.52601 -53.30165 174.82076 423
72.43078 -55.13471 178.97163 419
50.37007 -63.06233 179.80919 393
43.32845 -65.61368 184.81969 388
35.49915 -68.47134 190.09215 372
26.46848 -71.70637 195.83104 367
15.45721 -75.63845 201.95822 332
76.18763 -59.17169 173.87022 420
70.31004 -61.47548 177.90776 386
46.86792 -70.79395 178.52989 388
39.01117 -73.86445 183.61406 373
29.31064 -77.73615 188.90729 336
16.46001 -82.83241 194.47862 316
-1.52651 -89.99512 200.55663 310
73.42400 -65.88016 172.40416 386
66.85172 -68.75203 176.47217 381
55.00895 -73.89725 179.75691 300
30.91108 -84.30988 181.68958 335
17.36628 -90.19463 186.78485 315
73.76762 -71.56451 171.82477 316
63.39963 -76.44217 174.93488 390
57.47835 -79.23691 179.71056 386
16.54468 -98.47323 178.49254 286
-23.00193 -117.10064 180.40381 284
76.25802 -76.25140 171.78819 316
58.57787 -85.31292 172.93427 328
48.25135 -90.59081 177.05116 325
28.08943 -100.85106 179.98936 292
78.91179 -80.92770 171.78468 316
57.80354 -92.51153 171.94707 308
30.57626 -107.50688 172.28665 272
-50.19780 -151.95642 164.55247 373
81.69099 -85.51138 171.75403 316
60.93748 -97.80483 171.93417 308
33.67559 -113.90621 172.17929 300
-41.77621 -158.54576 165.18681 286
84.61145 -89.99691 171.75240 316
64.23598 -102.96149 171.90868 308
37.41619 -119.95361 172.15233 300
87.65904 -94.44400 171.72902 316
67.67398 -108.02280 171.88391 308
4.73770 -150.76378 163.30185 383
90.85056 -98.74598 171.69870 316
71.25370 -112.99063 171.83131 308
19.78064 -150.45030 165.75862 389
94.14590 -103.01727 171.64377 316
75.01727 -117.82549 171.84042 308
26.36583 -155.59627 166.11365 297
97.60164 -107.15916 171.62158 316
51.29148 -145.49718 163.40732 300
101.17427 -111.22760 171.60518 316
58.32736 -148.96596 164.07080 404
104.90363 -115.15651 171.58093 316
69.34106 -148.54373 165.99577 409
108.71616 -119.00346 171.56221 316
75.37074 -152.38652 166.38046 306
92.38470 -144.29399 163.54945 311
80.49459 -157.02504 166.37715 305
98.17508 -147.36275 163.97136 414
-1856.20471 -2364.76831 113.49324 358
107.13039 -146.50761 165.67122 419
-1683.44971 -2310.97534 118.09607 382
113.84149 -147.85715 166.47797 314
-1561.73987 -2307.48706 121.13143 452
111.03249 -151.42947 166.46834 314
-1455.29553 -2315.21045 121.35233 456
-1549.29419 -2445.38330 214.92661 464
119.96866 -148.97569 168.34801 489
-1349.34351 -2319.06372 123.63992 460
127.25650 -148.34972 169.50294 485
-1247.87598 -2322.99585 125.27302 464
-1369.41016 -2515.33594 312.09467 466
-1149.20178 -2326.04639 126.69460 468
-1066.39563 -2351.46729 127.39933 495
-1092.21594 -2588.06323 120.39175 356
2392.55518 -2609.61182 105.06544 446
2493.69800 -2563.40771 104.30769 425
1496.62610 -1346.34668 94.98559 493
1502.25476 -1352.69092 155.31017 487
2761.49927 -2527.88379 99.35073 404
382.99832 -102.43035 167.67072 313
386.25900 -97.56911 167.71700 313
389.42142 -92.66218 167.70102 315
396.52258 -89.94823 166.47923 429
404.32837 -87.24530 165.03508 423
407.89804 -82.15477 164.82809 316
2675.62354 -1148.38879 128.29750 488
410.66904 -76.67584 164.81667 316
425.19025 -82.92004 167.80054 305
389.28140 -61.61412 171.67380 316
427.73782 -76.80798 167.82840 305
391.32233 -56.72145 171.70792 316
435.26926 -72.50439 166.57649 424
393.14908 -51.72474 171.75012 316
443.48517 -68.04210 165.18469 433
394.89267 -46.73565 171.73360 316
446.69781 -61.74084 164.96625 307
3690.01880 -1003.31781 99.00599 400
396.42590 -41.64853 171.77916 316
448.74258 -55.11377 164.95282 307
3612.25024 -866.84821 102.53000 419
397.83426 -36.55878 171.75623 316
421.08682 -41.77195 171.98445 309
472.66229 -53.29847 168.00766 297
3597.96094 -751.00647 103.40267 470
3639.38013 -761.26923 216.07031 496
399.08337 -31.48414 171.77762 317
422.45004 -35.92554 171.98418 309
474.09033 -45.76078 168.08600 448
3597.82129 -641.00580 103.82715 495
3639.26245 -649.06842 216.53825 497
400.17703 -26.31211 171.78137 317
423.69312 -30.02118 171.99452 309
481.19543 -39.15108 166.93164 443
3602.70337 -533.06818 104.79935 496
3649.59497 -540.56622 216.23167 498
3730.08887 -553.57727 331.66476 498
401.11703 -21.14420 171.80852 317
424.71692 -24.10373 172.05118 309
487.24191 -32.04108 165.96956 458
3607.46802 -425.72983 105.13852 497
3737.70557 -442.84402 331.39212 499
394.58109 -15.37551 171.71196 316
418.40714 -17.57889 171.98293 309
449.62085 -20.48230 172.25481 301
3604.65161 -313.72589 106.47966 497
394.85352 -10.15806 171.72650 316
418.72336 -11.61262 171.95801 309
449.99734 -13.55478 172.27913 301
3609.27344 -206.71535 106.22052 497
394.99908 -4.96603 171.74936 317
418.90448 -5.64396 171.95137 309
450.19586 -6.57127 172.28871 301
3726.25732 -104.36851 102.90109 479
3717.83252 -103.61877 217.22348 402
394.93616 0.27249 171.75241 317
418.83658 0.33506 171.96643 309
450.21045 0.39101 172.27936 301
394.75949 5.48549 171.72310 317
418.63007 6.30540 171.95845 309
449.99414 7.30625 172.26755 301
394.38760 10.73977 171.71750 316
418.27844 12.27313 171.96819 309
449.57278 14.27806 172.27055 301
393.91333 15.94328 171.73289 316
417.72296 18.20478 171.94740 309
448.90149 21.18535 172.27974 301
393.23917 21.13798 171.72491 316
416.93832 24.15989 171.94588 309
483.47076 32.62852 165.18086 301
392.37610 26.28439 171.72609 316
416.03564 30.06461 171.93916 309
479.35089 40.22938 165.68951 443
391.40237 31.45032 171.70844 316
414.94095 35.97268 171.91388 309
472.11371 46.97009 166.85118 448
390.26678 36.59553 171.68121 316
413.62149 41.86611 171.88437 309
465.20340 53.47250 167.96306 452
388.95609 41.69086 171.68338 316
412.18610 47.67000 171.90039 309
463.40030 60.93931 167.92233 297
387.52798 46.73410 171.65445 316
439.35245 61.85925 164.87389 307
385.92294 51.74900 171.61472 316
437.23874 68.52021 164.87257 308
384.15482 56.73983 171.59650 316
431.39728 73.79015 165.73062 424
382.26926 61.68142 171.60109 316
423.07864 77.88998 167.20187 430
403.66290 76.70632 164.73508 316
418.05371 83.01134 167.76280 305
401.03223 82.24985 164.69980 316
415.45801 89.05711 167.70090 305
398.21213 87.62939 164.75061 317
1592.76208 698.18060 115.93938 387
391.75031 91.05278 165.80316 429
1533.64392 720.83240 69.57246 389
1513.90100 709.80731 120.00928 404
384.32083 93.60683 167.17810 434
1460.83630 731.97498 74.94863 399
1443.12805 721.56787 123.88408 410
379.68097 97.54946 167.63733 315
1392.37097 741.78503 80.18410 387
1377.77856 732.60223 126.96936 416
57141.89844 36214.07422 2429.04590 0
376.50931 102.34995 167.60777 313
1328.91211 751.08942 84.98618 392
1316.37036 742.80670 130.15337 422
1267.31458 758.27045 89.42616 385
1258.78528 752.08661 132.85785 428
1211.61047 766.27307 93.55044 397
1206.74353 762.45563 135.03014 457
1212.50879 766.77191 175.69528 446
1165.09753 778.81189 96.09688 414
1164.79724 778.46411 136.48982 474
1175.77844 787.54590 176.00325 490
1125.04602 794.53461 98.32310 421
1128.36511 797.29211 137.36639 426
1170.73962 834.90710 175.19203 398
1088.59705 812.09460 99.62149 427
1285.31641 997.28918 121.21994 445
1180.18298 898.03662 173.65059 392
1055.52954 831.59583 100.74209 437
1163.38489 939.99951 129.46016 456
1190.01257 966.41638 171.65240 386
1024.59656 852.97906 101.33432 440
1154.60706 991.23547 127.27209 431
994.12030 873.83215 101.84505 332
1086.58569 978.96008 130.90350 386
964.46417 895.50513 101.96430 498
1016.94824 959.08545 135.08057 368
937.09906 919.69458 101.90561 397
10992.56152 16997.93945 -3105.77148 0
27330.60352 53299.90234 8088.15576 0
124.80737 148.15793 170.17915 453
108.13754 154.04077 166.38112 314
103.56188 150.65604 166.38957 314
99.13331 147.17543 166.40694 314
91.46070 147.50900 164.99940 429
83.39040 147.82121 163.46109 424
79.07883 143.52794 163.47891 307
66.94998 156.43835 166.22128 305
96.21758 117.93588 171.56526 316
62.31683 151.73238 166.23624 306
92.91142 114.05491 171.60742 316
55.74501 148.86241 165.57536 409
89.66176 110.09378 171.63913 316
45.08101 149.31616 163.59175 403
86.59496 106.05420 171.68710 316
67.89502 121.48907 171.82401 308
83.61648 101.89412 171.71884 316
64.49062 116.70992 171.83971 308
15.00569 154.96965 165.96738 295
80.77731 97.65054 171.72168 316
61.20975 111.80353 171.90501 308
7.74296 150.58920 165.26903 388
78.09502 93.26731 171.75264 316
58.06153 106.82459 171.90932 308
-6.94406 150.89995 162.80794 382
75.55360 88.84718 171.77534 316
55.11546 101.74872 171.94600 308
28.31142 118.77363 172.13431 300
73.11351 84.32661 171.77116 316
52.32595 96.58448 171.94412 308
24.98145 112.73221 172.16899 300
-51.36161 157.76610 165.04736 288
70.83086 79.77082 171.79912 316
53.75150 89.10403 173.05711 322
42.85278 95.11766 176.96007 319
23.28381 105.83083 179.97379 292
68.65347 75.09138 171.82878 316
61.05223 78.94290 175.62567 385
52.63570 83.22262 179.76605 300
-6.68144 113.34235 174.99336 293
70.74965 68.45780 173.05626 381
64.50407 71.37116 177.07024 390
50.40448 78.00482 179.79109 300
24.78152 90.00652 181.36177 330
2.77443 100.37980 185.22382 282
73.90570 61.64355 174.52231 386
67.75929 64.31642 178.41747 395
43.96413 74.57884 178.85110 373
34.84578 78.49406 183.59317 336
23.01233 83.57574 188.57684 331
6.88869 90.54742 193.89128 311
75.72676 55.74486 175.52580 420
70.63973 57.72796 179.56439 415
47.63026 66.84997 180.05728 389
40.44954 69.67769 184.96338 373
31.97679 73.02692 190.17856 368
21.44780 77.18345 195.68687 332
5.91564 83.28120 201.56081 311
77.08150 50.20942 176.33086 424
69.37950 52.98571 179.61382 308
51.02413 59.56420 181.16423 393
44.24343 61.99392 185.99268 389
36.94299 64.64378 191.13029 384
28.35121 67.70297 196.62062 368
18.91789 71.07610 202.61078 362
78.43502 44.89806 177.04877 427
68.03914 48.27048 179.64253 308
53.93562 52.87414 182.10693 410
47.80770 54.83545 186.87009 393
40.92363 57.07759 191.89742 388
33.50627 59.48745 197.31825 383
24.80311 62.29606 203.11739 367
79.78467 39.80446 177.74648 431
61.37845 45.12893 178.29430 425
56.12418 46.62467 182.82454 421
50.34407 48.29430 187.55020 409
44.11073 50.12577 192.58617 404
37.43318 52.06605 197.92892 399
30.03822 54.21625 203.60341 382
81.11687 34.80402 178.40543 435
63.14135 39.42820 178.98471 429
58.02066 40.72094 183.43581 424
52.61059 42.10493 188.16231 420
46.73825 43.61390 193.08974 408
40.34464 45.25185 198.34435 403
33.49173 47.02164 203.93852 398
25.16072 49.10219 209.94095 269
82.21175 30.04784 178.89275 458
64.89088 33.92046 179.63400 432
59.90120 35.00102 184.01654 428
54.68281 36.18866 188.69360 423
49.11435 37.39441 193.54651 418
43.14375 38.74443 198.74548 406
36.51822 40.19491 204.25739 401
29.26655 41.84521 210.12402 358
-182.81000 88.99439 216.45375 438
82.47473 25.54798 179.13370 459
66.34853 28.61539 180.15428 455
61.74635 29.50394 184.57066 431
56.65553 30.44130 189.13060 426
51.28644 31.49488 193.96938 422
45.58488 32.57885 199.04810 417
39.47903 33.73601 204.51598 405
32.66179 35.01805 210.25858 399
-183.09216 75.90005 216.51483 424
82.73938 21.11970 179.36447 461
66.67388 23.64646 180.38960 456
62.20181 24.34485 184.79495 452
57.50778 25.09743 189.39714 447
52.60707 25.89203 194.20917 442
47.40314 26.66638 199.31548 437
41.90595 27.53904 204.69156 432
35.73425 28.52172 210.39696 403
82.92728 16.72390 179.50806 316
67.03727 18.71249 180.57936 458
62.57184 19.27127 184.94542 453
57.95005 19.85505 189.53346 448
53.02996 20.47247 194.35239 444
47.89901 21.11763 199.42317 438
42.50021 21.79895 204.78674 433
36.77756 22.51982 210.43736 428
82.72297 12.42565 179.53038 316
67.39740 13.87980 180.73233 459
63.00312 14.27180 185.11528 454
58.35362 14.71791 189.66862 450
53.55519 15.16259 194.49478 445
48.46335 15.62326 199.53842 440
43.16952 16.13622 204.83951 435
37.49811 16.64093 210.50853 429
82.62869 8.08334 179.52661 316
67.79886 9.01354 180.87051 460
63.42112 9.28733 185.22975 456
58.87989 9.56226 189.77036 451
54.11745 9.87476 194.56557 446
49.09266 10.17344 199.61302 441
43.78689 10.50618 204.89926 436
38.19552 10.87828 210.53935 430
-181.72568 24.48242 269.51157 486
-186.80562 24.83622 283.85931 360
82.67513 3.77721 179.50626 316
68.27460 4.19743 180.94968 461
63.93422 4.33953 185.33293 457
59.39766 4.48031 189.86113 452
54.67635 4.63842 194.65413 447
49.69785 4.80007 199.64499 442
44.44261 4.95992 204.96457 437
38.85698 5.10416 210.57597 431
-181.80685 11.83237 269.48441 487
