# .PCD v.7 - Point Cloud Data file format
VERSION .7
FIELDS x y z rgb
SIZE 4 4 4 4
TYPE F F F U
COUNT 1 1 1 1
WIDTH 496
HEIGHT 1
VIEWPOINT 6532.638672 -455.877319 147.474747 -0.638835 -0.099460 -0.091013 0.757439
POINTS 496
DATA ascii
83.52979 -0.71483 179.50813 316
68.80468 -0.73557 180.86800 462
64.51035 -0.73297 185.27245 457
59.95058 -0.73096 189.82596 453
55.22839 -0.73749 194.59962 448
50.24907 -0.73823 199.61934 443
44.98567 -0.70050 204.93031 438
39.45727 -0.72194 210.54456 432
-152.70975 -0.72246 241.06787 419
-181.68570 -0.72902 269.60492 487
-146.55327 -0.67908 277.27310 284
83.46886 -5.04467 179.51495 316
68.32504 -5.53457 180.78650 461
63.96781 -5.66261 185.16312 456
59.38876 -5.81876 189.74770 452
54.61945 -5.94233 194.52620 447
49.64219 -6.10701 199.57693 442
44.34289 -6.28612 204.90643 437
38.73552 -6.45147 210.51416 431
-152.93390 -12.47327 241.09108 416
-181.71628 -13.37711 269.64633 487
-150.77776 -12.42105 278.00452 285
83.52523 -9.38814 179.50504 316
67.88578 -10.39120 180.66341 460
63.47675 -10.62660 185.03282 455
58.88620 -10.94179 189.64410 451
54.06141 -11.22487 194.42877 446
49.02778 -11.54692 199.52840 441
43.66607 -11.89369 204.83044 436
38.06393 -12.23247 210.49187 430
-181.71402 -26.08183 269.71600 486
83.50663 -13.73492 179.48003 463
67.48074 -15.23463 180.52260 459
63.01674 -15.67538 184.90839 454
58.37988 -16.12648 189.53458 449
53.52337 -16.54712 194.35435 445
48.41014 -17.07394 199.44234 440
43.05643 -17.53662 204.78835 435
37.34487 -18.11626 210.47780 429
-181.64409 -38.76403 269.77414 486
83.18752 -18.14247 179.29187 462
67.10742 -20.15797 180.35150 457
62.65832 -20.72613 184.76971 453
57.95921 -21.32897 189.39659 448
53.03671 -21.96265 194.24077 443
47.86212 -22.59282 199.30176 438
42.37026 -23.30649 204.72452 433
36.66359 -24.01464 210.44135 428
82.89724 -22.58656 179.06647 461
66.75719 -25.12293 180.12318 456
62.27168 -25.85008 184.58003 452
57.53955 -26.60445 189.19748 447
52.59311 -27.39415 194.05975 442
47.37926 -28.21645 199.19641 437
41.48334 -29.12136 204.63458 414
34.99583 -30.17706 210.33469 402
82.61231 -27.08705 178.86346 459
66.34907 -30.18694 179.88858 435
61.42581 -31.10036 184.28111 431
56.30645 -32.10360 188.86989 426
50.85882 -33.12206 193.74315 421
45.10437 -34.25126 198.90799 416
38.78527 -35.44209 204.35831 404
31.87190 -36.73566 210.23395 364
-182.94821 -77.73144 216.50420 424
76.19962 -30.88535 179.57697 316
63.30790 -33.77108 181.32109 432
58.55896 -34.83089 185.49919 428
53.55800 -35.97107 189.92693 423
48.27093 -37.14140 194.62668 418
42.50122 -38.42504 199.55505 406
36.17633 -39.86380 204.80237 401
28.59916 -41.54718 210.41522 270
-182.68465 -88.76115 216.59506 438
77.47510 -35.11024 179.57132 316
61.71855 -39.13858 180.58818 429
56.82848 -40.41719 184.86989 424
51.64192 -41.72795 189.35559 419
45.98027 -43.22034 194.10039 408
39.80001 -44.77032 199.11763 402
33.21088 -46.46157 204.51376 397
-188.52531 -103.45035 203.03743 483
78.28135 -39.44967 179.41542 430
60.10919 -44.76357 179.78781 425
55.04305 -46.23997 184.15707 421
49.46717 -47.83321 188.67392 409
43.43879 -49.57141 193.49347 404
36.98601 -51.44267 198.64076 399
29.96132 -53.49998 204.15994 382
77.08195 -44.52248 178.62462 427
58.45574 -50.56451 178.98796 422
52.95588 -52.34733 183.35477 410
47.03904 -54.28418 187.93832 405
40.44460 -56.45215 192.84760 388
33.23393 -58.74641 198.05960 383
24.86260 -61.52268 203.67032 367
75.82098 -49.78289 177.75224 423
56.36317 -56.77815 178.00052 398
50.19091 -59.02027 182.35512 393
43.64727 -61.37130 186.99295 388
36.58330 -63.92085 191.98106 383
28.25955 -66.90643 197.30896 367
19.02650 -70.21772 203.06680 362
74.57742 -55.28520 176.86888 420
65.30555 -58.95501 179.68791 308
46.92093 -66.24266 181.17497 388
39.91049 -68.98583 185.92223 373
31.69440 -72.28709 190.97591 368
21.81015 -76.15991 196.35870 331
6.86973 -82.07271 202.05273 311
72.95036 -61.14893 175.79434 386
67.28419 -63.64342 179.62575 395
43.32459 -73.97075 179.85970 373
34.74902 -77.69848 184.54640 336
23.17064 -82.70766 189.35786 331
7.51806 -89.48685 194.50925 310
69.90501 -67.98728 174.21651 381
64.07357 -70.77705 178.18071 390
36.37121 -83.77750 177.75504 335
24.67789 -89.30273 182.20825 330
3.97243 -99.06155 186.13965 281
66.70909 -75.33119 172.49179 376
60.66849 -78.42579 176.63332 384
48.71929 -84.53586 179.83257 300
-10.19647 -114.51861 175.14838 293
67.37116 -81.03632 171.85985 316
53.61676 -88.58757 174.00717 322
42.94924 -94.48033 177.83073 319
19.94933 -107.08469 180.07124 292
70.15410 -85.60411 171.85666 316
49.40915 -97.91670 172.04326 308
22.15741 -114.03519 172.27684 300
-54.49672 -159.32982 165.05164 288
73.11923 -90.14032 171.83777 316
52.73029 -103.03579 171.98405 308
25.98189 -120.03559 172.23141 300
76.21303 -94.55865 171.79457 316
56.24803 -108.11391 171.95486 308
-6.90159 -151.05756 163.31386 382
79.43428 -98.86987 171.79181 316
59.86224 -113.09244 171.97047 308
8.10660 -150.66881 165.77820 389
82.82715 -103.12497 171.73526 316
63.67599 -117.99060 171.91672 308
14.16368 -156.35832 166.00821 295
86.31142 -107.26772 171.70357 316
67.65186 -122.74079 171.86487 308
89.93523 -111.34117 171.70651 316
46.70195 -149.39862 164.07678 404
93.66180 -115.26530 171.66797 316
57.75798 -148.97879 165.99225 409
97.52170 -119.13772 171.62886 316
63.72423 -152.92465 166.30658 306
80.91802 -144.79681 163.52887 307
68.88206 -157.57774 166.33348 305
86.74580 -147.91750 163.93712 424
-1221.61572 -1631.77307 144.98097 397
-2444.03467 -3019.20166 216.06659 367
95.26363 -147.59644 165.43922 430
-2189.21143 -2909.81689 216.34299 435
102.62914 -148.26447 166.46933 314
-1980.82727 -2834.88940 216.04039 445
107.62748 -151.76176 166.46242 314
-28909.04492 -40094.69922 215.28728 0
124.16692 -148.48448 169.58325 441
-6333.93652 -22563.92383 -2099.13013 0
606.68494 -1057.45398 105.74906 437
1748.84448 -2092.50684 131.38231 468
1806.58411 -2033.84119 132.25987 482
1866.42664 -1979.92017 132.33066 493
1934.09912 -1934.43005 132.15588 494
2004.56458 -1900.18530 129.99631 474
2093.18579 -1873.02332 128.28423 471
2184.57739 -1844.15662 127.46651 467
2277.51904 -1812.97803 125.98290 463
369.48248 -107.70448 167.62593 313
47223.42578 -34145.94922 -5526.69775 0
372.95450 -103.01044 167.64047 315
376.32990 -98.17720 167.66881 315
382.28165 -94.90967 166.83585 434
389.82172 -92.27296 165.48036 429
5791.57715 -3061.82544 214.52464 0
395.34320 -88.20656 164.75499 317
398.35168 -82.86307 164.76213 317
412.61923 -89.50762 167.74800 305
17415.25391 -8090.80664 2082.55664 0
377.75293 -67.18410 171.58141 316
415.45389 -83.51142 167.80486 305
379.96902 -62.29219 171.62289 316
422.07758 -78.98940 166.82533 429
1662.12170 -569.93854 63.57402 492
1666.92993 -571.74768 114.58801 460
382.05341 -57.38362 171.62440 316
430.59128 -74.84724 165.36902 424
383.98157 -52.35741 171.64174 316
435.13025 -68.98776 164.89055 308
385.76749 -47.36402 171.64374 317
437.42987 -62.36758 164.91753 308
387.37949 -42.24673 171.65594 317
410.55725 -48.18744 171.91348 309
461.52878 -61.29258 167.91728 297
388.87082 -37.15405 171.70134 317
412.18549 -42.38359 171.89545 309
465.04745 -54.22244 167.65833 452
390.19351 -32.02564 171.70119 317
413.62753 -36.48529 171.94481 309
472.11743 -47.64196 166.63315 448
391.31088 -26.83004 171.72966 317
414.89987 -30.58327 171.91731 309
479.43164 -40.81747 165.48520 443
392.30032 -21.63448 171.71999 317
416.02264 -24.63568 171.95305 309
482.44641 -32.99142 165.17093 301
393.17517 -16.41098 171.70195 317
416.95752 -18.67853 171.95023 309
448.06775 -21.65136 172.26390 301
2603.12061 -225.11636 138.02078 438
393.84515 -11.21556 171.73755 317
417.70169 -12.69123 171.96950 309
448.90439 -14.68859 172.25214 301
2627.80249 -152.06076 58.44059 386
2567.76782 -147.71927 139.60275 392
394.39764 -5.98632 171.73972 317
418.24698 -6.71864 171.98294 309
449.48282 -7.68867 172.28249 301
2535.43677 -73.28739 65.00928 351
2545.87183 -73.31249 140.10854 356
394.72501 -0.73052 171.74477 317
418.61743 -0.72523 171.97002 309
449.90884 -0.69316 172.26485 301
2491.50977 -0.66645 67.62651 420
2531.88770 -0.77628 140.77428 468
2526.82007 -0.73753 216.27100 488
394.94910 4.52734 171.72240 317
418.82339 5.27970 171.98021 309
450.10117 6.24819 172.27689 301
2463.76147 69.85493 69.50415 464
2508.99805 70.92091 141.37695 494
2509.48340 71.25362 216.24515 494
395.00800 9.77777 171.72920 317
418.80508 11.27322 171.93886 309
450.04498 13.20004 172.26297 301
2442.68115 138.57605 70.76089 492
2485.53760 141.41846 142.00728 495
2486.27856 141.40298 216.44084 495
394.85760 14.97396 171.71332 317
418.66782 17.20673 171.94443 309
449.82605 20.15471 172.23503 301
2425.55005 206.94432 71.59306 494
2473.39600 211.40692 142.58101 496
2474.48755 211.80656 216.13376 497
394.58954 20.18660 171.71941 317
418.30414 23.18569 171.94638 309
484.74542 31.59907 165.15935 301
2408.38965 274.70013 72.20976 495
2455.82227 280.38168 142.68610 498
2456.55273 280.72000 216.24031 498
2537.75366 290.94382 292.84409 497
394.20004 25.38906 171.74486 317
417.76999 29.10359 171.94193 309
480.55511 39.06567 165.83812 443
2391.08398 341.44351 72.83724 496
2520.45044 361.92599 292.58328 498
393.58966 30.53722 171.73781 316
417.07037 35.03858 171.96165 309
473.38583 45.75325 167.05576 448
2374.19067 408.12311 73.27399 496
392.83600 35.68441 171.69287 316
416.22055 40.90789 171.92441 309
467.62570 52.40310 167.97240 297
2357.57080 474.70175 73.33149 496
391.95035 40.79377 171.68135 316
415.11810 46.76525 171.93729 309
466.45230 59.94892 167.89133 297
2340.64136 541.28021 73.56007 496
2638.26270 617.50104 135.06981 480
390.87424 45.89280 171.70200 316
442.76395 60.94156 164.90396 307
2323.52100 607.42261 73.73055 496
2378.26978 623.28979 143.54779 499
389.69553 50.94524 171.64928 316
441.03394 67.62878 164.88617 307
2413.48438 708.25732 65.72282 476
2392.67456 702.00464 142.01762 491
388.34152 55.92432 171.64574 316
434.22833 72.43573 166.12129 424
2350.74780 762.54413 216.25923 348
386.81445 60.82980 171.63454 316
426.10181 76.40836 167.59637 430
408.64963 75.92990 164.75545 316
423.20270 82.21496 167.78531 305
406.42944 81.41980 164.77710 316
403.95273 86.83135 164.81760 424
396.40039 89.44043 166.31084 429
389.41306 91.91702 167.69890 315
386.76740 96.85143 167.64618 313
384.07336 101.75024 167.59814 313
1075.24048 951.92584 91.55983 413
194.32463 1098.00793 72.22795 277
168.09448 963.61133 89.66035 481
138.16762 956.42377 90.44466 477
138.49394 952.79840 122.61990 498
108.27615 950.75952 90.61887 477
108.67274 946.94672 122.74214 499
104.19585 982.21271 151.94469 263
78.43198 944.69147 90.84213 477
79.08289 940.98242 123.03632 499
48.88513 938.83423 90.89688 477
49.66769 935.11261 122.89894 499
19.20643 932.72955 90.89364 477
20.18034 929.46539 122.96238 499
17.68571 940.50397 153.78439 309
-10.23781 926.78369 90.83385 477
-9.55728 923.42554 122.84280 499
-12.19447 934.51453 153.46530 309
-40.12671 921.05798 90.59592 454
-39.23509 917.68121 122.60970 499
-70.54121 916.52979 89.93223 453
-68.93567 911.76080 122.47707 498
-101.23182 911.88812 89.26304 452
-99.05818 905.76740 121.83747 497
-158.56364 1071.81702 142.31073 288
-132.14345 906.98444 88.29163 450
-129.16853 899.70587 121.31393 495
-142.64978 933.82800 151.01231 272
-163.13110 901.06744 87.44989 449
-159.77435 893.57776 120.86189 494
-162.75620 900.41785 152.49095 493
-195.34152 896.71307 86.17197 433
-191.08038 887.47028 120.02218 492
-194.49088 894.61682 152.07851 491
-302.79489 1125.37402 176.07660 498
-228.40259 892.51727 84.94796 430
-222.73347 881.73792 119.15401 487
-226.39052 888.86206 151.34441 489
-263.72427 891.11145 82.73756 414
-257.07751 879.48846 117.85497 470
-261.69580 887.52838 150.31219 469
-303.12042 895.11652 79.87619 397
-294.39182 880.20581 115.93284 457
-406.70129 1070.10120 135.49312 261
-347.29626 903.18860 76.01543 379
-334.64816 883.65424 113.68951 440
-438.16006 1046.30945 135.71387 261
124.62988 148.83858 168.08521 489
-28.50589 41.94462 -6.65916 365
-376.02692 885.62024 111.29956 387
118.07317 147.92950 167.25122 440
-426.55823 897.40704 107.47473 404
111.30061 147.10243 166.38603 314
-487.57474 919.26239 102.01618 357
103.99171 146.58119 165.30040 419
95.14321 147.36592 163.62756 424
90.18935 143.43677 163.53096 307
78.08052 156.34570 166.29979 305
106.60757 118.05703 171.50748 316
73.00722 151.66876 166.30867 305
102.85673 114.19025 171.53889 316
66.35547 148.46619 165.72372 409
99.26533 110.19211 171.57744 316
55.40027 148.90063 163.74417 403
95.81196 106.11866 171.60545 316
76.98274 121.65616 171.74318 308
92.41592 101.93311 171.63161 316
73.19214 116.88188 171.80722 308
24.27133 154.85182 166.01599 297
89.22508 97.68408 171.67574 316
69.55389 111.96758 171.83565 308
16.70082 150.32068 165.42615 389
86.15269 93.30333 171.67894 316
66.03767 106.93745 171.85809 308
1.67707 150.68054 162.92792 382
83.18996 88.85999 171.69170 316
62.70115 101.84760 171.87628 308
35.74781 118.96150 172.07649 300
80.35470 84.35071 171.71156 316
59.54737 96.66352 171.90837 308
32.11516 112.87090 172.11176 300
-43.81532 157.83688 165.10834 286
77.71642 79.72939 171.74500 316
56.52047 91.41836 171.93413 308
37.91692 101.58385 174.27495 319
-53.42003 151.82379 164.21582 373
75.16630 75.04570 171.75578 316
60.48769 82.51601 173.74156 385
50.78968 87.48943 177.87155 325
26.64215 99.79707 179.95511 292
72.80247 70.31214 171.81377 316
64.12585 74.40374 175.37604 390
56.45931 78.00648 179.73810 300
21.43223 94.45365 179.59572 314
-24.53844 116.14732 180.41083 284
74.13445 63.96544 172.88187 386
67.62186 66.77501 176.85042 381
53.98253 72.68478 179.74084 300
32.89331 81.80764 182.18271 336
20.27578 87.28811 187.32899 315
-1.09512 96.51827 192.39163 283
-2625.79663 1232.46045 114.98518 298
76.47501 57.49720 174.12154 420
71.05104 59.61709 178.27184 386
47.55889 68.94119 178.86757 389
39.99220 71.92589 183.92122 373
31.20548 75.37833 189.30498 368
19.04636 80.19338 194.84471 332
1.90176 86.99097 200.89931 311
77.84435 51.64587 175.04686 423
72.75125 53.48336 179.17085 419
51.10638 61.29155 180.07947 393
44.08266 63.78946 185.07138 388
36.49024 66.56548 190.38995 373
27.58045 69.74647 196.04410 367
17.72166 73.27788 202.19832 332
79.16804 46.06036 175.94565 427
72.64342 48.20384 179.60280 308
54.28996 54.15668 181.20248 410
47.78821 56.25789 186.04794 393
40.70362 58.54908 191.24776 388
33.05112 61.07443 196.79958 372
23.94852 64.02185 202.80518 367
80.52138 40.67029 176.71880 432
71.06645 43.42577 179.62178 308
56.52465 47.64913 182.02588 421
50.57197 49.39277 186.83589 409
44.18145 51.25552 191.97682 404
37.35781 53.21542 197.46442 399
29.55950 55.49100 203.28926 382
81.81381 35.48227 177.47687 435
63.66856 40.12804 178.16505 429
58.42027 41.48353 182.73779 424
52.91438 42.88868 187.54065 420
46.87670 44.43662 192.58833 408
40.33697 46.12489 197.96509 403
33.29667 47.92617 203.69524 397
25.37900 49.98893 209.84373 355
82.95312 30.51500 178.13507 457
65.38403 34.44856 178.89725 432
60.33092 35.56610 183.40781 428
54.97152 36.78582 188.10445 423
49.33715 38.04645 193.13179 418
43.15954 39.42709 198.36346 406
36.43124 40.89626 203.99838 401
29.09861 42.57099 210.01315 361
-184.89963 90.41077 216.49120 296
83.10677 25.87929 178.45087 459
66.90819 28.96562 179.54776 455
62.12387 29.89321 183.99831 431
56.94474 30.84870 188.65256 426
51.51881 31.91841 193.57619 421
45.70486 33.03012 198.77534 416
39.41880 34.21047 204.28088 404
32.48110 35.51194 210.16185 399
-182.98138 76.60758 216.56837 424
83.32920 21.31649 178.75386 461
67.18768 23.85490 179.86539 456
62.61497 24.59870 184.33052 452
57.87943 25.33806 189.00490 447
52.88458 26.10445 193.91565 442
47.61797 26.93784 199.08240 437
42.04046 27.82671 204.54338 414
35.62143 28.84503 210.29578 402
83.57490 16.80995 179.04744 462
67.49434 18.84129 180.12105 457
62.98063 19.40209 184.56210 453
58.27636 20.00563 189.22623 448
53.30229 20.63487 194.10004 443
48.10221 21.26346 199.19238 438
42.61488 21.94535 204.66220 433
36.87434 22.67248 210.38959 428
83.84054 12.32440 179.29068 463
67.79806 13.86682 180.33234 459
63.31581 14.26622 184.75575 454
58.64657 14.70344 189.38264 450
53.74924 15.18927 194.24631 445
48.66452 15.68244 199.34854 440
43.24585 16.19018 204.70740 435
37.55741 16.71259 210.44600 429
84.11964 7.94554 179.50230 464
68.11610 8.93931 180.54813 460
63.68493 9.23001 184.93764 455
59.12143 9.50090 189.55168 451
54.28542 9.82324 194.38139 446
49.23165 10.12888 199.45070 441
43.87975 10.47848 204.80670 436
38.24540 10.80427 210.45641 430
-181.58696 24.68331 269.80649 486
-187.03241 24.94542 284.19757 360
83.87574 3.60178 179.51001 316
68.52734 4.07553 180.73152 461
64.17198 4.23685 185.12553 457
59.61138 4.34524 189.69215 452
54.83568 4.53290 194.49101 447
49.82198 4.65817 199.54121 442
44.54002 4.82794 204.86708 437
38.90085 5.01018 210.50758 431
-181.69751 11.91318 269.62738 487
