# .PCD v.7 - Point Cloud Data file format
VERSION .7
FIELDS x y z rgb
SIZE 4 4 4 4
TYPE F F F U
COUNT 1 1 1 1
WIDTH 501
HEIGHT 1
VIEWPOINT 6473.750977 -800.275574 145.678116 -0.650071 -0.096339 -0.089757 0.748378
POINTS 501
DATA ascii
71.22001 -0.75077 178.44522 466
67.22414 -0.74661 182.47267 462
63.08714 -0.76041 186.66452 457
58.79435 -0.77099 190.98714 453
54.28574 -0.77557 195.56900 448
49.51607 -0.78092 200.35309 443
44.52960 -0.78438 205.41693 437
39.22794 -0.77186 210.77614 432
-152.09549 -1.04945 240.49780 419
-182.21025 -1.10187 268.55396 487
-155.86612 -1.04142 277.43814 284
-111.73494 -0.98806 281.15796 494
70.82708 -5.21477 178.26265 465
66.84441 -5.33902 182.31442 461
62.65585 -5.48234 186.50587 456
58.29517 -5.63639 190.87035 452
53.77337 -5.75683 195.47177 447
48.95566 -5.91693 200.29022 442
43.92799 -6.11245 205.35028 437
38.57264 -6.26535 210.72816 431
-152.53603 -12.49359 240.50952 416
-182.10954 -13.48846 268.66309 487
-156.42398 -12.66684 277.62241 290
70.53184 -9.71327 178.05833 464
66.49144 -10.00442 182.12003 460
62.23497 -10.28456 186.29051 455
57.86314 -10.54233 190.69699 451
53.24920 -10.82298 195.30238 446
48.40729 -11.16444 200.16890 441
43.28162 -11.47037 205.27185 436
37.88330 -11.83280 210.69972 430
-182.16364 -25.97657 268.70160 486
76.75949 -13.68364 179.59453 316
66.19416 -14.67516 181.86647 458
61.90306 -15.09293 186.09842 454
57.41791 -15.52010 190.51527 449
52.73447 -15.99041 195.15976 445
47.84813 -16.43484 200.03909 440
42.71331 -16.92319 205.19968 435
37.24737 -17.47573 210.67445 429
-182.02100 -38.42373 268.95145 486
77.49544 -17.95614 179.58255 316
65.91713 -19.44504 181.61937 457
61.56952 -20.00720 185.90938 453
57.08801 -20.57551 190.35931 448
52.33813 -21.17348 194.99062 443
47.33344 -21.81297 199.90019 438
42.09433 -22.47186 205.11679 433
36.56417 -23.18122 210.63626 428
78.32469 -22.26624 179.54721 316
65.63218 -24.30165 181.34628 456
61.30552 -24.97101 185.64122 451
56.74609 -25.72122 190.09827 447
51.92150 -26.47438 194.83429 442
46.87875 -27.30462 199.75760 437
41.50805 -28.12767 204.99155 414
35.32565 -29.12076 210.55722 402
79.31913 -26.53685 179.57222 316
65.40098 -29.18104 181.04791 454
60.79275 -30.09277 185.32472 431
55.83948 -31.04063 189.79802 426
50.59678 -32.02842 194.50578 421
45.01299 -33.11056 199.45857 416
38.98503 -34.28323 204.75496 404
32.23409 -35.54168 210.41899 364
-182.98196 -76.91116 216.52353 424
80.40154 -30.76514 179.54942 316
63.93390 -34.45033 180.39331 432
59.03807 -35.56775 184.69699 427
53.91193 -36.73966 189.22096 423
48.50106 -37.93092 194.02367 418
42.59005 -39.27653 199.06900 406
36.08561 -40.71081 204.48567 401
28.86165 -42.37047 210.23840 358
-185.03323 -90.37008 216.58360 296
80.23835 -35.34785 179.13422 434
62.30704 -39.94493 179.67336 429
57.27819 -41.24877 184.05341 424
51.97961 -42.64765 188.64265 419
46.13110 -44.14981 193.48213 407
39.80248 -45.75803 198.63000 402
33.04521 -47.53844 204.12700 397
-188.34047 -104.62222 202.84399 483
78.97421 -40.33872 178.42305 430
60.62320 -45.70264 178.89240 425
55.43324 -47.18348 183.31911 421
49.70528 -48.87141 187.98407 409
43.54924 -50.67383 192.89056 404
36.95364 -52.61775 198.17619 399
29.54364 -54.75653 203.78842 382
77.73159 -45.52465 177.61032 427
58.91373 -51.66010 178.02750 421
53.27118 -53.50770 182.49234 410
47.12851 -55.50554 187.22701 393
40.28111 -57.74371 192.18974 388
32.94874 -60.14775 197.56676 383
24.17293 -62.97242 203.25365 366
76.44083 -50.92611 176.74266 423
67.41967 -54.18258 179.66109 308
50.30955 -60.35536 181.47270 393
43.57088 -62.78387 186.23672 388
36.29702 -65.42940 191.34850 372
27.68943 -68.53165 196.79367 367
18.22986 -71.94193 202.69566 362
75.17443 -56.53136 175.84264 420
69.35271 -58.85746 179.66820 308
46.93703 -67.76191 180.25397 388
39.69767 -70.62962 185.12389 372
31.22503 -74.01078 190.29601 367
20.19771 -78.34489 195.71175 331
4.05903 -84.78004 201.50403 310
73.19962 -62.69340 174.65111 386
67.16923 -65.28696 178.53464 395
43.15379 -75.70893 178.89330 373
33.46984 -79.91663 183.54431 335
21.55137 -85.10329 188.52139 330
4.08543 -92.68183 193.69263 283
70.06741 -69.67451 173.02750 381
63.88004 -72.61196 177.10352 390
49.94109 -79.16954 179.80025 300
22.88693 -91.96632 181.13365 314
-6.99909 -106.02087 183.94373 264
68.62997 -76.26069 171.87703 316
60.39129 -80.48724 175.50195 384
52.68683 -84.42738 179.78793 325
-0.73959 -111.66290 176.16876 293
71.25111 -80.93388 171.84363 316
51.49511 -91.78865 172.39540 321
40.35632 -97.96146 176.32341 318
16.61123 -111.06950 178.65749 270
74.03363 -85.50519 171.83400 316
53.28250 -97.77987 171.99286 308
26.05836 -113.96606 172.20107 300
-50.32721 -159.23003 165.11940 288
76.96278 -90.02665 171.77977 316
56.61114 -102.95697 171.99170 308
29.80945 -119.99524 172.19670 300
80.03426 -94.41894 171.77008 316
60.06786 -107.99664 171.94714 308
-2.98867 -150.98666 163.34245 383
83.21652 -98.75622 171.74057 316
63.64493 -113.00652 171.93568 308
11.97116 -150.58682 165.73277 389
86.57338 -103.02396 171.71425 316
67.41286 -117.88589 171.88715 308
18.30803 -156.04858 166.08290 295
90.01992 -107.17458 171.69724 316
71.34169 -122.63450 171.85229 308
93.57421 -111.20418 171.67662 316
50.48975 -149.29750 164.09419 404
97.28046 -115.19534 171.65187 316
61.50519 -148.89316 165.98024 409
101.14206 -119.01267 171.57872 316
67.48493 -152.73000 166.35210 306
84.59822 -144.62965 163.54839 307
72.66986 -157.39604 166.35805 305
90.33473 -147.75792 163.88374 425
98.98468 -147.30704 165.43370 420
106.18231 -148.07674 166.45367 314
-1894.25146 -2730.06201 103.80123 301
-1994.71875 -2859.55688 216.88266 440
111.12256 -151.60907 166.45027 314
-935.28723 -1593.56567 151.87872 463
120.13530 -149.08981 168.33768 489
-1574.31226 -2646.09229 112.08252 378
127.43270 -148.52036 169.51282 486
-1436.59424 -2616.43408 114.63726 428
-1437.80164 -2809.00415 109.41837 414
27531.10352 -49527.88672 5757.76514 0
33859.80469 -56716.28516 13298.18262 0
906.96313 -1076.68262 90.11511 440
910.82129 -1083.06140 131.51518 381
2011.41833 -2157.70361 123.64413 478
2075.51587 -2096.83838 123.20789 454
2143.30884 -2040.31702 123.22387 450
2221.30859 -1994.17505 122.90104 443
2316.89502 -1961.15125 121.58688 431
2420.94116 -1933.17712 118.89375 433
2531.16211 -1905.20813 116.89565 440
2647.72583 -1875.51355 114.69742 440
372.17920 -107.13018 167.62627 313
375.59293 -102.38265 167.68556 315
378.96420 -97.58386 167.68845 315
384.48700 -94.11641 166.93251 434
392.03177 -91.53249 165.58986 429
397.85294 -87.65788 164.78162 317
400.85199 -82.24839 164.77533 317
415.12732 -88.98963 167.76880 305
403.58261 -76.77615 164.75623 317
417.92645 -82.95544 167.83131 305
382.37741 -61.77462 171.64107 316
423.75876 -78.13374 167.01062 429
384.41141 -56.85944 171.62976 317
432.23920 -74.01972 165.61874 424
2005.62305 -639.15582 91.72945 327
386.34164 -51.88000 171.64363 317
437.46152 -68.46288 164.93748 308
388.07758 -46.86490 171.66574 317
439.79126 -61.83019 164.93451 307
389.69830 -41.82499 171.67381 317
412.83344 -47.73276 171.94157 309
463.86768 -60.77310 167.98570 297
391.10339 -36.72040 171.69623 317
414.44315 -41.87286 171.94388 309
465.93790 -53.36097 167.97345 452
392.38223 -31.56989 171.69414 317
415.82840 -36.04103 171.93015 309
472.92313 -46.84457 166.93298 447
393.55157 -26.42252 171.74710 317
417.11020 -30.15618 171.93095 309
480.18576 -40.11162 165.79709 443
394.49744 -21.24494 171.73410 317
418.17285 -24.21702 171.94786 309
484.50739 -32.55772 165.15239 301
2953.56152 -343.03787 126.07407 467
100.23215 -9.40488 -26.99834 317
419.07916 -18.25712 171.98718 309
450.20044 -21.19009 172.25208 301
2903.30249 -251.49567 127.82677 460
396.00690 -10.80217 171.73273 317
419.80283 -12.31953 171.99350 309
450.98682 -14.23713 172.29578 301
2863.03662 -164.75745 129.41043 460
396.49551 -5.60279 171.76340 317
420.34750 -6.29966 171.98067 309
450.66818 -7.27706 172.44852 495
2836.60352 -81.00423 130.59482 439
2866.40625 -81.74716 216.20819 492
396.84274 -0.34600 171.75626 317
420.70245 -0.35872 171.97626 309
450.62061 -0.31706 172.56088 495
2816.15747 0.87010 131.50307 420
2848.73975 0.86695 216.25635 494
397.03821 4.89044 171.76604 317
420.84998 5.63705 171.96809 309
450.67142 6.60428 172.57304 495
2798.57959 81.92615 131.58113 423
2825.13086 82.41032 216.33337 498
397.07111 10.12205 171.76250 317
420.86047 11.60050 171.97649 309
452.08926 13.59364 172.29770 301
2783.08960 161.25928 132.23863 424
2814.25757 163.45139 215.98108 497
396.93890 15.34605 171.75343 317
420.67404 17.58670 171.95372 309
451.83182 20.52403 172.29698 301
2768.40137 240.74461 132.68338 362
3030.10547 265.58957 216.18315 498
2875.24683 251.04073 303.09427 498
396.62119 20.52307 171.74863 317
420.31799 23.54516 171.97795 309
486.67474 31.94233 165.19328 301
3029.80469 354.65021 123.80157 498
2899.70166 338.29651 303.82065 342
396.17673 25.70955 171.75606 317
419.79834 29.45391 171.96655 309
480.53638 39.13016 166.22527 443
395.56339 30.86507 171.73766 317
419.08099 35.36006 171.95824 309
473.43536 45.74931 167.47502 448
2725.29663 476.13376 133.05829 321
394.80176 36.01270 171.70341 317
418.14236 41.23005 171.93562 309
469.63211 52.77089 167.97212 297
2716.23682 555.76770 132.50714 266
393.87848 41.13019 171.70937 316
446.20929 54.58871 164.89790 307
468.48941 60.33237 167.90791 297
2753.84961 647.89777 130.67116 491
392.81302 46.19658 171.72375 316
444.69360 61.31546 164.92439 307
391.59644 51.21611 171.68878 316
442.76523 67.90396 164.93736 433
390.18915 56.22359 171.65817 316
434.65475 72.20894 166.45093 424
388.68805 61.15002 171.68210 316
427.17834 76.41687 167.82434 305
410.55518 76.23605 164.77644 316
425.12155 82.57073 167.79330 305
408.27505 81.72068 164.78232 316
404.67767 86.53797 165.12242 424
397.15887 89.14422 166.67206 429
391.20056 92.28230 167.69157 315
388.61591 97.20179 167.66669 313
1471.92700 898.45575 65.96282 363
571.01428 955.90735 82.97980 449
534.11646 946.07202 85.89297 458
532.83832 942.81567 119.24125 463
500.72974 944.39722 87.24184 456
499.00552 938.24329 120.60903 478
467.47849 939.31183 89.08883 459
466.33768 933.85333 121.83021 481
475.87766 971.67120 151.11960 316
435.07477 934.27618 90.72884 460
434.07065 929.57678 123.01160 484
469.71667 1089.67261 143.62578 335
403.39380 929.17865 92.19475 463
402.69586 925.45197 124.01283 487
446.20212 1155.00146 139.75439 330
372.60425 924.44421 93.61317 465
372.07950 921.38367 124.97964 489
412.24133 1177.76758 138.54730 489
342.22498 919.56757 94.71286 467
342.05542 917.36395 125.61172 491
374.03745 1172.52771 139.24615 491
313.89459 930.64368 62.30841 469
312.49469 915.09607 95.70364 469
312.16183 913.47577 126.37923 493
336.12344 1167.50476 139.99117 493
284.05911 927.71960 63.37880 438
283.10184 911.35785 96.47707 449
282.99271 909.54553 126.89092 495
254.73251 925.97327 63.68859 439
254.13780 907.91284 97.16788 450
254.13689 905.71722 127.54942 496
225.51195 923.39099 64.16728 439
225.60753 903.45184 97.68545 449
225.56853 901.81244 128.00499 497
225.35852 1155.18945 141.25235 495
196.61821 920.06183 64.86612 439
197.21335 899.18622 98.42951 450
197.25870 898.01898 128.19098 498
196.90041 904.56976 157.56195 498
167.48859 917.64783 64.93792 421
168.97791 895.07556 98.74742 438
168.97934 894.05902 128.50874 499
168.74553 901.09570 157.49886 499
138.44978 916.01880 64.67639 417
140.80832 892.55743 98.57458 440
140.86757 891.50397 128.48940 498
140.31090 897.70135 157.57481 499
109.09181 916.74884 64.20316 413
112.17313 892.82080 98.22771 438
112.37302 892.54858 128.03859 494
111.41051 899.22949 157.40167 495
81.37023 1136.95081 179.35556 290
79.20741 920.72583 62.80603 417
83.11236 895.22455 97.38362 428
83.00526 895.54333 127.48207 488
69.48303 980.87317 151.66563 256
53.00395 900.09973 96.14566 424
53.19343 900.19702 126.57150 485
21.95494 907.27106 94.37522 417
22.07425 905.91479 125.16602 478
-10.68680 916.15344 92.09341 411
-10.22034 914.00623 123.67432 458
-45.48307 929.11133 89.37224 400
-44.55996 925.46942 121.76363 446
-82.80064 944.67938 85.93636 391
-80.56207 937.87335 119.62296 442
-121.80064 960.23340 82.24287 406
-118.50732 951.39075 117.07734 418
-159.51080 968.46533 114.07054 409
120.84811 151.01051 167.41263 316
115.69553 148.15787 167.22749 440
109.00791 147.18233 166.41669 314
101.53622 146.81622 165.26778 419
92.82211 147.43793 163.64034 424
87.88734 143.51195 163.53799 307
75.74572 156.41559 166.30008 305
104.45026 118.09447 171.49959 316
70.73096 151.70552 166.28705 305
100.71737 114.18909 171.56343 316
64.12791 148.54694 165.69305 409
97.13657 110.21523 171.60368 316
53.12315 149.00037 163.73027 403
93.66480 106.12325 171.60814 316
74.90508 121.67918 171.76958 308
90.34344 101.97781 171.64621 316
71.10014 116.88256 171.82571 308
22.10151 154.87511 166.00264 297
87.14088 97.71722 171.68437 316
67.47291 111.96497 171.82748 308
14.58639 150.38138 165.39314 389
84.08337 93.34441 171.67860 316
64.03688 106.96304 171.83514 308
-0.50119 150.79419 162.91322 382
81.14886 88.88563 171.71332 316
60.69743 101.88379 171.86334 308
33.80196 118.91717 172.10329 300
78.35196 84.36701 171.74522 316
57.55267 96.65905 171.93579 308
30.11557 112.89867 172.12137 300
-46.07719 157.86861 165.07767 286
75.71115 79.76618 171.78532 316
54.54268 91.42210 171.92941 308
39.27958 99.78584 175.06609 319
9.77311 115.96407 176.52470 270
73.20964 75.08981 171.76773 316
60.63704 81.48459 174.28905 385
51.90825 85.92067 178.53867 325
24.73444 99.72949 180.00900 292
70.83768 70.31965 171.82231 316
64.25717 73.45156 175.89835 390
54.50510 78.02950 179.73181 300
22.57172 93.02441 180.17934 314
-26.42602 116.05827 180.40489 343
74.06400 63.19328 173.42961 386
67.62272 65.93047 177.39578 395
43.73626 76.28536 177.94540 373
33.49644 80.70966 182.65410 336
21.35676 85.96388 187.77808 331
2.09087 94.32248 192.97064 283
76.18254 56.86290 174.62053 420
71.03458 58.90791 178.75584 415
47.58057 68.14635 179.28175 389
40.17669 71.10570 184.29219 373
31.46441 74.54453 189.58751 368
19.91741 79.11766 195.14755 332
3.30880 85.71280 201.16194 311
77.56960 51.11157 175.56009 423
72.46637 52.92161 179.60315 308
51.05101 60.59885 180.49495 393
44.17848 63.09276 185.38882 388
36.70807 65.79356 190.68185 373
27.89198 68.95176 196.25833 368
18.24354 72.46568 202.34853 362
78.90308 45.55762 176.37396 427
70.76350 48.20533 179.62791 308
54.15388 53.59065 181.56339 410
47.81669 55.63663 186.40518 393
40.79683 57.91960 191.55423 388
33.22672 60.36061 197.03055 383
24.30236 63.28811 202.94038 367
80.23665 40.23994 177.17303 430
69.25542 43.40507 179.62494 308
56.34868 47.15344 182.37050 421
50.47510 48.86332 187.16986 409
44.13628 50.69588 192.24207 404
37.39614 52.65607 197.68230 399
29.77874 54.89167 203.43410 382
81.50761 35.09351 177.92506 435
63.44805 39.75183 178.56552 429
58.23176 41.07188 183.09335 424
52.78746 42.45846 187.82742 420
46.84722 44.01830 192.81281 408
40.33832 45.69500 198.16486 403
33.37641 47.48343 203.83951 397
25.27662 49.54930 209.91144 269
82.56752 30.21548 178.53444 457
65.15525 34.12048 179.29878 432
60.10414 35.21633 183.72231 428
54.83802 36.41869 188.43694 423
49.23894 37.63511 193.33760 418
43.17648 39.02142 198.56401 406
36.50474 40.50603 204.11951 401
29.15678 42.11161 210.10146 358
-183.79250 89.76249 216.50787 296
82.77543 25.59516 178.85378 459
66.60484 28.71012 179.91307 455
61.93076 29.55892 184.33385 431
56.80663 30.56654 188.95639 426
51.40986 31.60325 193.81107 421
45.66805 32.69091 198.96077 416
39.48307 33.87463 204.41634 405
32.58944 35.14779 210.22350 399
-182.95192 76.29754 216.50822 424
82.98338 21.09871 179.16681 461
66.83331 23.65426 180.20570 456
62.36751 24.35599 184.61362 452
57.65615 25.11053 189.28117 447
52.69569 25.87482 194.13742 442
47.49531 26.71297 199.23909 437
41.99501 27.57584 204.68123 432
35.69228 28.56713 210.41080 402
69.62181 17.10616 178.14879 462
65.55988 17.59806 182.18005 457
61.31202 18.14231 186.34123 453
56.84694 18.71561 190.74937 448
52.20881 19.27763 195.34471 443
47.30949 19.90868 200.18111 439
42.16190 20.53687 205.29970 433
36.68645 21.18532 210.73978 428
69.97066 12.59148 178.31255 463
65.92608 12.97970 182.31458 459
61.71741 13.35671 186.49635 454
57.30091 13.77110 190.83829 450
52.68310 14.17338 195.44193 445
47.87599 14.65583 200.26498 440
42.77190 15.10185 205.33907 435
37.38399 15.63254 210.72313 429
70.33893 8.12266 178.41273 464
66.31353 8.36513 182.41873 460
62.16525 8.60106 186.61078 456
57.79560 8.89007 190.95441 451
53.25807 9.15376 195.51944 446
48.43809 9.42341 200.33093 441
43.40647 9.74061 205.40169 436
38.03724 10.09734 210.75603 430
-182.17719 23.64660 268.57028 486
-186.78514 23.90827 282.53644 496
-186.66071 23.93682 296.00452 494
70.76379 3.64196 178.52859 465
66.79044 3.76472 182.51640 461
62.66547 3.87657 186.70209 456
58.33642 4.02160 191.03227 452
53.81278 4.15296 195.60350 447
49.04261 4.26955 200.39182 442
43.99921 4.41873 205.43567 437
38.69598 4.59237 210.77745 431
-182.16016 11.19817 268.51593 487
