# .PCD v.7 - Point Cloud Data file format
VERSION .7
FIELDS x y z rgb
SIZE 4 4 4 4
TYPE F F F U
COUNT 1 1 1 1
WIDTH 521
HEIGHT 1
VIEWPOINT 6659.124512 319.541992 140.864670 -0.644361 -0.094863 -0.080739 0.754507
POINTS 521
DATA ascii
84.98991 -0.75625 179.47208 466
69.10876 -0.76634 180.57179 462
64.71707 -0.75865 184.99673 457
60.17688 -0.75392 189.61934 453
55.37220 -0.73991 194.44446 448
50.31223 -0.76560 199.57001 443
44.99459 -0.72743 204.90314 438
39.40351 -0.73607 210.59492 432
-181.51089 -0.69174 269.92160 487
-143.26500 -0.68024 277.23996 284
84.59957 -5.11661 179.33823 465
68.60435 -5.63538 180.43927 461
64.18727 -5.74793 184.88911 456
59.60731 -5.92444 189.51312 452
54.76197 -6.04466 194.36249 447
49.73171 -6.20645 199.46542 442
44.34558 -6.40117 204.86958 437
38.70841 -6.56635 210.57620 431
-181.56874 -13.47095 270.02716 487
-149.39920 -12.44228 278.23712 285
84.23679 -9.51129 179.20845 464
68.19043 -10.52954 180.30272 460
63.74284 -10.80983 184.76120 455
59.09099 -11.11396 189.41699 451
54.19249 -11.39952 194.29848 446
49.08831 -11.70743 199.39709 441
43.72098 -12.03602 204.82410 436
37.99144 -12.44398 210.54442 430
-181.50475 -26.21862 270.04413 486
83.90479 -13.96275 179.06592 463
67.83422 -15.46256 180.15889 459
63.33506 -15.89559 184.61719 454
58.62105 -16.34970 189.28334 449
53.64835 -16.79360 194.16197 445
48.48874 -17.28476 199.29311 440
43.06337 -17.80868 204.76692 435
37.28491 -18.36720 210.48125 429
-181.44719 -39.00790 270.11884 486
83.60690 -18.43061 178.86987 462
67.48901 -20.44922 179.96884 457
62.91558 -21.01347 184.43404 453
58.16910 -21.61289 189.10504 448
53.19566 -22.25175 194.01178 443
47.95335 -22.92710 199.20361 438
42.41916 -23.61242 204.68079 433
36.57807 -24.33706 210.43288 428
83.30295 -22.92699 178.61028 461
67.12386 -25.50163 179.75287 456
62.57790 -26.21853 184.23691 452
57.77407 -26.96178 188.91559 447
52.73430 -27.76026 193.86339 442
47.37460 -28.63848 199.06042 419
41.34357 -29.59812 204.54128 414
34.77567 -30.59641 210.38628 402
-54749.07422 -8700.91992 11283.56445 0
83.05843 -27.52100 178.35724 459
66.58244 -30.64219 179.43956 435
61.63120 -31.57349 183.87392 431
56.38224 -32.56686 188.58551 426
50.88224 -33.62106 193.50156 421
45.05364 -34.75513 198.75374 416
38.62223 -35.98986 204.27959 404
31.55691 -37.34588 210.22981 364
-182.86856 -78.22815 216.65668 424
82.66988 -32.17352 178.00282 439
64.86950 -36.13468 178.80035 432
59.74558 -37.29132 183.29936 428
54.36776 -38.50920 188.04391 423
48.70144 -39.75018 193.07997 418
42.37963 -41.16648 198.37442 406
35.58798 -42.71271 204.00163 401
28.08180 -44.35424 210.04488 358
-189.36111 -92.91970 216.56020 296
81.33662 -37.15717 177.38576 435
63.13354 -41.84224 178.06549 429
57.83528 -43.20229 182.64636 424
52.32806 -44.61859 187.49150 420
46.11265 -46.18721 192.56052 408
39.49878 -47.91522 197.96004 402
32.46148 -49.69088 203.68169 397
-188.37126 -106.41743 202.68158 484
79.99895 -42.33102 176.68777 430
70.77279 -44.99247 179.61717 308
55.91013 -49.31964 181.99356 414
49.83451 -51.09622 186.83344 409
43.40832 -52.97215 191.95830 404
36.31067 -55.01455 197.43102 387
28.30333 -57.32921 203.30312 371
78.61071 -47.65268 175.92021 427
72.16653 -49.76667 179.60901 308
53.53049 -55.80944 181.16226 397
46.84584 -57.98954 186.01250 393
39.70662 -60.31897 191.25151 388
31.78771 -62.86749 196.81000 372
22.60172 -65.86653 202.81873 367
77.24075 -53.22506 175.10251 423
72.17315 -55.01831 179.24757 419
50.14610 -62.96780 180.07516 393
43.16110 -65.47399 185.02924 388
35.31504 -68.31641 190.32849 372
26.32084 -71.54121 196.01845 367
15.46661 -75.42088 202.12450 332
75.85275 -58.95209 174.23022 420
70.05637 -61.24621 178.30234 386
46.62819 -70.53755 178.89111 388
38.86383 -73.60456 183.93823 373
29.34931 -77.39117 189.18335 336
16.59637 -82.40059 194.77415 316
-1.20124 -89.45135 200.84012 311
73.17180 -65.52277 172.90564 386
66.70067 -68.29647 176.95248 395
52.92498 -74.24949 179.80220 300
31.02886 -83.74921 182.11913 336
17.75712 -89.50249 187.16525 315
-12.53503 -102.56923 191.37759 265
71.59744 -71.86031 171.83470 316
63.31300 -75.78690 175.51312 390
55.17801 -79.56582 179.74564 300
17.99294 -97.07327 179.24580 286
-25.67533 -117.61005 180.47395 284
73.74004 -76.59357 171.83791 316
59.15192 -84.07025 173.80728 328
49.02356 -89.21980 177.82202 325
25.28260 -101.28609 180.04945 292
76.10903 -81.28979 171.79579 316
54.93070 -92.91624 171.99644 308
35.96948 -103.33635 174.24385 272
-52.44960 -151.96693 164.81448 373
78.55982 -85.85766 171.77856 316
57.73312 -98.21582 171.94881 308
30.37893 -114.37518 172.18892 300
-45.68962 -159.30867 165.19540 286
81.16796 -90.41428 171.78038 316
60.76175 -103.34881 171.92987 308
33.84722 -120.40320 172.18126 300
83.91438 -94.82556 171.74860 316
63.86908 -108.43291 171.92981 308
1.49951 -150.88747 163.45169 382
86.81762 -99.19270 171.70270 316
67.21289 -113.43369 171.90245 308
16.14953 -150.52655 165.90257 389
89.82011 -103.44264 171.69572 316
70.64720 -118.34641 171.84464 308
21.67862 -156.29482 166.10269 297
92.97570 -107.60354 171.68280 316
46.34552 -146.20976 163.39145 300
96.27753 -111.65524 171.63014 316
53.72754 -149.14049 164.23367 404
-2879.96216 -2735.44531 81.41106 363
99.67288 -115.60666 171.60942 316
64.36300 -148.77606 166.17175 409
-2624.56519 -2673.47266 88.83933 357
103.20836 -119.48155 171.58473 316
69.55550 -153.12666 166.33043 306
-2506.28247 -2728.67505 90.38464 461
86.38737 -145.04440 163.52347 307
-2471.38208 -2868.88770 87.61413 456
92.22265 -147.73132 164.09544 424
100.60518 -147.17221 165.64900 419
107.04969 -148.52647 166.44157 314
111.66361 -152.00008 166.45972 314
120.45551 -149.37640 168.40047 489
127.58848 -148.65282 169.60555 486
-24387.13477 -52293.11719 -5474.97266 0
-197.47508 -1057.68420 104.61560 479
-199.74893 -1063.33179 141.64012 474
907.49878 -2124.79834 142.84804 410
960.67529 -2064.55835 144.38191 455
1013.74731 -2012.27673 145.47646 479
1069.41150 -1969.27771 145.85381 495
1127.60815 -1933.98340 146.37616 499
1190.99548 -1910.48108 146.26767 495
1257.53552 -1890.97327 145.64368 493
1324.83752 -1871.39673 145.29680 492
1391.38574 -1849.52539 144.68990 490
1460.87683 -1828.16760 144.21910 487
1535.04993 -1812.10339 142.86316 475
881.57892 -583.93658 100.57655 414
885.90161 -587.82043 129.14104 413
906.83051 -568.88123 99.32071 302
368.26822 -108.12083 167.62543 313
371.64273 -103.37505 167.64984 315
374.85995 -98.56210 167.68268 315
380.85739 -95.35722 166.75363 434
388.41617 -92.78295 165.37045 429
393.50308 -88.53594 164.75845 317
396.39252 -83.14185 164.72299 317
410.66858 -89.86568 167.77820 305
375.62112 -67.47957 171.54082 316
413.35275 -83.80101 167.80089 305
377.69989 -62.56513 171.57370 316
420.76218 -79.60666 166.61436 429
379.67947 -57.62565 171.61824 316
429.29065 -75.48728 165.13893 424
381.44086 -52.58590 171.63228 316
432.74811 -69.27454 164.85648 308
383.07462 -47.55866 171.61766 316
434.91006 -62.59072 164.85829 308
457.02914 -69.06194 167.88148 297
384.60327 -42.44794 171.62082 316
407.87939 -48.42197 171.88716 309
458.94580 -61.53428 167.91899 297
385.91391 -37.32830 171.67441 316
409.36328 -42.56722 171.86868 309
464.37360 -54.88963 167.20763 452
270.43600 -9.90572 203.48065 286
410.64407 -36.65673 171.87685 309
471.41766 -48.25994 166.16141 448
1914.16968 -323.78476 160.25290 279
270.75235 -8.38291 203.50626 314
411.77805 -30.72243 171.92798 309
478.08679 -41.24559 165.12125 300
1829.43555 -255.58597 163.22731 441
271.11273 -6.86817 203.50525 314
412.76752 -24.73898 171.88963 309
443.96973 -28.70766 172.24132 301
1873.58984 -209.20827 107.58659 375
1797.01685 -199.95323 164.50050 457
1986.42725 -223.70055 216.55928 354
271.42090 -5.34821 203.50082 314
413.52203 -18.79602 171.89482 309
444.85040 -21.72206 172.20840 301
1780.65320 -148.26788 114.12170 385
1773.16162 -147.39577 165.56274 455
271.68903 -3.81977 203.50877 314
414.12869 -12.77146 171.90163 309
445.47961 -14.76609 172.22751 301
1749.81335 -96.63373 116.36997 440
1755.29260 -97.42265 166.33447 434
271.90308 -2.28534 203.50305 314
414.52994 -6.76808 171.91589 309
445.96085 -7.78784 172.24522 301
1727.20276 -48.07808 118.03133 476
1740.23523 -48.35353 167.08133 418
272.06998 -0.75892 203.50592 314
414.77438 -0.77800 171.95145 309
446.20117 -0.73811 172.26036 301
1709.65002 -0.91288 119.31086 481
1729.21960 -0.83070 167.15541 370
1745.98450 -0.67640 216.66235 493
1744.50098 -0.58206 266.51294 493
1753.13635 -0.61886 316.90137 419
272.18582 0.77231 203.50780 314
414.81259 5.25834 171.94780 309
446.24399 6.20591 172.19998 301
1694.27686 45.23077 119.95538 486
1718.08484 46.21062 167.67557 372
1735.72229 46.55805 216.55864 495
1733.57019 46.66510 265.93817 495
1741.55432 46.89706 316.09988 420
272.25214 2.30424 203.50690 314
414.67926 11.25237 171.92816 309
446.05069 13.25406 172.21400 301
1681.48901 91.11912 120.90469 490
1710.35181 92.89183 168.01875 273
1719.69263 93.16644 216.45500 496
1717.67285 93.09505 265.56598 496
1730.10693 93.96883 315.71432 421
272.27939 3.82501 203.50211 314
414.39819 17.23393 171.90584 309
445.71790 20.19822 172.25256 301
1671.24512 135.83090 121.09836 277
1706.72205 139.43423 167.91623 272
1709.55310 139.75925 216.57281 497
1707.47632 139.25945 265.52945 497
1719.25220 140.34877 315.15076 422
272.25244 5.35316 203.50856 285
413.90494 23.23159 171.91855 309
445.13538 27.16998 172.21791 301
1662.64148 180.76955 121.68069 447
1698.42310 185.68321 167.78658 273
1704.53418 186.05939 216.56702 498
1702.49829 186.08258 265.32828 498
1708.86096 186.66412 314.74319 423
389.50339 25.46824 171.66797 316
413.23444 29.19999 171.92799 309
479.49097 39.73092 165.09270 300
1654.03162 225.71320 121.64238 498
1690.17029 231.32904 168.02852 273
1694.12695 231.97820 216.58119 499
1692.37573 231.76485 265.12100 499
1698.55042 232.82275 314.48492 423
388.76370 30.63554 171.68445 316
412.37906 35.11389 171.91284 309
472.53055 46.58784 166.27289 448
1641.31458 269.74054 122.14665 498
1680.61841 277.09863 167.92056 270
1683.68567 277.58588 216.60654 499
1681.90247 277.17609 265.12686 499
1687.66296 278.41382 314.17911 424
1782.06104 296.41638 372.68851 495
387.91180 35.78046 171.67886 316
411.33054 41.06300 171.89456 309
465.52570 53.18339 167.37820 452
1634.07117 314.25336 121.85594 498
1670.77417 322.42776 167.89772 270
1764.67749 343.60260 319.91449 333
1747.97937 339.99866 370.35123 488
386.86328 40.94890 171.65485 316
410.12064 46.89124 171.89140 309
461.26230 60.05184 167.96375 297
1621.42017 357.74509 122.03722 498
1669.54114 370.28613 167.61450 259
1780.91724 398.93152 375.00174 335
385.65195 46.02556 171.64503 316
437.49524 61.10410 164.87302 308
1613.99536 403.09167 121.58855 498
384.28101 51.04753 171.59891 316
435.64059 67.78437 164.86864 308
1601.47839 446.47556 121.51939 497
1882.60925 538.16272 159.34471 498
382.78381 56.06606 171.58879 316
431.65009 73.68594 165.32002 424
1590.42371 490.76080 121.25679 492
1626.60718 503.80402 167.83969 496
376.91501 61.05647 171.52316 316
421.41415 78.71490 166.24464 429
1576.16443 535.53101 121.50726 491
1607.26550 547.81818 168.26518 272
1860.82227 648.34552 217.00874 487
375.07312 65.95738 171.54031 316
413.44888 82.60548 167.63145 435
1565.87549 581.09186 120.95420 489
1594.92578 593.76782 168.09731 272
1753.22363 662.02045 217.37956 494
396.18024 81.68700 164.66039 316
410.54730 88.45885 167.72130 305
1563.06775 630.63110 120.04413 413
1644.25171 668.62933 165.84137 498
1645.17542 668.96588 217.31580 488
393.56693 87.14600 164.69324 317
1625.37976 714.43781 165.51016 471
1625.93103 714.59467 217.08504 481
1774.85876 790.58545 274.33490 308
389.55685 91.81298 165.09474 429
1597.43250 755.64380 268.60452 291
382.17004 94.37520 166.49094 434
375.77585 97.15044 167.60498 315
372.82480 102.00867 167.58876 315
369.72739 106.78532 167.59422 313
14460.91113 11775.25000 -4085.06592 0
313.51025 930.90570 93.64082 499
313.84378 934.71790 124.26125 486
314.38733 938.79242 155.02431 485
-20720.48438 35423.42969 7012.27441 0
120.68921 147.86324 167.36470 316
-566.74609 1093.91919 83.51831 322
-653.19550 1212.79663 118.40492 482
113.93032 147.35109 166.37955 314
-556.46979 1011.90326 90.26099 339
-654.00665 1137.36780 122.33865 340
107.33444 146.23711 165.51930 419
-586.41382 984.83411 90.47311 463
-623.74286 1030.14539 129.02142 347
98.77261 147.08121 163.81773 414
-630.49969 974.50055 88.58903 459
-625.25793 968.25989 131.94351 476
93.59528 143.69763 163.49895 311
81.56877 156.49785 166.32619 305
-674.47772 961.77014 86.64285 455
-668.56488 955.44397 130.62125 473
110.26885 118.38240 171.48022 316
76.79781 151.87300 166.32178 305
-719.76831 948.32831 84.46533 452
-713.09503 941.83698 129.28746 469
106.76281 114.52148 171.51610 316
70.81530 148.29936 165.84039 409
-768.31720 936.17749 81.90107 426
-759.50958 928.05927 127.58443 466
103.44556 110.52312 171.54663 316
60.15498 148.70029 163.91855 403
-819.25049 923.81561 78.78882 422
-807.50726 913.76495 125.95762 462
-1037.47778 1116.23511 161.28386 463
100.25423 106.43362 171.56635 316
53.88275 144.79918 163.40758 300
-872.27032 910.71423 75.88986 437
-857.48077 898.53882 123.95783 457
-1087.51807 1089.11694 160.47380 480
92.44675 102.22318 171.62491 316
73.22839 117.17200 171.79599 308
24.28169 155.08081 166.05119 297
-933.18329 898.00153 71.91414 408
-913.79547 883.24872 121.98326 453
-1085.91870 1016.46838 161.81798 379
89.33479 97.94584 171.66010 316
69.63376 112.25947 171.79466 308
17.22003 150.34093 165.50349 389
-994.99463 886.09741 67.76351 381
-968.67694 867.02759 119.57307 441
-976.92511 873.09509 167.83884 446
86.28989 93.57045 171.69209 316
66.19298 107.19396 171.85176 308
2.25132 150.71896 163.04454 382
-1078.07495 885.12830 61.05780 338
-1036.85767 857.30798 116.44803 400
83.41634 89.07915 171.67899 316
62.93705 102.11728 171.85567 308
35.96638 119.23213 172.07088 300
-1128.07361 858.30206 111.06039 367
80.70449 84.54668 171.73785 316
59.81094 96.91322 171.91205 308
32.40647 113.14488 172.11667 300
-43.44453 157.93413 165.14702 286
-1257.37915 876.16870 103.42892 319
78.08692 79.94445 171.75368 316
56.86576 91.61436 171.92619 308
37.25903 102.37529 174.03456 319
-52.65756 151.86798 164.29131 373
75.66744 75.24417 171.76149 316
60.33085 83.03490 173.59126 385
50.12648 88.25262 177.60074 325
27.02333 100.00878 179.94041 292
73.34461 70.46157 171.78951 316
63.97520 74.85490 175.18771 390
56.85967 78.20470 179.71120 300
20.72699 95.21561 179.37404 314
-24.11968 116.35350 180.37976 284
74.08120 64.41109 172.64861 386
67.52458 67.24098 176.70744 381
54.53922 72.88437 179.72159 300
32.37991 82.46962 182.03651 336
19.50559 88.03664 187.15327 315
-4.31362 98.33717 192.02687 266
76.52239 57.88615 173.95407 420
70.95551 60.06071 178.11171 386
47.45358 69.39682 178.70732 389
39.78707 72.41386 183.79225 373
30.82120 75.95194 189.16147 336
18.40850 80.84459 194.79819 332
0.90600 87.82069 200.80342 311
77.90392 52.02791 174.86911 424
72.80233 53.88348 179.01772 419
50.99170 61.71283 179.90678 393
43.95444 64.22906 184.93234 388
36.22956 66.99799 190.27711 373
27.28658 70.22737 195.94769 368
17.09144 73.93541 202.15919 332
79.26471 46.39054 175.72829 427
73.42797 48.32380 179.57782 308
54.26352 54.52895 181.01967 410
47.68622 56.64651 185.92697 393
40.51246 58.97224 191.13335 388
32.74390 61.50949 196.74274 372
23.62523 64.50504 202.77580 367
80.59981 40.99434 176.50922 432
71.94366 43.50815 179.59055 308
56.55151 47.98613 181.86440 421
50.53021 49.75708 186.70511 409
44.08524 51.61395 191.89450 404
37.16729 53.61586 197.41582 387
29.28544 55.90207 203.28072 382
81.92432 35.78396 177.23328 435
63.74118 40.43872 177.96558 429
58.46429 41.83350 182.55209 424
52.91160 43.21608 187.36697 420
46.82332 44.78216 192.47278 408
40.21379 46.51699 197.90648 403
33.15511 48.31738 203.66399 397
24.70968 50.49065 209.84796 269
83.14610 30.75446 177.86279 458
65.50556 34.70448 178.68802 432
60.40524 35.86555 183.20540 428
54.98353 37.05517 187.95506 423
49.29496 38.33731 192.98383 418
43.09338 39.71597 198.29858 406
36.28243 41.26065 204.00006 401
28.85350 42.90286 210.05023 358
-185.70512 90.88077 216.58672 296
83.34200 26.08140 178.20033 459
67.13261 29.19146 179.32671 455
62.24796 30.10978 183.82954 431
56.99717 31.11399 188.50554 426
51.49071 32.14834 193.46413 421
45.66438 33.27297 198.67891 416
39.34925 34.47987 204.26132 405
32.32819 35.81294 210.21765 399
-183.02477 76.94415 216.56816 424
83.58348 21.48585 178.50084 461
67.42619 24.06210 179.62137 456
62.79547 24.77883 184.13399 452
58.00949 25.55041 188.81808 447
52.97212 26.33769 193.80965 442
47.68521 27.15782 198.99548 437
41.99970 28.10483 204.53085 414
35.50431 29.11640 210.32697 402
83.86292 16.95231 178.72871 462
67.69895 18.98050 179.87485 457
63.16004 19.56676 184.33397 453
58.39209 20.17615 189.04774 448
53.39903 20.80405 193.94640 444
48.18380 21.46494 199.11960 438
42.63698 22.13919 204.61440 433
36.80204 22.87839 210.41280 428
84.11570 12.44091 178.94989 463
68.05113 13.98756 180.07053 459
63.54757 14.39852 184.54166 454
58.80577 14.82689 189.20047 450
53.87009 15.31102 194.08574 445
48.69957 15.79867 199.27727 440
43.25151 16.29713 204.69157 435
37.47833 16.85904 210.44095 429
84.44387 8.00241 179.15640 464
68.40753 9.01112 180.25740 460
63.94223 9.30280 184.73389 455
59.28008 9.56680 189.38022 451
54.40869 9.89457 194.22388 446
49.28564 10.23685 199.35684 441
43.94043 10.54647 204.77243 436
38.19770 10.93750 210.47495 430
-181.47984 24.73590 270.02310 486
-187.26189 25.16881 284.53040 360
84.76453 3.60524 179.31885 465
68.80791 4.12247 180.43808 461
64.40045 4.24269 184.85156 457
59.80841 4.36991 189.48688 452
55.00335 4.52305 194.33215 447
49.88471 4.70930 199.47313 442
44.58448 4.88916 204.82779 437
38.90286 5.05258 210.54958 431
-181.52852 11.98609 269.92981 487
