# .PCD v.7 - Point Cloud Data file format
VERSION .7
FIELDS x y z rgb
SIZE 4 4 4 4
TYPE F F F U
COUNT 1 1 1 1
WIDTH 518
HEIGHT 1
VIEWPOINT 6654.712402 290.761292 141.164932 -0.643977 -0.095417 -0.080732 0.754766
POINTS 518
DATA ascii
85.06839 -0.79999 179.35342 466
69.19135 -0.80147 180.46472 462
64.83073 -0.78576 184.91469 457
60.26284 -0.79650 189.52367 453
55.44877 -0.82213 194.38705 448
50.42910 -0.80557 199.44717 443
45.13153 -0.79850 204.78879 438
39.47845 -0.80185 210.50690 432
-152.78067 -0.76695 241.16835 419
-181.54292 -0.84700 269.89587 487
-143.91667 -0.83149 277.23618 284
84.67733 -5.18905 179.25708 465
68.71796 -5.65954 180.36407 461
64.29305 -5.83266 184.79684 456
59.71048 -5.93656 189.41428 452
54.87408 -6.12447 194.28114 447
49.80270 -6.26354 199.38477 442
44.46291 -6.42578 204.76059 437
38.80707 -6.63597 210.45505 431
-181.57143 -13.53322 269.86865 487
-150.56921 -12.54630 278.32108 266
84.32097 -9.56554 179.12051 464
68.30041 -10.57377 180.24591 460
63.81621 -10.83902 184.69299 455
59.15985 -11.13185 189.32681 451
54.29163 -11.47066 194.16888 446
49.19754 -11.77810 199.30051 441
43.81287 -12.10289 204.71060 436
38.09838 -12.47186 210.45602 430
-181.56912 -26.31882 269.92697 486
83.97197 -13.99647 178.98299 463
67.91432 -15.50742 180.07253 459
63.41405 -15.94752 184.54477 454
58.69771 -16.39548 189.17108 449
53.74485 -16.82802 194.08105 445
48.58345 -17.33025 199.22633 440
43.16905 -17.86340 204.65068 435
37.37003 -18.38110 210.38387 429
-181.44347 -39.07979 270.11240 486
83.67588 -18.44567 178.78261 462
67.53703 -20.51503 179.86206 457
63.02643 -21.05422 184.34627 453
58.26200 -21.64378 189.00710 448
53.28461 -22.28351 193.93475 443
48.06324 -22.95680 199.07901 438
42.48327 -23.68478 204.58360 433
36.68973 -24.38204 210.33247 428
83.39785 -22.96858 178.54358 461
67.22108 -25.50665 179.63332 456
62.62886 -26.27678 184.15759 452
57.83736 -27.01676 188.86130 447
52.85257 -27.81038 193.78461 442
47.45953 -28.65672 198.99571 419
41.44783 -29.59622 204.42728 414
34.84656 -30.64544 210.28741 402
83.12774 -27.54513 178.29732 459
66.67270 -30.67731 179.35179 435
61.70694 -31.62029 183.80208 431
56.46211 -32.62171 188.48672 426
50.97699 -33.66805 193.42853 421
45.12018 -34.78631 198.63820 416
38.72688 -36.02951 204.22379 404
31.69254 -37.36655 210.13315 399
-182.95746 -78.32804 216.52327 424
82.73817 -32.21193 177.94850 439
64.92229 -36.15599 178.68602 432
59.82999 -37.29282 183.22078 428
54.44375 -38.51942 187.96423 423
48.75226 -39.79071 192.99426 418
42.47653 -41.21684 198.27066 406
35.68595 -42.69557 203.94267 401
28.22285 -44.37786 209.95012 358
-189.01338 -92.91148 216.55394 296
81.38198 -37.20132 177.29742 435
63.21271 -41.87269 178.02310 429
57.92569 -43.21182 182.57242 424
52.36121 -44.61538 187.39233 420
46.24009 -46.23828 192.45895 408
39.60395 -47.89247 197.82927 402
32.52689 -49.73193 203.61177 397
23.68231 -52.01036 209.74110 263
80.08346 -42.32554 176.59727 432
71.14008 -44.94285 179.63132 308
55.96541 -49.34531 181.91222 414
49.89532 -51.09100 186.72412 409
43.48833 -52.94936 191.91762 404
36.35226 -55.00586 197.38834 387
28.40553 -57.36701 203.24596 371
78.72128 -47.68390 175.87633 427
72.50791 -49.68596 179.63301 308
53.59892 -55.83934 181.07477 397
46.90749 -57.97269 185.92534 393
39.80515 -60.33505 191.16747 388
31.89901 -62.88321 196.69400 372
22.71782 -65.83180 202.70572 367
77.32524 -53.18573 175.04610 423
72.23683 -55.03429 179.18771 419
50.22740 -62.94806 180.02634 393
43.22689 -65.45451 184.95253 388
35.38894 -68.29406 190.29646 372
26.40192 -71.53724 195.95856 367
15.59245 -75.42764 202.04454 332
75.90915 -58.94044 174.16168 420
70.17126 -61.25190 178.22124 386
46.70090 -70.53367 178.83487 388
38.99132 -73.59352 183.84744 373
29.48348 -77.32345 189.15544 336
16.79975 -82.36530 194.67119 316
-1.03811 -89.39261 200.75812 311
73.22214 -65.48254 172.85678 386
66.76631 -68.29516 176.85913 395
53.29353 -74.10909 179.76918 300
31.16163 -83.67905 182.05009 336
17.86659 -89.45832 187.13994 315
-12.00640 -102.35727 191.31871 265
71.83403 -71.74634 171.85907 316
63.35085 -75.74857 175.45619 390
55.53299 -79.44476 179.78117 300
18.29359 -96.99422 179.20329 286
-25.13871 -117.36420 180.46454 284
74.00546 -76.51263 171.80589 316
59.27840 -84.02383 173.76611 328
49.11084 -89.15386 177.80058 325
25.68302 -101.09371 180.04054 292
76.31370 -81.15726 171.77959 316
55.18090 -92.76406 171.97238 308
36.27985 -103.16487 174.25978 272
-52.40779 -151.87659 164.73051 373
78.75324 -85.75985 171.77501 316
58.02301 -98.03384 171.97673 308
30.67540 -114.17701 172.20865 300
-45.15263 -159.00648 165.19698 286
81.37821 -90.26822 171.78310 316
60.95435 -103.21819 171.96094 308
34.13786 -120.24568 172.17912 300
84.12295 -94.70995 171.72725 316
64.12605 -108.26612 171.89282 308
1.48684 -150.83290 163.36827 382
86.96866 -99.02380 171.69902 316
67.41865 -113.26247 171.90425 308
16.16384 -150.53287 165.80556 389
-2001.68481 -1616.87732 126.15754 496
89.99192 -103.27460 171.69687 316
70.82126 -118.13348 171.85756 308
21.96805 -156.06995 166.10910 297
93.12202 -107.45316 171.68102 316
46.53136 -145.99446 163.35645 300
96.38096 -111.52827 171.64662 316
53.71542 -149.18408 164.19113 404
-2898.71509 -2751.94312 79.71846 362
99.76241 -115.45931 171.62918 316
64.35757 -148.74564 166.09135 409
-2641.16211 -2688.82935 87.39801 355
103.29225 -119.30055 171.57549 316
69.71384 -152.92491 166.33957 306
-2429.86621 -2652.02368 93.06874 379
86.47627 -144.83356 163.56319 307
-2446.72290 -2842.81226 88.84509 456
92.16400 -147.73378 164.04001 424
100.51517 -147.17406 165.61716 419
107.08332 -148.35616 166.46404 314
111.71954 -151.88368 166.43806 314
120.40170 -149.34184 168.35210 489
127.48266 -148.58275 169.58089 486
-159.99010 -1058.13635 105.82687 492
-161.71721 -1063.57861 142.55414 349
968.88525 -2087.07080 144.13681 432
1022.17444 -2032.42273 144.85645 470
1076.33057 -1984.33044 145.71446 490
1133.95715 -1946.06885 145.82184 497
1194.68665 -1916.56189 145.98470 497
1261.07996 -1897.13037 145.61974 493
1328.83899 -1877.41931 145.32642 492
1397.43103 -1857.88342 144.68831 489
1465.75562 -1835.05713 144.10503 487
1538.91455 -1817.84753 143.21111 481
913.47736 -574.07837 98.12242 494
917.42914 -577.44513 127.31950 494
922.40930 -581.36334 156.65520 494
23240.36328 -17859.74219 7009.29980 0
368.46222 -108.02197 167.63348 313
371.83881 -103.26811 167.62854 315
375.06750 -98.42090 167.68494 315
381.11441 -95.29893 166.74051 434
388.63702 -92.70170 165.37425 429
393.76959 -88.48251 164.74051 317
396.63806 -83.07417 164.70348 317
410.90674 -89.78820 167.78342 305
375.88171 -67.37717 171.57367 316
413.61099 -83.71661 167.79797 305
378.01642 -62.50759 171.58427 316
420.95609 -79.54184 166.64981 429
379.93497 -57.54867 171.57991 316
429.46576 -75.37632 165.14424 424
381.76624 -52.55117 171.63203 316
433.02509 -69.19859 164.89554 308
383.40915 -47.47357 171.63277 316
435.18835 -62.53511 164.89960 308
457.34027 -68.98516 167.91422 297
384.90320 -42.42405 171.65039 316
408.15289 -48.39541 171.87831 309
459.21039 -61.50946 167.94109 297
386.23874 -37.26371 171.66835 317
409.63977 -42.51775 171.91454 309
464.42767 -54.80773 167.31160 452
387.42041 -32.13024 171.65273 317
410.99503 -36.64331 171.90382 309
471.50336 -48.14634 166.17102 448
388.44507 -26.94489 171.69386 317
412.13074 -30.71817 171.91577 309
478.38406 -41.19833 165.11057 300
1860.52185 -260.32285 162.05730 414
271.51657 -6.83335 203.50276 314
413.10211 -24.71742 171.92116 309
444.30731 -28.64539 172.19984 301
1909.87280 -213.93517 105.16037 373
1827.82300 -203.55492 163.59337 457
271.84677 -5.31658 203.50676 314
413.89282 -18.74206 171.91383 309
445.21738 -21.70004 172.23801 301
1813.65051 -151.08128 111.79826 327
1803.08130 -150.20367 164.63187 452
272.11807 -3.79700 203.49757 314
414.50552 -12.73254 171.90721 309
445.90433 -14.73610 172.24463 301
1779.94116 -98.48363 114.35489 434
1784.68347 -98.95419 165.16405 411
272.34491 -2.25969 203.50191 314
414.95544 -6.72971 171.90839 309
446.32825 -7.72760 172.26192 301
1756.32336 -48.96870 115.85937 475
1769.31409 -49.48758 166.11183 420
272.53476 -0.73141 203.50734 314
415.18677 -0.74418 171.94148 309
446.63828 -0.74919 172.24419 301
1738.11621 -0.86236 117.47995 480
1758.20630 -0.66829 166.38065 372
1773.02759 -0.77946 216.73067 493
1770.40869 -0.72061 267.18945 493
1781.02795 -0.67554 318.42630 423
272.67041 0.79695 203.50621 314
415.27316 5.28737 171.92790 309
446.66595 6.26517 172.23375 301
1722.31580 46.28248 118.29040 485
1747.03162 47.16512 166.78970 374
1762.15784 47.74209 216.55319 495
1759.73853 47.37924 267.03308 495
1769.94836 47.68329 318.04739 422
272.76440 2.33653 203.50079 285
415.14355 11.26676 171.94882 309
446.51321 13.26796 172.25601 301
1708.78931 92.68426 119.16026 489
1746.52783 94.98499 166.72195 276
1746.18250 94.90670 216.61467 496
1743.47034 94.95786 266.45557 496
1758.32495 95.55568 317.12250 424
390.96933 15.03795 171.69846 317
414.85956 17.27532 171.94678 309
446.16888 20.26206 172.24193 301
1701.46924 139.01355 119.14244 496
1742.02673 142.78252 166.74971 276
1735.63684 142.15790 216.45793 497
1732.89709 141.79776 266.03003 497
1747.27332 143.29738 316.87326 425
390.55655 20.25588 171.69624 317
414.37616 23.25293 171.89091 309
445.62030 27.19929 172.23451 301
1688.49011 184.30656 119.97705 496
1732.37488 189.62582 166.61499 497
1730.24304 189.35178 216.36653 498
1727.45996 188.92474 266.24612 498
1736.41077 190.21179 316.49295 425
390.01962 25.48082 171.67131 317
413.70496 29.23735 171.90659 309
479.89236 39.73393 165.15685 443
1680.84070 230.10269 119.79047 497
1722.13708 236.62636 166.76639 498
1719.71155 235.99837 216.59776 499
1716.99780 235.55298 266.18991 499
1725.81848 236.94933 316.34839 425
389.28510 30.66401 171.67458 316
412.87106 35.19724 171.88069 309
472.53561 46.52254 166.35461 448
1667.84021 274.72961 120.40550 497
1711.49438 282.72388 166.92203 498
1708.91431 282.24442 216.70016 499
1706.37476 281.86929 266.06638 499
1714.88513 283.55212 316.17389 426
1778.48987 295.49341 372.27698 438
388.42978 35.86524 171.66743 316
411.85287 41.09385 171.88666 309
465.55170 53.10146 167.53964 452
1660.08301 320.02017 120.06261 498
1706.40979 330.34454 167.02831 276
1771.72327 345.19891 372.48340 450
387.40582 40.96466 171.64703 316
410.70468 46.93689 171.85892 309
461.88150 60.10278 167.92218 297
1647.58606 364.46454 120.32477 498
1932.29285 437.44357 159.03349 498
1786.00903 400.23331 375.15656 310
386.17685 46.08157 171.63730 316
438.05252 61.11879 164.88318 308
1639.91638 410.27515 119.88207 497
1961.13550 503.55505 157.46440 271
266.57986 14.21735 203.50847 314
431.15063 67.66418 164.83337 308
1623.56091 454.77527 119.90595 448
1903.30042 545.92462 158.67387 498
378.41324 56.00943 171.57156 316
428.99484 74.19892 164.85561 308
1612.82104 500.08466 119.31404 475
1655.89307 515.76105 166.46114 275
1896.08850 602.13959 216.47890 490
376.74457 60.97587 171.56093 316
421.48001 78.65463 166.17406 429
1600.65918 545.12036 119.08346 490
1634.07495 558.72369 166.55676 496
1883.53699 657.11890 216.68611 488
374.96451 65.85892 171.53506 316
413.49899 82.52306 167.58324 435
1590.05518 591.64014 118.85186 489
1632.15894 609.77924 166.01393 277
1696.63586 637.84552 216.23877 347
396.05908 81.53640 164.67345 317
410.31436 88.25292 167.73357 305
1630.63208 662.10358 114.44908 492
1664.49390 678.08624 164.26602 498
1664.86853 678.34332 216.64209 467
393.48285 86.96354 164.71295 317
1650.55676 727.14777 163.95076 472
1650.00354 727.24091 216.56754 478
1759.58826 782.77142 273.00494 310
389.68890 91.74911 165.01886 429
382.30002 94.29066 166.44614 434
375.69174 97.00568 167.63402 315
372.79404 101.82936 167.58112 315
369.68832 106.56509 167.57661 313
343.64053 931.59027 92.88204 483
344.01932 935.57489 123.57951 483
344.81342 940.97003 154.47815 383
-569.83441 1175.06323 76.50002 289
121.12584 148.03722 167.40184 316
-532.60120 1048.24158 89.00496 336
-644.23596 1201.80298 119.18420 334
114.39041 147.49004 166.41902 314
-540.49170 991.94537 92.98702 469
-611.35663 1083.31689 126.82383 341
107.99905 146.16061 165.60466 419
-581.31134 979.24329 91.53786 460
-576.57404 973.40442 133.75584 486
99.42245 147.03476 163.89536 414
-623.59625 967.18085 89.69254 458
-617.96826 960.83472 132.60080 476
93.97062 143.90820 163.53349 311
81.98231 156.71533 166.30975 305
-667.29779 954.77783 87.40759 455
-661.09082 948.10522 131.34352 473
110.67410 118.55879 171.47350 316
77.17967 152.05217 166.28731 305
-712.67767 942.07166 85.19412 429
-705.79114 934.82281 130.09746 469
107.18780 114.70568 171.48657 316
71.46517 148.25735 165.91621 409
-761.05835 930.32697 82.56311 425
-751.50208 921.34351 128.47044 465
-971.00214 1127.43738 162.71918 466
99.61375 110.30456 171.58430 316
55.88158 148.88037 163.80214 403
-816.24591 918.13348 79.34342 422
-803.92065 907.34509 126.47401 461
-1033.06116 1109.37024 161.07896 479
96.19577 106.24846 171.57336 316
77.42708 121.73281 171.71854 308
-869.66205 905.23669 76.32578 412
-853.80408 892.46478 124.53604 457
-1072.63098 1073.64648 160.96078 482
92.89243 102.07680 171.63104 316
73.72635 116.97099 171.75096 308
24.86078 154.85219 166.03053 297
-925.70557 892.21790 72.93827 408
-905.76959 877.02020 122.47767 453
-912.27045 882.11090 169.21986 450
89.77116 97.79608 171.64807 316
70.10561 112.05862 171.81372 308
17.48232 150.32529 165.41849 389
-989.36200 882.14716 68.56255 363
-961.82196 861.84961 120.12597 426
-971.06018 868.89594 167.90231 420
86.71399 93.44224 171.66875 316
66.67513 107.08437 171.84764 308
2.49380 150.68083 162.92465 382
-1036.27429 856.81989 116.21486 386
83.81903 89.00846 171.68114 316
63.37369 101.99107 171.89099 308
36.49129 119.05984 172.10376 300
-1135.31860 862.65356 110.51534 338
81.11020 84.48538 171.69934 316
60.25031 96.78906 171.91846 308
32.86617 112.98422 172.10049 300
-42.81868 157.78246 165.11395 286
-1281.69727 890.98090 101.57536 312
78.46760 79.85764 171.75058 316
57.28360 91.48225 171.94666 308
37.11839 102.62309 173.91449 319
-52.40987 151.87685 164.27365 373
76.02049 75.20361 171.78389 316
60.25425 83.21120 173.47461 328
50.04185 88.39884 177.48700 325
27.52797 99.93545 179.97975 292
73.70534 70.41438 171.80128 316
64.01100 74.99166 175.08192 390
-119.27046 56.13580 -26.23340 300
20.62368 95.39565 179.25948 314
-23.61137 116.27787 180.40140 284
74.07954 64.50006 172.53911 386
67.54680 67.36298 176.60358 381
54.96487 72.79924 179.74754 300
32.36075 82.60270 181.89644 336
19.43511 88.19709 187.08022 315
-5.13283 98.83146 191.86539 266
76.54942 57.94568 173.86325 420
70.98965 60.14923 177.98303 386
47.46772 69.46454 178.65727 389
39.79902 72.50426 183.73225 373
30.74938 76.13586 189.10706 336
18.36517 81.03993 194.65421 332
0.80543 87.96663 200.77432 311
77.94892 52.10003 174.77896 423
72.82372 53.97422 178.93971 419
51.03298 61.80092 179.86368 393
43.94547 64.35770 184.86772 388
36.26381 67.14789 190.20186 373
27.28829 70.36317 195.88716 368
16.97961 74.09901 202.08708 332
79.33669 46.51116 175.63992 427
73.74996 48.31464 179.60323 308
54.30342 54.62622 180.91916 410
47.73114 56.75880 185.85846 393
40.55159 59.11502 191.09929 388
32.73899 61.65841 196.69946 372
23.56782 64.62708 202.71768 367
80.63764 41.08635 176.43423 432
72.26064 43.53354 179.60799 308
56.56300 48.08385 181.77930 421
50.56931 49.85540 186.67374 409
44.12321 51.72186 191.84129 404
37.15219 53.76431 197.35117 387
29.26399 56.03444 203.20952 382
81.98750 35.88883 177.16225 435
70.93335 38.73624 179.59282 308
58.49383 41.88580 182.46944 424
52.93784 43.32761 187.30510 420
46.81569 44.92809 192.42870 408
40.19452 46.60822 197.80576 403
33.14476 48.43337 203.58362 397
25.13441 50.50369 209.80713 355
83.20676 30.85593 177.79971 457
65.51450 34.82519 178.59897 432
60.41183 35.96641 183.12234 428
55.00117 37.14354 187.89195 423
49.34133 38.44390 192.94881 418
43.10413 39.85061 198.24651 406
36.27720 41.36328 203.90642 401
28.85962 43.03777 209.97134 358
-186.03775 91.03536 216.59448 296
83.38754 26.17123 178.11899 459
67.17615 29.27889 179.27612 455
62.25533 30.19790 183.74782 431
57.02356 31.20863 188.43474 426
51.50678 32.26891 193.42488 421
45.69527 33.40648 198.65926 416
39.33574 34.58082 204.20238 404
32.30592 35.94518 210.14708 399
-182.95482 77.02230 216.53107 424
83.62035 21.57491 178.41013 461
67.43674 24.14738 179.55482 456
62.86029 24.84488 184.07202 452
58.05676 25.61139 188.76578 447
53.01776 26.40894 193.73685 442
47.71924 27.27042 198.96878 437
41.96326 28.17295 204.45944 414
35.46894 29.20686 210.31325 402
83.89294 17.01161 178.70596 462
67.73536 19.04901 179.82021 457
63.20237 19.63285 184.28978 453
58.43198 20.24788 188.97641 448
53.47596 20.86613 193.89655 443
48.22449 21.53297 199.06822 438
42.68818 22.23418 204.56340 433
36.80599 22.98275 210.36043 428
84.17767 12.51771 178.93181 463
68.06614 14.06394 180.04903 459
63.55939 14.49854 184.47678 454
58.84999 14.93995 189.16428 450
53.89469 15.39764 194.04817 445
48.77506 15.90452 199.19832 440
43.30352 16.42333 204.66405 435
37.50528 16.96760 210.44432 429
84.48808 8.08799 179.12117 464
68.45672 9.08530 180.22925 460
63.96359 9.38328 184.68597 455
59.30944 9.66447 189.33588 451
54.46908 9.97756 194.17595 446
49.35715 10.30715 199.33290 441
43.95213 10.64392 204.70740 436
38.20988 11.01728 210.46088 430
-181.51573 24.85401 270.05811 486
-187.45064 25.22030 284.59351 360
84.81368 3.66643 179.29512 465
68.83817 4.16465 180.37790 461
64.44286 4.32251 184.84473 457
59.83279 4.47662 189.44212 452
55.00088 4.61395 194.32690 447
49.91599 4.77759 199.42892 442
44.58764 4.97587 204.81822 437
38.92195 5.15786 210.48587 431
-181.48546 12.13707 269.90482 487
