# .PCD v.7 - Point Cloud Data file format
VERSION .7
FIELDS x y z rgb
SIZE 4 4 4 4
TYPE F F F U
COUNT 1 1 1 1
WIDTH 537
HEIGHT 1
VIEWPOINT 6691.909180 541.270752 138.440506 -0.646431 -0.091471 -0.079247 0.753313
POINTS 537
DATA ascii
85.03455 -0.60686 179.42920 466
69.14742 -0.59798 180.55278 462
64.78621 -0.59446 184.98808 457
60.21569 -0.57416 189.61673 453
55.39511 -0.57557 194.42697 448
50.35630 -0.59031 199.52980 443
45.08211 -0.58319 204.87758 438
39.42197 -0.55685 210.56770 432
-181.55989 -0.54242 269.94720 487
-143.85355 -0.51450 277.29013 284
84.63762 -4.96155 179.30653 465
68.64626 -5.47685 180.42238 461
64.26563 -5.61545 184.87811 457
59.63168 -5.72973 189.49620 452
54.81803 -5.88814 194.37697 447
49.73714 -6.04605 199.46652 442
44.37991 -6.19972 204.83189 437
38.74336 -6.39072 210.55939 431
-181.58594 -13.23734 269.90274 487
-148.30678 -12.24893 278.06076 285
84.26746 -9.37112 179.18233 464
68.22820 -10.38275 180.28920 460
63.78241 -10.67530 184.73531 455
59.09093 -10.95073 189.38120 451
54.22620 -11.24238 194.26797 446
49.15538 -11.57422 199.38524 441
43.75784 -11.89363 204.79819 436
38.01250 -12.25789 210.51080 430
-181.50648 -25.99210 270.02466 486
83.93785 -13.80111 179.02997 463
67.88181 -15.30430 180.14273 459
63.35579 -15.77024 184.58974 454
58.65911 -16.16806 189.24385 450
53.70241 -16.65609 194.12344 445
48.53046 -17.11704 199.27164 440
43.09982 -17.65264 204.72021 435
37.28732 -18.20375 210.48730 429
-181.46620 -38.82561 270.16165 486
83.65409 -18.27382 178.80559 462
67.50258 -20.34217 179.95070 457
62.96017 -20.87689 184.40645 453
58.22626 -21.47086 189.11868 448
53.22980 -22.13373 194.00505 443
47.99978 -22.77133 199.16713 438
42.42206 -23.49230 204.67198 433
36.59671 -24.21718 210.43698 428
83.37520 -22.81716 178.60837 461
67.18447 -25.39346 179.72717 456
62.61135 -26.11204 184.19624 452
57.78722 -26.86294 188.91548 447
52.74782 -27.63271 193.85106 442
47.41827 -28.47524 199.05446 419
41.41777 -29.41320 204.51584 414
34.85746 -30.45247 210.38785 402
83.09646 -27.40645 178.34792 459
66.68728 -30.51819 179.38586 435
61.67978 -31.46128 183.84703 431
56.47623 -32.46859 188.53883 426
50.97598 -33.50003 193.47737 421
45.09977 -34.61614 198.74939 416
38.66690 -35.84797 204.30872 404
31.62943 -37.19057 210.21603 364
-182.89903 -78.05185 216.54037 424
82.73724 -32.05286 177.99429 439
64.95705 -36.02549 178.76048 432
59.83948 -37.15993 183.25385 428
54.43542 -38.38555 188.01703 423
48.76373 -39.65253 193.06802 418
42.46523 -41.06517 198.34944 406
35.65002 -42.56704 204.02481 401
28.13029 -44.23249 210.09331 358
-189.02333 -92.76684 216.56174 296
81.41035 -37.08010 177.36414 435
63.19117 -41.75520 178.04811 429
57.90334 -43.09400 182.64246 424
52.36959 -44.51233 187.49292 420
46.17989 -46.13141 192.51591 408
39.56766 -47.82582 197.92548 402
32.46410 -49.62546 203.72020 397
-188.44141 -106.28522 202.65642 484
80.08053 -42.24883 176.64549 432
70.95538 -44.87967 179.61496 308
55.96487 -49.22117 181.96274 421
49.88802 -50.99909 186.81082 409
43.44167 -52.87371 191.98668 404
36.36251 -54.92147 197.43129 387
28.35621 -57.27339 203.30881 371
78.69912 -47.59464 175.88388 427
72.35223 -49.65490 179.60107 308
53.59914 -55.74103 181.14471 397
46.90771 -57.95144 186.00581 393
39.73638 -60.25125 191.20384 388
31.84842 -62.81360 196.83110 372
22.69174 -65.77303 202.79716 367
77.31748 -53.15821 175.08318 423
72.23105 -55.00856 179.20743 419
50.20930 -62.91861 180.07709 393
43.20692 -65.45953 185.03334 388
35.36166 -68.24927 190.35214 372
26.33834 -71.48091 196.02502 367
15.54076 -75.35540 202.17642 332
-5049.13037 -1897.62903 33.41501 295
75.89336 -58.95176 174.18945 420
70.14681 -61.21072 178.23105 386
46.67868 -70.52665 178.87166 388
38.89227 -73.60120 183.90395 373
29.37496 -77.34990 189.21863 336
16.63734 -82.37869 194.72687 316
-1.15905 -89.44907 200.82651 311
73.19521 -65.53397 172.87450 386
66.74519 -68.31071 176.88687 395
53.12116 -74.21683 179.80690 300
31.05459 -83.74659 182.07489 336
17.74673 -89.49627 187.17336 315
-12.75173 -102.67797 191.30928 265
71.79105 -71.81435 171.82938 316
63.28066 -75.82658 175.43697 390
55.39615 -79.54597 179.75816 300
17.88931 -97.15664 179.21109 286
-25.56065 -117.66518 180.45569 284
74.01657 -76.56718 171.82732 316
59.09783 -84.18047 173.71953 328
48.97351 -89.32478 177.79567 325
25.42183 -101.33308 180.03816 292
76.36025 -81.24119 171.81703 316
55.14255 -92.90135 171.98439 308
35.38370 -103.76207 174.07101 272
-52.22653 -151.93535 164.77411 373
78.82199 -85.86170 171.77534 316
57.96533 -98.19884 171.94664 308
30.56059 -114.42371 172.19585 300
-45.49354 -159.42418 165.11496 286
81.46461 -90.37817 171.78293 316
60.98082 -103.35912 171.95483 308
34.07390 -120.45863 172.13211 300
84.21226 -94.84172 171.73064 316
64.13595 -108.48846 171.92491 308
1.78099 -150.86604 163.49109 382
87.13990 -99.18567 171.69778 316
67.50048 -113.47675 171.89529 308
16.53194 -150.48108 165.90741 389
90.18356 -103.47586 171.68617 316
70.92542 -118.36402 171.87672 308
21.91702 -156.39938 166.09764 297
93.32870 -107.63883 171.68297 316
46.64106 -146.28860 163.35785 300
-3070.80176 -2724.95215 76.74620 310
96.65359 -111.72326 171.65207 316
54.16941 -149.12466 164.29904 404
-2799.04663 -2665.10083 84.87397 314
-2922.63281 -2772.79346 216.67340 392
100.05386 -115.70930 171.60611 316
64.83569 -148.74089 166.19955 409
-2734.64893 -2777.05396 84.32914 373
103.61071 -119.55984 171.56273 316
69.93172 -153.19911 166.36464 306
-2664.69604 -2887.56567 83.91931 343
86.80237 -145.12852 163.53783 307
92.79306 -147.69441 164.11411 425
101.23302 -147.07848 165.73477 419
107.51455 -148.63490 166.45857 314
114.06559 -149.55754 167.33205 266
120.89345 -149.75011 168.34702 489
127.78248 -149.35999 169.42426 396
-444.63718 -1051.46179 94.31872 462
-449.39114 -1059.12927 134.78888 383
694.78833 -2121.44263 145.73146 426
750.07086 -2063.07446 147.08614 449
805.21442 -2012.24731 148.37457 472
861.49054 -1972.20850 148.87605 488
919.59308 -1941.64539 149.25720 499
979.77795 -1918.27161 149.21547 420
1037.79480 -1897.69263 150.09367 498
1099.80237 -1877.78992 149.76877 418
1163.50500 -1858.91504 149.55743 346
1227.88281 -1839.74866 149.43005 484
1293.49500 -1820.68701 148.79971 485
660.32849 -571.57935 97.57880 494
662.42175 -574.29828 121.28950 494
664.87347 -577.47931 145.03540 498
666.78290 -579.88196 168.98402 496
366.38739 -108.08358 167.62256 315
369.73038 -103.36713 167.61287 315
372.95831 -98.51429 167.64499 315
379.67899 -95.76183 166.53752 434
387.23688 -93.18291 165.14453 429
391.52435 -88.51822 164.71402 317
394.34985 -83.09771 164.71214 317
408.63293 -89.82158 167.75484 305
373.54865 -67.42914 171.54108 316
411.78964 -83.98260 167.69385 434
375.59961 -62.52820 171.53799 316
419.86713 -80.02907 166.32887 429
377.50403 -57.59176 171.59140 316
428.15161 -75.82814 164.90427 308
379.25845 -52.54986 171.58896 316
430.52820 -69.21632 164.87883 308
266.44220 -14.24372 203.50000 314
403.98700 -54.21384 171.85854 308
454.84723 -68.98329 167.89973 297
266.96777 -12.77483 203.50522 314
405.64191 -48.40601 171.83495 309
456.62793 -61.50618 167.99019 297
267.43430 -11.29490 203.50394 314
407.08191 -42.52159 171.84805 309
463.95468 -55.24973 166.87878 452
1658.88245 -322.40479 168.51024 278
267.85126 -9.79580 203.50760 314
408.35123 -36.63574 171.86278 309
471.03625 -48.58215 165.78159 448
1603.22070 -264.82880 170.88348 439
1645.87585 -272.66458 216.82483 274
268.22903 -8.29898 203.49812 314
409.47916 -30.66529 171.86673 309
475.76642 -41.19476 165.11626 300
1650.80811 -227.15399 121.80181 383
1574.29309 -215.06755 171.76399 455
1694.84631 -234.40085 216.99913 493
268.55731 -6.78709 203.49835 314
410.40433 -24.70648 171.89070 309
441.65732 -28.67698 172.19896 301
1561.31335 -170.23878 128.32310 381
1552.46460 -169.04785 172.83301 459
268.83173 -5.26045 203.50006 314
411.13226 -18.75580 171.90388 309
442.48920 -21.67766 172.22400 301
1534.20508 -125.06525 130.11926 436
1534.87158 -124.95211 173.71184 456
269.07367 -3.74268 203.50323 314
411.68182 -12.72207 171.87532 309
443.10062 -14.71694 172.17609 301
1513.80737 -82.06604 131.65103 469
1520.61145 -82.48515 174.15028 435
269.25110 -2.21365 203.49799 314
412.05377 -6.74133 171.89622 309
443.50748 -7.74160 172.22469 301
1497.40491 -41.00665 132.97212 478
1509.48889 -41.14602 174.64117 417
1543.30750 -42.47466 216.57864 469
1529.21436 -41.75415 302.60110 492
269.38684 -0.68459 203.50539 314
412.27649 -0.71203 171.88684 309
443.71973 -0.69945 172.23470 301
513.15454 -0.73358 168.27806 288
1483.71045 -0.75424 133.99306 483
1499.06189 -0.74005 174.92484 418
1522.67932 -0.76171 216.80142 494
1521.98132 -0.85406 259.25391 494
1520.77527 -0.73466 302.01080 494
1634.13757 -0.72141 355.86832 494
269.47635 0.83711 203.50151 314
412.28146 5.28493 171.88002 309
443.71616 6.31327 172.22716 301
1472.76550 38.52445 134.43842 491
1490.37329 39.23251 175.18005 369
1514.51672 40.00084 216.58623 496
1513.73608 39.81488 258.99689 496
1512.38928 39.95255 301.24872 496
269.51501 2.36761 203.50084 314
412.13412 11.31129 171.90961 309
443.49783 13.30680 172.23053 301
1464.97705 77.56824 135.09944 495
1482.42993 78.69861 175.24223 370
1500.13611 79.59381 216.50079 497
1498.99854 79.84764 258.52753 495
1498.40295 79.78194 300.50748 497
269.51477 3.89395 203.50899 314
411.77524 17.29760 171.88959 309
443.12024 20.26993 172.17082 301
1453.47058 115.73498 135.54333 496
1474.50208 117.89981 175.45909 371
1492.49915 119.58987 216.51038 498
1491.71277 119.29634 258.60052 498
1490.15076 119.15052 300.05380 498
269.46329 5.40765 203.50728 314
411.22067 23.27682 171.86662 309
442.45575 27.22057 172.21552 301
1447.97461 154.10617 135.59811 498
1467.33081 156.79666 175.53951 372
1489.83508 159.54074 216.64514 499
1488.69653 159.43672 258.55325 499
1487.67957 159.23895 300.35944 499
269.36041 6.92453 203.50436 314
410.51987 29.24123 171.88231 309
476.86807 39.74500 165.09122 300
1437.52344 191.74962 135.90587 498
1459.79504 195.45589 175.60223 372
1481.64417 198.92706 216.46832 499
1480.89539 198.62849 258.40601 499
1479.54065 198.63910 300.09213 499
269.20264 8.42832 203.49738 314
409.65836 35.22089 171.86734 309
471.99661 47.12894 165.82346 448
1432.32678 230.09181 135.82605 498
1452.45459 234.14946 175.52449 372
1473.75476 238.33780 216.50967 499
1472.72070 237.87465 258.40942 499
1471.62634 237.85965 300.15161 499
1549.35706 252.76517 349.92899 499
269.01392 9.93502 203.50865 314
408.57925 41.13260 171.87856 309
464.90189 53.73523 166.97105 452
1421.91931 267.54605 136.12296 498
1445.53125 272.79340 175.44215 316
1465.58252 277.49649 216.47545 499
1464.64319 277.01810 258.48901 499
1463.71960 276.77832 300.12726 499
1540.75159 294.20032 349.85550 499
1555.96069 297.42468 396.48825 462
268.76456 11.41854 203.50687 314
407.37418 46.98399 171.84210 309
458.40616 60.10689 167.90964 297
1416.61108 306.06387 135.56841 498
1438.71887 311.68777 175.43028 316
1532.33374 335.96539 349.91870 499
1575.47961 346.91653 400.68082 480
382.81155 46.10893 171.62845 316
405.91663 52.78848 171.83670 309
456.81564 67.58474 167.85219 297
1406.16650 343.50513 135.69308 498
1431.99438 350.80313 175.15959 316
1578.40247 393.37970 355.67416 365
1570.54309 391.21341 401.63327 429
381.43607 51.17345 171.57536 316
432.71893 67.84567 164.87715 308
1400.92639 382.46085 135.40021 497
379.89102 56.14229 171.59125 316
430.35007 74.32607 164.93742 424
1391.21021 420.35693 135.09927 478
1699.32483 530.94086 165.02391 282
378.16333 61.13590 171.56970 316
421.93930 78.41453 166.42134 429
1384.86548 459.74057 134.55936 495
1511.69946 509.74481 171.24586 345
1542.49023 521.91632 216.72650 350
376.32703 66.01115 171.54730 316
414.13058 82.35960 167.78911 305
1374.52893 497.79462 134.32736 493
1400.66772 509.33258 174.69975 321
1658.37573 620.51898 216.48607 480
397.42633 81.71665 164.70737 317
411.71185 88.47731 167.74910 305
1368.91687 538.91882 133.59061 491
1392.46228 550.03064 174.12340 316
1647.86194 670.30603 216.61282 474
394.77838 87.14446 164.70845 317
1357.89429 577.85559 133.05217 490
1383.78833 590.89758 174.02805 316
1462.77930 631.25861 216.57373 368
390.29358 91.58132 165.26711 429
1353.22913 620.87531 131.84015 426
1436.34253 666.45734 171.18399 499
1437.33142 667.10706 216.69690 499
382.90955 94.14143 166.63396 434
43451.19141 25562.51758 -4730.75244 0
1418.76038 706.86920 170.90889 462
1420.08850 707.25842 216.40195 468
376.91330 97.17041 167.63855 315
373.93256 102.03811 167.60107 315
370.79910 106.78842 167.59473 313
104.89162 934.54022 92.19780 473
104.52674 938.38824 122.98956 473
103.82495 943.12274 153.93916 368
-7364.58691 39786.11328 1524.75366 0
116.58771 148.09691 167.34143 441
109.86880 147.47340 166.40651 314
103.00395 146.65683 165.42018 419
94.49619 147.37318 163.76158 424
-811.75671 1175.48169 62.03155 313
89.40086 143.86726 163.49025 307
77.32073 156.77425 166.29205 305
-768.32837 1057.60010 73.35532 374
-880.18793 1176.67664 110.65063 356
106.09389 118.46401 171.51259 316
72.46162 152.08473 166.25156 306
-772.93756 997.60022 77.30861 475
-849.58630 1074.51306 116.62541 363
102.58748 114.61211 171.54686 316
66.54040 148.46255 165.87932 409
-821.13373 982.12085 75.17850 450
-815.02466 976.02026 123.02299 476
99.20325 110.63717 171.57899 316
55.79448 148.85638 163.92508 403
-871.69269 966.66595 72.44175 447
-864.21057 960.03912 121.21697 463
95.94962 106.56192 171.58495 316
49.40044 145.02269 163.35670 300
-924.36603 950.82471 69.32780 422
-916.16382 943.67609 119.30896 459
92.79423 102.36054 171.62953 316
73.52084 117.34096 171.75909 308
24.61041 155.26605 166.07851 297
-981.34509 935.45062 66.08212 418
-970.05591 926.70850 117.15579 455
89.80264 98.11176 171.64471 316
70.11384 112.40835 171.78725 308
17.94220 150.33542 165.54126 389
-1040.69958 919.61713 62.25093 432
-1026.32117 909.30878 115.19140 450
-1284.35132 1096.76514 155.07034 471
86.95403 93.72482 171.67465 316
66.78172 107.41667 171.84169 308
3.14984 150.70366 163.09633 382
-1104.72278 903.39679 58.02289 404
-1085.36755 890.46283 112.61765 445
-1295.56421 1033.21008 156.03011 390
84.19657 89.27650 171.68468 316
63.69673 102.31083 171.85600 308
36.67393 119.44749 172.11461 300
-1172.97485 886.99969 53.16187 379
-1147.62231 870.91498 109.63284 441
-1268.41028 947.52716 158.65459 395
81.61637 84.74508 171.73454 316
60.69219 97.12288 171.88255 308
33.21099 113.40050 172.10109 300
-42.57103 158.21831 165.14850 286
-1220.20154 854.49548 106.21663 397
79.15002 80.13362 171.74553 316
57.92192 91.82806 171.93324 308
34.07021 104.94136 173.08199 272
-51.25715 151.84363 164.39113 373
-1326.86450 853.10193 100.29917 354
-3193.40967 1879.73523 88.92958 472
-3192.58276 1878.94446 216.62682 496
76.88245 75.44275 171.76488 316
59.34217 84.41498 172.99385 328
48.98066 89.65569 177.11790 325
28.03810 100.33262 179.92606 292
-1518.64185 888.33008 88.02570 297
74.69427 70.69351 171.78735 316
63.72951 75.88865 174.79231 390
57.79041 78.68652 179.63724 386
18.13762 97.32659 178.67886 286
-23.14278 116.79651 180.41705 284
73.95931 65.33126 172.16051 386
67.30683 68.19518 176.24345 381
55.91956 73.15530 179.71811 300
31.44513 83.71916 181.63658 336
18.00851 89.51534 186.81535 315
-12.55714 102.78914 191.03029 266
76.65796 58.71044 173.51031 420
70.80772 61.01738 177.64061 386
47.25677 70.36363 178.35388 389
39.38349 73.45885 183.45116 373
29.79461 77.27229 188.85710 336
16.91104 82.35958 194.47342 316
-0.99291 89.45673 200.62898 311
78.09693 52.81616 174.37712 423
72.89825 54.69767 178.58446 419
50.85320 62.62358 179.54108 393
43.68510 65.21730 184.60995 388
35.76682 68.07126 190.01262 373
26.70208 71.36013 195.76643 368
15.70834 75.29535 201.99243 332
79.50941 47.17824 175.22168 429
74.43264 48.81751 179.37407 423
54.26395 55.41823 180.61214 410
47.44797 57.60621 185.60437 393
40.18784 59.96189 190.89250 388
32.23310 62.56482 196.56035 372
22.95782 65.55980 202.63467 367
80.87398 41.75602 175.96295 432
73.96732 43.72910 179.57356 308
56.57265 48.79835 181.46094 421
50.49280 50.58293 186.35890 409
43.92912 52.48541 191.60904 404
36.72906 54.54229 197.19839 387
28.70129 56.92381 203.20276 372
82.25548 36.48051 176.65193 435
72.81871 38.93269 179.58376 308
58.58057 42.54933 182.14870 424
52.94235 44.01162 187.03313 420
46.72208 45.60976 192.22861 408
40.00254 47.36221 197.68979 403
32.81769 49.20329 203.56805 397
-188.41675 106.03908 202.67505 484
83.57861 31.39818 177.33165 439
65.74629 35.39566 178.14783 432
60.51381 36.54010 182.74927 428
55.02835 37.76873 187.59419 423
49.28259 39.07927 192.74982 418
42.90179 40.47841 198.13947 406
35.96616 42.05624 203.89224 401
28.38477 43.74006 210.05043 358
-188.32672 92.15250 216.68398 296
83.87339 26.65274 177.62308 459
67.50343 29.81767 178.79117 435
62.43324 30.75931 183.35373 431
57.11068 31.75047 188.11852 426
51.51685 32.84264 193.17769 421
45.58152 33.99800 198.50810 416
39.06060 35.23589 204.15594 405
31.91398 36.59121 210.21878 364
-182.76234 77.55450 216.67232 424
84.13784 21.99156 177.88670 461
67.85794 24.58138 179.09047 456
63.22785 25.30315 183.67589 452
58.31767 26.07098 188.47882 447
53.18707 26.92913 193.49731 442
47.80928 27.76951 198.84372 437
41.78555 28.69706 204.40422 414
35.16691 29.75787 210.37125 402
84.42289 17.37560 178.12230 462
68.22107 19.44262 179.32228 457
63.59611 20.01196 183.89407 453
58.74519 20.63729 188.65179 448
53.63738 21.26738 193.66490 443
48.30367 21.92771 198.94055 438
42.66667 22.64435 204.51779 433
36.72487 23.42917 210.43777 428
84.07837 12.71490 178.99207 463
67.99107 14.23439 180.09311 459
63.45640 14.67530 184.55577 454
58.76017 15.11803 189.22321 450
53.80445 15.58197 194.13736 445
48.62888 16.09272 199.27592 440
43.21240 16.62147 204.73648 435
37.41410 17.14044 210.48778 429
84.40696 8.25368 179.18993 464
68.33860 9.24527 180.29030 460
63.88248 9.55321 184.75203 455
59.20114 9.86936 189.39024 451
54.36662 10.14987 194.27531 446
49.21923 10.50486 199.40726 441
43.85353 10.83541 204.83304 436
38.09690 11.22083 210.55185 430
-181.44307 25.13847 270.06128 486
-187.97021 25.48669 284.76120 360
84.72794 3.83225 179.34547 465
68.73706 4.33755 180.48010 461
64.32890 4.49517 184.91109 457
59.71893 4.66092 189.52278 452
54.92921 4.78097 194.39841 447
49.82790 4.97794 199.49998 442
44.47273 5.14474 204.89717 437
38.81025 5.32363 210.61459 431
-181.44003 12.34581 270.01944 487
