# .PCD v.7 - Point Cloud Data file format
VERSION .7
FIELDS x y z rgb
SIZE 4 4 4 4
TYPE F F F U
COUNT 1 1 1 1
WIDTH 588
HEIGHT 1
VIEWPOINT 6737.292969 803.270569 137.877151 -0.650248 -0.089151 -0.079315 0.750293
POINTS 588
DATA ascii
84.92917 -0.76587 179.48543 316
69.06463 -0.79340 180.61238 462
64.70435 -0.75960 185.00873 457
60.16151 -0.78290 189.65381 453
55.36817 -0.78173 194.43454 448
50.36526 -0.79526 199.53299 443
45.03721 -0.78173 204.85860 438
39.44486 -0.77044 210.53915 432
-152.76456 -0.79826 241.22256 419
-181.54117 -0.80761 269.87241 487
-144.49913 -0.74083 277.25287 284
84.58075 -5.11154 179.39024 465
68.58469 -5.62875 180.46730 461
64.18131 -5.76726 184.87997 456
59.60735 -5.89918 189.54364 452
54.81989 -6.08018 194.35246 447
49.75985 -6.21105 199.46968 442
44.42382 -6.41322 204.81197 437
38.74915 -6.59589 210.49245 431
-153.07491 -12.56737 241.19337 416
-181.59406 -13.51294 269.81137 487
-150.14153 -12.49246 278.19699 285
84.24422 -9.53870 179.21812 464
68.20687 -10.53810 180.31363 460
63.75433 -10.79298 184.73965 455
59.10985 -11.09946 189.36748 451
54.26094 -11.39433 194.22604 446
49.14708 -11.71813 199.35693 441
43.73192 -12.08190 204.76851 436
38.05955 -12.44541 210.48886 430
-181.55162 -26.24751 269.93954 486
83.94781 -13.95542 179.02682 463
67.87168 -15.46636 180.13300 459
63.36554 -15.87611 184.57950 454
58.64456 -16.35053 189.24713 449
53.68785 -16.79503 194.09438 445
48.55249 -17.29137 199.25658 440
43.08589 -17.80407 204.70370 435
37.36443 -18.36517 210.44026 429
-181.49863 -39.09594 270.11044 486
83.65266 -18.44726 178.81789 462
67.53764 -20.44612 179.89792 457
62.99236 -21.05216 184.39412 453
58.24101 -21.62434 189.04597 448
53.27217 -22.26169 193.95567 443
47.98347 -22.92083 199.13997 438
42.45631 -23.65366 204.62286 433
36.63375 -24.36110 210.41275 428
83.37743 -22.98139 178.55014 461
67.23038 -25.50535 179.63664 456
62.62029 -26.26330 184.14220 452
57.86350 -27.03013 188.86951 447
52.82526 -27.81983 193.79684 442
47.44588 -28.64989 199.01474 419
41.40465 -29.60755 204.48032 414
34.84470 -30.66662 210.31389 402
83.15579 -27.54153 178.23851 459
66.66114 -30.69386 179.29289 435
61.68742 -31.63381 183.76564 431
56.46830 -32.64592 188.44681 426
50.92974 -33.70188 193.39662 421
45.10201 -34.82988 198.64275 416
38.68296 -36.03838 204.22191 404
31.62141 -37.37357 210.17386 399
-182.97290 -78.35282 216.57184 424
82.75648 -32.25867 177.88927 439
64.98308 -36.22758 178.64005 432
59.82882 -37.38184 183.19261 428
54.43863 -38.61932 187.95189 423
48.73257 -39.85446 192.97055 418
42.44055 -41.26343 198.29625 406
35.64684 -42.77588 203.91998 401
28.11422 -44.50181 209.99086 358
-189.38350 -93.12642 216.48569 296
81.46242 -37.29901 177.18716 435
70.33186 -40.14774 179.64505 308
57.92944 -43.33960 182.49721 424
52.36253 -44.74778 187.33612 420
46.16653 -46.37687 192.40361 408
39.55173 -48.05049 197.82248 402
32.48030 -49.90070 203.64325 397
-188.46227 -106.57156 202.60152 484
80.15006 -42.51788 176.49506 432
71.64491 -44.97574 179.61380 308
55.97842 -49.54657 181.79106 414
49.92289 -51.29351 186.64665 409
43.43266 -53.16005 191.82559 404
36.25952 -55.23773 197.33417 387
28.26590 -57.55487 203.23712 371
78.77712 -47.92994 175.70171 427
73.14944 -49.73576 179.59409 308
53.57224 -56.10643 180.93703 397
46.86036 -58.29676 185.84543 393
39.69402 -60.59719 191.05626 388
31.71888 -63.17641 196.65433 372
22.50323 -66.16704 202.67339 367
77.42236 -53.50143 174.83148 423
72.28996 -55.38216 178.98717 419
50.17481 -63.33348 179.82124 393
43.12294 -65.88422 184.81436 388
35.20183 -68.69130 190.17279 372
26.21520 -71.98395 195.85837 367
15.07189 -75.98805 202.02531 332
76.02065 -59.34807 173.93173 420
70.09554 -61.71950 177.97829 386
46.62362 -70.97962 178.64485 388
38.77233 -74.11054 183.70042 373
28.97498 -78.01069 188.93791 336
15.94249 -83.16725 194.51091 316
-2.08030 -90.28620 200.60524 284
73.19845 -66.04015 172.50908 386
66.64483 -68.90758 176.58023 395
54.30951 -74.21605 179.78033 300
30.59307 -84.50750 181.78056 336
17.01696 -90.40275 186.88562 315
73.03988 -71.87254 171.84691 316
63.20833 -76.51400 175.07941 390
56.67954 -79.58365 179.74376 300
16.06337 -98.64897 178.59171 286
-24.11494 -117.56638 180.46167 284
75.32600 -76.59949 171.78802 316
58.36008 -85.24833 173.18439 328
48.08548 -90.52291 177.27263 325
26.92961 -101.29876 180.00844 292
77.82253 -81.30976 171.77980 316
56.61563 -92.93889 171.96654 308
31.02168 -107.01746 172.70094 272
-50.75422 -151.97069 164.76245 373
80.40078 -85.89718 171.75786 316
59.58726 -98.19086 171.93513 308
32.24471 -114.38791 172.18102 300
-43.55441 -159.20122 165.17975 286
83.12610 -90.44079 171.72667 316
62.72238 -103.41469 171.92101 308
35.81853 -120.46967 172.15588 300
86.01451 -94.87148 171.71060 316
65.97860 -108.47207 171.90395 308
3.70353 -150.79770 163.50740 382
-3857.41333 -2775.14575 55.03739 303
89.05370 -99.24824 171.67786 316
69.40694 -113.50954 171.87337 308
18.51493 -150.43407 165.91017 389
-3467.07104 -2682.48706 67.13889 363
92.19662 -103.48892 171.66042 316
72.97396 -118.39970 171.84076 308
24.11043 -156.27203 166.14795 297
-3421.22388 -2828.99048 65.59867 476
-3421.32104 -2828.27197 216.70235 449
95.45399 -107.66887 171.65869 316
48.85265 -146.22545 163.35257 300
-3241.85889 -2868.48828 68.93513 309
98.85184 -111.73226 171.63760 316
56.52959 -149.05388 164.27567 404
102.40806 -115.70638 171.59760 316
67.34173 -148.64462 166.21906 409
106.03642 -119.62580 171.55600 316
72.54279 -153.12199 166.32791 306
87.38669 -144.89037 163.53574 307
93.21384 -147.64816 164.06575 424
101.68313 -147.05574 165.68869 419
-653.70471 -1059.95667 80.87148 333
108.10522 -148.40616 166.46376 314
114.93840 -148.93156 167.44795 316
410.54367 -1998.43164 150.43690 428
469.11731 -1958.85413 151.39833 467
526.20984 -1924.62036 152.24835 488
583.86066 -1900.18103 153.11629 495
641.69788 -1881.42432 153.30846 498
369.21313 -575.94049 98.29188 499
369.87238 -578.55072 117.99338 499
370.61493 -581.19543 137.59926 499
371.18555 -583.66150 157.27264 499
371.82590 -586.08160 176.81334 487
702.11523 -1873.30957 153.27844 495
764.33759 -1869.78540 152.56299 493
827.35754 -1866.36841 152.09314 491
890.84888 -1859.52441 151.90219 489
956.50372 -1857.07202 151.28973 486
1024.00122 -1855.78088 149.98584 473
1101.01038 -1870.41467 148.98004 448
14983.14062 -17846.99805 3265.12061 0
368.56335 -108.04345 167.61555 313
371.75476 -103.32519 167.62703 315
374.83835 -98.49979 167.64478 315
380.80429 -95.37138 166.73332 434
388.24408 -92.83256 165.33838 429
392.93311 -88.46548 164.73157 317
395.63333 -83.07246 164.74675 317
409.91205 -89.79452 167.78067 305
374.68378 -67.39637 171.54610 316
412.39792 -83.71600 167.81979 305
376.62543 -62.52612 171.58801 316
420.30902 -79.81983 166.42088 429
378.40359 -57.52920 171.57866 316
428.76288 -75.70644 164.90820 424
380.02194 -52.55157 171.60689 316
431.25772 -69.19617 164.86731 308
381.48853 -47.50986 171.63411 316
404.54190 -54.19901 171.86641 309
455.32452 -68.94929 167.89091 297
1358.15796 -331.32919 177.74117 264
267.54782 -12.81647 203.50098 314
406.01932 -48.35662 171.83243 309
456.96823 -61.47541 167.93552 298
1337.01636 -287.36725 141.05040 349
1327.83362 -285.14276 179.09499 424
1389.24829 -300.77695 216.61916 386
265.48868 -11.38564 203.49808 314
405.16498 -42.59844 171.82193 309
463.51761 -55.68962 166.52840 452
1304.07202 -243.47165 143.69211 428
1304.82959 -243.80814 180.26587 432
1353.51892 -254.82756 216.77957 436
265.86591 -9.89135 203.50188 314
406.37872 -36.71626 171.86104 309
470.68451 -48.97265 165.42537 448
1282.52954 -203.93150 145.58701 443
1289.97156 -205.56461 180.92122 420
1429.63098 -231.95183 216.55968 334
266.21265 -8.39895 203.50032 314
407.48273 -30.77114 171.87663 309
473.70187 -41.31278 165.08574 300
1337.05029 -177.93469 104.99876 366
1268.12048 -167.22647 146.94635 457
1277.51184 -168.64108 181.52060 405
266.49286 -6.88831 203.49840 314
408.37830 -24.84061 171.89340 309
439.61002 -28.75373 172.19638 301
1261.94800 -132.73569 113.01594 326
1248.94031 -131.15663 148.61925 462
1267.81555 -133.49014 182.08875 366
263.23715 -5.03795 204.44411 314
409.10791 -18.83696 171.89621 309
440.44391 -21.83016 172.20708 301
1238.83313 -97.25763 115.76091 433
1232.95178 -96.67400 149.84515 472
1261.33203 -99.56969 182.39502 367
263.42111 -3.62459 204.44984 314
409.61865 -12.84589 171.89044 309
441.01733 -14.83204 172.19038 301
1223.58728 -64.18977 117.46911 443
1220.77234 -63.88946 150.78833 481
1268.30994 -66.92165 182.31149 465
1343.58813 -71.53588 216.77916 261
1310.95276 -69.67848 288.35925 266
1262.96899 -66.63511 319.71323 493
263.55994 -2.20622 204.44684 314
409.99683 -6.82471 171.86714 309
441.42422 -7.80957 172.17259 301
1211.61218 -31.99760 118.72867 478
1210.42651 -32.01587 151.50998 473
1251.44922 -33.44093 182.75827 468
1328.53857 -35.83687 216.64224 261
1243.51819 -32.97670 250.12148 489
1242.69495 -33.04964 283.78455 493
1247.81567 -33.16929 318.04425 413
263.65637 -0.79390 204.44954 314
410.13867 -0.78083 171.87071 309
441.63055 -0.80983 172.19073 301
510.75320 -0.82435 168.33130 288
1201.20642 -0.85930 119.85570 480
1201.12573 -0.96087 152.13887 475
1240.49622 -0.91805 183.25395 494
1238.23889 -0.97008 216.72742 493
1237.74670 -0.77468 250.17555 494
1236.05737 -0.86416 283.24667 494
1220.29431 -0.81187 315.39865 331
263.70615 0.62496 204.45093 314
410.11752 5.19681 171.87947 309
441.58838 6.17955 172.19952 301
1191.92090 29.75494 120.62717 485
1192.97595 29.74009 152.89525 479
1234.10278 31.16529 183.57175 495
1231.61768 30.79875 216.73843 495
1231.12280 31.00783 249.87398 496
1229.70178 30.75459 283.12161 496
1212.84839 30.24969 314.79700 472
263.70590 2.03334 204.43994 314
409.95789 11.22871 171.86597 309
441.38351 13.21777 172.16922 301
1183.82080 59.89276 121.33586 488
1185.67944 59.92495 153.26041 482
1221.74927 62.18314 183.69312 496
1220.62134 62.11285 216.76512 497
1218.30701 61.84091 249.35599 495
1217.02551 61.78513 282.11142 495
1206.29810 61.26757 314.14890 473
263.67038 3.44511 204.44147 314
409.54337 17.24752 171.87000 309
440.95123 20.16893 172.15561 301
1176.49182 89.65071 121.85960 490
1178.60815 89.92529 153.50591 483
1215.31311 93.35124 183.99269 497
1213.29150 93.04697 216.56650 497
1212.89709 93.01705 249.48903 498
1211.22302 92.96655 282.03882 498
1199.93762 91.84444 313.70731 474
267.07898 5.30030 203.50922 314
409.01791 23.20188 171.84198 309
440.27203 27.15283 172.15198 301
1169.99097 119.20573 122.20370 491
1172.46997 119.53178 153.68138 484
1208.83032 124.20670 184.04092 498
1207.03931 123.83488 216.73911 498
1205.48596 123.62703 249.27489 499
1203.78589 123.57088 281.66858 499
1193.61719 122.15705 313.31525 474
266.94116 6.80925 203.50110 314
408.27411 29.17680 171.86203 309
474.55829 39.65294 165.08267 300
1163.86426 148.66243 122.37449 492
1166.20801 149.18222 153.79282 458
1208.09790 155.85387 183.96201 498
1205.75720 155.53809 216.62773 498
1205.32458 155.33754 249.31903 499
1203.92627 155.00232 282.12268 499
1187.29736 152.44954 313.24625 475
266.74820 8.32502 203.49899 314
407.36707 35.13775 171.82982 309
471.68848 47.37006 165.41481 448
1157.90820 178.16025 122.69759 492
1160.35608 178.75932 153.97040 458
1201.84326 186.54623 183.94701 499
1199.49133 186.01756 216.71449 498
1198.91589 186.08800 249.22762 499
1197.61145 185.80550 281.94907 499
1180.95154 182.51595 313.13910 475
1326.41162 210.21875 365.11996 408
266.51566 9.81953 203.49779 314
406.25766 41.02340 171.83113 309
464.53864 54.09632 166.56857 452
1151.71313 207.63687 122.53711 492
1154.36157 208.14493 153.77521 458
1195.52734 217.43031 184.04176 499
1193.02466 216.76421 216.63602 498
1192.61462 216.66589 249.45164 499
1191.08203 216.32161 282.11700 499
1174.70239 212.85393 313.00314 475
1266.09741 233.14400 357.87692 499
266.22421 11.29975 203.50650 314
404.98380 46.90827 171.84329 308
455.97849 59.98042 167.92043 297
1145.52271 237.06334 122.54742 491
1148.02087 237.62187 153.73517 458
1188.86609 248.25542 183.86610 498
1187.54028 247.63538 216.80617 499
1186.15540 247.33316 249.42764 499
1184.51904 247.06595 282.15717 499
1168.57275 242.91316 313.36737 475
1238.54553 260.83920 355.23618 498
1272.82007 269.63080 396.33243 469
265.88983 12.78405 203.50761 314
403.51318 52.74263 171.78368 308
454.32898 67.52523 167.86949 297
1139.61755 266.42447 122.34122 490
1142.08643 267.11829 153.60019 457
1423.05090 348.84320 175.75594 498
1165.25842 273.99869 313.79749 430
1260.80920 301.65106 359.56299 287
265.52408 14.25046 203.50664 314
430.28055 67.78268 164.86429 308
1133.40076 296.28186 122.04324 490
1135.82373 297.04190 153.51144 457
1415.05286 387.75351 175.66690 497
1246.57275 332.83688 358.90143 487
1294.18042 348.36389 403.46353 453
265.09766 15.68822 203.50159 314
428.01221 74.34496 164.84729 308
1127.46985 326.00079 121.68021 489
1129.44458 326.70099 153.16434 483
1267.60242 376.49435 363.37405 322
1267.27930 376.32956 400.67151 347
375.64514 61.06513 171.53194 316
420.88300 78.96143 166.05263 429
1121.20569 356.11154 121.26361 488
1123.16394 356.81125 152.87135 480
373.78125 65.97558 171.49387 316
412.85477 82.90061 167.46628 435
1114.87878 386.63412 120.70911 486
1163.99231 407.92499 149.17908 277
1427.25073 521.64618 173.64261 296
394.78818 81.70374 164.65939 317
409.01947 88.38769 167.76089 305
1108.83191 417.44403 119.79458 484
1153.76013 438.83536 148.88969 277
1330.53088 521.74823 176.72095 492
392.11844 87.12097 164.67760 317
1102.27795 448.95514 119.26962 483
583.62036 297.30853 -42.81919 478
1196.79761 497.03366 180.72517 269
388.65219 92.10522 164.91191 429
1095.92126 480.91278 118.37337 480
1096.39844 480.94443 151.27629 476
1186.40283 530.74078 180.61609 269
1127.63135 498.26392 216.58643 493
381.19894 94.67947 166.28116 434
1089.31238 513.35553 117.13544 478
1089.43323 513.35150 150.49524 474
1121.98315 532.65942 182.33116 485
374.12616 97.15038 167.59286 439
1082.53186 546.51550 116.16361 475
1082.19031 546.52478 149.75082 472
1115.32520 567.28613 182.11578 497
1188.57983 613.71716 216.82959 357
371.03897 101.96105 167.56979 315
1075.80420 580.71326 114.85347 473
1074.87976 580.35907 149.02606 469
1162.23340 639.53271 179.31726 499
1162.24646 639.64606 216.73975 499
367.90234 106.69723 167.58136 315
1175.34985 693.36603 100.32464 383
1150.14343 674.89227 141.48550 417
1143.99548 670.37299 179.49005 499
1143.96985 670.42981 216.77299 499
1139.01331 711.89624 178.49870 443
42184.31641 39400.80859 -15198.50488 0
222.74232 34277.00391 -2029.03906 0
-181.86737 929.71356 82.98277 488
-183.75128 934.23639 116.30343 488
-185.61163 938.65552 149.60577 486
126.60025 147.99675 169.40369 441
117.83342 151.10191 167.43063 316
110.91795 150.90601 166.37160 314
106.29708 147.36810 166.37581 314
99.00217 147.05403 165.19601 419
90.58221 147.51791 163.65936 424
85.69545 143.75935 163.50883 307
73.60590 156.67508 166.24796 305
102.45882 118.24556 171.51602 316
68.73846 151.96033 166.28233 305
98.94417 114.37519 171.54672 316
62.47339 148.64172 165.72456 409
95.55141 110.36838 171.60350 316
51.70192 149.04886 163.84219 403
-1077.15588 1144.59607 45.75840 459
-1136.23938 1196.31665 97.73647 437
92.26350 106.29274 171.60135 316
73.48320 121.86658 171.79756 308
-1078.92493 1075.07495 50.02126 430
-1127.72290 1115.93127 101.77623 419
89.08324 102.11742 171.65063 316
69.86969 117.07976 171.83621 308
20.74226 155.12852 166.00586 297
-1049.69397 985.54559 57.89975 401
-1119.96753 1039.93176 105.40047 424
86.07228 97.85847 171.67772 316
66.42046 112.15875 171.83261 308
13.75471 150.44107 165.46785 389
-1111.07764 967.62244 54.35820 405
-1098.92310 959.07672 109.35555 457
83.17845 93.48151 171.71819 316
63.11433 107.15668 171.89464 308
-1.07896 150.79872 163.01910 382
-1190.95911 959.68616 48.39151 397
-1174.41809 948.48285 105.95123 413
-1502.56116 1171.78064 147.93121 414
80.44288 89.03394 171.74660 316
59.95851 102.03792 171.87505 308
33.02969 119.14960 172.14633 300
-1257.66016 938.45905 101.85056 407
-1571.40796 1137.49341 146.84865 485
77.80992 84.51390 171.75912 316
56.98839 96.84296 171.92134 308
29.50014 113.06240 172.11983 300
-46.72116 158.15952 165.08965 286
-1348.03369 928.08368 97.01981 401
-1563.28711 1055.13782 148.46684 429
75.32352 79.92542 171.77354 316
54.15591 91.59124 171.95815 308
39.18388 99.79259 175.14267 319
9.48563 116.09156 176.60330 270
-1442.25159 914.27728 92.06558 394
-1553.85315 975.85461 150.07732 433
73.03987 75.22095 171.79611 316
60.54839 81.58122 174.34848 385
51.67884 86.06949 178.55856 325
24.40809 100.04148 179.99588 292
-1572.38538 913.90570 84.41005 329
70.83091 70.49474 171.80453 316
64.14878 73.59690 175.88643 390
54.36390 78.20450 179.75885 300
22.12575 93.41446 180.13516 314
-26.72718 116.40653 180.41910 284
73.99707 63.42587 173.34352 386
67.54514 66.23145 177.31090 395
43.55084 76.61539 177.87177 373
33.17343 81.06471 182.61868 336
20.89481 86.43931 187.76527 315
0.81812 95.07552 192.85123 283
76.20161 57.12067 174.50337 420
70.95762 59.17893 178.65819 386
47.47792 68.46687 179.23050 389
39.97334 71.43498 184.24666 373
31.24451 74.89205 189.58952 368
19.36042 79.60049 195.12355 332
2.51958 86.31603 201.11713 311
77.58347 51.38083 175.40028 423
72.52950 53.22462 179.48622 419
50.94464 60.99346 180.40329 393
43.99059 63.48288 185.32788 388
36.46455 66.21333 190.60780 373
27.58862 69.39436 196.20877 368
17.86801 72.86653 202.38420 362
78.95984 45.87044 176.19670 427
71.42822 48.32711 179.59834 308
54.10639 53.94958 181.44238 410
47.68133 56.04789 186.28526 393
40.59605 58.35215 191.43571 388
32.98372 60.82088 196.99966 372
23.90911 63.74707 202.97226 367
-3854.31909 1324.50317 75.84829 485
-3856.20825 1325.07996 216.34418 485
80.32079 40.58902 176.94426 432
70.07893 43.56926 179.63017 308
56.35475 47.54586 182.21637 421
50.40589 49.28057 187.04025 409
44.02350 51.08639 192.17230 404
37.20599 53.09734 197.60233 399
29.48393 55.32158 203.44582 382
81.64071 35.45443 177.64774 435
63.50587 40.08774 178.33240 429
58.26743 41.44460 182.87805 424
52.78975 42.87387 187.71281 420
46.71981 44.41482 192.74948 408
40.19682 46.11139 198.08507 403
33.19138 47.89955 203.80894 397
-188.46664 104.77150 202.68788 483
82.82778 30.52379 178.24092 457
65.24602 34.41880 179.02545 432
60.18601 35.56915 183.50708 428
54.84261 36.75284 188.23541 423
49.18000 38.03782 193.21936 418
43.02828 39.40472 198.49229 406
36.30748 40.93441 204.13458 401
28.85380 42.56573 210.13583 358
-185.22552 90.44151 216.60031 296
83.02065 25.90000 178.53568 459
66.85700 28.97709 179.64313 455
62.04806 29.92900 184.10396 431
56.87108 30.88249 188.76639 426
51.39651 31.92346 193.67990 421
45.59575 33.05676 198.85709 416
39.30707 34.24374 204.40991 405
32.35673 35.55679 210.30556 364
-182.82527 76.60020 216.56789 424
83.29730 21.36845 178.80431 461
67.14469 23.92413 179.89462 456
62.59739 24.62838 184.39514 452
57.80709 25.41022 189.07675 447
52.80748 26.20029 193.96075 442
47.53411 27.03276 199.18309 437
41.95628 27.89768 204.65019 414
35.51115 28.92167 210.41109 402
83.57473 16.86828 179.04202 462
67.45551 18.88623 180.12560 457
62.95634 19.47545 184.56331 453
58.21566 20.07477 189.24811 448
53.27390 20.69944 194.12311 443
48.04329 21.34783 199.27231 438
42.54467 22.02732 204.70256 433
36.75356 22.77407 210.50906 428
83.88075 12.38775 179.20482 463
67.82977 13.90890 180.29562 459
63.35764 14.33335 184.75922 454
58.62117 14.80065 189.37375 450
53.74678 15.25665 194.24109 445
48.58265 15.74333 199.37791 440
43.19741 16.27138 204.80870 435
37.42319 16.77613 210.53012 429
84.20219 8.00515 179.38705 464
68.21816 8.99990 180.46318 460
63.74809 9.25831 184.90746 455
59.12725 9.58482 189.53973 451
54.25983 9.88677 194.38055 446
49.21615 10.18197 199.46397 441
43.79961 10.54274 204.85994 436
38.14707 10.87735 210.56219 430
-181.46407 24.73569 269.97052 486
-187.20679 25.06176 284.41907 360
84.52383 3.60101 179.50423 316
68.61845 4.12717 180.62343 461
64.24126 4.26745 185.03780 457
59.64214 4.40319 189.63065 452
54.86126 4.53626 194.49753 447
49.80654 4.72399 199.54582 442
44.49304 4.86312 204.92336 437
38.84601 5.04219 210.59315 431
-181.58604 12.03323 269.88657 487
