# .PCD v.7 - Point Cloud Data file format
VERSION .7
FIELDS x y z rgb
SIZE 4 4 4 4
TYPE F F F U
COUNT 1 1 1 1
WIDTH 535
HEIGHT 1
VIEWPOINT 6689.960449 530.473083 138.525970 -0.646390 -0.092474 -0.078754 0.753277
POINTS 535
DATA ascii
84.93435 -0.68309 179.49004 316
69.05775 -0.66564 180.64133 462
64.66962 -0.65977 185.06630 457
60.11111 -0.64752 189.66960 453
55.31336 -0.63945 194.55153 448
50.26254 -0.63628 199.63586 443
44.93374 -0.66980 205.00273 438
39.34070 -0.63516 210.68213 432
-181.44133 -0.64934 270.05911 487
-142.70732 -0.60705 277.22104 284
84.56297 -5.03429 179.40804 465
68.57708 -5.54902 180.51970 461
64.15112 -5.67113 184.97124 457
59.55503 -5.84601 189.60768 452
54.69673 -5.96262 194.44133 447
49.62376 -6.12878 199.55525 442
44.29615 -6.28252 204.93132 437
38.59415 -6.45369 210.64508 431
-181.45618 -13.42150 270.12418 487
-148.48560 -12.36874 278.22339 285
84.20612 -9.46349 179.24362 464
68.16919 -10.46741 180.39043 460
63.67441 -10.72333 184.83009 455
59.00277 -11.02408 189.47305 451
54.14683 -11.32880 194.34071 446
49.02146 -11.66286 199.45792 441
43.60222 -11.98020 204.91641 436
37.93160 -12.34721 210.64360 430
-181.43752 -26.15058 270.11966 486
83.89290 -13.88284 179.09300 463
67.78908 -15.41311 180.21265 459
63.29002 -15.82916 184.69092 454
58.55876 -16.28332 189.34200 450
53.59327 -16.75246 194.21085 445
48.42847 -17.21491 199.37502 440
42.98573 -17.73358 204.84366 435
37.18047 -18.27988 210.59680 429
-181.40746 -38.94092 270.25906 486
83.55080 -18.35954 178.89896 462
67.44537 -20.40810 179.98981 457
62.89201 -20.99437 184.48045 453
58.10654 -21.57246 189.19586 448
53.13813 -22.18930 194.07631 443
47.85999 -22.85305 199.27301 438
42.33373 -23.55175 204.76079 433
36.51128 -24.27566 210.54527 428
83.29588 -22.88381 178.66660 461
67.10339 -25.43938 179.78416 456
62.49361 -26.16929 184.28726 452
57.72095 -26.95134 188.98186 447
52.69948 -27.73470 193.94601 442
47.32031 -28.55958 199.14046 419
41.27232 -29.52338 204.60303 414
34.71127 -30.59385 210.46507 402
83.02511 -27.48836 178.38077 459
66.54893 -30.62714 179.44031 435
61.61250 -31.54800 183.93307 431
56.34727 -32.54211 188.63098 426
50.85123 -33.62704 193.57336 421
44.97852 -34.71453 198.79153 416
38.53475 -35.97263 204.39345 404
31.43594 -37.30865 210.32870 364
-182.79466 -78.19456 216.65607 424
82.64152 -32.17362 178.04979 439
64.85712 -36.15463 178.83147 432
59.73242 -37.28581 183.35707 428
54.32594 -38.50587 188.11885 423
48.63347 -39.75676 193.10883 418
42.33337 -41.16182 198.44785 406
35.51849 -42.66986 204.11510 401
27.92533 -44.36898 210.13417 358
-189.65912 -92.98412 216.66821 296
81.30082 -37.17387 177.39297 435
63.10322 -41.84205 178.12422 429
57.81681 -43.19292 182.68546 424
52.23084 -44.60463 187.51370 420
46.04705 -46.23260 192.61517 408
39.42121 -47.89684 197.98514 402
32.33183 -49.71549 203.75554 397
-188.37108 -106.34987 202.79817 484
79.97816 -42.34424 176.70758 430
70.69749 -45.03645 179.61722 308
55.85951 -49.36658 181.99850 414
49.80821 -51.11310 186.84297 409
43.31435 -52.95809 192.02376 404
36.19386 -55.04665 197.52209 387
28.20733 -57.36502 203.38423 371
78.62049 -47.71258 175.93732 427
72.06605 -49.84186 179.63031 308
53.44827 -55.85988 181.17961 397
46.79685 -58.01469 186.08240 393
39.59536 -60.37814 191.26328 388
31.71846 -62.92729 196.88094 372
22.49197 -65.90109 202.88756 367
77.24285 -53.27266 175.10918 423
72.13088 -55.09885 179.25632 419
50.13096 -63.03722 180.09596 393
43.06914 -65.56393 185.10312 388
35.23011 -68.35081 190.41090 372
26.18231 -71.63842 196.05194 367
15.30883 -75.56758 202.19130 332
-5031.65771 -1892.10144 34.18605 450
75.84119 -59.02577 174.22472 420
70.00856 -61.33599 178.28604 386
46.58923 -70.61687 178.90359 388
38.78395 -73.69837 183.94199 373
29.19943 -77.49674 189.20465 336
16.34012 -82.60429 194.75871 316
-1.51074 -89.64221 200.82565 311
73.13021 -65.63451 172.90108 386
66.62980 -68.42455 176.94641 395
52.84252 -74.37822 179.77477 300
30.81280 -83.89399 182.09247 336
17.44056 -89.67414 187.21471 315
-13.98235 -103.28186 191.21474 265
71.64162 -71.96373 171.83786 316
63.23267 -75.89200 175.49631 390
55.12179 -79.70248 179.76756 300
17.42233 -97.43031 179.18761 286
-25.90847 -117.87286 180.47685 284
73.81489 -76.71850 171.80138 316
58.93651 -84.32913 173.72568 328
48.76844 -89.50640 177.80835 325
25.16769 -101.48623 180.00995 292
76.20184 -81.36813 171.79669 316
54.94611 -93.03518 172.00089 308
34.79558 -104.16390 173.97166 272
-52.10060 -151.94519 164.87238 373
78.66419 -86.00498 171.77205 316
57.81340 -98.35577 171.94637 308
30.36495 -114.52925 172.20107 300
-45.75806 -159.59985 165.14197 286
81.30507 -90.50994 171.74736 316
60.83968 -103.49864 171.92502 308
33.88113 -120.63725 172.13338 300
84.08588 -94.98789 171.75897 316
64.01875 -108.60791 171.88763 308
1.84322 -150.87393 163.51697 382
87.00830 -99.34180 171.73293 316
67.35775 -113.63027 171.87726 308
16.60159 -150.52409 166.02016 389
90.06042 -103.60603 171.69255 316
70.81032 -118.54314 171.85927 308
21.82132 -156.52773 166.07545 297
93.20854 -107.74740 171.64304 316
46.49751 -146.43817 163.35057 300
-3077.08032 -2731.01489 76.65432 310
96.54453 -111.84621 171.64450 316
54.24372 -149.11578 164.34612 404
-2806.97974 -2671.74561 84.08969 314
-2917.71606 -2769.26709 216.61302 390
99.97567 -115.82258 171.59142 316
64.90035 -148.76926 166.25821 409
-2910.21069 -2942.61523 76.21743 284
103.54509 -119.65052 171.56299 316
69.88800 -153.30663 166.32047 306
-2681.73193 -2904.83008 81.74533 411
86.68799 -145.23244 163.50787 307
92.82600 -147.70755 164.14255 424
-14010.10645 -16144.54883 -4800.88281 0
101.23283 -147.10501 165.77043 419
107.49139 -148.74551 166.46614 314
113.99901 -149.68880 167.33473 266
120.90317 -149.72626 168.35863 489
127.78873 -149.36769 169.44699 396
697.76550 -2134.32007 145.29276 423
752.65210 -2073.26611 146.37822 453
807.56512 -2020.33716 147.66969 473
862.94879 -1978.78516 148.29913 485
920.78040 -1944.88367 149.10207 497
977.85254 -1923.73157 150.05147 499
1040.16077 -1903.38770 149.64984 498
1102.56189 -1883.45251 149.56010 497
1164.67102 -1860.29565 149.14996 496
1227.49463 -1839.54797 148.92944 495
1294.06641 -1822.16028 148.03352 491
665.46313 -578.10260 96.13015 478
667.84027 -581.16876 120.15127 478
671.25250 -585.42468 143.93990 430
688.10474 -569.27094 94.91965 348
366.44162 -108.07569 167.60463 315
369.80402 -103.36794 167.66115 315
373.00830 -98.50093 167.64867 315
379.71521 -95.74928 166.51636 434
387.27820 -93.16657 165.17174 429
391.54788 -88.49768 164.71924 317
394.40634 -83.10787 164.68797 317
408.66602 -89.81193 167.76895 305
373.58838 -67.42556 171.55382 316
411.81265 -83.98326 167.67566 434
375.66092 -62.51156 171.58070 316
419.89664 -80.06339 166.34998 429
377.57565 -57.54591 171.58658 316
428.19095 -75.75909 164.90094 308
379.31482 -52.55776 171.58936 316
430.63013 -69.21764 164.85182 308
266.52451 -14.25805 203.50246 314
404.01703 -54.19732 171.81473 308
454.85815 -68.96741 167.87733 297
267.03198 -12.78034 203.50984 314
405.69504 -48.36700 171.83762 309
456.65088 -61.45596 167.94948 297
267.50650 -11.30003 203.50087 314
407.12595 -42.51255 171.84528 309
463.97443 -55.22418 166.85286 452
1688.89148 -329.23297 167.62041 276
267.92184 -9.80603 203.50011 314
408.39740 -36.63112 171.89645 309
471.05658 -48.55895 165.77405 448
1614.71912 -267.01028 170.14049 439
1656.07251 -274.39227 216.76930 342
268.30460 -8.29589 203.49863 314
409.52954 -30.65852 171.89537 309
475.78119 -41.20219 165.07993 300
1663.69336 -229.49765 120.94940 367
1585.32593 -217.15880 171.66112 455
1705.02258 -235.70030 216.88008 496
268.62070 -6.78671 203.50125 314
410.41644 -24.74130 171.87729 309
441.69357 -28.66963 172.21024 301
1573.53650 -171.80855 127.22929 381
1563.23328 -170.30597 172.48586 459
268.90573 -5.26654 203.49927 314
411.15884 -18.74077 171.89384 309
442.50534 -21.72144 172.21111 301
1545.40137 -125.81064 129.31198 435
1545.34924 -126.06451 173.21638 456
269.13290 -3.74622 203.50365 314
411.71286 -12.75657 171.88794 309
443.11127 -14.71925 172.21799 301
1524.71069 -82.79082 130.91524 469
1531.06165 -83.00491 173.70345 434
269.31598 -2.22797 203.50710 314
412.12964 -6.74375 171.91357 309
443.58026 -7.71884 172.23854 301
1508.18896 -41.18496 132.18135 479
1519.31702 -41.52140 174.19254 417
1554.04126 -42.63561 216.67253 469
1539.84253 -42.34718 303.32605 492
269.45074 -0.69539 203.50229 314
412.31888 -0.72736 171.89728 309
443.73843 -0.70335 172.23877 301
513.16345 -0.72374 168.30200 288
1494.06055 -0.68126 133.08115 483
1508.96338 -0.71709 174.39157 418
1533.39014 -0.80457 216.71834 494
1532.41028 -0.72910 259.74478 494
1531.50427 -0.77639 302.66174 494
1644.77808 -0.85209 357.02908 494
269.53989 0.82945 203.50313 314
412.34271 5.30077 171.88721 309
443.75745 6.31509 172.20816 301
1483.26758 38.88539 134.02156 491
1499.49133 39.54365 174.64679 369
1525.04590 40.43193 216.85518 496
1524.19348 40.27731 259.43335 496
1522.85706 40.35495 301.93561 496
269.58667 2.35490 203.50194 314
412.14700 11.30200 171.90738 309
443.55170 13.31262 172.19385 301
1475.09570 78.14096 134.16367 495
1491.70972 79.36830 175.13136 370
1510.53357 80.24400 216.69484 497
1509.67566 80.29768 258.95886 495
1508.43457 80.47014 301.11218 497
269.57083 3.87512 203.51001 314
411.82343 17.31472 171.90508 309
443.15387 20.29647 172.18454 301
1463.60303 116.66366 134.80257 496
1483.61572 118.47493 175.13380 371
1502.84570 120.54846 216.53271 498
1502.29126 120.32281 258.64325 498
1499.93359 120.08929 300.96655 498
269.51807 5.39709 203.50665 314
411.29797 23.28470 171.87428 309
442.52213 27.27389 172.20438 301
1457.95593 155.46150 135.09865 498
1476.30017 157.71091 175.18141 371
1500.20886 161.01021 216.47218 499
1499.26221 160.69838 258.88358 499
1492.04626 159.81606 300.53253 499
269.40738 6.90838 203.50793 314
410.56631 29.26095 171.88129 309
476.89648 39.77571 165.07088 300
1447.45752 193.29274 135.29340 498
1468.92188 196.80354 175.10269 372
1491.76514 200.61511 216.59766 499
1491.30383 200.32307 258.59344 499
1483.82458 199.10568 300.35648 499
269.26489 8.41504 203.50522 314
409.67892 35.20143 171.85353 309
472.01965 47.07953 165.80423 448
1442.22083 232.10246 135.00839 498
1461.67078 235.83995 175.18372 372
1483.82861 240.11229 216.67723 499
1483.23352 239.82170 258.80923 499
1481.88904 239.61426 300.81393 499
1559.63330 254.61009 350.91177 499
269.06540 9.91500 203.50598 314
408.61487 41.07526 171.85870 309
464.91214 53.66782 166.92326 452
1431.77222 269.87686 135.47055 498
1454.23425 274.62894 175.30434 372
1475.80310 279.62973 216.44719 499
1474.66223 279.41385 258.72314 499
1473.73682 279.05243 300.83389 499
1551.24390 296.59537 350.84201 499
1567.68701 300.32904 398.39468 456
268.81601 11.39091 203.50841 314
407.38068 46.98951 171.82399 309
458.45102 60.09088 167.93828 297
1426.58423 308.66513 135.16216 498
1446.45667 313.84161 175.03857 316
1542.70667 338.43558 350.73047 499
1587.53369 349.86838 402.40103 488
382.86823 46.08391 171.61853 316
405.98538 52.77984 171.84651 309
456.83652 67.58257 167.87886 297
1416.03918 346.28491 134.92914 498
1439.39038 353.02634 175.17773 315
1584.41418 395.31516 356.51007 407
1577.33386 393.28360 402.49478 379
381.49561 51.13717 171.59668 316
432.80750 67.82265 164.82877 308
1410.73694 385.39474 134.58607 497
379.95862 56.14525 171.57788 316
430.37924 74.30981 164.89943 424
1400.29236 423.39651 134.52760 496
1693.79785 529.05664 165.24825 287
378.25787 61.09468 171.53722 316
421.97198 78.42359 166.42462 429
1394.81824 463.48959 134.04391 495
1517.38489 512.05914 170.96840 423
1677.96143 575.80780 216.75029 494
376.37820 65.97380 171.55315 316
414.19345 82.36251 167.80385 305
1384.22742 502.10672 133.66876 493
1408.20752 512.44171 174.17944 320
1419.04700 517.37561 216.68311 494
397.44748 81.70390 164.70145 317
411.78397 88.45419 167.72247 305
1378.42627 543.43494 132.76872 491
1399.79700 553.18469 174.09251 316
394.81668 87.12779 164.70656 317
1367.66711 582.94818 132.46429 490
1391.14221 594.66431 173.71175 315
1468.10388 634.03778 216.74628 499
390.35718 91.52447 165.26180 429
1364.12549 627.00916 131.05717 422
1444.65332 671.13214 171.07271 499
1445.36182 671.74420 216.56122 499
382.98068 94.10687 166.62469 434
1429.37183 713.12598 170.73473 462
1430.49866 713.44061 216.71011 468
376.96262 97.12334 167.60500 315
1388.31140 739.01715 261.88599 458
373.99524 101.96427 167.61948 315
370.86945 106.74221 167.55023 313
105.32682 931.70239 92.58651 496
104.85757 935.84430 123.32894 472
104.17032 941.07098 154.19142 431
116.79833 148.09189 167.29332 441
110.14034 147.35037 166.41890 314
103.22591 146.65436 165.35696 419
94.66061 147.35797 163.69525 424
-805.35669 1168.09741 63.02993 491
-859.97876 1230.05444 108.68474 295
89.69205 143.68370 163.50766 307
77.62470 156.59158 166.28339 305
-754.78534 1043.21252 75.38720 374
-864.09735 1159.19360 112.11076 357
106.36043 118.35034 171.49303 316
72.83912 151.91759 166.27122 306
-768.59076 993.14923 78.09914 444
-833.67914 1058.75708 118.18133 364
102.88100 114.46635 171.54204 316
66.71584 148.45587 165.81367 409
-819.39380 980.49658 75.26579 450
-811.71948 973.32214 123.25408 467
99.52724 110.52880 171.55843 316
55.98213 148.88576 163.89281 403
-869.64044 965.04370 72.56659 447
-861.32758 957.80347 121.61887 463
96.23800 106.41721 171.61319 316
77.45527 121.97551 171.75572 308
-923.27667 949.98669 69.48176 441
-913.15277 941.54730 119.59305 459
93.13549 102.26857 171.62921 316
73.91045 117.17941 171.78880 308
25.02878 155.13213 166.07681 297
-979.82129 934.34509 66.32497 436
-966.92487 924.53601 117.68168 454
90.12685 97.99656 171.65477 316
70.45178 112.26212 171.82785 308
18.15452 150.27861 165.53122 389
-1039.21484 918.59668 62.45898 432
-1023.35077 906.71466 115.16737 450
-1280.51733 1094.14624 155.22679 475
-27547.29297 20178.57227 1335.70093 0
87.30151 93.62234 171.65640 316
67.20055 107.30887 171.83887 308
3.38938 150.64479 163.06841 382
-1104.26953 903.58832 57.99498 404
-1081.96533 888.46948 112.58736 445
-1284.44446 1026.00452 156.40208 390
84.57567 89.18729 171.69417 316
64.05628 102.20116 171.85486 308
37.09246 119.30740 172.10318 300
-1144.08972 869.10333 110.27399 440
-1153.29785 874.78149 163.16025 438
81.98306 84.66183 171.71956 316
61.11655 96.99530 171.90459 308
33.65272 113.26015 172.11649 300
-42.10043 158.04475 165.10739 286
-1218.19482 853.63324 106.30438 397
79.56444 80.05711 171.72061 316
58.28751 91.74158 171.89021 308
33.84020 105.20872 172.91824 272
-51.10114 151.90096 164.37918 373
-1326.49683 853.04706 100.16835 355
-3184.88696 1874.10510 88.37447 496
-3184.55493 1874.74500 216.38826 425
77.27184 75.34642 171.73618 316
59.33544 84.51438 172.91577 328
48.97947 89.78944 176.99655 325
28.52634 100.18627 179.95129 292
-1511.07434 884.64728 88.49364 300
75.11444 70.62812 171.76198 316
63.76225 75.92953 174.70782 390
57.79591 78.74715 179.53233 386
18.08129 97.45819 178.60887 286
-22.58641 116.59699 180.38983 284
74.03937 65.36984 172.04907 386
67.35838 68.28938 176.16406 381
56.34591 73.03846 179.72701 300
31.49922 83.81370 181.54784 336
18.04441 89.64866 186.72108 315
-12.80536 102.95187 190.92500 266
76.71104 58.73528 173.38789 420
70.90228 61.04336 177.52396 386
47.29179 70.38033 178.23412 389
39.47595 73.48119 183.35233 373
29.78154 77.31995 188.74005 336
16.89709 82.41991 194.37938 316
-1.00069 89.52911 200.54897 311
78.16053 52.87690 174.30669 423
72.96296 54.74308 178.51987 419
50.89976 62.66752 179.42160 393
43.75781 65.25631 184.53398 388
35.87693 68.11899 189.91858 373
26.74268 71.42185 195.71284 368
15.73420 75.36310 201.92441 332
79.57209 47.24157 175.12711 429
74.54238 48.88461 179.26558 423
54.32557 55.42314 180.51384 410
47.52774 57.62247 185.46959 393
40.26268 60.02644 190.80144 388
32.29686 62.59734 196.48254 372
22.97334 65.64745 202.57893 367
80.94976 41.78625 175.87933 432
74.46070 43.70513 179.58417 308
56.67795 48.86797 181.37039 421
50.56346 50.65292 186.30957 409
44.00987 52.51641 191.52888 404
36.79348 54.64120 197.14806 387
28.74821 56.96174 203.13329 372
82.31740 36.53395 176.55501 435
73.25361 38.87271 179.59276 308
58.64276 42.58370 182.02310 424
53.00656 44.05022 186.93816 420
46.74592 45.65218 192.11270 408
40.02407 47.38973 197.60170 403
32.86507 49.22025 203.50197 397
24.21172 51.46059 209.76878 263
83.69009 31.45372 177.22305 439
65.80986 35.42670 178.05896 432
60.61388 36.62086 182.67232 428
55.14280 37.81907 187.54314 423
49.33153 39.11073 192.65135 418
42.96133 40.51714 198.04160 406
36.07463 42.09658 203.82433 401
28.48931 43.76318 209.97878 358
-188.19930 92.21682 216.63040 296
83.94331 26.71292 177.50165 459
67.56350 29.80898 178.73680 435
62.49953 30.77933 183.26624 431
57.21411 31.79941 188.03387 426
51.55911 32.90014 193.11230 421
45.64838 34.00613 198.42297 416
39.10654 35.24448 204.11023 405
31.96465 36.60151 210.12035 399
-182.83850 77.57307 216.70821 424
84.22540 22.04749 177.77516 461
67.98036 24.59906 178.99413 456
63.30883 25.35110 183.60544 452
58.41328 26.11945 188.41127 447
53.26484 26.93364 193.43996 442
47.86786 27.78243 198.75809 437
41.87994 28.74862 204.33263 414
35.22013 29.77699 210.30560 402
83.82242 17.13224 178.74214 462
67.68019 19.15932 179.85846 458
63.13837 19.75622 184.35362 453
58.39328 20.36816 189.04108 448
53.38612 20.96955 193.93967 444
48.14286 21.63738 199.15465 438
42.58251 22.37876 204.60725 433
36.75230 23.10388 210.44656 428
84.10642 12.62666 178.95973 463
68.01219 14.18309 180.08301 459
63.49828 14.58667 184.55026 454
58.80722 15.02612 189.20236 450
53.86624 15.49677 194.10973 445
48.67003 16.00819 199.24576 440
43.25935 16.55273 204.69394 435
37.48677 17.09119 210.45822 429
84.41082 8.18748 179.14575 464
68.39197 9.20795 180.26515 460
63.88884 9.48074 184.70164 455
59.24203 9.79918 189.35046 451
54.38688 10.09791 194.26427 446
49.26296 10.41721 199.38216 441
43.87253 10.77448 204.79373 436
38.16390 11.14163 210.52621 430
-181.44913 25.05494 269.98209 486
-187.74448 25.39929 284.67331 360
84.75109 3.76824 179.30629 465
68.78942 4.30416 180.42039 461
64.37305 4.43008 184.87433 457
59.79129 4.58465 189.50131 452
54.95488 4.73996 194.34032 447
49.86221 4.87278 199.45198 442
44.51939 5.05602 204.84363 437
38.87655 5.26424 210.53085 431
-181.57947 12.26423 269.90143 487
