# .PCD v.7 - Point Cloud Data file format
VERSION .7
FIELDS x y z rgb
SIZE 4 4 4 4
TYPE F F F U
COUNT 1 1 1 1
WIDTH 587
HEIGHT 1
VIEWPOINT 6738.253906 809.856750 137.561356 -0.650445 -0.088923 -0.079262 0.750155
POINTS 587
DATA ascii
84.52203 -0.75320 179.49245 316
68.98824 -0.73956 180.69878 462
64.63408 -0.72134 185.10860 457
60.05471 -0.76194 189.73433 453
55.26425 -0.72279 194.53661 448
50.28030 -0.72789 199.62532 443
44.95141 -0.72824 204.97310 438
39.38419 -0.75114 210.63039 432
-181.50914 -0.66841 269.91516 487
-143.90056 -0.75873 277.27094 284
84.48753 -5.11678 179.47014 465
68.50520 -5.60404 180.58231 461
64.13708 -5.74340 184.97571 456
59.53673 -5.89312 189.59410 452
54.69537 -6.05270 194.43716 447
49.65954 -6.18684 199.52795 442
44.32928 -6.33523 204.88742 437
38.67622 -6.56008 210.57912 431
-181.54605 -13.42878 269.93008 487
-149.56999 -12.40742 278.19757 285
84.16573 -9.51105 179.31769 464
68.12495 -10.49558 180.42445 460
63.66284 -10.77025 184.84457 455
59.00671 -11.05298 189.45596 451
54.16605 -11.38262 194.32433 446
49.06429 -11.68047 199.45178 441
43.69449 -12.05812 204.84683 436
37.97483 -12.40981 210.56300 430
-181.52588 -26.20293 269.97617 486
83.86403 -13.91829 179.11502 463
67.76443 -15.46012 180.19852 459
63.26949 -15.85054 184.66162 454
58.57811 -16.30154 189.33583 449
53.60748 -16.80534 194.22112 445
48.44086 -17.25023 199.34865 440
43.04321 -17.76817 204.78755 435
37.24171 -18.33267 210.54044 429
-181.44724 -39.01369 270.20874 486
83.55637 -18.41951 178.89844 462
67.44095 -20.41741 180.00768 457
62.91944 -21.01900 184.44855 453
58.14505 -21.60962 189.15527 448
53.16301 -22.22176 194.05283 443
47.93042 -22.88243 199.21942 438
42.37390 -23.60577 204.67380 433
36.56837 -24.35453 210.48784 428
83.29361 -22.94544 178.63332 461
67.13203 -25.51629 179.75172 456
62.53672 -26.21185 184.25891 452
57.77721 -26.99098 188.96661 447
52.71748 -27.78847 193.91167 442
47.34717 -28.61265 199.10799 419
41.32172 -29.58005 204.57201 414
34.76303 -30.63042 210.37634 402
83.09480 -27.54011 178.34569 459
66.61097 -30.65627 179.42146 435
61.63049 -31.61341 183.84335 431
56.37274 -32.61847 188.54292 426
50.89655 -33.66626 193.48383 421
45.01842 -34.81135 198.73109 416
38.58786 -36.00776 204.29506 404
31.50548 -37.38378 210.25737 364
-182.88820 -78.29485 216.57832 424
82.68787 -32.25160 177.94745 438
64.89424 -36.20948 178.73318 432
59.78759 -37.36882 183.27080 428
54.39611 -38.58155 187.99759 423
48.68262 -39.82983 193.07115 418
42.35486 -41.23352 198.35236 406
35.54792 -42.77378 203.99554 401
27.97408 -44.46355 210.07040 358
-189.70610 -93.07442 216.69194 296
81.37621 -37.25642 177.28525 435
63.13461 -41.92796 177.99431 429
57.86537 -43.28989 182.59462 424
52.30558 -44.73174 187.45589 420
46.09549 -46.31734 192.49202 408
39.48335 -48.00717 197.94183 402
32.37702 -49.87423 203.67491 397
-188.41501 -106.53400 202.69281 484
80.04656 -42.46726 176.54539 432
71.23838 -45.03079 179.61090 308
55.89275 -49.50740 181.90930 414
49.83028 -51.23446 186.75945 409
43.37815 -53.14111 191.94405 404
36.22636 -55.21136 197.40137 387
28.15475 -57.53493 203.27954 371
78.68591 -47.87749 175.76894 427
72.71149 -49.83295 179.62531 308
53.51826 -56.07046 181.02153 397
46.78050 -58.23676 185.91760 393
39.62817 -60.54969 191.17371 388
31.63416 -63.16720 196.73996 372
22.41964 -66.19021 202.78113 367
77.35213 -53.50163 174.92906 423
72.22535 -55.32956 179.05441 419
50.12565 -63.27792 179.92757 393
43.04353 -65.81923 184.90138 388
35.15247 -68.69479 190.25092 372
26.11092 -71.95438 195.92754 367
15.01416 -75.93398 202.07893 332
75.93009 -59.31295 174.02866 420
70.02528 -61.68385 178.04243 386
46.57913 -70.97874 178.71494 388
38.72185 -74.04674 183.74011 373
28.89211 -77.92943 189.06219 336
15.86723 -83.10791 194.60272 316
-2.16935 -90.26102 200.71309 284
73.16452 -66.02219 172.60005 386
66.61399 -68.83440 176.67676 395
53.85225 -74.38040 179.78101 300
30.51950 -84.42816 181.82402 336
16.88866 -90.32792 186.96071 315
72.66054 -71.94705 171.83540 316
63.16225 -76.44143 175.18066 390
56.20808 -79.68430 179.75397 300
16.05186 -98.60293 178.67535 286
-24.76581 -117.83234 180.46411 284
75.01767 -76.73055 171.81902 316
58.36993 -85.20026 173.29083 328
48.08192 -90.41222 177.36053 325
26.40016 -101.50315 180.00372 292
77.47665 -81.38919 171.80907 316
56.22248 -93.05819 171.99144 308
31.10686 -106.89305 172.82761 272
-50.90509 -151.96919 164.80180 373
80.08266 -86.02273 171.78291 316
59.22849 -98.33205 171.93074 308
31.76991 -114.57825 172.18594 300
-44.11148 -159.41502 165.15018 286
82.81921 -90.55373 171.74829 316
62.33209 -103.52634 171.92067 308
35.39473 -120.64774 172.15637 300
85.69995 -94.99584 171.72011 316
65.58516 -108.63435 171.92274 308
3.51937 -150.78378 163.56667 382
-3850.59839 -2769.43652 55.30130 296
88.69612 -99.36924 171.69839 316
69.03886 -113.64740 171.88307 308
18.39094 -150.41818 166.00787 389
-3532.07397 -2729.96680 64.72326 477
91.85226 -103.63103 171.65981 316
72.61461 -118.55523 171.84230 308
23.74233 -156.50053 166.14076 297
-3428.59009 -2834.16382 64.60704 381
-3426.50586 -2832.80884 216.99062 443
95.13234 -107.79549 171.64590 316
48.51357 -146.43094 163.39238 300
-3245.62085 -2871.68945 69.68912 285
98.58152 -111.90180 171.59901 316
56.41053 -149.07236 164.39467 404
102.09454 -115.85912 171.58276 316
67.18859 -148.65616 166.30536 409
105.77109 -119.74030 171.55310 316
72.17953 -153.35379 166.33812 306
89.13480 -145.24091 163.55869 307
93.17178 -147.65775 164.20821 424
101.63363 -147.06183 165.81512 419
107.79732 -148.79692 166.46600 314
114.69279 -149.31898 167.48053 316
409.72461 -1991.39819 151.18192 430
468.30353 -1953.22253 152.35608 468
525.44055 -1920.55603 152.79305 489
583.01318 -1897.04895 153.43393 496
351.85876 -583.45032 97.84446 446
352.67148 -587.21136 117.38396 390
353.72021 -591.76721 136.79356 320
641.61353 -1879.18298 153.76320 499
369.06027 -575.35504 98.57054 488
369.90839 -578.29559 118.11044 454
370.85629 -581.95392 137.53619 454
372.04782 -586.41357 157.00357 398
701.77887 -1872.39514 153.57191 494
764.08667 -1868.92432 152.74249 493
827.58313 -1865.78992 152.22647 491
890.42969 -1859.46167 151.89748 489
956.34412 -1857.28735 151.46011 333
1025.41846 -1858.45056 150.39307 473
368.68109 -108.11870 167.63168 313
371.88672 -103.35480 167.64790 315
374.93097 -98.53801 167.67064 315
380.83362 -95.37326 166.71941 434
388.25516 -92.81714 165.31703 429
393.00888 -88.52844 164.72432 317
395.71664 -83.06889 164.71698 317
410.00681 -89.79680 167.74626 305
374.76956 -67.40187 171.55452 316
412.48532 -83.73748 167.80565 305
376.69864 -62.53656 171.55830 316
420.33707 -79.81298 166.42789 429
378.47150 -57.56971 171.59647 316
428.77863 -75.69122 164.91730 424
380.05695 -52.53866 171.60771 316
431.30035 -69.21576 164.86093 308
381.50113 -47.49602 171.61613 316
404.61246 -54.23418 171.84259 309
455.37994 -68.97471 167.86385 297
1348.36401 -328.37991 178.07408 328
267.60147 -12.82805 203.50954 314
406.09186 -48.40184 171.83125 309
457.01645 -61.47902 167.95383 298
1329.46814 -285.38330 141.58997 347
1320.85730 -283.16245 179.48967 431
1381.55334 -298.96597 216.57321 415
267.91876 -11.34007 203.49860 314
407.40820 -42.49284 171.87619 309
464.03046 -55.18655 166.87511 452
1298.95752 -241.73363 144.11449 427
1299.77832 -241.95908 180.28719 432
1348.13599 -252.91872 216.65883 438
265.98431 -9.83659 203.49825 314
406.54022 -36.67162 171.83043 309
470.70889 -48.95684 165.48082 448
1276.01233 -202.66286 146.10487 442
1283.34558 -203.94318 181.15205 421
1474.55579 -240.53262 216.88612 498
266.30399 -8.33949 203.49817 314
407.60184 -30.76984 171.88618 309
473.91620 -41.24273 165.12289 300
1331.04639 -177.27223 105.92943 364
1261.79541 -166.30379 147.40416 456
1270.74438 -167.56924 181.87842 406
266.58771 -6.82250 203.50165 314
408.48892 -24.79816 171.85612 309
439.71902 -28.71235 172.15921 301
1255.21545 -131.83574 113.65549 325
1242.49902 -130.20033 149.18594 461
1261.04187 -132.56169 182.39746 367
263.32867 -4.96882 204.44676 294
409.16644 -18.78860 171.86632 309
440.56750 -21.77888 172.17853 301
1232.58972 -96.68223 116.45129 432
1226.52393 -96.29495 150.20477 471
1254.35315 -98.85095 182.61337 368
263.49838 -3.55985 204.44035 314
409.71356 -12.75583 171.90034 309
441.16559 -14.78749 172.19006 301
1217.31677 -63.80190 118.05490 442
1214.52429 -63.42162 151.24129 481
1261.89648 -66.57690 182.51151 464
1315.46228 -69.82764 216.55547 262
1264.57654 -66.54844 285.35010 498
1227.08240 -64.46774 316.34079 331
263.62897 -2.13789 204.44122 314
410.03000 -6.78521 171.90271 309
441.49377 -7.77226 172.21516 301
1205.57141 -31.98715 119.51182 477
1204.16785 -31.92010 152.07025 473
1244.96924 -33.23915 182.93291 468
1301.55164 -34.93190 216.73340 262
1236.71545 -32.94284 250.12585 488
1235.88171 -32.75917 283.50906 492
1218.81213 -32.24498 315.34329 469
263.71103 -0.72716 204.44565 314
410.16714 -0.75728 171.88651 309
441.65512 -0.73320 172.21423 301
510.84802 -0.80821 168.35316 288
1195.04590 -0.91679 120.58857 480
1195.02234 -0.97629 152.68739 476
1234.28467 -0.86284 183.30580 493
1231.74536 -0.83919 216.62646 493
1231.05225 -0.74580 249.91905 494
1229.42664 -0.97261 282.95291 494
1212.06055 -0.88575 314.40753 471
263.75928 0.69094 204.44070 314
410.14307 5.23827 171.90018 309
441.66693 6.23403 172.16800 301
1186.06116 29.54154 121.24222 485
1186.89099 29.55718 153.08749 480
1227.66309 30.71970 183.51782 495
1225.30505 30.92295 216.55482 494
1224.44055 30.85108 249.74246 496
1222.62878 30.70195 282.50629 496
1205.53845 30.06666 314.00421 472
263.75073 2.11339 204.44977 314
409.94049 11.27305 171.86969 309
441.38235 13.25321 172.18747 301
1177.72253 59.39559 122.05172 488
1179.44019 59.71418 153.46855 482
1215.52942 61.84769 183.99911 496
1213.93652 61.75856 216.77734 497
1211.73352 61.64161 249.10811 495
1209.82288 61.61592 281.78516 495
1198.87109 60.70292 313.40314 473
263.69904 3.51674 204.44310 314
409.56754 17.27642 171.87045 309
440.91513 20.22753 172.17131 301
1170.28479 89.12978 122.44010 489
1172.53564 89.37948 153.90337 483
1208.89990 92.65694 183.99089 497
1206.80872 92.62476 216.53523 497
1206.14746 92.48995 249.17491 498
1204.50793 92.46719 281.57922 498
1192.43652 91.21519 313.11703 483
267.10666 5.37181 203.50467 314
408.98572 23.27713 171.87656 309
440.25076 27.21590 172.13689 301
1163.81201 118.45534 122.87115 491
1166.25452 118.69583 154.11420 485
1202.54309 123.43951 184.07722 498
1200.50562 123.19646 216.63390 498
1198.73755 123.00375 249.09644 499
1197.03271 122.80779 281.30530 499
1186.35254 121.25526 312.79996 484
266.94495 6.89013 203.49831 314
408.22525 29.23261 171.83499 309
474.56717 39.73084 165.09995 300
1157.93005 147.76601 122.98199 492
1160.09045 148.27931 154.22414 459
1201.76697 154.68811 184.07536 498
1199.35388 154.44026 216.74950 498
1198.68311 154.29395 249.14728 499
1196.84119 154.15364 281.63052 499
1180.22705 151.55447 312.51718 484
266.75443 8.38434 203.50621 314
407.33588 35.18182 171.85471 309
471.60455 47.41869 165.42044 448
1151.73633 177.19353 122.98372 492
1154.02258 177.54024 154.21512 459
1195.30798 185.50433 184.22247 499
1192.88330 185.02957 216.68475 498
1192.18103 184.93681 249.16603 499
1190.49817 184.59163 281.51303 499
1173.92493 181.43587 312.44238 485
1318.29041 208.71971 364.04089 361
266.51337 9.88287 203.49969 314
406.22687 41.11319 171.85362 309
464.50610 54.13545 166.50545 452
1145.50061 206.14288 123.23863 492
1148.08264 206.76096 154.27429 459
1188.93262 216.04135 184.20549 499
1186.48230 215.44247 216.50941 498
1185.77527 215.36848 249.19495 499
1184.37268 215.05141 281.39951 499
1167.79626 211.33247 312.30634 485
1258.84985 231.47005 356.95099 499
266.20969 11.37244 203.50401 314
404.92438 46.94588 171.83966 309
455.88434 60.03696 167.91869 297
1139.38171 235.47806 123.12746 491
1141.94324 235.98413 154.23503 459
1182.72888 246.52002 183.93797 498
1181.05920 246.16003 216.61235 499
1179.32239 245.58743 249.21509 499
1177.53271 245.38605 281.61407 499
264.90350 67.98183 26.96045 484
1231.33777 259.01959 354.15668 498
1264.50781 267.52335 394.77396 472
265.87845 12.84899 203.50410 314
403.42816 52.79549 171.81761 308
454.24670 67.51628 167.88821 297
1133.29456 264.73334 122.78720 490
1135.79846 265.35547 154.11632 458
1416.71545 346.90085 175.67905 498
1156.97717 271.69012 312.78580 475
1264.79395 303.02081 359.98413 276
265.48465 14.30077 203.50984 314
430.16376 67.80579 164.84236 308
1127.19348 294.25909 122.55853 489
1129.30579 294.87354 153.90698 458
1408.59863 385.50735 175.56830 497
1239.03015 330.45776 357.65790 493
1286.69141 345.90417 401.96759 457
265.05484 15.74815 203.50488 314
427.94366 74.34899 164.86609 308
1121.07104 323.91031 122.10179 488
1122.99927 324.40952 153.67039 483
1264.72314 375.61679 362.91843 368
1264.64709 375.41055 399.96805 346
375.54059 61.07150 171.54449 316
420.82153 78.99610 166.02283 429
1115.01587 353.67014 121.70504 487
1116.76147 354.46384 153.27740 481
373.65482 66.01522 171.50179 316
412.80084 82.89981 167.40871 435
1108.70361 383.97961 121.06814 486
1155.66980 404.25421 149.61322 278
1421.20654 519.07361 173.85802 297
394.67230 81.70731 164.68864 317
408.87860 88.39664 167.74606 305
1102.33630 414.56622 120.33937 484
1145.77222 435.00351 149.49591 278
1336.04150 524.63104 176.32732 307
391.99020 87.07579 164.67091 317
1096.09924 445.80917 119.67995 482
1096.88306 446.05966 152.14230 479
1191.22241 494.16379 180.93958 490
388.57248 92.12592 164.86752 429
1089.54529 477.32248 118.90170 480
1089.95435 477.71918 151.34979 477
1172.24683 522.80005 181.05241 270
1122.41846 495.30365 216.54410 434
381.12555 94.71641 166.28319 434
1083.11707 509.59320 117.79546 478
1082.98889 509.75412 150.71304 475
1115.47571 528.82172 182.54318 485
374.07584 97.15974 167.56232 439
1076.34766 542.74817 116.63132 475
1075.76709 542.58783 150.06264 472
1110.20703 564.12506 182.02698 455
1188.91650 614.04205 216.51248 319
370.91241 101.92679 167.61719 315
1069.57996 576.60883 115.29847 472
1068.64722 575.91443 149.16902 470
1156.65845 635.70557 179.61742 499
1156.50891 635.82562 216.50545 499
367.73325 106.68569 167.59254 315
1168.71045 688.27576 101.07835 463
1105.61609 642.72314 144.73553 476
1138.31714 666.48303 179.29468 499
1138.37915 666.32983 216.49158 499
1278.74390 768.42639 302.28000 441
1131.45288 706.26544 178.83479 444
1130.77930 705.52667 216.52951 450
1086.37720 715.62921 253.24362 457
-182.43591 930.87024 82.66526 499
-184.53635 935.64636 115.81517 499
-186.51425 940.73785 149.05681 485
118.00220 150.76239 167.42537 316
111.13389 150.52788 166.38155 314
106.51379 147.01591 166.36613 314
-20088.41211 26191.06250 4574.71680 0
98.85643 147.05154 165.08575 419
90.51056 147.53967 163.54347 424
86.00220 143.36024 163.53137 307
73.84340 156.23251 166.28210 305
102.69170 117.92698 171.52481 316
69.02403 151.56349 166.24425 305
-36629.47656 36861.85547 208.80719 0
99.16137 114.05876 171.54991 316
62.36864 148.61592 165.58549 409
95.78472 110.06577 171.57132 316
51.57494 149.04053 163.64859 403
-1079.72192 1146.74341 45.53624 459
-1137.93481 1197.86340 97.57866 437
92.51791 106.01669 171.62585 316
73.76370 121.49469 171.77380 308
-1083.06396 1078.91345 49.56718 429
-1134.35376 1121.45496 100.91377 419
89.33705 101.83441 171.64896 316
70.16078 116.74773 171.79391 308
21.14851 154.76724 166.05600 297
-1051.86304 987.47955 57.72392 445
-1126.93640 1045.49719 104.63367 424
86.33894 97.58624 171.69377 316
66.73199 111.83150 171.81259 308
13.62898 150.41321 165.32230 389
-1112.29065 968.65759 53.98825 404
-1104.09607 963.04639 109.02908 445
83.45715 93.21942 171.69136 316
63.41399 106.83297 171.85851 308
-1.22611 150.80417 162.85295 382
-1192.93054 960.92426 47.89151 397
-1176.25610 949.51672 105.28082 413
-1504.32922 1172.42236 147.92047 414
80.70786 88.79565 171.73988 316
60.30175 101.77615 171.87657 308
33.38429 118.82405 172.10338 300
-1260.02051 939.60260 101.47625 407
-1575.88684 1140.78064 146.47621 484
78.08200 84.29260 171.74487 316
57.31867 96.58494 171.89223 308
29.96749 112.75820 172.14925 300
-46.07095 157.77980 165.06137 286
-1350.24609 929.42169 96.52277 401
-1569.53442 1058.74268 147.95393 428
75.61972 79.70414 171.78946 316
54.48386 91.30385 171.96483 308
39.50900 99.56515 175.06206 319
10.55347 115.48471 176.65077 270
-1448.25757 917.79718 91.37231 394
-1559.93884 978.75793 149.86566 433
73.28285 75.03412 171.78899 316
60.68561 81.41852 174.27040 385
51.93703 85.89415 178.53967 325
24.91010 99.69540 180.00510 292
-1572.42285 913.53326 84.51434 329
71.12914 70.29774 171.79742 316
64.27837 73.47290 175.84578 390
54.82309 77.96154 179.74384 300
22.48312 93.15485 180.05540 314
-26.16814 116.03654 180.35907 343
74.13878 63.28156 173.30203 386
67.64957 66.08223 177.28651 381
43.74256 76.44015 177.83876 373
33.44154 80.92387 182.53050 336
21.19694 86.19728 187.70810 331
1.53622 94.73691 192.84050 283
76.29880 57.00758 174.46526 420
71.07374 59.09474 178.59424 386
47.58941 68.36259 179.13431 389
40.13679 71.33619 184.20309 373
31.40805 74.79896 189.48079 368
19.68699 79.46581 195.07976 332
2.90531 86.11561 201.06557 311
77.70137 51.29204 175.34248 423
72.64446 53.12219 179.41100 419
51.09831 60.84338 180.32216 393
44.16324 63.37082 185.23997 388
36.64140 66.07182 190.50899 373
27.75483 69.28397 196.14929 368
18.07543 72.77116 202.27650 362
79.06126 45.78850 176.17114 427
71.76518 48.13899 179.62422 308
54.23286 53.87246 181.32812 410
47.83361 55.92940 186.23674 393
40.76733 58.25584 191.39497 388
33.17886 60.72534 196.90895 383
24.12971 63.62662 202.86481 367
-3861.22803 1326.09216 75.27131 484
-3862.97168 1327.66992 216.67914 447
80.40369 40.50868 176.87639 432
70.40981 43.38364 179.61284 308
56.44056 47.46358 182.13454 421
50.52950 49.16580 186.94861 409
44.18542 51.00946 192.05493 404
37.35885 52.97994 197.55234 399
29.62105 55.25117 203.37065 382
81.71809 35.37476 177.58771 435
63.62794 40.01764 178.25891 429
58.37989 41.37880 182.80415 424
52.91701 42.76620 187.60945 420
46.85593 44.31915 192.63881 408
40.33880 45.99847 198.01852 403
33.32254 47.79175 203.73209 397
25.42218 49.83587 209.86743 355
82.89561 30.44463 178.16154 457
65.34257 34.39284 178.98781 432
60.28511 35.49540 183.46176 428
54.96456 36.71741 188.17323 423
49.32477 37.96082 193.15440 418
43.17508 39.34844 198.40956 406
36.44059 40.84935 204.00609 401
29.08731 42.50476 209.99858 358
-184.61794 90.30115 216.44153 296
83.12015 25.85342 178.48495 459
66.93241 28.93422 179.55844 455
62.13000 29.84345 184.03043 431
56.94706 30.85140 188.67484 426
51.47881 31.89804 193.56145 421
45.70663 32.99934 198.76308 416
39.46368 34.18732 204.27362 405
32.49270 35.51394 210.18025 399
-183.06023 76.68440 216.46709 424
83.34868 21.29458 178.73773 461
67.19984 23.87005 179.81023 456
62.65208 24.58090 184.28471 452
57.91769 25.32771 188.96257 447
52.89994 26.11623 193.91049 442
47.62883 26.98120 199.05093 437
42.04440 27.85778 204.52063 414
35.64238 28.89129 210.33763 402
83.65276 16.79449 178.97466 462
67.54376 18.83895 180.02974 457
63.00288 19.42726 184.48766 453
58.30751 20.03302 189.16071 448
53.35560 20.64361 194.02170 443
48.14035 21.29010 199.17606 438
42.63762 21.99795 204.62160 433
36.85468 22.71102 210.39218 428
83.97460 12.35004 179.14491 463
67.89367 13.88454 180.23866 459
63.43115 14.29581 184.65811 454
58.72383 14.72903 189.33475 450
53.80541 15.18817 194.15364 445
48.71113 15.71862 199.31866 440
43.26451 16.22546 204.70398 435
37.54372 16.73798 210.44653 429
84.29104 7.94493 179.31725 464
68.26011 8.95785 180.42818 460
63.82801 9.24962 184.80969 455
59.23010 9.51357 189.44649 451
54.35452 9.84987 194.31284 446
49.28891 10.15099 199.37877 441
43.94667 10.47742 204.77045 436
38.23906 10.86881 210.45605 430
-181.60860 24.68367 269.80603 486
-187.19795 25.08924 284.30615 360
84.63069 3.59570 179.47070 465
68.69253 4.06710 180.55391 461
64.30735 4.22181 184.96515 457
59.71326 4.37473 189.58513 452
54.95243 4.49766 194.40793 447
49.88128 4.67567 199.47520 442
44.57775 4.84717 204.81110 437
38.92846 5.04357 210.48177 431
-181.64445 11.96946 269.80634 487
