# .PCD v.7 - Point Cloud Data file format
VERSION .7
FIELDS x y z rgb
SIZE 4 4 4 4
TYPE F F F U
COUNT 1 1 1 1
WIDTH 410
HEIGHT 1
VIEWPOINT 4289.703125 -4110.030762 135.399460 -0.001192 -0.116308 0.002163 0.993210
POINTS 410
DATA ascii
82.67491 -0.70750 179.51994 316
68.66254 -0.71527 181.03329 462
64.34930 -0.72089 185.40761 457
59.86470 -0.72678 189.92978 453
55.16019 -0.74096 194.71170 448
50.20084 -0.74936 199.69554 443
44.97732 -0.73840 204.95779 437
39.47202 -0.75634 210.56703 432
-152.69272 -0.81330 241.03015 419
-181.75491 -0.83832 269.46817 487
-147.41797 -0.83505 277.24350 284
82.72457 -5.06264 179.52118 316
68.17201 -5.52928 180.92345 461
63.84448 -5.64181 185.30238 456
59.32684 -5.78569 189.83057 452
54.58656 -5.96625 194.61815 447
49.57136 -6.11505 199.61168 442
44.33873 -6.30612 204.89688 437
38.74475 -6.47995 210.54228 431
-152.92111 -12.49587 240.98108 416
-181.77733 -13.42296 269.51218 487
-151.60052 -12.48330 277.99149 285
82.95271 -9.37310 179.51891 316
67.75305 -10.34630 180.78101 460
63.38328 -10.64388 185.15999 455
58.81210 -10.90093 189.69423 451
54.03131 -11.21956 194.51836 446
49.00717 -11.53412 199.55817 441
43.66406 -11.89970 204.85953 436
38.08192 -12.21065 210.48683 430
-181.71455 -26.10560 269.57455 486
83.28488 -13.70580 179.51547 316
67.40424 -15.20272 180.62306 459
62.95851 -15.64384 184.97137 454
58.31567 -16.08454 189.58403 449
53.46281 -16.54688 194.36020 445
48.41267 -17.04191 199.45128 440
43.05921 -17.52563 204.80554 435
37.35146 -18.05733 210.42847 429
-181.62772 -38.84118 269.74619 486
83.13462 -18.07933 179.37521 462
67.08301 -20.11017 180.39830 457
62.61007 -20.69090 184.79510 453
57.92785 -21.31274 189.42358 448
53.00039 -21.92268 194.24428 443
47.84979 -22.55802 199.32329 438
42.42731 -23.27979 204.70746 433
36.69051 -23.97445 210.38284 428
82.86427 -22.53294 179.12627 461
66.73328 -25.12384 180.16696 456
62.26310 -25.80712 184.59154 452
57.53749 -26.54643 189.21046 447
52.55925 -27.36643 194.10152 442
47.38684 -28.16097 199.21811 437
41.49886 -29.12845 204.59616 414
35.06963 -30.13889 210.33600 402
82.61194 -27.04141 178.84622 459
66.32571 -30.18244 179.87335 435
61.43222 -31.10634 184.27397 431
56.30645 -32.10175 188.84608 426
50.90244 -33.12590 193.75349 421
45.15882 -34.19602 198.86838 416
38.84156 -35.42690 204.33403 404
31.94350 -36.74873 210.20203 399
-183.00452 -77.75580 216.54607 424
82.35033 -31.62065 178.52094 438
64.63844 -35.59113 179.22020 432
59.60767 -36.70279 183.66876 427
54.32240 -37.89750 188.34720 423
48.72287 -39.16505 193.30968 418
42.54909 -40.53491 198.52866 406
35.85149 -42.05342 204.09032 401
28.49468 -43.72120 210.02148 358
-187.75047 -92.01644 216.52431 296
81.05007 -36.54474 177.90150 435
62.93887 -41.23015 178.52650 429
57.72137 -42.56497 183.06134 424
52.27504 -43.98338 187.78229 419
46.22405 -45.52188 192.76872 407
39.71642 -47.19404 198.10980 402
32.75438 -48.99671 203.78493 397
24.14757 -51.17461 209.81850 269
79.73149 -41.65192 177.20541 430
68.86268 -44.81855 179.63307 308
55.82321 -48.63050 182.35394 421
49.89063 -50.33286 187.12267 409
43.50547 -52.20645 192.22505 404
36.66316 -54.19527 197.58946 387
28.89164 -56.46595 203.37024 371
78.38908 -46.94553 176.42778 427
70.27954 -49.57718 179.64111 308
53.54053 -55.04370 181.55077 410
47.03396 -57.11215 186.36758 393
40.00271 -59.40828 191.46053 388
32.31422 -61.91452 196.95355 372
23.28778 -64.86459 202.86134 367
77.02584 -52.39912 175.59845 423
71.82648 -54.27413 179.64290 308
50.31304 -62.04911 180.50269 393
43.34906 -64.55057 185.39217 388
35.76061 -67.29518 190.63470 372
26.86560 -70.46173 196.21411 367
16.81269 -74.12769 202.28374 332
75.67056 -58.12102 174.74182 420
70.19507 -60.28035 178.77988 386
46.80706 -69.55566 179.34019 388
39.23816 -72.54682 184.27936 373
30.38498 -76.04694 189.57210 336
18.17963 -80.88640 195.02657 331
0.81762 -87.78627 201.00917 310
73.24592 -64.48717 173.46683 386
66.92162 -67.24702 177.44154 395
42.79690 -77.68634 177.98978 373
31.97882 -82.35696 182.56570 335
19.31067 -87.84325 187.62523 315
-3.53979 -97.69517 192.45126 265
70.01127 -71.56915 171.89784 381
63.55108 -74.62769 176.04822 390
53.59163 -79.32815 179.76859 300
20.56956 -94.82812 179.98601 314
-27.04607 -117.24026 180.42998 284
72.06772 -76.40889 171.84924 316
59.95727 -82.54528 174.45970 384
50.44554 -87.39856 178.50969 325
23.85147 -101.00642 180.04990 292
74.42214 -81.07995 171.79475 316
53.31423 -92.67443 171.96901 308
37.91253 -101.13350 175.03279 318
-54.29609 -151.85629 164.73860 373
76.95616 -85.65382 171.81607 316
56.17310 -97.95410 171.98398 308
28.93365 -114.09763 172.19734 300
-47.26635 -159.15489 165.11357 286
79.62177 -90.15323 171.79793 316
59.25150 -103.10476 171.92421 308
32.41001 -120.10809 172.18402 300
82.43591 -94.57526 171.75237 316
62.41009 -108.18892 171.91692 308
-0.40628 -150.87140 163.36002 382
85.35954 -98.92160 171.71498 316
65.79852 -113.17467 171.91165 308
14.33564 -150.53476 165.81006 389
88.43195 -103.18454 171.72929 316
69.28815 -118.04211 171.85422 308
20.28127 -156.03333 166.06491 295
91.62791 -107.36768 171.67055 316
44.95501 -145.96538 163.36226 300
94.95994 -111.45050 171.66696 316
52.12112 -149.20869 164.14444 404
98.38152 -115.37659 171.62383 316
62.84339 -148.83171 166.05777 409
101.96990 -119.24335 171.61943 316
68.34966 -152.88292 166.32213 306
85.18220 -144.84146 163.52850 307
90.88554 -147.74730 163.96812 425
99.26141 -147.27745 165.56306 419
105.97267 -148.36787 166.44244 314
110.67009 -151.86859 166.45013 314
126.82693 -148.21393 169.71765 441
744.99561 -954.34436 108.95911 499
747.03693 -958.26526 144.21721 499
749.57214 -962.88348 180.00679 485
367.55276 -107.88988 167.61360 313
370.80457 -103.17641 167.63318 315
373.89606 -98.37855 167.64003 315
380.31213 -95.53957 166.56519 434
387.78094 -92.95861 165.21985 429
392.08371 -88.46309 164.72200 317
394.87073 -83.07295 164.72093 317
409.06100 -89.75340 167.75574 305
53521.69141 -25073.44141 6005.74512 1000
373.98218 -67.47452 171.54652 316
411.98010 -83.87077 167.69072 434
375.94437 -62.60880 171.56265 316
419.95523 -80.02320 166.33775 429
377.74149 -57.65703 171.57365 316
428.24469 -75.84517 164.89816 308
379.40799 -52.70334 171.60548 316
430.55124 -69.30618 164.84824 308
380.90875 -47.64600 171.59750 317
403.93625 -54.35171 171.85913 309
454.56985 -69.04955 167.87193 297
267.10135 -13.03150 203.49861 314
405.51810 -48.52916 171.82471 309
456.35150 -61.58364 167.98520 298
3665.02954 -884.92786 215.71227 497
267.45868 -11.56330 203.50101 314
406.88989 -42.71146 171.86850 309
463.77731 -55.44642 166.84087 452
267.76648 -10.07348 203.49977 314
408.03696 -36.79958 171.85040 309
470.87021 -48.82302 165.73273 448
268.03671 -8.58721 203.50002 314
409.05640 -30.91399 171.88559 309
475.17465 -41.38134 165.11320 300
268.26190 -7.09801 203.50826 314
409.89716 -24.96966 171.86714 309
441.03873 -28.87716 172.19455 301
268.43784 -5.58560 203.50548 314
410.56616 -19.02380 171.88895 309
441.79343 -21.93659 172.20691 301
268.55591 -4.07242 203.50615 314
411.00571 -13.05359 171.89975 309
442.31531 -15.01646 172.16707 301
268.64005 -2.56911 203.50075 314
411.30490 -7.05861 171.88174 309
442.70840 -8.01580 172.21027 301
268.66974 -1.04291 203.50752 314
411.44601 -1.06701 171.89990 309
442.83716 -1.05707 172.21489 301
511.91074 -1.07147 168.34023 288
268.65076 0.46350 203.50085 314
411.34839 4.97099 171.87775 309
442.76212 5.94666 172.21542 301
268.58627 1.98419 203.49895 314
411.11902 10.96143 171.88574 309
442.45648 12.91816 172.16974 301
268.47305 3.48985 203.50389 314
410.67838 16.91901 171.90663 309
441.97076 19.92970 172.18462 301
268.31570 5.00547 203.50212 314
410.03906 22.92628 171.89200 309
441.21463 26.86845 172.16617 301
268.10507 6.50415 203.50021 314
409.25656 28.84658 171.88419 309
475.50250 39.38554 165.09052 300
267.31647 8.07210 203.50456 314
407.41547 34.89471 171.83006 309
471.82358 47.24393 165.27666 448
267.02368 9.54335 203.50697 314
406.30197 40.79701 171.84067 309
464.72836 53.87132 166.43565 452
266.67825 11.01709 203.50066 314
404.98315 46.59741 171.80418 309
456.21979 59.79748 167.81284 424
266.29999 12.46860 203.50211 314
403.53067 52.39929 171.79851 309
453.97025 67.09200 167.90163 297
265.87729 13.91276 203.49883 314
430.17276 67.41418 164.84715 308
265.40421 15.34249 203.50972 314
427.91498 73.97522 164.87187 308
375.72003 60.68648 171.53815 316
421.23444 78.79453 165.87616 430
373.76111 65.59104 171.52924 316
413.26456 82.69685 167.29543 435
394.73511 81.29271 164.67795 317
408.79742 87.90966 167.71599 305
392.04507 86.70685 164.67996 317
406.19443 93.90376 167.66791 305
389.08771 91.96027 164.73080 429
381.57355 94.54652 166.14383 434
374.48123 97.01732 167.44217 439
370.80652 101.45934 167.60307 315
367.58453 106.21441 167.59392 315
2984.03882 5878.64941 216.64490 388
2746.32715 5839.82568 217.45894 475
2528.81689 5835.75928 217.97870 495
2571.43286 5942.47119 425.72577 481
1410.57385 3307.04688 217.16486 468
1297.47241 3315.26245 217.16838 470
1256.34473 3568.42871 217.50024 363
-240.31158 2059.94092 78.59347 342
117.43295 150.79520 167.40581 316
110.48249 150.58894 166.37962 314
105.76591 147.07065 166.39487 314
98.05318 147.14816 165.06319 419
89.94644 147.56631 163.53462 424
85.38539 143.34624 163.50026 307
73.24963 156.26364 166.28477 305
102.10039 117.82516 171.55103 315
68.37083 151.59189 166.24442 305
98.52367 113.98247 171.55595 316
61.55225 148.66986 165.62952 409
95.04512 110.01715 171.60153 316
50.72231 149.07378 163.64136 403
91.71777 105.94107 171.64349 316
72.96485 121.47186 171.79060 308
88.50361 101.81045 171.66992 316
69.27985 116.67960 171.80591 308
20.13343 154.76447 166.00536 295
85.42348 97.52918 171.66595 316
65.80632 111.79229 171.86507 308
12.53615 150.43010 165.31433 389
82.49249 93.21929 171.71002 316
62.43907 106.82185 171.85173 308
-2.40204 150.83990 162.84171 382
79.68711 88.75024 171.74335 316
59.20076 101.71310 171.87904 308
32.35035 118.77032 172.15150 300
76.98796 84.26415 171.78024 316
56.17324 96.54182 171.92183 308
28.81697 112.75324 172.16733 300
-47.59079 157.90155 165.05132 286
74.45676 79.63696 171.77940 316
53.30352 91.26347 171.93689 308
40.41840 98.38075 175.57483 319
15.20289 112.24351 177.78520 270
72.06944 75.01766 171.81036 316
60.80403 80.73785 174.65840 385
52.76537 84.82187 178.99527 325
1.63211 110.84111 175.88466 293
70.89593 69.74950 172.15173 381
64.38627 72.83797 176.19084 390
53.56379 77.91503 179.77306 300
23.31449 92.09940 180.49321 314
-6.70513 106.25477 183.39305 264
74.06332 62.70132 173.69643 386
67.71437 65.46635 177.63464 395
43.81724 75.79543 178.16908 373
33.98932 80.07220 182.87323 336
21.86242 85.29228 187.95790 331
4.02015 93.00717 193.22792 283
76.11990 56.53500 174.82224 420
70.95645 58.57221 178.95773 415
47.61869 67.79897 179.47220 389
40.28790 70.68748 184.46156 373
31.65782 74.07887 189.74342 368
20.39703 78.54102 195.27673 332
4.08154 85.01466 201.24245 311
77.48685 50.83949 175.73206 423
71.85017 52.88232 179.58508 308
51.10857 60.33054 180.66127 393
44.25545 62.77303 185.50198 388
36.82292 65.44679 190.74146 373
28.05423 68.60712 196.29347 368
18.46904 72.08106 202.37169 362
78.84358 45.37529 176.52809 427
70.27589 48.15697 179.59811 308
54.11631 53.36632 181.65239 410
47.89609 55.44547 186.48320 393
40.88730 57.67521 191.58319 388
33.37260 60.10455 197.05356 383
24.48560 63.03446 202.92891 367
80.15237 40.11172 177.27277 430
68.87256 43.37803 179.60579 308
56.34437 47.03043 182.46756 421
50.49821 48.70694 187.25046 409
44.16400 50.52426 192.28461 404
37.43936 52.47331 197.66318 399
29.90417 54.69976 203.46669 382
81.47173 35.02239 177.99429 435
63.41103 39.64856 178.64124 429
58.24036 40.98831 183.14268 424
52.80810 42.37758 187.84892 420
46.84732 43.92589 192.83400 408
40.41072 45.58496 198.13814 403
33.47711 47.35996 203.81221 397
25.68644 49.30645 209.85239 355
82.53247 30.17860 178.57127 457
65.12459 34.05125 179.33057 432
60.09991 35.17907 183.74246 428
54.84903 36.35098 188.42946 423
49.24415 37.60543 193.36584 418
43.22642 38.92398 198.54468 406
36.57964 40.42404 204.11118 401
29.31518 42.04502 210.02534 361
-183.45343 89.57761 216.51952 296
82.74998 25.61279 178.86732 459
66.56829 28.69041 179.93956 455
61.93431 29.56922 184.34891 431
56.82731 30.54532 188.92888 426
51.43736 31.54757 193.79227 421
45.69095 32.65565 198.91826 416
39.50757 33.81513 204.37624 404
32.64909 35.11704 210.21606 399
-182.94777 76.20718 216.54916 424
82.99536 21.08224 179.14323 461
66.87155 23.66359 180.20448 456
62.39196 24.35444 184.62555 452
57.66717 25.11748 189.24452 447
52.73432 25.88940 194.08597 442
47.53320 26.71666 199.22655 437
42.03363 27.55418 204.63716 432
35.77510 28.54597 210.35176 402
83.24535 16.65554 179.40018 462
67.18114 18.68208 180.42227 457
62.72980 19.22478 184.81348 453
58.06218 19.83194 189.43217 448
53.16828 20.42093 194.23608 443
48.01127 21.08057 199.34714 438
42.60538 21.75141 204.68787 433
36.86064 22.47950 210.39432 428
83.20909 12.29656 179.49879 316
67.51120 13.78756 180.63217 459
63.06952 14.16508 185.00731 454
58.47044 14.61812 189.61380 450
53.63737 15.05464 194.37485 445
48.57718 15.56013 199.47202 440
43.19078 16.07598 204.80058 435
37.52939 16.58143 210.46790 429
82.87949 7.97058 179.51978 316
67.88609 8.91408 180.79294 460
63.49167 9.17543 185.17181 456
58.92547 9.47001 189.75140 451
54.17295 9.73905 194.51985 446
49.15928 10.09183 199.54280 441
43.84906 10.38622 204.87457 436
38.23290 10.73634 210.49298 430
-181.69724 24.49135 269.54514 486
-186.76138 24.77798 283.88544 496
82.70285 3.62122 179.50653 316
68.27835 4.07141 180.95267 461
63.97815 4.21841 185.32611 456
59.46076 4.34605 189.86935 452
54.69326 4.52146 194.61798 447
49.71270 4.63920 199.62183 442
44.49829 4.80017 204.92250 437
38.92572 5.00693 210.54536 431
-181.76096 11.87092 269.50598 487
