# .PCD v.7 - Point Cloud Data file format
VERSION .7
FIELDS x y z rgb
SIZE 4 4 4 4
TYPE F F F U
COUNT 1 1 1 1
WIDTH 569
HEIGHT 1
VIEWPOINT 6722.981445 691.778687 137.668182 -0.646360 -0.090000 -0.079101 0.753566
POINTS 569
DATA ascii
85.27339 -0.79253 179.17824 467
69.36795 -0.77923 180.30466 462
64.95379 -0.81718 184.79547 457
60.32275 -0.79463 189.45461 453
55.50029 -0.79408 194.30890 448
50.41127 -0.77941 199.47394 443
45.06034 -0.79971 204.85899 438
39.41502 -0.80787 210.60263 432
-181.42880 -0.78239 270.16031 487
-136.36914 -0.74004 276.34610 495
84.91650 -5.19518 179.05002 465
68.88610 -5.70387 180.19121 461
64.45324 -5.85119 184.67476 456
59.77054 -6.00004 189.34128 452
54.94034 -6.14953 194.23061 447
49.78568 -6.33227 199.39449 442
44.39786 -6.48308 204.80400 437
38.70315 -6.68116 210.57275 431
-181.39738 -13.55118 270.21783 487
-151.15175 -12.67189 278.85019 266
84.57882 -9.65251 178.86516 464
68.48663 -10.68548 180.03714 460
63.97622 -10.96917 184.51553 455
59.25042 -11.25136 189.19897 451
54.35466 -11.57014 194.13374 446
49.20210 -11.88395 199.27682 441
43.74325 -12.20326 204.76894 436
37.98861 -12.58912 210.54675 430
84.26720 -14.15679 178.66039 463
68.11663 -15.67100 179.81302 459
63.56797 -16.09473 184.31583 454
58.82691 -16.54799 189.02055 449
53.82109 -17.00912 193.96262 445
48.59300 -17.53670 199.19440 440
43.08918 -18.05415 204.68854 435
37.28377 -18.56485 210.47160 429
83.97196 -18.66991 178.44380 462
67.79032 -20.73222 179.60922 457
63.22258 -21.31916 184.13126 453
58.38496 -21.92097 188.87006 448
53.35872 -22.52789 193.84598 443
48.08179 -23.22518 199.07475 438
42.43903 -23.95431 204.60165 433
36.54301 -24.67018 210.43684 428
83.72788 -23.25945 178.16824 461
67.50989 -25.84841 179.36348 456
62.85900 -26.56117 183.87453 452
57.99838 -27.32723 188.65417 447
52.93467 -28.12720 193.67334 442
47.33703 -29.01547 198.88463 419
41.29960 -30.01459 204.44965 414
34.57313 -31.05214 210.35506 402
83.49180 -27.94722 177.87733 459
66.83743 -31.11293 178.96077 435
61.83375 -32.05954 183.49944 431
56.51212 -33.08738 188.24190 426
50.90687 -34.13516 193.27518 421
44.99589 -35.24990 198.56944 416
38.48798 -36.51979 204.18060 404
31.31354 -37.87642 210.22708 364
-182.79997 -78.69843 216.72775 424
82.99726 -32.69993 177.45877 438
65.11935 -36.72853 178.29611 432
59.94356 -37.85659 182.89574 428
54.45345 -39.10514 187.69247 423
48.71541 -40.37882 192.77330 418
42.27874 -41.84018 198.17935 406
35.36238 -43.35197 203.91429 401
27.71970 -45.09907 210.05696 358
-191.27950 -94.02076 216.69788 296
81.65477 -37.83909 176.77458 435
71.91791 -40.31350 179.63722 308
57.99242 -43.89763 182.19588 424
52.39461 -45.34913 187.10509 420
46.07974 -46.94204 192.23524 408
39.38157 -48.70947 197.71271 402
32.14893 -50.54915 203.57748 397
-188.33002 -107.19045 202.70036 484
80.34285 -43.09647 176.06734 432
73.28476 -45.18288 179.63141 308
55.98655 -50.17533 181.49332 414
49.84031 -51.95753 186.42534 409
43.31124 -53.84549 191.64638 404
35.92112 -56.00769 197.21536 387
27.68768 -58.39557 203.13232 371
78.97901 -48.59373 175.26974 427
73.96171 -50.21738 179.37982 423
53.45384 -56.85546 180.57640 397
46.65114 -59.09354 185.54565 393
39.39454 -61.47750 190.82381 388
31.23237 -64.07453 196.51752 372
21.90578 -67.12296 202.63860 367
77.21781 -53.40708 175.09303 424
72.09668 -55.25235 179.23894 419
50.06488 -63.17271 180.03737 393
43.03135 -65.69209 185.06027 388
35.14909 -68.54388 190.36768 372
26.09228 -71.74926 196.02190 367
15.11444 -75.75797 202.16249 332
75.79312 -59.19913 174.20978 420
69.96133 -61.48241 178.25981 386
46.51886 -70.76374 178.85095 389
38.71827 -73.85752 183.92722 373
29.02003 -77.67415 189.15172 336
16.13422 -82.76926 194.75945 316
-1.72728 -89.87976 200.79266 311
73.04256 -65.78664 172.82497 386
66.57972 -68.56996 176.89145 395
53.00232 -74.42831 179.81287 300
30.67995 -84.09747 182.01965 336
17.22237 -89.94035 187.15404 315
-15.01196 -103.87570 191.10918 265
71.73335 -72.06512 171.85692 316
63.13269 -76.09239 175.41618 390
55.29132 -79.81355 179.76187 300
17.00065 -97.80141 179.03734 286
-25.70826 -117.85334 180.44592 284
73.95248 -76.79231 171.82289 316
58.74437 -84.54678 173.64034 328
48.52121 -89.74760 177.70677 325
25.31419 -101.54086 180.03722 292
76.32386 -81.48289 171.82065 316
55.12574 -93.12680 171.99202 308
33.84529 -104.82127 173.72202 272
-51.91652 -151.92136 164.87384 373
78.83072 -86.08056 171.76732 316
57.99214 -98.38555 171.93796 308
30.55167 -114.63944 172.19740 300
-45.53926 -159.53224 165.13177 286
81.47961 -90.60183 171.74622 316
60.99926 -103.58772 171.93578 308
34.05593 -120.65359 172.15100 300
84.25054 -95.03564 171.75603 316
64.17584 -108.70950 171.92494 308
2.10925 -150.83594 163.54428 382
87.18398 -99.42562 171.69804 316
67.52116 -113.67683 171.85583 308
16.80782 -150.47751 165.96950 389
-3606.53979 -2781.15112 61.09103 329
90.22943 -103.69927 171.68056 316
71.00706 -118.56783 171.87045 308
22.04282 -156.54633 166.07355 297
-3370.35254 -2786.83545 67.36452 477
-3440.49951 -2840.72290 216.64447 351
93.43156 -107.85400 171.67563 316
46.73648 -146.49036 163.37466 300
-3268.92749 -2887.49927 67.56799 474
-3266.09058 -2885.37305 215.78215 408
96.76937 -111.92661 171.64113 316
54.50388 -149.11331 164.37723 403
-3055.49561 -2889.19116 72.86318 289
100.18705 -115.90366 171.60379 316
65.22927 -148.73982 166.25249 409
103.76024 -119.74354 171.57037 316
70.12304 -153.35281 166.32535 306
86.95799 -145.32646 163.50638 307
93.13733 -147.66031 164.20477 424
101.58604 -147.07475 165.81097 419
107.71694 -148.80363 166.44395 314
114.62932 -149.25719 167.47292 316
-536.09534 -1044.46899 89.52737 471
538.06342 -2001.44348 150.60484 444
595.12390 -1962.03479 151.44528 467
651.56671 -1926.92603 151.88567 480
708.42450 -1899.65063 152.45749 492
766.47955 -1878.71533 152.81161 499
770.59161 -1891.28796 216.70036 436
827.61292 -1867.20813 152.15633 493
889.79248 -1858.49854 152.16031 419
954.38202 -1853.22607 151.23724 489
475.80817 -589.42242 89.00266 354
1020.28027 -1848.12512 150.88127 486
488.48770 -569.38629 91.61982 497
489.70602 -571.92834 112.42347 497
491.06781 -574.41797 133.18359 497
492.28162 -577.13965 153.85030 495
493.58063 -579.97742 174.52309 450
1088.95789 -1845.11047 149.88640 470
1156.88452 -1838.12317 148.92784 382
365.23703 -108.02497 167.61795 315
368.54272 -103.31368 167.65421 315
371.77243 -98.51841 167.64764 439
378.91464 -96.04212 166.36209 434
386.40698 -93.42307 164.99390 429
390.20993 -88.53630 164.74019 317
393.05316 -83.14504 164.71844 317
407.27487 -89.83282 167.79567 305
372.28424 -67.47827 171.55107 316
411.13654 -84.29570 167.50003 434
374.34103 -62.58079 171.56276 316
419.21378 -80.34884 166.12703 429
376.20639 -57.63446 171.55463 316
426.71185 -75.85349 164.90134 308
264.65424 -15.79068 203.50592 314
429.13034 -69.27204 164.85030 308
265.18753 -14.33675 203.50397 314
402.64322 -54.30471 171.83832 309
453.26080 -69.07362 167.89415 297
265.68198 -12.87111 203.49756 314
404.23071 -48.47889 171.85963 309
455.11871 -61.54509 167.96716 297
1450.41589 -317.22653 174.74706 354
266.12491 -11.38812 203.50874 314
405.67072 -42.62630 171.84912 309
463.61273 -55.57463 166.58922 452
1422.84680 -270.37631 176.04544 435
1460.19385 -278.44733 216.49716 391
266.52554 -9.89649 203.50328 314
406.95654 -36.70815 171.85889 309
470.71674 -48.91843 165.49101 448
1408.44263 -227.96997 137.06812 365
1397.58850 -226.00139 177.33690 444
1471.78003 -240.01317 216.71649 480
266.88138 -8.40341 203.49948 314
408.07706 -30.80428 171.87343 309
474.25574 -41.32143 165.11250 300
1380.36572 -184.97124 139.48148 423
1379.16589 -184.83672 178.13400 447
1587.53625 -217.90486 216.60356 265
267.18036 -6.88326 203.50812 314
408.96603 -24.83223 171.89362 309
440.16336 -28.78413 172.18034 301
1360.13196 -145.08368 141.31346 459
1364.26404 -145.69504 178.60689 428
267.43436 -5.36935 203.50516 314
409.70740 -18.84014 171.85695 309
440.97012 -21.79142 172.20308 301
1342.94067 -107.22878 142.62239 466
1352.27307 -108.16426 179.42343 408
267.64099 -3.84895 203.49774 314
410.24390 -12.83070 171.89868 309
441.62714 -14.82934 172.21933 301
1332.16638 -70.93748 143.44107 474
1342.23584 -71.82304 179.72867 415
1378.03223 -74.05618 216.44243 467
264.31378 -2.21664 204.43735 293
410.57910 -6.87364 171.89775 309
442.02185 -7.85149 172.16539 301
1339.44104 -36.30724 106.06008 277
1317.08557 -35.56820 144.42413 482
1334.68030 -35.99131 180.17729 369
1359.91638 -36.86319 216.49594 470
1438.82019 -39.43201 256.38171 273
1347.97729 -36.61378 290.67313 490
1358.28674 -36.92868 328.86420 412
264.40054 -0.80324 204.44858 314
410.78616 -0.84135 171.88118 309
442.21252 -0.85864 172.17812 301
511.37958 -0.82168 168.28290 288
1318.13013 -0.92968 108.35983 350
1308.80286 -0.91383 145.04675 487
1328.24451 -0.98221 180.14981 369
1344.12537 -0.95104 216.40231 495
1343.39868 -1.08850 253.30884 495
1342.14062 -0.89642 290.04617 495
1351.17139 -1.10685 327.89835 412
264.46594 0.60735 204.44615 314
410.80170 5.16409 171.89526 309
442.20572 6.12774 172.19295 301
1303.74744 33.03722 109.55364 417
1296.14502 32.91401 145.86060 491
1321.45483 33.48731 180.57091 370
1337.47131 34.08484 216.65981 496
1336.34924 34.01892 253.13950 496
1335.49695 34.04574 289.73456 496
1343.81006 34.18624 327.29779 413
268.00665 2.24044 203.50674 314
410.58286 11.17868 171.89331 309
441.98279 13.15305 172.20941 301
1293.28345 66.44678 110.49338 420
1286.07031 66.02618 146.65833 496
1327.60754 68.70426 180.36156 271
1324.38599 68.39841 216.68159 497
1323.05774 68.39380 252.81638 497
1321.93127 68.37703 289.02924 497
1336.34619 69.21749 326.81949 415
267.97232 3.75713 203.49959 314
410.26465 17.18064 171.88013 309
441.52765 20.11162 172.17319 301
1284.48901 99.73311 111.36730 421
1278.49036 99.12014 146.91451 497
1323.99329 103.45677 180.25375 498
1318.77661 102.81129 216.51562 498
1317.81079 102.71626 252.72339 498
1316.53223 102.58012 288.92896 498
1329.23926 103.93541 326.27100 415
1565.74707 126.09116 394.64523 488
1563.95715 126.09153 439.52982 487
1562.50269 125.94679 484.81339 486
1561.24304 125.54041 530.74042 484
267.89731 5.28547 203.50249 314
409.67575 23.15166 171.89665 309
440.89813 27.08646 172.16862 301
1277.04419 132.69482 111.51657 424
1271.76367 132.04237 146.98714 499
1317.47302 137.53874 180.24060 498
1312.11401 136.97833 216.55888 499
1309.93079 136.81062 252.44159 499
1308.82861 136.48328 288.61438 499
1322.74805 138.16849 326.01727 416
267.76535 6.79029 203.49927 314
408.98303 29.13046 171.88060 309
475.24152 39.57498 165.09001 300
1270.49170 165.43102 111.81710 466
1265.45874 164.59450 147.23643 499
1310.76245 171.77682 180.51402 499
1310.47864 171.86086 216.58165 499
1309.71899 171.65105 252.83034 499
1308.80151 171.37549 288.97546 499
1316.31543 172.78574 326.02200 416
267.59134 8.29493 203.49992 314
408.06702 35.05196 171.88071 309
471.84036 47.21038 165.47707 448
1264.01550 198.28050 111.87364 466
1259.28845 197.39909 147.18629 499
1304.33057 205.96494 180.47313 499
1303.97974 205.71030 216.67415 499
1303.04761 205.46774 252.76111 389
1301.95728 205.43149 288.73904 499
1309.84692 206.75681 325.77527 416
267.37338 9.78334 203.50539 314
406.98907 40.96277 171.86830 309
464.74060 53.86930 166.64658 452
1257.30139 230.95169 111.90996 466
1252.86975 229.77158 147.04779 499
1298.34021 239.91417 180.23654 499
1297.44604 239.88615 216.68486 499
1296.44824 239.52225 252.71248 499
1295.46765 239.50998 288.66306 499
1303.66553 241.18584 326.01648 416
267.10101 11.27787 203.50572 314
405.70987 46.85128 171.84331 309
456.70471 59.88552 167.94135 297
1250.92712 263.77267 111.71558 466
1246.46790 262.60641 147.04187 499
1291.84277 274.30688 180.19252 499
1290.74451 274.03278 216.48062 499
1289.75720 273.77560 252.69443 499
1288.63806 273.43625 288.81116 499
1296.89539 275.40219 325.98523 416
1352.10559 289.54221 370.41653 392
266.78790 12.74844 203.50143 314
404.28519 52.67955 171.81239 309
455.05319 67.42195 167.84300 297
1244.57837 296.67984 111.52171 465
1240.03894 295.41910 147.04529 498
1525.36633 378.05197 171.92485 498
1385.49780 337.50717 336.25812 271
1357.36365 329.48441 372.59970 489
266.43600 14.20783 203.50636 314
431.11572 67.66438 164.83063 308
1238.31677 329.70908 111.21287 464
1233.69751 328.18250 146.63582 497
1517.13586 420.19235 171.91557 497
1406.90161 384.68948 380.91174 452
1395.26709 380.85895 420.38168 447
378.25024 56.00605 171.54744 316
428.88040 74.25167 164.87085 308
1232.01648 363.29141 110.53002 463
1227.34521 361.47473 146.44019 496
376.52887 61.00251 171.52399 316
421.33344 78.73300 166.15887 429
1225.51184 396.84384 110.20889 462
1220.71790 394.93225 146.04819 495
374.66327 65.90139 171.54146 316
413.33374 82.63904 167.54082 435
1219.19617 431.18985 109.24915 420
1214.19714 428.91516 145.62814 494
1469.36194 539.29041 171.95711 303
395.67178 81.57729 164.65714 316
409.94312 88.30054 167.72638 305
1212.85437 465.89725 108.42406 419
1207.35364 463.36996 145.20174 492
1298.43408 506.13339 177.70407 311
393.05154 86.99703 164.70062 317
1206.76758 501.58209 107.47720 422
1200.55444 498.43594 144.43509 490
1253.32654 525.31250 178.70151 489
1235.60168 516.22858 216.71626 463
389.33392 91.84259 164.98399 429
1200.23901 537.51025 106.38503 420
1193.62378 533.69067 143.94003 487
1229.36157 553.62225 178.86301 473
1395.31470 644.65448 216.62076 345
381.91220 94.42365 166.40654 434
1193.82153 574.56299 105.26219 418
1186.47192 570.18005 143.20578 485
1285.72852 628.74261 176.06946 499
1286.59338 629.44135 216.68018 499
375.04123 96.97880 167.60187 315
1190.65564 614.49524 103.60541 275
1182.67554 609.52979 142.06686 481
1266.35059 662.57068 175.95543 499
1266.82605 662.91193 216.43100 499
372.07587 101.86022 167.58348 315
1267.36694 710.25873 133.48569 380
1217.83521 676.54352 177.02702 489
1250.05164 698.42700 216.65996 464
368.90210 106.56895 167.60164 313
-79.56050 926.93433 88.05042 472
-81.75373 933.61853 119.82570 363
120.58088 149.16382 167.95537 489
112.55378 150.60771 166.40492 314
107.96722 147.11726 166.36768 314
100.54924 146.93239 165.19328 419
92.11671 147.49542 163.59155 424
87.45431 143.45625 163.50288 307
75.35542 156.34703 166.27864 305
104.17166 118.02708 171.50467 316
70.53103 151.69302 166.29697 305
-955.27881 1177.69446 52.22961 356
100.68017 114.16685 171.56013 316
64.05057 148.56058 165.65234 409
-983.66138 1132.95496 53.46158 396
-1035.45935 1181.62292 103.36746 401
97.28454 110.21161 171.58447 316
53.30209 148.94472 163.72350 403
-939.51874 1024.43604 63.60762 423
-1023.96106 1099.05249 107.40601 406
94.02615 106.11200 171.62894 316
75.21762 121.67776 171.75232 308
-945.24982 966.20282 67.07803 431
-1012.92084 1022.18555 111.45470 412
90.87389 101.95966 171.64047 316
71.63626 116.85783 171.80705 308
22.63782 154.90071 166.05394 297
-1013.86188 959.12756 62.14981 415
-1003.91760 951.53455 114.57517 430
87.83712 97.71596 171.68501 316
68.20924 111.96046 171.81406 308
15.34533 150.38620 165.42137 389
-1084.02771 949.40228 57.38110 407
-1072.58032 940.73944 111.29927 425
84.97254 93.33968 171.70912 316
64.91037 106.96547 171.83850 308
0.58573 150.76840 162.97044 382
-1161.81421 940.96619 51.45794 402
-1145.46826 929.89899 107.98224 419
-1452.62524 1138.52271 149.98138 484
82.26184 88.90285 171.69269 316
61.79792 101.86646 171.86490 308
34.85801 118.94695 172.07803 300
-1247.25415 932.90845 45.07217 368
-1223.84961 918.14551 104.30891 413
-1459.28418 1067.61816 151.41975 419
79.67891 84.36195 171.71555 316
58.83393 96.68293 171.87921 308
31.42580 112.95097 172.14644 300
-44.55967 157.85371 165.14696 286
-1307.98938 904.93311 100.11849 407
-1447.49304 987.64935 153.07991 416
77.19141 79.79620 171.73270 316
56.00292 91.44563 171.93045 308
38.15523 101.22137 174.45918 319
-53.78990 151.82069 164.23474 373
-1403.78979 893.91650 94.64394 371
74.88940 75.08736 171.75868 316
60.46972 82.46160 173.81061 385
50.84215 87.35508 177.92841 325
26.33995 99.85480 179.95244 292
-1614.73560 936.56598 81.13114 287
72.74596 70.34641 171.80942 316
64.10538 74.41174 175.37729 390
56.31583 78.08444 179.72827 300
21.31195 94.56827 179.58510 314
-24.65876 116.23866 180.38959 284
74.13657 64.05957 172.81157 386
67.61012 66.87823 176.82164 381
54.09081 72.72157 179.72758 300
32.73930 81.98999 182.14394 336
20.07607 87.48921 187.32300 315
-1.66689 96.90089 192.35201 283
76.50066 57.65117 174.02470 420
71.01910 59.79378 178.21382 386
47.49987 69.12260 178.81967 389
39.92739 72.12214 183.87538 373
31.10033 75.63313 189.24136 336
18.77036 80.49706 194.79539 332
1.44525 87.36187 200.87512 311
77.92714 51.85289 174.91196 423
72.82008 53.69893 179.06424 419
51.09026 61.51690 179.96669 393
44.05441 64.09650 184.96469 388
36.33794 66.80701 190.31627 373
27.40818 70.06963 195.94861 368
17.30630 73.66821 202.18678 332
79.29129 46.32529 175.73209 427
73.41164 48.22002 179.59746 308
54.29350 54.42800 181.01859 410
47.73059 56.56560 185.94565 393
40.62548 58.88808 191.14180 388
32.87566 61.40555 196.73720 372
23.69936 64.37243 202.75520 367
80.64133 40.96150 176.49727 432
72.06097 43.44510 179.58755 308
56.54782 47.96233 181.84143 421
50.57881 49.68620 186.68126 409
44.13493 51.57609 191.87346 404
37.19660 53.59312 197.37321 387
29.36480 55.85733 203.29301 382
81.97929 35.76295 177.16156 435
70.84258 38.64071 179.63153 308
58.53616 41.81666 182.50002 424
52.96011 43.23240 187.35597 420
46.87614 44.79967 192.44562 408
40.22805 46.47799 197.85455 403
33.17827 48.31520 203.61880 397
25.04191 50.39202 209.82150 269
83.23273 30.78070 177.77895 457
65.55096 34.72495 178.60854 432
60.41836 35.90416 183.13335 428
55.02540 37.09554 187.93271 423
49.33180 38.34827 192.94725 418
43.12987 39.73962 198.28314 406
36.28980 41.30080 203.95576 401
28.85524 42.96847 210.02777 358
-185.93764 91.02924 216.59023 296
83.44793 26.13092 178.08369 459
67.23235 29.21197 179.21109 455
62.32468 30.16232 183.70610 431
57.09196 31.14970 188.40440 426
51.54565 32.20974 193.39908 421
45.72753 33.34362 198.61870 416
39.35437 34.53918 204.21214 404
32.33719 35.87970 210.16327 399
-182.93242 76.99001 216.51898 424
83.74200 21.53022 178.35068 461
67.50820 24.08671 179.49084 456
62.90220 24.84372 184.01045 452
58.09129 25.60195 188.73860 447
53.05482 26.40118 193.72411 442
47.73908 27.25641 198.95612 437
41.99182 28.16625 204.48161 414
35.49205 29.19436 210.32828 402
84.01899 16.98958 178.58766 462
67.85213 19.02737 179.72226 457
63.30134 19.62092 184.21742 453
58.53537 20.22144 188.90752 448
53.51544 20.84271 193.87399 443
48.24204 21.49094 199.07878 438
42.68016 22.22940 204.56589 433
36.84557 22.93359 210.36932 428
84.31947 12.48663 178.77382 463
68.20650 14.00117 179.89149 459
63.68565 14.43369 184.37059 454
58.95023 14.90054 189.08646 450
53.99725 15.36800 194.00235 445
48.80698 15.86180 199.15660 440
43.32473 16.38162 204.62566 435
37.51243 16.89195 210.40170 429
84.66985 8.02215 178.93175 464
68.62360 9.06212 180.08537 460
64.08991 9.31401 184.54070 455
59.44014 9.60104 189.21579 451
54.56329 9.93971 194.12888 446
49.39290 10.27354 199.27605 441
43.97216 10.58208 204.71542 436
38.20821 10.97869 210.46773 430
-181.44968 24.76964 270.19171 486
-187.32156 25.15318 284.72147 360
85.03536 3.61437 179.05566 465
69.04834 4.11923 180.20332 461
64.58105 4.26619 184.65305 457
59.98887 4.40608 189.33324 452
55.12283 4.56270 194.20413 447
50.03724 4.73779 199.32520 442
44.62330 4.87693 204.74312 437
38.92589 5.06546 210.49240 431
-181.46216 11.99860 270.07703 487
