# .PCD v.7 - Point Cloud Data file format
VERSION .7
FIELDS x y z rgb
SIZE 4 4 4 4
TYPE F F F U
COUNT 1 1 1 1
WIDTH 533
HEIGHT 1
VIEWPOINT 6671.912598 401.439331 138.793884 -0.645151 -0.091374 -0.079424 0.754402
POINTS 533
DATA ascii
85.02913 -0.71927 179.42101 466
69.16869 -0.72541 180.53233 462
64.79058 -0.72193 184.96446 457
60.18443 -0.72845 189.58798 453
55.40580 -0.72519 194.40907 448
50.36970 -0.69831 199.48900 443
45.08256 -0.70846 204.85657 438
39.43902 -0.69285 210.54398 432
-181.54427 -0.65166 269.85025 487
-143.77417 -0.67246 277.28030 284
84.65621 -5.07316 179.30327 465
68.68204 -5.56661 180.40892 461
64.23528 -5.73794 184.86156 457
59.64977 -5.86973 189.50719 452
54.84051 -5.99634 194.36394 447
49.75600 -6.16338 199.43448 442
44.40231 -6.33416 204.80862 437
38.75055 -6.53021 210.54257 431
-181.54243 -13.40449 269.89401 487
-149.37834 -12.40653 278.14203 285
84.30493 -9.49908 179.17314 464
68.24107 -10.50307 180.30026 460
63.78119 -10.79112 184.72139 455
59.09929 -11.05470 189.35641 451
54.24374 -11.39468 194.24153 446
49.14360 -11.70257 199.36958 441
43.72703 -12.00625 204.77559 436
38.00681 -12.36523 210.50452 430
-181.48230 -26.12768 270.01962 486
83.94392 -13.91570 178.99310 463
67.86623 -15.41807 180.12074 459
63.37033 -15.84971 184.58002 454
58.63171 -16.31076 189.25549 450
53.69859 -16.76320 194.10625 445
48.55753 -17.26239 199.24756 440
43.07225 -17.79169 204.70805 435
37.32731 -18.30478 210.48132 429
-181.42982 -38.95306 270.06253 486
83.64516 -18.37567 178.78925 462
67.53432 -20.40718 179.90875 457
62.95487 -20.98659 184.40222 453
58.21051 -21.59476 189.06105 448
53.22173 -22.24018 193.97243 443
47.97549 -22.91019 199.18102 438
42.45038 -23.60291 204.62080 433
36.61484 -24.29681 210.39415 428
83.37469 -22.90685 178.57224 461
67.20619 -25.45864 179.69177 456
62.61193 -26.20366 184.16820 452
57.80804 -26.95574 188.89693 447
52.77386 -27.73714 193.85358 442
47.40940 -28.58253 199.03592 419
41.42286 -29.54925 204.48085 414
34.81751 -30.61223 210.33791 402
83.12399 -27.46400 178.31865 459
66.62932 -30.63283 179.35808 435
61.65989 -31.56435 183.81433 431
56.45346 -32.57397 188.53354 426
50.95347 -33.62468 193.45053 421
45.12233 -34.70411 198.68787 416
38.67088 -35.93175 204.27339 404
31.61749 -37.31369 210.19659 364
-183.00574 -78.16128 216.51920 424
82.72073 -32.14533 177.97198 439
64.90804 -36.12610 178.75751 432
59.80803 -37.28464 183.23689 428
54.40557 -38.48271 187.99194 423
48.74039 -39.73846 193.01982 418
42.45522 -41.17374 198.30928 406
35.65519 -42.65321 203.99126 401
28.10606 -44.36225 210.01756 358
-189.07616 -92.92564 216.59253 296
81.36570 -37.17440 177.31366 435
63.16721 -41.83208 178.04527 429
57.89322 -43.17413 182.62695 424
52.36895 -44.59544 187.46907 420
46.16079 -46.20612 192.52994 408
39.53851 -47.89141 197.89145 402
32.46539 -49.72443 203.69514 397
-188.37122 -106.40804 202.64145 484
80.06242 -42.33509 176.64548 432
71.03368 -44.91691 179.63184 308
55.94669 -49.31906 181.93382 414
49.86945 -51.07616 186.78741 409
43.45649 -52.92091 191.94394 404
36.31905 -55.01927 197.41554 387
28.36250 -57.33880 203.28021 371
78.68805 -47.66842 175.89552 427
72.38965 -49.69732 179.60693 308
53.59821 -55.83949 181.11115 397
46.89016 -57.97150 186.00414 393
39.74840 -60.32563 191.20651 388
31.86093 -62.86807 196.74254 372
22.69265 -65.87152 202.77962 367
77.28997 -53.22515 175.06947 423
72.21631 -55.02591 179.21346 419
50.20597 -62.97512 180.03406 393
43.16576 -65.49381 185.03600 388
35.37617 -68.30936 190.28609 372
26.34729 -71.56225 195.96756 367
15.52587 -75.45388 202.13477 332
75.90784 -58.99107 174.20639 420
70.12293 -61.25322 178.25876 386
46.67520 -70.53506 178.84209 388
38.91430 -73.58747 183.87283 373
29.37706 -77.37511 189.13954 336
16.67695 -82.45049 194.72560 316
-1.15065 -89.47054 200.78979 311
73.18436 -65.53381 172.86758 386
66.73447 -68.34605 176.90294 395
53.17476 -74.19305 179.79210 300
31.06445 -83.75433 182.05145 336
17.77548 -89.54314 187.16779 315
-12.67971 -102.68068 191.27245 265
71.81478 -71.82413 171.83195 316
63.32118 -75.81776 175.46771 390
55.42337 -79.53239 179.76921 300
17.96581 -97.12357 179.17546 286
-25.36407 -117.49944 180.48961 284
73.99615 -76.57453 171.84093 316
59.11931 -84.10590 173.74130 328
48.98448 -89.30193 177.77654 325
25.53193 -101.25195 180.00655 292
76.31293 -81.23888 171.79054 316
55.15928 -92.88592 171.98923 308
35.66629 -103.53713 174.13983 272
-52.28220 -151.94846 164.74185 373
78.80151 -85.84958 171.78577 316
57.98916 -98.14049 171.94049 308
30.60140 -114.30758 172.18140 300
-45.34929 -159.18518 165.17366 286
81.40408 -90.37365 171.76129 316
60.98713 -103.30978 171.91278 308
34.08676 -120.36623 172.14622 300
84.14642 -94.79954 171.72900 316
64.11404 -108.42306 171.90630 308
1.64536 -150.85437 163.46083 382
87.06023 -99.13237 171.73732 316
67.45651 -113.40923 171.90892 308
16.33532 -150.47134 165.91891 389
90.06011 -103.39365 171.67108 316
70.88699 -118.29924 171.85408 308
21.92425 -156.24602 166.06993 297
93.24770 -107.55313 171.68475 316
46.57736 -146.15384 163.35892 300
-3157.07056 -2796.53223 72.35168 321
96.50090 -111.61266 171.63367 316
53.97093 -149.11699 164.21637 404
-2868.33618 -2725.42603 81.14473 316
99.92585 -115.57993 171.62662 316
64.62127 -148.73935 166.17058 409
-2626.97803 -2676.13281 88.08315 274
103.47365 -119.47298 171.58006 316
69.84431 -153.06488 166.31851 306
-2698.39795 -2920.66870 81.13985 319
86.66434 -144.98853 163.57121 307
-2499.19971 -2897.89990 85.82974 294
92.45506 -147.68999 164.07970 424
100.87395 -147.13789 165.64186 419
107.29200 -148.50354 166.43573 314
111.92922 -151.98306 166.47395 314
120.65031 -149.53441 168.35516 489
127.73005 -148.83813 169.56879 396
-23299.41211 -42782.90234 -1381.17798 0
-277.47879 -1061.40796 100.96557 424
10979.15137 -56456.03516 2101.50513 0
830.97882 -2114.98022 144.44475 436
885.41101 -2058.11450 145.88605 460
939.45996 -2007.81934 147.09727 480
995.72821 -1967.31750 147.28598 491
1054.18359 -1934.29102 147.76724 499
1117.43298 -1912.95947 147.52080 497
1180.59985 -1890.37634 147.42027 424
1245.58093 -1869.98096 147.17902 494
1312.08752 -1851.35754 146.35524 336
1381.03906 -1833.50891 145.95105 475
1450.65369 -1814.69336 145.10458 478
796.98004 -578.63428 109.09196 488
798.49817 -580.27618 136.00766 489
800.34570 -582.00500 162.64575 466
803.00995 -584.69543 189.49376 428
3467.61353 -3051.59448 -221.88127 0
367.55203 -108.12050 167.60632 313
370.92276 -103.40256 167.65051 315
374.13593 -98.55933 167.66856 315
380.40189 -95.55419 166.68362 434
387.91141 -92.93364 165.32138 429
392.74304 -88.57151 164.72600 317
395.67584 -83.16164 164.70134 317
409.95776 -89.87870 167.76828 305
374.87177 -67.48267 171.54811 316
412.61365 -83.84645 167.78946 305
376.97653 -62.59062 171.55440 316
420.40176 -79.80987 166.53494 429
378.88785 -57.64663 171.59969 316
428.90503 -75.62178 165.06442 424
380.65948 -52.60930 171.58665 316
431.99878 -69.29471 164.89746 308
382.31183 -47.54772 171.61992 316
434.16254 -62.60371 164.88350 308
456.30399 -69.08839 167.89777 297
383.79007 -42.48606 171.63589 316
407.11548 -48.46244 171.86279 309
458.14340 -61.58906 167.96800 297
269.05954 -11.39599 203.50211 314
408.57318 -42.59128 171.86612 309
464.19266 -55.04044 167.09647 452
269.51434 -9.88679 203.50041 314
409.87943 -36.68190 171.87630 309
471.28900 -48.42096 166.02419 448
1773.64819 -296.73508 164.89954 426
1787.94397 -299.69815 216.90045 365
269.90720 -8.38079 203.50586 314
411.00500 -30.72072 171.91336 309
477.34955 -41.23189 165.10295 300
1738.26917 -241.02193 166.58650 440
1773.22119 -246.72478 216.73013 333
270.26694 -6.85743 203.50929 314
411.98697 -24.79411 171.88991 309
443.19446 -28.75224 172.19963 301
1788.61060 -198.91750 112.97593 377
1710.00940 -188.84671 167.71375 456
1878.77649 -210.15135 216.88489 451
270.56796 -5.34094 203.50352 314
412.77029 -18.78251 171.90793 309
444.07632 -21.77147 172.19803 301
1749.94348 -145.12994 115.95374 396
1688.51147 -139.59877 168.36588 465
270.81976 -3.80377 203.50665 314
413.34027 -12.77462 171.91092 309
444.74289 -14.77932 172.19128 301
1681.22644 -92.56293 120.97222 351
1662.78088 -91.63815 169.53961 473
271.03256 -2.28140 203.49989 314
413.72842 -6.78144 171.93115 309
445.23920 -7.77544 172.19824 301
1651.39551 -45.58951 123.10264 417
1645.07837 -45.56177 169.88107 464
1693.64990 -46.90773 216.57739 468
1682.37659 -46.81028 312.51215 277
271.20166 -0.73692 203.50133 314
413.97421 -0.72121 171.94382 309
445.43732 -0.74412 172.24965 301
1631.84778 -0.72234 124.29848 422
1631.31763 -0.77363 170.58606 467
1669.71326 -0.99393 216.63057 472
1669.37732 -0.92250 264.04712 494
1669.46094 -0.71405 311.61453 493
271.30453 0.79007 203.50229 314
413.99573 5.28423 171.92496 309
445.51892 6.23860 172.25354 301
1616.65198 43.15256 125.38305 466
1618.61987 43.22272 170.90550 440
1659.25415 44.21529 216.81677 495
1659.73926 44.44411 263.92130 495
1659.97766 44.55353 311.10663 495
271.36789 2.33009 203.49881 314
413.87292 11.29455 171.92238 309
445.28302 13.27181 172.21651 301
1603.81494 86.22759 126.03397 470
1607.67261 86.44572 171.04274 443
1643.66370 88.73940 216.50128 497
1643.53564 88.48199 263.37265 494
1643.69751 88.73063 309.93707 496
1657.31763 89.28996 358.07202 491
1657.50989 89.35273 405.79471 490
1657.85791 89.69069 454.11713 460
271.38855 3.86122 203.50697 314
413.58929 17.27588 171.93762 309
444.91299 20.27025 172.18990 301
1593.02100 128.78549 126.27368 472
1598.19226 129.17781 171.33177 444
1634.69434 132.49899 216.78520 498
1635.24756 132.56528 263.04675 498
1634.23181 132.44116 309.71970 497
271.36011 5.38370 203.50685 314
413.08298 23.26091 171.91585 309
444.34955 27.24136 172.17744 301
1583.93872 171.28079 126.63527 473
1589.03894 171.99138 171.70570 445
1630.68665 177.14624 216.55173 499
1631.16016 177.25307 263.21884 498
1624.65991 176.45967 309.44702 498
271.28516 6.90552 203.50035 314
412.38379 29.24074 171.91212 309
478.76910 39.76275 165.07439 300
1574.46863 213.27032 127.02120 496
1580.16553 214.17796 171.78342 445
1621.18347 220.84245 216.70146 499
1621.54480 220.89888 262.85449 499
1615.46045 219.81009 309.07349 498
1761.59009 242.93156 370.16586 486
387.90808 30.69610 171.66196 316
411.54712 35.21454 171.89136 309
472.30264 46.80668 166.15747 448
1565.50842 255.36630 127.25040 496
1571.25256 256.54755 171.60149 446
1611.54028 264.17926 216.77919 499
1611.95105 264.04385 262.91483 499
1612.25110 264.20432 309.23273 499
1670.46350 275.22348 361.65561 498
1715.06042 283.89740 416.66394 448
387.01611 35.84998 171.67343 316
410.52307 41.13230 171.85681 309
465.24435 53.38684 167.29144 452
1556.46362 297.25873 127.06283 496
1562.47595 298.60229 171.57416 446
1805.37500 352.77997 323.13596 335
1684.15356 325.91302 363.98798 443
385.96255 41.02507 171.65216 316
409.29474 46.99744 171.87947 309
460.43884 60.13468 167.90761 297
1547.48230 339.36365 127.23763 496
1553.56848 340.82150 171.53082 445
1675.18640 371.87408 364.30133 465
1724.09839 384.74722 420.62802 488
384.72769 46.10358 171.63849 316
436.60095 61.18528 164.87740 308
458.90042 67.65495 167.87927 297
1538.22644 381.32288 126.94643 496
383.40906 51.14853 171.59016 316
434.76447 67.85437 164.83543 308
1529.25989 423.34375 126.83470 495
381.85785 56.19082 171.61409 316
431.16309 73.92730 165.19812 424
1519.97900 465.81857 126.27463 494
1562.57532 481.05270 170.03152 274
1681.07007 524.02087 216.79721 437
380.19473 61.14652 171.55750 316
422.78906 78.04321 166.74335 429
1510.94189 508.82309 125.82310 493
1516.21643 510.90237 171.25075 439
1799.22217 622.90546 216.45737 396
378.36853 66.04951 171.56323 316
416.28348 82.46411 167.80434 305
1501.25720 552.18213 125.23682 492
1506.98926 554.32898 171.03580 438
1785.98840 675.06934 216.72375 490
399.46967 81.76121 164.68227 317
413.89597 88.56635 167.74094 305
1492.13892 596.08704 124.61995 490
1497.34619 598.33759 170.70795 437
1592.05090 643.03119 216.76129 498
396.87717 87.21304 164.73822 317
1588.67432 694.25366 116.32098 465
1565.14111 682.55060 167.44897 499
1567.47400 683.70160 216.62466 498
391.51016 91.12344 165.53604 429
1557.34631 732.12878 166.89543 448
1557.08984 731.92017 216.74902 467
384.14597 93.69180 166.92017 434
374.62509 97.04424 167.59859 315
371.64301 101.86897 167.61400 315
368.55563 106.61710 167.59395 313
10777.93359 24382.68164 -6904.98633 0
224.65851 931.90137 93.78136 481
224.60013 935.95569 124.42081 441
224.49963 940.58344 154.74550 381
119.01939 148.08507 167.38464 316
112.23325 147.56282 166.37685 314
-658.70233 1141.91748 74.39067 327
105.65092 146.40805 165.54758 419
-675.11945 1090.25366 77.12732 272
-744.61810 1174.39746 116.80560 347
97.05517 147.27994 163.79974 414
-646.26306 990.66028 86.39977 479
-715.17615 1068.81482 123.23850 354
91.78451 143.92540 163.52901 311
79.71722 156.82922 166.30714 305
-689.73248 976.25012 84.71056 455
-686.80530 973.22882 129.06662 480
108.45922 118.57228 171.50932 316
74.92335 152.16733 166.31117 305
-735.88519 962.78064 82.60616 451
-731.40808 958.42328 127.91508 467
105.00260 114.69704 171.52371 316
69.12891 148.33923 165.92274 409
-783.10828 948.59937 79.88579 448
-778.38989 944.43158 125.98691 463
101.61173 110.73910 171.52797 316
58.45501 148.76277 163.99408 403
-832.36725 933.83710 77.59253 444
-827.20599 929.58795 124.31824 459
98.37619 106.65798 171.59390 316
51.88560 145.09557 163.38091 300
-885.72253 920.56433 74.27336 417
-877.96802 914.43237 122.65312 458
-1116.78625 1112.13391 159.32018 459
95.28282 102.47077 171.61168 316
75.93217 117.43262 171.77158 308
27.05737 155.35712 166.06622 297
-941.71814 906.85272 70.64241 413
-930.55927 898.15161 120.59831 453
-1164.55115 1079.72375 158.96477 482
92.27339 98.18389 171.64081 316
72.50968 112.54508 171.80275 308
20.61488 150.23163 165.64973 389
-999.86676 891.97876 67.31661 398
-985.85559 881.44293 118.26537 449
-1150.10571 1001.03430 160.69797 384
89.45125 93.79716 171.62790 316
69.27303 107.50241 171.79973 308
5.89973 150.58900 163.13528 382
-1063.32690 877.22687 63.01074 387
-1043.99756 864.03632 116.04961 436
-1050.97888 868.99323 166.14688 437
86.71011 89.35651 171.69707 316
66.18327 102.38975 171.82762 308
39.15965 119.55054 172.08098 300
-1152.22681 875.65704 55.57616 332
-1120.94214 855.55469 112.15327 384
84.16630 84.81905 171.69167 316
63.20617 97.21329 171.84924 308
35.65814 113.49777 172.06749 300
-39.96103 158.24913 165.13452 286
-1230.80640 862.27661 105.41035 342
81.72178 80.18423 171.73178 316
60.44036 91.91135 171.86732 308
32.40874 107.29063 172.15158 300
-48.67889 151.92816 164.39249 373
75.77953 75.26236 171.78595 316
60.20514 83.21519 173.51305 328
49.98131 88.42163 177.58810 325
27.06195 100.10170 179.96704 292
73.44157 70.50146 171.76959 316
63.93739 75.00747 175.17003 390
56.96424 78.26323 179.70651 300
20.53152 95.42216 179.34845 314
-24.22864 116.52741 180.41096 284
74.05201 64.48426 172.62277 386
67.47650 67.33424 176.64116 381
54.59225 72.92337 179.72513 300
32.27633 82.58720 181.96474 336
19.31760 88.18123 187.13518 315
-5.48236 98.96428 191.91422 266
76.49974 57.93556 173.89143 420
70.92873 60.13411 178.08173 386
47.38875 69.48235 178.66718 389
39.70421 72.53813 183.80266 373
30.68166 76.09205 189.15865 336
18.23884 81.05303 194.72876 332
0.63021 88.03480 200.81468 311
77.91841 52.12217 174.81624 423
72.79224 53.94433 178.96976 419
50.93716 61.82407 179.89560 393
43.89471 64.33028 184.92166 388
36.15453 67.13949 190.25348 373
27.19722 70.36053 195.94046 367
16.88871 74.06522 202.15781 332
79.28300 46.47271 175.67114 427
73.52570 48.36876 179.59270 308
54.24275 54.61208 180.98143 410
47.63733 56.77645 185.90869 393
40.47348 59.08617 191.12244 388
32.69367 61.62004 196.72908 372
23.50850 64.64297 202.77782 367
80.61472 41.08931 176.46979 432
72.04628 43.56159 179.59209 308
56.53580 48.10275 181.83307 421
50.49848 49.83543 186.68260 409
44.02776 51.68842 191.88564 404
37.08167 53.76386 197.40092 387
29.19446 56.03928 203.31050 382
81.92265 35.87590 177.17783 435
63.76463 40.53999 177.91751 429
58.45533 41.87326 182.52040 424
52.91421 43.35254 187.38797 420
46.77320 44.90143 192.45375 408
40.14377 46.57491 197.88429 403
33.06821 48.40640 203.65584 397
24.36705 50.65627 209.86354 269
83.17442 30.82846 177.82959 457
65.50655 34.78883 178.66020 432
60.35464 35.92562 183.20328 428
54.96434 37.15300 187.96777 423
49.26570 38.41411 192.97743 418
43.04474 39.83707 198.29356 406
36.22060 41.34933 203.96396 401
28.73985 43.02304 210.03864 358
-186.43039 91.11407 216.64482 296
83.38828 26.16134 178.16783 459
67.13143 29.24099 179.31871 455
62.24902 30.20671 183.81613 431
56.98804 31.20282 188.50012 426
51.46096 32.26077 193.45049 421
45.65031 33.34658 198.69420 416
39.26622 34.58214 204.24698 404
32.26394 35.93520 210.22224 399
-182.85202 77.00847 216.67311 424
-31639.42578 6082.55859 2346.55005 0
83.62506 21.54414 178.44948 461
67.42493 24.10717 179.58966 456
62.81160 24.82026 184.09331 452
58.00210 25.59333 188.80685 447
52.96975 26.40910 193.77222 442
47.63990 27.25888 199.02379 437
41.91855 28.15399 204.51999 414
35.41819 29.17705 210.38322 402
83.85426 16.99486 178.72397 462
67.70420 19.03848 179.84840 457
63.18985 19.61838 184.31827 453
58.42905 20.21204 189.04771 448
53.41374 20.87598 193.95174 443
48.17775 21.51148 199.16237 438
42.61927 22.20023 204.62186 433
36.79676 22.96180 210.43358 428
84.15883 12.52298 178.94542 463
68.04189 14.04724 180.05870 459
63.54861 14.43559 184.54251 454
58.81305 14.91468 189.19397 450
53.87856 15.37294 194.08084 445
48.71083 15.86613 199.24048 440
43.24394 16.39729 204.70331 435
37.50018 16.93193 210.45877 429
84.45216 8.07310 179.13582 464
68.42797 9.05562 180.25957 460
63.91226 9.36978 184.69034 455
59.30322 9.65086 189.33452 451
54.41729 9.97026 194.23616 446
49.28932 10.28984 199.36595 441
43.89456 10.61439 204.75760 436
38.16165 10.95618 210.51900 430
-181.47629 24.83530 270.15906 486
-187.47322 25.21116 284.67392 360
84.78906 3.65465 179.29691 465
68.82223 4.13710 180.39687 461
64.41508 4.30087 184.85051 456
59.78714 4.44164 189.51398 452
54.98740 4.60776 194.33855 447
49.89447 4.76256 199.45879 442
44.52786 4.91758 204.85626 437
38.89398 5.12740 210.56042 431
-181.45139 12.05425 270.00092 487
