# .PCD v.7 - Point Cloud Data file format
VERSION .7
FIELDS x y z rgb
SIZE 4 4 4 4
TYPE F F F U
COUNT 1 1 1 1
WIDTH 503
HEIGHT 1
VIEWPOINT 6627.199219 113.407433 141.892990 -0.642302 -0.095607 -0.083075 0.755914
POINTS 503
DATA ascii
84.99815 -0.76886 179.45027 466
69.11434 -0.77287 180.57066 462
64.73186 -0.77195 184.98576 457
60.20098 -0.79330 189.60622 453
55.41842 -0.77943 194.40950 448
50.38291 -0.75713 199.50056 443
45.06720 -0.76025 204.84903 438
39.47534 -0.80044 210.53682 432
-152.79552 -0.71949 241.21243 419
-181.55757 -0.78400 269.79272 487
-144.34407 -0.79626 277.22354 284
84.62604 -5.13261 179.35968 465
68.62385 -5.65041 180.44879 461
64.21608 -5.78917 184.85576 456
59.64501 -5.89866 189.48238 452
54.82906 -6.07225 194.32613 447
49.76699 -6.24859 199.43939 442
44.43249 -6.40378 204.79663 437
38.78394 -6.59209 210.51630 431
-153.10532 -12.62321 241.21881 416
-181.55873 -13.49698 269.82776 487
-150.15846 -12.55047 278.17441 285
84.24410 -9.53228 179.23267 464
68.19201 -10.51308 180.32532 460
63.74389 -10.81131 184.75870 455
59.09005 -11.12362 189.37254 451
54.24510 -11.43138 194.23322 446
49.16562 -11.70878 199.33440 441
43.78133 -12.04482 204.75229 436
38.04860 -12.42837 210.44922 430
-181.52290 -26.23342 269.85745 486
83.91164 -13.92135 179.07671 463
67.80806 -15.45279 180.17604 459
63.35209 -15.88226 184.61534 454
58.63555 -16.30986 189.24132 449
53.69835 -16.80993 194.12750 445
48.53674 -17.27214 199.28172 440
43.08815 -17.79850 204.70613 435
37.38005 -18.30998 210.44756 429
-181.52948 -39.04037 270.00800 486
83.58840 -18.37886 178.87460 462
67.47013 -20.45314 179.98756 457
62.91745 -21.01131 184.41399 453
58.21654 -21.58012 189.08887 448
53.24266 -22.24249 194.00439 443
48.00185 -22.88815 199.14536 438
42.48509 -23.56508 204.59210 433
36.64621 -24.33601 210.39481 428
83.30148 -22.89340 178.64807 461
67.15301 -25.44724 179.76091 456
62.55104 -26.18894 184.24759 452
57.77073 -26.93221 188.92311 447
52.78661 -27.73493 193.84372 442
47.43721 -28.57672 199.04677 419
41.46273 -29.51757 204.48859 414
34.85358 -30.54231 210.29610 402
83.02926 -27.43290 178.39850 459
66.62070 -30.58965 179.45488 435
61.64212 -31.53186 183.87340 431
56.45569 -32.52024 188.58064 426
50.94834 -33.57267 193.47096 421
45.12230 -34.66499 198.69002 416
38.69668 -35.87960 204.22646 404
31.70498 -37.25117 210.14580 399
-183.03371 -78.16750 216.55290 424
82.63789 -32.09724 178.04074 439
64.88453 -36.05179 178.80168 432
59.76773 -37.21792 183.28687 428
54.44164 -38.41586 188.03081 423
48.73379 -39.68190 193.05432 418
42.47141 -41.04958 198.35161 406
35.67225 -42.57420 203.95590 401
28.22424 -44.24445 210.01288 358
-188.70876 -92.73114 216.45894 296
81.33624 -37.05114 177.42319 435
63.12788 -41.72386 178.13673 429
57.85294 -43.06952 182.70078 424
52.34149 -44.49928 187.48695 420
46.20218 -46.06322 192.52458 408
39.60875 -47.78117 197.90105 402
32.55821 -49.57711 203.68961 397
-188.35667 -106.35329 202.60843 484
79.98708 -42.20102 176.74651 430
70.64930 -44.90487 179.62962 308
55.94604 -49.19613 181.98700 421
49.90293 -50.96048 186.83478 409
43.45622 -52.83657 191.97932 404
36.41916 -54.85927 197.43703 387
28.48409 -57.14877 203.25658 371
78.61736 -47.52317 176.00136 427
71.95768 -49.67847 179.62157 308
53.60456 -55.65397 181.21577 397
46.93247 -57.81514 186.03682 393
39.82183 -60.10551 191.24594 388
31.93669 -62.66550 196.78821 372
22.82780 -65.67326 202.75650 367
77.22990 -53.03420 175.17841 423
72.16771 -54.84451 179.29997 419
50.22396 -62.77494 180.13986 393
43.24825 -65.27986 185.10635 388
35.46469 -68.06178 190.35699 372
26.51056 -71.31860 196.02141 367
15.82572 -75.17068 202.11995 332
75.84023 -58.74710 174.30450 420
70.13979 -61.00270 178.35036 386
46.71188 -70.31066 178.95140 388
38.99405 -73.35686 183.98300 373
29.67436 -77.06644 189.25874 336
17.10570 -82.02238 194.78619 316
-0.65795 -89.06512 200.83168 311
73.22313 -65.23372 173.02150 386
66.78135 -68.05491 177.03229 395
52.75256 -74.10528 179.80875 300
31.33692 -83.35992 182.16110 336
18.18313 -89.07663 187.24445 315
-10.06778 -101.25462 191.58296 265
71.25637 -71.78049 171.86526 316
63.39403 -75.46239 175.59625 390
54.96108 -79.44263 179.75096 300
18.99904 -96.38338 179.42949 286
-25.72617 -117.43252 180.42812 284
73.40631 -76.49294 171.82422 316
59.55865 -83.58659 174.00000 328
49.44532 -88.72195 178.01193 325
25.09346 -101.12537 180.01399 292
75.71238 -81.18225 171.80341 316
54.57945 -92.78864 172.01294 308
36.78347 -102.53127 174.49989 319
-52.94506 -151.92865 164.75058 373
78.15557 -85.75446 171.76807 316
57.40171 -98.05237 171.95924 308
30.06112 -114.18898 172.21747 300
-45.87098 -159.09703 165.12532 286
80.75327 -90.24133 171.76556 316
60.34146 -103.19965 171.93951 308
33.50306 -120.24438 172.17516 300
83.44724 -94.68980 171.75311 316
63.47382 -108.30117 171.89122 308
0.78379 -150.88683 163.39842 382
86.31863 -99.03615 171.71724 316
66.72392 -113.26951 171.89641 308
15.48934 -150.49600 165.84198 389
89.31592 -103.27483 171.70918 316
70.17276 -118.12711 171.87476 308
21.21113 -156.12715 166.11134 297
92.44478 -107.42831 171.65881 316
45.82884 -146.03506 163.36871 300
95.67574 -111.49554 171.66953 316
52.96948 -149.18791 164.17863 404
99.06668 -115.46329 171.63646 316
63.59247 -148.80798 166.11461 409
-2707.81299 -2752.00830 85.06605 370
102.57233 -119.34258 171.61455 316
68.95406 -152.95453 166.30687 306
-2469.95264 -2691.72876 91.39523 377
85.70836 -144.87018 163.56573 307
-2262.62427 -2646.28882 97.87843 439
91.39317 -147.73093 164.03818 424
-2270.31323 -2826.02271 92.63670 452
99.66541 -147.23254 165.57996 419
-2164.70703 -2884.30151 93.76024 355
106.28536 -148.36145 166.47234 314
110.90771 -151.89839 166.47127 314
119.51529 -149.47263 168.36380 273
120.30946 -148.82417 169.58072 441
126.86517 -148.84006 170.44058 316
14.47359 -1058.00781 110.86450 499
13.92563 -1062.00989 146.06551 499
1134.47131 -2114.47534 142.05238 449
1187.76465 -2057.59570 142.80733 470
1241.83557 -2005.76978 143.14532 483
1299.60059 -1963.86780 144.06380 492
1360.51282 -1928.67041 143.88513 498
1428.71301 -1904.74585 143.26964 490
1498.60962 -1881.20850 142.89832 416
1571.23840 -1859.41138 141.54453 485
1646.28955 -1838.05518 140.92242 336
1725.56738 -1818.93347 139.82480 470
374.11670 -103.40765 167.64485 315
377.41330 -98.54642 167.65945 315
1109.26208 -563.09363 113.36505 407
382.50961 -94.80411 167.07536 434
390.03210 -92.20550 165.69038 429
396.09677 -88.51726 164.78040 317
399.05884 -83.09245 164.76933 317
413.45975 -89.87815 167.74184 305
401.74432 -77.58469 164.75531 317
416.12729 -83.78425 167.80717 305
380.41879 -62.50181 171.59648 316
421.98944 -78.98001 167.01187 429
382.35812 -57.55013 171.64433 316
430.47818 -74.86683 165.51717 424
384.21725 -52.57810 171.63142 316
435.53235 -69.24807 164.92239 308
385.86139 -47.52019 171.67227 316
437.71844 -62.58556 164.88057 308
387.40732 -42.43420 171.66928 316
410.65024 -48.39227 171.90349 309
461.87433 -61.56928 167.97803 297
388.75882 -37.28182 171.67642 316
412.18478 -42.52333 171.93530 309
464.95538 -54.34950 167.70850 452
389.96893 -32.12627 171.68451 317
413.51910 -36.61655 171.94421 309
471.98056 -47.73795 166.62617 448
390.99197 -26.95928 171.71390 317
414.70221 -30.69652 171.91785 309
479.31161 -40.91649 165.49521 443
2067.35864 -292.48907 155.78189 429
391.88852 -21.73631 171.71085 317
415.70258 -24.71307 171.96696 309
482.28525 -33.13792 165.14648 301
2140.35864 -242.81570 90.32850 296
2028.20081 -228.32755 157.37915 446
392.64087 -16.47986 171.70499 317
416.48438 -18.73582 171.95636 309
447.78824 -21.72068 172.28268 301
2065.33374 -174.59840 95.41167 399
1994.11353 -168.02649 158.33754 459
393.21884 -11.22757 171.71217 317
417.14465 -12.77905 171.92668 309
448.49615 -14.75492 172.24565 301
1996.93481 -112.02990 100.17345 283
1967.87256 -110.06972 159.32155 452
269.24622 -2.27586 203.50052 314
412.15945 -6.81539 171.91660 309
443.65714 -7.80448 172.19295 301
1941.74390 -55.01229 104.30171 358
1940.80579 -55.30151 160.56837 428
269.45050 -0.73865 203.50235 314
412.41928 -0.78268 171.92944 309
443.91437 -0.81042 172.19537 301
513.40442 -0.83664 168.26268 288
1916.48889 -1.30721 105.62318 424
1924.80969 -0.99955 161.16278 409
1994.82483 -1.07149 217.01598 274
1956.23987 -1.03003 273.59296 493
269.60089 0.78902 203.50182 314
412.47043 5.24783 171.88062 309
443.96826 6.24413 172.22337 301
1897.39783 51.34670 106.93630 467
1910.02283 52.17480 161.46416 412
1942.53845 53.02338 217.05180 495
1943.77393 52.89354 273.34607 494
269.70651 2.32017 203.50159 314
412.37500 11.24080 171.87653 309
443.86804 13.23601 172.19810 301
1881.81104 103.47366 107.85748 471
1896.74133 104.35793 161.80934 414
1925.20923 106.14136 216.94072 496
1926.32434 106.07635 273.00970 496
269.76752 3.85195 203.49860 314
412.08835 17.27232 171.91293 309
443.46454 20.24549 172.23126 301
1869.12390 154.46538 108.61126 474
1884.47021 156.07091 162.24333 417
1912.72876 158.88312 216.76361 282
1913.03662 158.98436 272.62326 498
269.77734 5.37656 203.50780 314
411.65393 23.24594 171.89307 309
442.94806 27.20662 172.19710 301
1857.32336 205.67981 108.76479 474
1873.27307 207.75865 162.27415 417
1906.22583 211.77071 216.84758 498
1907.32532 211.80496 272.31021 498
269.74402 6.89713 203.49788 314
411.01151 29.23483 171.85820 309
477.34235 39.70258 165.07101 300
1845.80066 256.23257 109.03997 496
1861.82043 258.58752 162.68275 418
1893.30725 263.92236 216.91408 499
1894.32190 264.10910 272.09164 499
1976.40369 276.94781 333.10767 498
2016.15747 283.07745 395.63522 312
269.65186 8.40375 203.50699 314
410.16992 35.17037 171.86746 309
472.08786 46.97886 165.93291 448
1834.16699 306.73090 109.17552 497
1850.26367 309.57428 162.37489 418
1976.13086 333.60574 333.84351 498
269.52951 9.90033 203.50101 314
409.14359 41.05387 171.83717 309
465.02341 53.59233 167.03915 452
1822.84399 356.57764 109.26320 497
1838.85547 360.41901 162.56271 353
2005.04285 397.58255 396.73227 478
269.34491 11.38958 203.50769 314
408.00336 46.97233 171.86371 309
459.11169 60.05438 167.90034 297
1811.40308 406.84793 109.46378 497
383.48770 46.07328 171.62691 316
435.34796 61.10445 164.86578 308
457.60208 67.57938 167.85797 297
1799.77136 457.42111 109.26016 497
382.15012 51.13741 171.60648 316
433.55423 67.81308 164.83635 308
1788.68237 507.86813 108.75278 496
1804.47046 513.09845 162.25427 394
380.68127 56.13046 171.57118 316
430.70346 74.12182 165.04196 424
1777.10596 558.59082 108.72224 495
1792.79187 564.13715 161.99013 393
379.06085 61.11076 171.58044 316
422.36481 78.22051 166.57109 429
1765.41492 609.75171 107.85305 473
1780.73035 615.70624 161.92012 393
1872.58447 652.27484 216.54846 425
377.26495 65.98328 171.53587 316
415.10397 82.36113 167.80197 305
1860.36194 707.75800 99.66481 470
1803.23010 682.84326 160.49663 380
1842.16187 699.47235 216.79272 464
398.41095 81.71748 164.71272 316
412.79379 88.48888 167.73929 305
395.84778 87.11151 164.74313 317
390.99051 91.30827 165.36798 429
383.67282 93.86722 166.79369 434
378.14450 97.14795 167.65202 315
375.24612 101.99301 167.60861 315
372.22626 106.76562 167.58374 313
15523.19824 47060.55859 213.94568 0
502.55981 944.03577 86.98524 390
-401.28888 1141.62402 88.24873 268
-370.25641 1008.52490 101.00391 321
-466.88028 1172.20007 127.15781 317
-394.03574 977.03381 102.34306 475
-433.25073 1038.99634 135.96812 325
124.63390 148.81949 168.08998 489
-430.77872 966.25299 101.38498 467
-428.71463 963.10223 140.22884 485
118.10947 147.99071 167.32231 441
-469.09286 956.57526 99.85966 466
-466.54211 952.89484 139.22437 483
111.31869 147.21657 166.37497 314
-508.15854 946.07324 98.58227 463
-505.54813 942.43707 138.16055 480
104.12675 146.52968 165.31345 419
-548.28540 935.61090 97.00181 460
-545.40967 931.97272 137.03320 477
95.35750 147.34271 163.64693 424
-590.24915 925.07019 94.79000 434
-586.59784 920.81653 135.85258 473
90.34842 143.48212 163.54373 307
78.25736 156.37280 166.29469 305
-634.51276 915.56018 92.85918 431
-628.76038 909.47461 134.52292 469
-830.96313 1124.92102 166.04175 471
106.79438 118.15392 171.47676 316
73.25295 151.73741 166.28621 305
-680.59125 905.77679 90.05559 427
-672.73602 897.84796 133.22476 467
-880.64923 1105.69043 165.30771 486
103.12496 114.26196 171.51704 316
66.76236 148.48749 165.76224 409
-727.99567 895.02454 87.46733 412
-717.89587 885.67822 131.72319 462
-890.81714 1048.15942 166.16058 368
99.58704 110.30084 171.56490 316
55.81606 148.84898 163.79799 403
-778.57892 884.80426 84.42175 407
-764.96301 872.74811 130.05817 458
-772.98169 879.64709 172.81941 456
96.12902 106.21661 171.58012 316
77.37693 121.74869 171.75078 308
-838.48950 879.83563 80.54090 364
-820.57886 864.65369 127.34262 420
-848.03082 887.71771 170.75459 283
92.87132 102.02232 171.60083 316
73.62756 116.94057 171.77856 308
24.75353 154.88779 166.03915 297
-918.93408 887.12207 73.81379 348
-890.63940 865.20825 123.77660 386
89.67156 97.75903 171.62381 316
70.01695 112.03858 171.78604 308
17.34947 150.33936 165.38589 389
-983.27686 877.62738 118.34086 346
86.64027 93.37070 171.65941 316
66.59798 107.04104 171.82530 308
2.34138 150.69246 162.96867 382
-1113.03052 908.82568 110.28080 316
83.77327 88.91519 171.71240 316
63.26761 101.93967 171.87593 308
36.40873 118.98286 172.07268 300
80.98551 84.38827 171.74699 316
60.16070 96.72089 171.90756 308
32.77219 112.91459 172.13516 300
-43.01038 157.72893 165.12842 286
78.41067 79.77208 171.75314 316
57.17857 91.42477 171.90454 308
37.33718 102.37370 173.93965 319
-52.59961 151.85921 164.21407 373
75.92304 75.11308 171.79175 316
60.40723 83.01604 173.49944 385
50.26918 88.19836 177.58145 325
27.40169 99.83391 179.93425 292
73.57107 70.37909 171.79832 316
64.05190 74.82255 175.16086 390
57.17465 78.05743 179.70317 300
20.86421 95.17911 179.37492 314
-23.78829 116.18498 180.36523 284
74.16283 64.34140 172.59268 386
67.60885 67.22083 176.62782 381
54.81205 72.74726 179.75563 300
32.51068 82.37107 181.97137 336
19.65859 87.91780 187.12656 315
-3.75330 98.06879 192.03609 266
76.54984 57.82890 173.91119 420
71.04281 60.02092 178.07643 386
47.51343 69.34517 178.67937 389
39.87649 72.34894 183.74460 373
30.94917 75.91904 189.12241 336
18.56053 80.78447 194.73457 332
1.08114 87.68476 200.75685 311
77.96639 51.99618 174.80913 423
72.84614 53.79920 178.95300 419
51.08494 61.64511 179.89000 393
44.03284 64.19498 184.88649 388
36.31052 66.96817 190.22093 373
27.33230 70.21256 195.93958 368
17.22927 73.83064 202.09314 332
79.34513 46.38006 175.66667 427
73.62214 48.19851 179.57037 308
54.31311 54.50278 180.97223 410
47.75483 56.62138 185.90913 393
40.59121 58.95696 191.11859 388
32.88180 61.48518 196.70554 372
23.68231 64.43507 202.69353 367
80.65969 40.95336 176.45932 432
72.14129 43.43792 179.59157 308
56.59191 47.95685 181.82401 421
50.60179 49.69532 186.69009 409
44.12524 51.57474 191.86145 404
37.24074 53.58649 197.36452 387
29.37972 55.88404 203.23222 382
81.99260 35.77023 177.18716 435
63.78831 40.39931 177.91766 429
58.53252 41.78891 182.50070 424
52.96862 43.18721 187.33627 420
46.86279 44.73854 192.45883 408
40.27107 46.46566 197.85596 403
33.22105 48.29571 203.61470 397
25.26068 50.32344 209.82321 355
83.17960 30.71809 177.86256 457
65.55600 34.68962 178.65489 432
60.40762 35.80498 183.19861 428
55.06025 37.02758 187.93443 423
49.33546 38.28207 192.94556 418
43.17109 39.70056 198.30136 406
36.37098 41.18639 203.92253 401
28.96983 42.88344 210.01439 358
-185.51469 90.85212 216.50827 296
83.38594 26.05973 178.19624 459
67.13551 29.15544 179.29419 455
62.27314 30.06717 183.78036 431
57.04660 31.07887 188.46341 426
51.56379 32.14085 193.42290 421
45.73727 33.24778 198.68599 416
39.36477 34.44484 204.20674 405
32.37941 35.78598 210.18105 399
-182.96999 76.87434 216.51939 424
83.60484 21.47542 178.47690 461
67.43928 24.01731 179.61241 456
62.81924 24.75474 184.11079 452
58.06390 25.49552 188.82497 447
53.01685 26.29180 193.74988 442
47.72748 27.17140 198.94983 437
42.02190 28.04903 204.46283 414
35.55136 29.09501 210.31073 402
83.86285 16.90786 178.73254 462
67.74024 18.97728 179.84714 457
63.19032 19.53454 184.32233 453
58.44340 20.11161 189.02603 448
53.45428 20.74273 193.94763 443
48.22327 21.43526 199.08696 438
42.69420 22.13982 204.57919 433
36.84910 22.83824 210.36165 428
84.11990 12.42554 178.98125 463
68.04092 13.95971 180.07440 459
63.53035 14.39095 184.54160 454
58.82200 14.83481 189.18687 450
53.91755 15.30520 194.08588 445
48.77586 15.79466 199.23181 440
43.31590 16.27355 204.67126 435
37.53843 16.80927 210.41937 429
84.43818 7.98665 179.16158 464
68.38698 8.99462 180.29094 460
63.95565 9.28189 184.70334 455
59.28338 9.58559 189.33246 451
54.46667 9.88434 194.21643 446
49.31924 10.21976 199.32526 441
43.93746 10.53683 204.75723 436
38.26605 10.88787 210.46510 430
-181.53539 24.76295 269.96338 486
-187.28130 25.11505 284.50372 360
84.77943 3.59586 179.34926 465
68.82191 4.08964 180.44258 461
64.42776 4.22055 184.85110 457
59.82094 4.38048 189.50119 452
54.97776 4.55459 194.32423 447
49.91736 4.66982 199.41789 442
44.60031 4.84563 204.79640 437
38.94364 5.04532 210.48293 431
-181.55127 12.00738 269.84268 487
