# .PCD v.7 - Point Cloud Data file format
VERSION .7
FIELDS x y z rgb
SIZE 4 4 4 4
TYPE F F F U
COUNT 1 1 1 1
WIDTH 534
HEIGHT 1
VIEWPOINT 6686.648438 508.424774 138.670609 -0.646235 -0.093335 -0.078591 0.753321
POINTS 534
DATA ascii
84.98740 -0.70215 179.46591 466
69.09765 -0.66931 180.62274 462
64.68869 -0.70104 185.02950 457
60.13337 -0.66426 189.68100 453
55.32635 -0.66126 194.50365 448
50.28523 -0.69520 199.61487 443
44.98445 -0.68287 204.97693 438
39.31432 -0.66090 210.66629 432
-181.50645 -0.63220 270.10739 487
-142.66443 -0.58754 277.23239 284
84.57232 -5.07702 179.36513 465
68.59194 -5.54222 180.48860 461
64.17618 -5.69606 184.92175 456
59.58060 -5.83861 189.57260 452
54.73286 -5.97060 194.42999 447
49.63751 -6.13853 199.56572 442
44.28011 -6.29194 204.93953 437
38.61897 -6.48272 210.65938 431
-181.42656 -13.29514 270.02423 487
-148.36269 -12.28555 278.19815 285
84.23933 -9.47830 179.25798 464
68.15799 -10.46682 180.36932 460
63.72173 -10.76440 184.80031 455
59.02551 -11.06394 189.43138 451
54.18675 -11.36149 194.32678 446
49.03092 -11.65843 199.44836 441
43.65633 -12.01342 204.89005 436
37.93730 -12.35033 210.58879 430
-181.44241 -26.11552 270.14520 486
83.89378 -13.92068 179.07758 463
67.80024 -15.43320 180.17664 459
63.29429 -15.86169 184.63779 454
58.58020 -16.30513 189.30769 449
53.64274 -16.77103 194.21446 445
48.45922 -17.26638 199.35536 440
43.01620 -17.76722 204.80275 435
37.23136 -18.29552 210.55356 429
-181.43320 -38.94632 270.25363 486
83.59085 -18.37623 178.87955 462
67.42871 -20.40909 180.00711 457
62.90527 -20.99217 184.44862 453
58.13013 -21.58091 189.15132 448
53.17423 -22.22763 194.06490 443
47.90996 -22.89347 199.27028 438
42.34701 -23.55901 204.70497 433
36.52533 -24.33945 210.53944 428
83.31339 -22.92853 178.63110 461
67.10233 -25.48176 179.76611 456
62.52102 -26.18224 184.24281 452
57.74215 -26.95229 188.95265 447
52.67999 -27.75345 193.91653 442
47.31343 -28.58110 199.11700 419
41.28654 -29.54760 204.59694 414
34.70509 -30.57619 210.41451 402
83.04259 -27.49610 178.37233 459
66.56979 -30.63650 179.45045 435
61.58626 -31.59520 183.89879 431
56.36182 -32.59183 188.58519 426
50.86020 -33.61563 193.53514 421
45.02836 -34.74037 198.81331 416
38.57972 -35.98903 204.36963 404
31.47381 -37.32693 210.32304 364
-182.76164 -78.20641 216.68686 424
82.64208 -32.16338 178.00800 438
64.86876 -36.14410 178.77539 432
59.74966 -37.31174 183.30768 428
54.33846 -38.48690 188.07065 423
48.63578 -39.78728 193.09030 418
42.31882 -41.18857 198.43413 406
35.51315 -42.69350 204.06715 401
27.90804 -44.36683 210.15533 358
-189.70355 -92.99902 216.73196 296
81.31493 -37.19978 177.38693 435
63.11241 -41.85846 178.07791 429
57.81674 -43.20962 182.70094 424
52.24678 -44.62164 187.51768 420
46.05717 -46.20924 192.60432 408
39.46409 -47.92497 198.00293 402
32.35312 -49.72054 203.74765 397
-188.34326 -106.39598 202.84155 484
79.97707 -42.37246 176.69901 430
70.73869 -45.03034 179.61923 308
55.85868 -49.37195 181.97235 414
49.80587 -51.13041 186.86366 409
43.34699 -52.96653 192.01906 404
36.19148 -55.09055 197.49541 387
28.21078 -57.38618 203.38084 371
78.64044 -47.71922 175.90475 427
72.10057 -49.80946 179.60516 308
53.46557 -55.85813 181.17001 397
46.79733 -58.06532 186.06728 393
39.59523 -60.37627 191.27243 388
31.70292 -62.92371 196.83849 372
22.48791 -65.90658 202.84616 367
77.25249 -53.27155 175.10641 423
72.11612 -55.10271 179.22530 419
50.13011 -63.02864 180.09489 393
43.08207 -65.55315 185.06662 388
35.19761 -68.38872 190.40701 372
26.21857 -71.64219 196.07849 367
15.25641 -75.56013 202.18927 332
-5011.43896 -1884.17310 35.13686 485
75.85131 -59.04849 174.19977 420
70.04776 -61.35972 178.28979 386
46.56853 -70.63642 178.92349 388
38.77064 -73.74054 183.96547 373
29.19606 -77.47823 189.19821 336
16.32237 -82.56593 194.80252 316
-1.53099 -89.63505 200.85588 311
73.08846 -65.61113 172.89476 386
66.62186 -68.45263 176.89673 395
52.89083 -74.35960 179.79758 300
30.81800 -83.90296 182.10445 336
17.46036 -89.68404 187.16809 315
-14.01051 -103.30259 191.23737 265
71.63432 -71.96999 171.85736 316
63.21689 -75.91654 175.47900 390
55.18865 -79.68588 179.79124 300
17.44311 -97.48330 179.15527 286
-25.92389 -117.89452 180.43452 284
73.85094 -76.73090 171.82724 316
58.89665 -84.33158 173.73112 328
48.77320 -89.49294 177.76308 325
25.20743 -101.50463 180.02739 292
76.23215 -81.40280 171.79575 316
54.96413 -93.04873 171.96910 308
34.75522 -104.16312 173.93748 272
-52.13040 -151.90002 164.88101 373
78.68800 -85.98321 171.76349 316
57.84020 -98.31943 171.94684 308
30.43310 -114.56831 172.17136 300
-45.81838 -159.59431 165.16724 286
81.34731 -90.51535 171.78127 316
60.85834 -103.49178 171.92523 308
33.88010 -120.64851 172.16449 300
84.11368 -94.97153 171.74469 316
64.03227 -108.63550 171.89172 308
1.85111 -150.86047 163.54146 382
87.03030 -99.31963 171.71558 316
67.34784 -113.60332 171.90706 308
16.55286 -150.50638 165.99654 389
90.04024 -103.58653 171.70415 316
70.83675 -118.49120 171.87355 308
21.74547 -156.51958 166.09985 297
93.22381 -107.74669 171.64455 316
46.47377 -146.42752 163.38448 300
-3096.91724 -2746.61401 75.92419 311
96.56101 -111.83813 171.64619 316
54.20863 -149.11807 164.32449 404
-2848.99561 -2707.92334 82.80491 354
-3043.06592 -2879.26978 216.75957 431
99.97712 -115.77535 171.61900 316
64.89697 -148.74792 166.27092 409
-2867.70117 -2902.28711 78.89939 373
103.50605 -119.65433 171.59053 316
69.86024 -153.34810 166.34392 306
86.67000 -145.25673 163.53925 307
92.76819 -147.68541 164.13774 424
101.19510 -147.10396 165.74463 419
107.44205 -148.69731 166.43808 314
112.07846 -152.24730 166.48671 314
120.83782 -149.73273 168.39119 489
127.74593 -149.31001 169.45352 396
-401.35922 -1054.77600 96.13696 497
-405.80389 -1062.34094 135.98869 476
-4658.24316 -30800.33594 6422.27051 0
757.72455 -2093.47827 146.11337 442
811.87152 -2036.25830 147.34018 467
862.91241 -1990.46130 148.72757 488
919.66101 -1953.54980 149.17625 496
979.68970 -1927.92908 149.25633 499
1041.82751 -1908.00317 149.17482 498
1104.77075 -1887.81238 149.02286 497
1167.46191 -1867.05676 148.55458 496
1231.56213 -1846.57654 147.87576 495
1296.19080 -1825.36816 147.85287 493
691.80920 -573.64520 93.78504 499
694.32306 -576.67047 118.31790 499
696.97070 -579.96368 142.63786 498
699.18091 -582.45319 167.11104 498
366.44531 -108.00108 167.61043 315
369.78159 -103.24586 167.64006 315
372.97446 -98.42795 167.66074 315
379.78079 -95.72280 166.51752 434
387.31552 -93.16043 165.12099 429
391.57672 -88.44103 164.75911 317
394.40076 -83.06961 164.69617 317
408.62189 -89.72817 167.77773 305
373.63623 -67.38732 171.54453 316
411.83960 -83.92233 167.69531 434
375.69336 -62.48899 171.57419 316
419.93698 -80.02942 166.32988 429
377.60675 -57.52311 171.57201 316
428.15591 -75.76048 164.88268 308
379.36185 -52.52498 171.58620 316
430.57648 -69.18997 164.87833 308
266.63278 -14.26234 203.50240 314
404.04526 -54.17950 171.83646 309
454.80865 -68.92950 167.91197 297
267.14865 -12.78316 203.50906 314
405.69409 -48.40256 171.86990 309
456.64673 -61.43023 167.96794 297
267.62207 -11.30747 203.49902 314
407.16974 -42.51040 171.85864 309
463.97211 -55.18536 166.84789 452
268.05099 -9.81426 203.50055 314
408.43570 -36.63218 171.84904 309
471.06964 -48.57791 165.75142 448
1637.77307 -271.47131 169.48068 428
1674.04565 -278.09320 216.55710 338
268.43427 -8.31745 203.50056 314
409.56909 -30.71409 171.90703 309
475.75360 -41.16216 165.12012 300
1691.87646 -234.03500 119.02601 367
1613.35730 -221.40968 170.47308 444
1726.52258 -239.27473 216.82399 462
268.75433 -6.81008 203.49895 314
410.51190 -24.71953 171.90540 309
441.69232 -28.65314 172.16360 301
1604.61926 -175.63966 124.99805 327
1585.16357 -173.17360 171.75307 459
269.04382 -5.29377 203.50272 314
411.21832 -18.76357 171.90230 309
442.54620 -21.74340 172.17430 301
1569.81665 -128.40250 127.75883 397
1565.79980 -127.94192 172.48238 455
269.28546 -3.78291 203.49741 314
411.81714 -12.78095 171.91286 309
443.16296 -14.75899 172.20584 301
1546.73914 -84.31465 129.36938 444
1550.14172 -84.55813 172.99617 434
269.47308 -2.25615 203.50183 314
412.21622 -6.76351 171.88927 309
443.63333 -7.75410 172.18245 301
1529.65417 -41.92477 130.59952 479
1537.74634 -42.10412 173.32173 438
1575.62097 -43.38189 216.62973 469
1561.42932 -43.00643 304.34393 492
269.60785 -0.72968 203.50288 314
412.38538 -0.75063 171.87982 309
443.81287 -0.77185 172.20697 301
513.13251 -0.78741 168.26459 288
1515.61572 -0.80126 131.69334 483
1527.41260 -0.93461 173.84920 417
1554.56641 -0.73372 216.72301 494
1553.64124 -0.75450 260.02612 494
1552.76831 -0.93618 303.71014 494
1666.41150 -0.97552 359.10965 494
269.71005 0.79122 203.50096 314
412.45029 5.28102 171.89536 309
443.83020 6.26163 172.18309 301
1503.02966 39.46809 132.52299 488
1517.02026 39.69551 174.04216 420
1546.02930 40.85878 216.51024 496
1545.42798 40.93196 259.87418 496
1544.33240 40.74411 303.18823 496
269.75070 2.31635 203.50256 314
412.28174 11.26605 171.90923 309
443.63474 13.21027 172.19119 301
1492.21863 79.13260 132.96555 492
1508.06567 80.30813 174.35997 422
1531.42139 81.55549 216.62236 497
1530.44495 81.43978 259.65646 495
1530.12219 81.47565 302.62354 497
269.75128 3.84124 203.50774 314
411.92236 17.27726 171.89560 309
443.25143 20.19810 172.18156 301
1482.81323 118.58827 133.45186 494
1499.69080 120.07305 174.51955 371
1524.01660 122.46642 216.48387 498
1523.20850 122.34987 259.42191 498
1521.74548 122.07743 301.98419 498
269.70197 5.35835 203.49739 314
411.43927 23.22626 171.90636 309
442.62347 27.20461 172.18600 301
1475.44556 157.67647 133.62122 272
1492.38623 159.64093 174.73824 371
1520.81104 163.24979 216.47249 499
1519.86597 163.21683 259.22723 499
1519.22754 163.05579 302.20035 499
269.60254 6.85918 203.49947 314
410.72470 29.22971 171.88965 309
477.00403 39.69783 165.10884 300
1468.04736 196.75691 133.70665 498
1484.89136 199.28850 174.59229 363
1512.54456 203.78354 216.52309 499
1511.99011 203.75545 259.42184 499
1510.91614 203.47029 301.95993 499
1636.55737 223.33524 357.72839 498
269.45523 8.37191 203.50368 314
409.84500 35.10963 171.88416 309
472.07571 47.01173 165.83266 448
1462.55176 235.84792 133.67403 498
1477.03857 238.83231 174.62732 363
1504.54883 243.75221 216.41296 499
1503.63501 243.55118 259.17621 499
1502.55981 243.60335 302.02872 499
1580.67249 258.29062 352.85141 499
1615.45312 264.97144 403.39740 325
269.26724 9.86349 203.50926 314
408.79715 41.04464 171.86038 309
465.00903 53.56787 166.95203 452
1452.13513 274.20819 133.89606 498
1469.33521 278.03833 174.52498 363
1502.82800 285.47702 216.40552 482
1636.54639 315.50797 264.11197 332
1626.98401 313.31342 310.86823 261
1571.93726 301.14551 352.92029 499
1590.83484 305.37531 401.00809 452
269.03085 11.35461 203.50400 314
407.57895 46.88503 171.85568 309
458.56839 59.96603 167.94479 297
1446.71716 313.61426 133.51448 498
1461.72754 317.59470 174.73338 363
1563.48535 343.52237 352.75510 496
1609.08948 355.41962 405.23264 488
383.05484 46.03931 171.62579 316
406.14136 52.73287 171.81180 309
456.97903 67.49516 167.83557 297
1436.33606 351.76733 133.55525 498
1453.73376 356.99356 174.37166 362
1589.05383 396.54288 356.85605 388
1587.10840 395.93896 403.69550 333
381.69818 51.06184 171.60696 316
432.99524 67.76733 164.82324 308
1430.73950 391.99274 133.29591 497
380.12189 56.05579 171.55762 316
430.54254 74.24244 164.89706 424
1420.02014 430.26315 133.11650 496
1700.37805 531.33777 165.13731 497
378.45404 61.03674 171.56345 316
422.14282 78.35259 166.44145 429
1412.51514 470.18680 132.66211 272
1530.03723 516.94788 170.35016 293
1697.94128 583.11945 216.46767 492
376.62665 65.94545 171.53461 316
414.38925 82.27470 167.80740 305
1402.62842 509.97662 132.37088 489
1420.35986 517.57526 173.62790 399
1689.56555 634.16333 216.49025 389
397.70581 81.64124 164.71602 317
411.99524 88.34285 167.73480 305
1394.21765 550.54175 131.57739 488
1411.70459 558.66077 173.42116 398
1430.24158 567.58026 216.68886 396
395.05191 87.06401 164.68823 317
1385.87732 591.77930 131.09395 486
1402.93799 600.36371 173.16681 397
1422.58997 610.41235 216.65672 385
390.58484 91.44258 165.24260 429
1480.58350 690.52625 122.64360 465
1460.89307 679.65295 170.28743 499
1461.65552 680.24603 216.45282 499
383.19608 94.03236 166.64967 434
1451.07739 725.51001 169.74658 462
1416.54126 705.15497 216.49646 319
377.19675 97.05585 167.63905 315
374.26465 101.91989 167.60014 315
51015.98828 34516.47266 4240.97803 0
371.13177 106.69244 167.55611 313
135.31451 930.18451 93.15859 495
135.00279 933.43121 123.88132 495
134.89899 936.74506 154.52769 495
117.17436 148.06737 167.29953 441
110.58179 147.22310 166.37010 314
103.60680 146.61943 165.33984 419
95.01627 147.36674 163.67361 424
-768.68585 1126.86401 68.25563 352
-841.85938 1210.07056 110.48357 475
90.13879 143.62511 163.53354 307
78.04181 156.49667 166.30367 305
-727.59814 1014.67249 79.32076 353
-831.77209 1125.30225 115.41617 358
106.80301 118.27007 171.48788 316
73.25380 151.80762 166.26695 305
-764.33466 989.54309 78.70621 435
-803.04492 1028.03040 121.00459 365
103.31091 114.40691 171.53714 316
67.03284 148.46106 165.77863 409
-813.54828 975.23657 76.15902 451
-805.58527 967.65259 123.81600 467
99.95650 110.45742 171.54688 316
56.36192 148.88356 163.83900 403
-863.89557 960.44421 73.57176 447
-855.21844 952.27399 121.98947 463
96.71062 106.35213 171.60976 316
77.91529 121.92628 171.75865 308
-917.99304 945.99390 70.12604 440
-906.60480 936.50092 120.18903 459
93.54858 102.18580 171.61232 316
74.29775 117.13983 171.76270 308
25.44399 155.07355 166.03432 297
-974.59717 930.68115 66.71140 436
-960.27643 919.52673 118.16640 454
-1212.04285 1114.65491 156.81866 456
90.57068 97.91236 171.64568 316
70.86173 112.23367 171.78946 308
18.51922 150.33600 165.49750 389
-1034.92090 915.58466 63.12754 400
-1016.53339 902.13867 115.97083 450
-1267.70959 1084.74036 156.02022 484
87.71938 93.57645 171.67409 316
67.61169 107.21249 171.85333 308
3.72082 150.69537 163.00543 382
-1100.50940 901.01996 58.31765 403
-1075.40564 884.10114 113.33464 445
-1258.98657 1008.87146 157.67311 390
85.01284 89.15041 171.70343 316
64.48772 102.12080 171.86600 308
37.54539 119.25591 172.04767 300
-1137.17578 864.90302 110.84801 440
-1147.78625 871.45282 163.20442 438
82.39874 84.59584 171.71638 316
61.53316 96.93813 171.90692 308
34.06716 113.20134 172.08505 300
-41.65709 157.98569 165.17053 286
-1215.57251 852.27991 106.94867 386
79.96726 80.02296 171.74883 316
58.72569 91.67661 171.88260 308
32.94051 105.86880 172.64400 272
-50.71544 151.86380 164.32314 373
-1322.11914 850.64240 100.87928 340
77.64841 75.29748 171.77071 316
59.20799 84.74062 172.76367 328
48.80035 90.05252 176.86423 325
28.92781 100.15398 179.93719 292
75.51538 70.59319 171.77954 316
63.78574 76.07952 174.54787 390
57.78510 78.90603 179.42783 386
17.67882 97.77717 178.44666 286
-22.19959 116.59563 180.35916 284
74.07391 65.52440 171.96249 386
67.41519 68.42056 176.06438 381
56.77304 72.99009 179.73657 300
31.39692 83.95757 181.44182 336
17.87470 89.83353 186.63040 315
-13.92517 103.58675 190.79564 266
76.79028 58.86203 173.28249 420
70.94070 61.18402 177.44478 386
47.31470 70.52704 178.16895 389
39.44036 73.64949 183.29105 373
29.73432 77.51348 188.68526 336
16.73005 82.60798 194.31717 316
-1.28327 89.77880 200.55580 311
78.21568 52.96456 174.20312 423
73.03118 54.83385 178.41931 419
50.91850 62.80566 179.34924 393
43.74916 65.39484 184.43025 388
35.84032 68.21485 189.85016 373
26.70824 71.50973 195.64064 368
15.59466 75.50208 201.90950 332
79.63433 47.32965 174.99330 429
74.61035 48.95856 179.18343 423
54.39353 55.51054 180.44221 398
47.55660 57.76178 185.42087 393
40.26062 60.09448 190.71657 388
32.25937 62.69482 196.44453 372
22.92111 65.71996 202.55409 367
81.01377 41.84031 175.74797 432
74.85369 43.65260 179.56357 308
56.73226 48.89948 181.28235 421
50.57244 50.72602 186.23520 409
43.99425 52.59925 191.50992 404
36.82532 54.70906 197.09839 387
28.72466 57.06691 203.09288 372
82.39545 36.60816 176.45097 435
73.67047 38.80681 179.58400 308
58.73515 42.66063 181.97113 424
53.04681 44.10753 186.90961 420
46.77505 45.75274 192.08528 408
40.08157 47.44405 197.58521 403
32.86459 49.33287 203.44867 397
24.24302 51.50867 209.80086 263
83.76590 31.49041 177.11736 439
65.87261 35.46398 177.97006 432
60.64494 36.62127 182.61572 428
55.18305 37.87280 187.43669 423
49.35327 39.18167 192.57487 418
43.00877 40.57640 197.99829 406
36.06009 42.16447 203.76151 401
28.46047 43.83342 209.97162 358
-188.37640 92.24824 216.71281 296
83.44195 26.12557 178.11383 459
67.20607 29.22873 179.22992 455
62.33833 30.13049 183.74619 431
57.08318 31.13682 188.41721 426
51.57487 32.18514 193.36501 421
45.70848 33.33157 198.64473 416
39.38472 34.53899 204.19482 404
32.40355 35.88417 210.11830 399
-182.97267 76.92725 216.49625 424
83.68659 21.48861 178.38638 461
67.49282 24.07665 179.54442 456
62.89876 24.78503 184.05179 452
58.08701 25.56504 188.76569 447
53.04220 26.34940 193.71494 442
47.74216 27.22045 198.90190 437
42.02475 28.10442 204.42174 414
35.55012 29.11861 210.27742 402
83.94958 16.96813 178.64784 462
67.77952 19.02112 179.76671 457
63.25735 19.58479 184.28261 453
58.50527 20.20419 188.93683 448
53.52030 20.79476 193.88858 443
48.24117 21.47518 199.06310 438
42.69391 22.16388 204.52847 433
36.87669 22.91495 210.34216 428
84.23695 12.47662 178.87920 463
68.11374 13.99227 179.98940 459
63.63429 14.41592 184.45082 454
58.91689 14.89230 189.10588 450
53.97047 15.34828 194.01826 445
48.78906 15.84083 199.18889 440
43.33941 16.34210 204.60484 435
37.55062 16.87656 210.39751 429
84.54515 8.03118 179.07330 464
68.50689 9.04912 180.19226 460
64.02858 9.34126 184.61192 455
59.35680 9.59924 189.29259 451
54.49391 9.92624 194.16238 446
49.39373 10.21985 199.27754 441
43.98475 10.58640 204.69377 436
38.28964 10.92683 210.40526 430
-181.47928 24.85678 269.96863 486
-187.37170 25.21501 284.56494 360
84.87333 3.61465 179.21751 465
68.87704 4.10576 180.36160 461
64.48582 4.26061 184.77547 457
59.88846 4.41978 189.41438 452
55.03628 4.54087 194.26349 447
49.99081 4.71459 199.39134 442
44.65916 4.87367 204.77679 437
38.97208 5.05584 210.47768 431
-181.59097 12.03856 269.92194 487
