# .PCD v.7 - Point Cloud Data file format
VERSION .7
FIELDS x y z rgb
SIZE 4 4 4 4
TYPE F F F U
COUNT 1 1 1 1
WIDTH 525
HEIGHT 1
VIEWPOINT 6667.668457 375.161224 139.034546 -0.644941 -0.092425 -0.079424 0.754454
POINTS 525
DATA ascii
85.04494 -0.76541 179.40654 466
69.17763 -0.78448 180.50249 462
64.81594 -0.78717 184.91734 457
60.19990 -0.76812 189.57413 453
55.44622 -0.79025 194.39500 448
50.39755 -0.77512 199.45496 443
45.08344 -0.76535 204.83035 438
39.47264 -0.79530 210.51892 432
-152.84018 -0.74635 241.19339 419
-181.61919 -0.78627 269.85403 487
-144.25876 -0.77289 277.25284 284
84.65440 -5.14660 179.27950 465
68.69596 -5.65585 180.38765 461
64.28970 -5.79494 184.84964 457
59.65253 -5.95096 189.45888 452
54.86040 -6.07634 194.32080 447
49.76568 -6.23122 199.39517 442
44.41431 -6.39596 204.79250 437
38.79338 -6.56779 210.49353 431
-153.03499 -12.63370 241.13005 416
-181.64194 -13.48915 269.89093 487
-150.20399 -12.46686 278.21222 285
84.31119 -9.54400 179.17319 464
68.27911 -10.55544 180.26381 460
63.79918 -10.82261 184.69118 455
59.12580 -11.12051 189.31734 451
54.25941 -11.43677 194.23143 446
49.14911 -11.76534 199.33859 441
43.77327 -12.09785 204.73741 436
38.08055 -12.46836 210.43840 430
-181.59283 -26.28146 269.85001 486
83.97157 -13.97129 178.98532 463
67.87222 -15.47721 180.09018 459
63.37911 -15.89800 184.54573 454
58.66499 -16.37906 189.21786 450
53.74639 -16.83606 194.09645 445
48.53875 -17.30062 199.21313 440
43.14745 -17.82401 204.68292 435
37.34128 -18.40081 210.39334 429
-181.53012 -39.10710 269.96133 486
83.65369 -18.45298 178.77524 462
67.51763 -20.48988 179.88081 457
62.97316 -21.05807 184.38980 453
58.23699 -21.66258 189.03760 448
53.27674 -22.27450 193.98044 443
48.01196 -22.93304 199.11058 438
42.47481 -23.62577 204.58859 433
36.66369 -24.37876 210.36969 428
83.36561 -22.96830 178.55363 461
67.18949 -25.53589 179.66957 456
62.60558 -26.23964 184.16129 452
57.83222 -27.00386 188.85567 447
52.82867 -27.76923 193.81641 442
47.41210 -28.62857 198.99976 420
41.40729 -29.59156 204.46172 414
34.86659 -30.60965 210.29985 402
83.10494 -27.51280 178.31863 459
66.67718 -30.64960 179.36345 435
61.70603 -31.60120 183.82477 431
56.46392 -32.58582 188.49875 426
50.93827 -33.64453 193.43228 421
45.12695 -34.75827 198.64696 416
38.70407 -36.01337 204.23553 404
31.69012 -37.34951 210.13503 399
-183.01160 -78.31728 216.47079 424
82.72054 -32.17835 177.94666 439
64.92393 -36.16100 178.70164 432
59.83431 -37.28990 183.23764 428
54.42820 -38.52943 187.95357 423
48.73344 -39.77241 192.98889 418
42.44792 -41.17155 198.27559 406
35.68424 -42.71589 203.91873 401
28.21106 -44.39246 209.96671 358
-188.76175 -92.85824 216.49478 296
81.38063 -37.16944 177.29550 435
63.17087 -41.86695 178.00952 429
57.91456 -43.22398 182.57751 424
52.34756 -44.64769 187.39400 420
46.20524 -46.20165 192.48071 408
39.58750 -47.91191 197.85393 402
32.52590 -49.71277 203.61024 397
23.40193 -52.05726 209.76402 263
80.04243 -42.34399 176.61826 432
71.10374 -44.95012 179.64622 308
55.94690 -49.35246 181.91393 414
49.92147 -51.10911 186.73036 409
43.44305 -52.96543 191.88107 404
36.36262 -55.02133 197.35234 387
28.37609 -57.36927 203.24057 371
78.67571 -47.69354 175.88055 427
72.49287 -49.69942 179.63756 308
53.61343 -55.82974 181.08215 397
46.90389 -58.02901 185.95021 393
39.75332 -60.33073 191.13391 388
31.88849 -62.89868 196.75043 372
22.70738 -65.85242 202.72618 367
77.31452 -53.23321 175.04350 424
72.20776 -55.06264 179.16074 419
50.22865 -62.98516 179.97911 393
43.18433 -65.49622 184.95479 388
35.39421 -68.33761 190.27553 372
26.40747 -71.54701 195.92213 367
15.57154 -75.44872 202.04176 332
75.93034 -58.97302 174.18066 420
70.13482 -61.28111 178.22395 386
46.69297 -70.53939 178.84068 389
38.93597 -73.62734 183.85210 373
29.42036 -77.36831 189.13446 336
16.69759 -82.45163 194.67400 316
-1.11409 -89.46894 200.71310 311
73.23814 -65.50809 172.86069 386
66.75011 -68.33263 176.88503 395
53.34927 -74.15431 179.76453 300
31.07745 -83.75039 181.99667 336
17.80242 -89.48590 187.10820 315
-12.40028 -102.55262 191.26283 265
71.85972 -71.81701 171.81686 316
63.31779 -75.81332 175.42302 390
55.60621 -79.46888 179.78349 300
18.06763 -97.11050 179.13667 286
-25.00409 -117.35144 180.44418 284
74.05877 -76.52671 171.83279 316
59.18411 -84.11153 173.73911 328
49.02984 -89.25882 177.75992 325
25.74149 -101.15738 180.03824 292
76.38882 -81.21397 171.81097 316
55.27570 -92.81569 171.97804 308
35.90132 -103.47887 174.12186 272
-52.27472 -151.92299 164.69226 373
78.85056 -85.78957 171.80051 316
58.10644 -98.08872 171.95583 308
30.80909 -114.21133 172.19458 300
-44.98226 -158.99084 165.12614 286
81.45467 -90.29176 171.76057 316
61.05436 -103.26517 171.95113 308
34.25468 -120.28622 172.15372 300
84.21718 -94.75097 171.75854 316
64.18936 -108.34639 171.90329 308
1.62782 -150.82310 163.38065 382
87.10786 -99.06686 171.69962 316
67.53111 -113.31602 171.86775 308
16.32762 -150.52412 165.84703 389
90.10947 -103.34923 171.71106 316
70.98527 -118.20070 171.87784 308
22.12082 -156.06789 166.09492 297
93.28016 -107.50807 171.65016 316
46.67623 -146.05164 163.40219 300
-3176.32349 -2811.74756 70.67419 322
96.55959 -111.53751 171.64738 316
53.88513 -149.16695 164.16985 404
-2872.11597 -2728.31519 80.16101 317
99.94917 -115.51426 171.62811 316
64.57909 -148.76366 166.08556 409
-2622.60278 -2672.39746 88.19274 321
-2745.18506 -2787.10962 215.74626 410
103.44462 -119.36680 171.56715 316
69.91492 -152.94705 166.32573 306
-2702.25293 -2925.82788 80.08665 364
86.66311 -144.90366 163.57144 307
-2481.77539 -2879.32886 86.64359 378
92.40855 -147.71730 164.06454 424
100.78358 -147.10889 165.62997 419
107.28500 -148.43216 166.46123 314
111.92567 -151.90382 166.46826 314
120.59422 -149.49440 168.36018 489
127.70507 -148.76210 169.53473 486
-21743.81836 -39953.21094 1704.17761 0
838.05383 -2138.51758 143.52332 428
891.78772 -2077.82251 145.23424 453
946.21252 -2024.59045 146.45584 470
1001.30316 -1980.29028 147.02965 487
1058.50464 -1944.42920 147.36707 497
1120.34814 -1918.36267 147.24969 497
1184.99072 -1899.10217 146.86743 495
1249.62134 -1877.36523 146.83203 421
1315.45410 -1856.44788 146.55861 492
1383.93481 -1837.10864 145.60291 490
1455.40051 -1820.44287 145.09201 478
828.49982 -572.61786 106.76683 499
830.95990 -575.02679 134.04942 484
833.70245 -577.48315 161.51367 484
367.96130 -108.22787 167.59695 313
371.31793 -103.50640 167.62772 315
374.53735 -98.64763 167.68614 315
380.56604 -95.48946 166.73521 434
388.06586 -92.87933 165.36041 429
393.17807 -88.66187 164.76816 317
396.02444 -83.22032 164.71422 317
410.37979 -89.99277 167.78537 305
375.61044 -67.52734 171.56335 316
413.06851 -83.88783 167.82747 305
377.34525 -62.59636 171.58656 316
420.51749 -79.73738 166.58571 429
379.25024 -57.65091 171.58995 316
429.06116 -75.55268 165.09534 424
381.08212 -52.65292 171.60625 316
432.38770 -69.34630 164.90855 308
382.69904 -47.55750 171.64626 316
434.55524 -62.62943 164.86725 308
456.79031 -69.11864 167.86844 297
384.16605 -42.49847 171.64619 316
407.45407 -48.45635 171.88603 309
458.61505 -61.58602 167.97615 297
269.39752 -11.38941 203.50951 314
408.99066 -42.60541 171.90233 309
464.27731 -54.92989 167.19299 452
269.84875 -9.89169 203.50429 314
410.24536 -36.68080 171.91171 309
471.35141 -48.34328 166.09293 448
1804.91711 -302.83871 163.96918 425
1860.29944 -313.41653 216.62097 286
270.24130 -8.37223 203.50369 314
411.40509 -30.72128 171.90491 309
477.74228 -41.27769 165.09592 300
1768.61609 -245.58932 165.35104 439
1830.13403 -255.30040 216.80116 498
270.59009 -6.86017 203.51027 314
412.35916 -24.73817 171.92958 309
443.58395 -28.71078 172.23622 301
1816.50439 -202.31393 111.29571 380
1743.27954 -192.80901 166.50827 455
1925.72949 -216.15196 217.01135 473
270.88724 -5.33334 203.50044 314
413.10217 -18.78141 171.93742 309
444.47116 -21.71276 172.24849 301
1776.11609 -147.53485 114.43806 395
1713.48328 -141.56085 167.89406 466
271.14072 -3.80328 203.49858 314
413.69348 -12.77669 171.93141 309
445.12814 -14.75594 172.20335 301
1701.30164 -93.88553 119.83504 349
1692.10767 -93.31656 168.38492 457
271.34659 -2.26942 203.50381 314
414.09964 -6.75959 171.93513 309
445.57895 -7.75965 172.19890 301
1675.43152 -46.37587 121.40845 454
1675.12830 -46.38514 169.34302 464
1720.66260 -47.70365 216.82863 468
1699.98450 -47.33767 313.62317 411
271.49677 -0.73337 203.49785 314
414.29486 -0.71130 171.94978 309
445.77432 -0.72073 172.22574 301
1657.01331 -0.68434 122.68385 459
1662.10901 -0.78606 169.71594 437
1696.41992 -0.72311 216.85960 471
1695.67676 -0.70722 264.83859 494
1689.20386 -0.89200 312.74503 413
271.60718 0.81197 203.50761 314
414.34305 5.30360 171.90150 309
445.78650 6.30390 172.22856 301
1641.81421 43.69901 123.84684 488
1649.39746 43.94122 170.09773 441
1685.36328 45.36611 216.74411 495
1685.42322 45.30871 264.86301 495
1678.30981 44.79572 312.14423 414
271.67361 2.33538 203.50125 314
414.20395 11.28997 171.91734 309
445.62347 13.30045 172.19385 301
1629.42871 87.75770 124.40500 492
1638.19543 88.34435 170.17654 419
1670.17664 90.38380 216.72293 497
1670.13342 90.15862 264.06882 496
1668.08643 90.30524 311.44785 415
271.68192 3.86731 203.50597 314
413.88312 17.30237 171.92909 309
445.21985 20.24856 172.19336 301
1619.01868 131.33551 124.88422 494
1628.06641 132.15154 170.52364 420
1660.25671 135.23360 216.80319 498
1660.49902 135.30000 263.85507 498
1657.58862 134.86531 311.35870 416
271.64206 5.40023 203.50795 314
413.39792 23.27618 171.91743 309
444.61914 27.23430 172.19751 301
1609.33215 174.37172 125.06013 495
1619.04871 175.53812 170.86020 421
1655.76758 180.39928 216.87399 498
1655.89136 180.29762 264.12405 498
1647.63452 179.19644 310.66260 416
271.55780 6.91123 203.50725 314
412.65842 29.24708 171.89261 309
479.04288 39.81007 165.07556 300
1599.80396 217.34360 125.41977 496
1609.56091 218.67186 170.77422 421
1646.09937 224.42729 216.75354 499
1646.45483 224.45343 263.97836 499
1638.01929 223.11920 310.69202 417
388.19141 30.70474 171.66629 316
411.79572 35.21797 171.88254 309
472.37698 46.77899 166.17778 448
1590.62891 259.97104 125.43037 496
1600.07556 261.90125 170.97641 422
1636.30493 268.63171 216.87918 499
1636.12390 268.83765 263.92114 499
1628.00073 267.09045 310.61868 417
1693.83655 279.87289 363.99951 498
387.28452 35.85216 171.66347 316
410.74390 41.09550 171.88831 309
465.34122 53.33326 167.31706 452
1581.17358 302.72830 125.48151 496
1591.02136 304.94785 170.69234 422
1706.30078 330.50772 366.13159 493
386.22577 41.00422 171.62593 316
409.56604 46.98030 171.85617 309
460.71243 60.14701 167.93883 297
1571.75879 345.51532 125.46236 496
1581.45471 348.02667 170.63202 422
1756.64917 392.96970 372.57477 454
1741.69592 388.91968 422.92688 463
385.00873 46.07481 171.64030 316
436.92618 61.15635 164.86127 308
459.18445 67.65300 167.84470 297
1562.67114 388.27216 125.17552 496
383.66550 51.17053 171.59306 316
435.03934 67.85841 164.88205 308
1553.11011 430.99564 125.23090 495
1871.03467 534.35217 159.88065 272
382.13297 56.14980 171.61879 316
431.32227 73.85271 165.22514 424
1543.55518 474.14468 124.83794 494
1554.62561 478.16379 170.18822 272
1833.85156 578.59741 216.63460 418
380.44803 61.13335 171.55865 316
422.93256 77.95771 166.76831 430
1534.26855 517.90491 124.27658 492
1542.12231 521.28857 170.30186 440
1571.12134 532.70001 216.48053 406
378.60666 66.02796 171.55234 316
416.48624 82.42162 167.80867 305
1524.70227 561.95514 123.61045 491
1532.27344 565.36694 170.03047 439
1560.23108 577.50989 216.71910 483
399.73795 81.72057 164.69093 317
414.11481 88.47445 167.73587 305
1514.73499 606.26764 122.96313 489
1522.28821 609.84204 169.63255 438
1611.40649 652.02533 216.64670 498
397.08008 87.13873 164.72830 317
1610.84998 705.41376 114.47108 464
1550.90039 675.29138 167.99503 491
1585.90454 693.00507 216.70055 498
389.06403 91.97073 165.14061 429
381.63797 94.53295 166.54002 434
375.26096 97.36710 167.59349 315
372.32657 102.20883 167.60651 315
369.18509 107.00331 167.57512 313
254.11069 931.84338 93.71992 484
254.19693 935.68549 124.33567 484
254.34964 939.50995 154.84589 450
119.57385 147.94995 167.39140 316
-646.43823 1202.16663 70.13259 449
112.84073 147.40245 166.40492 314
-626.82159 1101.08862 79.10331 333
-711.24750 1209.51904 116.25082 481
106.20807 146.35530 165.51456 419
-664.19647 1077.64648 78.82492 275
-705.78784 1127.98840 120.68020 348
97.63246 147.20656 163.77834 414
-640.39288 984.18555 87.16268 462
-678.35138 1027.19873 126.64929 355
92.47162 143.76926 163.54488 311
80.39494 156.64285 166.33168 305
-683.94580 970.45380 85.37247 452
-679.44257 965.93555 129.53065 473
109.12206 118.43142 171.49706 316
75.59483 151.93546 166.30392 305
-729.62799 957.04950 83.26913 451
-724.70093 952.55902 128.29750 470
105.62820 114.56642 171.52647 316
69.70280 148.36913 165.86945 409
-776.64673 943.20667 80.90621 447
-771.59106 938.36639 126.81738 466
102.29945 110.57935 171.53059 316
59.03579 148.73465 163.90411 403
-826.16876 929.43555 77.95388 420
-819.90247 923.87616 125.01766 462
99.06947 106.50240 171.57600 316
52.66934 144.92322 163.39586 300
-879.75293 916.35144 74.97780 416
-870.30499 908.54156 123.21317 457
-1108.65625 1105.49780 159.73251 476
96.00287 102.31142 171.58095 316
76.70227 117.27779 171.76607 308
27.95132 155.13365 166.04051 297
-935.68280 902.54834 71.65871 416
-922.91559 892.77252 121.26991 455
-1146.99109 1066.47925 159.77885 478
93.03815 98.05531 171.60182 316
73.32470 112.35124 171.80670 308
21.20988 150.20825 165.59019 386
-994.26746 888.04230 67.65517 396
-977.55304 875.85022 118.88422 448
-1119.41833 978.62927 161.88724 383
90.22048 93.67153 171.62741 316
70.04922 107.34573 171.78717 308
6.46440 150.62885 163.08864 382
-1060.14172 875.50586 62.92966 356
-1037.26062 860.17456 116.15255 419
-1045.87976 865.61487 166.00005 415
87.52420 89.23857 171.68434 316
66.95599 102.25676 171.81691 308
39.99859 119.38811 172.06520 300
-1159.41760 880.63605 54.48251 333
-1119.65649 855.56580 111.74837 381
80.75945 84.65019 171.72322 316
59.94328 96.95532 171.92273 308
32.58031 113.09927 172.09039 300
-42.99595 157.84819 165.09171 286
-1243.15320 867.59491 104.03597 333
78.17706 80.03432 171.74625 316
57.00553 91.63566 171.91777 308
37.04701 102.63084 173.93408 319
-52.42982 151.81137 164.27365 373
75.73891 75.34236 171.75102 316
60.15955 83.27974 173.52586 328
49.95705 88.48512 177.56184 325
27.25130 100.02486 179.93719 292
73.41065 70.58321 171.78340 316
63.94024 75.02969 175.13470 390
57.01774 78.32991 179.74051 300
20.51003 95.49435 179.32018 315
-23.83559 116.35658 180.40990 284
73.99503 64.55329 172.61913 386
67.42263 67.40041 176.64717 382
54.61558 72.96667 179.75653 300
32.26281 82.63183 181.97989 336
19.27700 88.23487 187.09889 315
-5.44146 98.94148 191.87215 266
76.46883 58.00968 173.89491 420
70.87819 60.21767 178.05891 386
47.40366 69.52499 178.70499 389
39.70558 72.54555 183.72980 373
30.64097 76.14609 189.12177 337
18.25955 81.04514 194.71030 332
0.69602 88.04640 200.79907 311
77.87447 52.16595 174.81927 424
72.73645 54.01408 179.00407 419
50.95078 61.88546 179.90889 393
43.90141 64.42177 184.88693 388
36.18394 67.17781 190.24985 373
27.18851 70.44543 195.89804 368
16.90711 74.14350 202.08075 332
79.24218 46.54817 175.69003 427
73.49269 48.43688 179.58305 308
54.21565 54.67836 180.98709 410
47.62972 56.84547 185.91385 393
40.47922 59.13488 191.11763 388
32.68588 61.68331 196.71074 372
23.52460 64.64213 202.74165 367
80.58186 41.12674 176.47404 432
71.99987 43.64970 179.60435 308
56.46733 48.14926 181.81299 421
50.48353 49.89861 186.67671 409
44.00288 51.78962 191.88440 404
37.06255 53.79011 197.38037 387
29.20137 56.05662 203.28700 382
81.89149 35.92487 177.21008 435
63.72671 40.58870 177.94423 429
58.44860 41.97701 182.54782 424
52.89596 43.40695 187.35637 420
46.73820 44.96020 192.45061 408
40.14685 46.67947 197.86789 403
33.08992 48.45683 203.62134 397
24.78510 50.64238 209.85257 269
83.14798 30.92076 177.87520 458
65.44213 34.87010 178.67766 432
60.34391 35.99700 183.16942 428
54.95073 37.19976 187.96088 423
49.26018 38.51045 192.96767 418
43.02948 39.85942 198.30812 406
36.22262 41.41316 203.95557 401
28.75350 43.05020 210.04900 358
-185.91982 91.02469 216.44720 296
83.34907 26.21235 178.20381 459
67.13509 29.33497 179.29637 455
62.18845 30.28382 183.80731 431
56.97418 31.27329 188.48830 426
51.45402 32.29865 193.46289 421
45.63119 33.44983 198.69786 416
39.28254 34.65363 204.26981 405
32.24907 35.99639 210.16591 399
-183.02449 77.10398 216.47008 424
83.56563 21.60903 178.47499 461
67.40274 24.16900 179.60028 456
62.79006 24.90010 184.11974 452
58.00740 25.69744 188.82661 447
52.96384 26.48278 193.79874 442
47.63838 27.33082 198.98845 437
41.91085 28.20849 204.51775 414
35.41654 29.24863 210.32608 402
83.82806 17.07905 178.73322 462
67.69514 19.10122 179.87250 457
63.13950 19.69693 184.31892 453
58.39180 20.29414 189.03035 448
53.41370 20.94655 193.93463 444
48.15660 21.56260 199.12109 438
42.60248 22.30899 204.62129 433
36.75868 23.04189 210.39787 428
84.12843 12.56450 178.97929 463
68.02979 14.10502 180.09625 459
63.52916 14.52433 184.54610 454
58.79384 14.99177 189.19014 450
53.86735 15.45870 194.09714 445
48.70810 15.92966 199.25829 440
43.24844 16.45516 204.71269 435
37.46399 17.01020 210.48473 429
84.44337 8.14925 179.15810 464
68.39922 9.12460 180.26711 460
63.93472 9.42970 184.72745 455
59.27746 9.70637 189.37480 451
54.42191 10.04700 194.23885 446
49.29716 10.32564 199.37318 441
43.91198 10.67739 204.76849 436
38.16390 11.05558 210.49718 430
-181.54716 24.93087 270.01932 486
-187.55125 25.33050 284.57141 360
84.76955 3.72861 179.30075 465
68.80547 4.24015 180.43301 461
64.38022 4.36418 184.87146 457
59.79162 4.50860 189.49664 452
54.96500 4.65141 194.34891 447
49.87281 4.81906 199.47331 442
44.54715 4.99109 204.85426 437
38.89050 5.16758 210.55009 431
-181.49257 12.08445 269.93961 487
