# .PCD v.7 - Point Cloud Data file format
VERSION .7
FIELDS x y z rgb
SIZE 4 4 4 4
TYPE F F F U
COUNT 1 1 1 1
WIDTH 568
HEIGHT 1
VIEWPOINT 6717.834473 657.401978 137.971558 -0.645156 -0.091022 -0.078504 0.754536
POINTS 568
DATA ascii
85.38031 -0.77466 179.04912 467
69.44917 -0.75617 180.24084 462
65.03288 -0.77557 184.73506 457
60.37391 -0.75080 189.37183 453
55.54583 -0.75967 194.27863 448
50.43996 -0.74844 199.44241 443
45.06411 -0.74666 204.84482 438
39.36430 -0.75189 210.61353 432
-136.34546 -0.74648 276.55225 495
85.00522 -5.19168 178.94556 465
68.95341 -5.67236 180.11217 461
64.50448 -5.82552 184.58835 456
59.84825 -5.98163 189.26337 452
54.97726 -6.13936 194.19324 447
49.81831 -6.28077 199.35854 442
44.42133 -6.48325 204.80104 437
38.66479 -6.61750 210.59236 431
-150.83553 -12.59496 278.91592 266
84.68567 -9.65584 178.77399 464
68.56995 -10.65721 179.93880 460
64.06116 -10.96382 184.41745 455
59.32530 -11.23010 189.13986 451
54.38003 -11.57146 194.06876 446
49.21090 -11.89402 199.28735 441
43.74281 -12.25102 204.76067 436
37.97386 -12.58124 210.54771 430
84.37491 -14.15142 178.57678 463
68.24064 -15.68902 179.74239 459
63.63106 -16.10202 184.27612 454
58.85170 -16.57893 188.96240 449
53.83724 -17.04040 193.93208 445
48.62286 -17.52162 199.16469 440
43.10904 -18.08002 204.69547 435
37.21346 -18.60502 210.50034 429
84.09969 -18.71873 178.34196 462
67.90722 -20.77946 179.52803 457
63.25343 -21.34304 184.04361 453
58.45833 -21.94639 188.81912 448
53.38429 -22.57848 193.77972 443
48.04710 -23.27756 199.02686 438
42.46349 -23.99275 204.60767 433
36.50496 -24.73462 210.44379 428
83.81271 -23.31928 178.05629 461
67.56350 -25.90615 179.26947 456
62.91822 -26.66027 183.80492 452
58.06671 -27.42230 188.61475 447
52.96282 -28.21018 193.63174 442
47.35979 -29.11924 198.88416 419
41.26550 -30.07655 204.46141 414
34.51432 -31.15423 210.38133 402
83.60508 -28.02146 177.78175 459
66.94365 -31.20351 178.86795 435
61.87444 -32.13567 183.39197 431
56.56246 -33.15897 188.16719 426
50.93863 -34.25404 193.19040 421
44.99962 -35.38239 198.56516 416
38.43865 -36.62527 204.17546 404
31.22639 -38.01991 210.22943 364
-182.75571 -78.85574 216.74257 424
82.72159 -32.17315 177.96321 438
64.89559 -36.13620 178.71999 432
59.78445 -37.26970 183.25761 428
54.41876 -38.49136 188.02541 423
48.71177 -39.74911 193.07088 418
42.42165 -41.15036 198.37398 406
35.59492 -42.66233 204.01761 401
28.05363 -44.33888 210.07013 358
-189.44266 -92.85669 216.67616 296
81.39801 -37.19583 177.30566 435
63.17606 -41.84280 178.02144 429
57.86844 -43.20121 182.62743 424
52.31783 -44.63442 187.47021 420
46.11893 -46.20670 192.55289 408
39.51944 -47.90239 197.94518 402
32.41444 -49.70394 203.73010 397
-188.34702 -106.37942 202.69382 484
80.05129 -42.37056 176.63690 432
71.04193 -44.96042 179.64806 308
55.91953 -49.33854 181.93938 414
49.87349 -51.09742 186.80707 409
43.40521 -52.99057 191.93285 404
36.26228 -55.05478 197.46178 387
28.28184 -57.36555 203.33923 371
78.68339 -47.71211 175.85808 427
72.41286 -49.75036 179.63324 308
53.55478 -55.86668 181.10403 397
46.83347 -58.02864 185.97646 393
39.70226 -60.36892 191.20483 388
31.74178 -62.95715 196.81914 372
22.58096 -65.91708 202.82593 367
77.30248 -53.28147 175.06105 423
72.21096 -55.10500 179.19339 419
50.16825 -63.03859 180.01521 393
43.12266 -65.54321 185.02524 388
35.28549 -68.36520 190.32072 372
26.28788 -71.64163 196.02379 367
15.32214 -75.54232 202.15092 332
75.89200 -59.07369 174.17567 420
70.08478 -61.35923 178.22771 386
46.59861 -70.63613 178.86450 388
38.83256 -73.69646 183.87766 373
29.24792 -77.49474 189.13577 336
16.43528 -82.60548 194.70282 316
-1.43489 -89.63100 200.79376 311
73.18378 -65.64101 172.81433 386
66.67643 -68.44269 176.85052 395
53.19303 -74.26792 179.79109 300
30.89733 -83.94501 182.05147 336
17.50929 -89.74700 187.15034 315
-13.89108 -103.26801 191.16925 265
71.93063 -71.90750 171.85216 316
63.26852 -75.96522 175.39751 390
55.50505 -79.60840 179.75052 300
17.46311 -97.51522 179.07716 286
-25.57764 -117.77918 180.44720 284
74.13284 -76.65705 171.82152 316
58.90773 -84.38920 173.65131 328
48.76226 -89.53535 177.68613 325
25.54952 -101.37751 180.02898 292
76.49734 -81.33086 171.82059 316
55.25124 -92.99139 171.99168 308
34.58467 -104.35680 173.84952 272
-52.00501 -151.92226 164.85486 373
78.98904 -85.91962 171.79431 316
58.11259 -98.23455 171.93906 308
30.66817 -114.47718 172.18025 300
-45.43418 -159.50790 165.15828 286
81.60535 -90.43810 171.74287 316
61.15015 -103.41129 171.94388 308
34.19199 -120.52522 172.13396 300
84.39128 -94.89714 171.74904 316
64.29187 -108.55360 171.91000 308
1.98630 -150.84718 163.50516 382
87.30522 -99.22176 171.70540 316
67.64050 -113.52478 171.90184 308
16.70870 -150.49306 165.95238 389
-3670.98926 -2828.87964 59.67134 306
90.34321 -103.49351 171.67607 316
71.12268 -118.45100 171.85864 308
22.09317 -156.43793 166.10838 297
-3459.60327 -2855.69775 65.32956 479
93.54467 -107.65930 171.66539 316
46.76218 -146.33084 163.34428 300
-3232.66699 -2857.77661 70.90199 474
96.84377 -111.74868 171.63330 316
54.42490 -149.10184 164.33492 403
-3091.07520 -2921.67358 73.10918 286
100.27795 -115.71533 171.58929 316
65.08681 -148.72870 166.24704 409
103.80217 -119.60863 171.57884 316
70.14629 -153.24425 166.33852 305
87.02637 -145.15398 163.52983 307
93.02349 -147.66695 164.11662 424
101.48285 -147.03691 165.76028 419
107.76789 -148.66251 166.46904 314
114.63805 -149.15344 167.47736 316
-488.89627 -1047.19751 92.37916 496
-490.96860 -1049.95312 133.84294 498
600.63696 -1990.90466 150.72508 439
656.57465 -1950.01355 151.32393 472
712.83942 -1915.67078 152.16304 492
770.02399 -1889.52307 152.43346 496
828.19379 -1870.25464 152.23653 499
890.87048 -1861.62610 152.11633 491
955.04333 -1855.71851 151.34116 489
1020.78894 -1849.12646 150.62712 487
1086.15552 -1840.19629 150.38245 484
515.50177 -578.94415 87.40490 424
517.40527 -582.99048 108.66179 424
519.75574 -587.15527 129.97377 360
1155.28699 -1834.91235 149.08354 333
532.41522 -567.72980 87.96095 472
534.35791 -571.29047 109.05592 472
536.79657 -575.38934 130.30113 425
540.07373 -581.49988 151.27174 349
1227.77222 -1833.22620 148.43237 469
365.38583 -107.89989 167.60164 315
368.71420 -103.19489 167.65285 315
371.95035 -98.42471 167.62213 439
379.10870 -95.98143 166.34117 434
386.65808 -93.37873 164.99301 429
390.37766 -88.44559 164.75168 317
393.28381 -83.06573 164.71553 317
407.43478 -89.69202 167.74995 305
372.47415 -67.41393 171.52753 316
411.29422 -84.22122 167.50873 434
374.53391 -62.49185 171.56618 316
419.39062 -80.28735 166.11349 429
376.42035 -57.56821 171.59103 316
426.92526 -75.73565 164.87924 308
264.88199 -15.73304 203.50217 314
429.31680 -69.19168 164.89168 308
265.43137 -14.27444 203.50609 314
402.84842 -54.21230 171.84401 309
453.49557 -68.93211 167.90605 297
265.93027 -12.81231 203.50870 314
404.43341 -48.42382 171.83322 309
455.31296 -61.43847 167.95061 298
266.38614 -11.33651 203.49942 314
405.90656 -42.54318 171.83748 309
463.71060 -55.45771 166.65154 452
1453.03479 -276.57275 175.19052 429
1483.87585 -283.77930 216.65811 341
266.79868 -9.84249 203.50386 314
407.19968 -36.67186 171.84454 309
470.81012 -48.82764 165.50766 448
1448.75378 -235.50436 134.59795 313
1427.82349 -231.38405 176.22899 445
1482.48340 -242.08575 216.43005 301
267.16183 -8.34734 203.50716 314
408.25870 -30.71090 171.88559 309
474.48276 -41.23324 165.09087 300
1412.03271 -189.93050 137.41911 422
1407.83191 -189.07701 176.97789 448
1578.63672 -216.35435 216.38951 361
267.47595 -6.84366 203.50096 314
409.21368 -24.77556 171.88818 309
440.35239 -28.68764 172.18369 301
1390.28772 -148.70573 139.21921 460
1392.41870 -149.19472 177.79985 456
267.74603 -5.32516 203.50037 314
409.92892 -18.80382 171.88298 309
441.19519 -21.78525 172.15784 301
1372.88672 -109.92105 140.63501 464
1380.64771 -110.85334 178.25412 434
267.96161 -3.81449 203.50909 314
410.49896 -12.81266 171.88660 309
441.87387 -14.79404 172.20987 301
1361.50476 -72.62116 141.47261 474
1370.68604 -73.23175 178.80980 417
1407.87915 -75.75224 216.60272 268
268.14047 -2.29321 203.50758 314
410.87054 -6.79202 171.88800 309
442.29202 -7.76507 172.21469 301
1345.99927 -36.24795 142.77832 483
1362.97839 -36.78547 179.17570 371
1389.08093 -37.56973 216.34966 471
1493.29382 -41.12749 258.29871 497
1376.12146 -37.08974 292.17578 494
1388.70569 -37.48847 331.78632 413
268.25845 -0.76556 203.50385 314
411.08850 -0.78552 171.90356 309
442.50369 -0.81195 172.17523 301
511.62527 -0.79282 168.28932 288
1350.86536 -0.78797 105.00967 350
1337.55371 -0.89517 143.21701 487
1356.94031 -1.01824 179.33871 370
1372.04468 -1.02047 216.34578 495
1370.99182 -0.80642 254.10905 495
1368.21472 -0.77744 291.89917 494
1381.22156 -0.84020 330.86508 432
268.33377 0.75932 203.50281 314
411.06888 5.22943 171.88852 309
442.48077 6.23601 172.18163 301
1334.52002 34.06604 106.69849 354
1324.84705 33.73534 143.99564 492
1351.42285 34.67422 179.52638 273
1365.32385 35.16044 216.49785 496
1364.22742 34.91187 254.10231 497
1361.62231 34.87991 291.35638 496
1374.76025 35.43816 330.19806 433
268.37088 2.28427 203.50302 314
410.89838 11.24735 171.90385 309
442.27582 13.22489 172.19736 301
1323.31812 68.56981 107.65118 418
1314.88342 67.93911 144.59024 495
1359.28052 70.73940 179.20111 497
1352.47913 70.33406 216.51027 498
1351.05005 70.41048 253.61150 498
1349.74121 70.26293 290.59631 498
1367.87878 71.42916 329.91000 416
268.34717 3.80179 203.50084 314
410.59311 17.21836 171.89711 309
441.87360 20.16186 172.17241 301
1314.58875 102.47106 108.36308 421
1307.45251 101.91911 144.78282 497
1352.85657 106.16496 179.33324 498
1346.96313 105.65255 216.36841 498
1345.70911 105.44369 253.41296 498
1343.35144 105.43344 290.52039 498
1361.06165 106.98617 329.31180 417
1592.27893 128.69875 398.12225 487
1590.43787 128.44783 443.84399 486
1588.96680 128.65552 490.09286 468
1587.19153 128.34740 536.51001 467
268.27606 5.32632 203.50377 314
410.02277 23.18561 171.86501 309
441.25940 27.14566 172.17943 301
1307.04529 136.33405 108.64297 423
1300.68311 135.49431 145.03452 499
1346.06909 141.37115 179.26486 498
1340.53552 140.78581 216.36414 499
1339.24280 140.41933 253.36076 499
1336.84412 140.05945 290.23999 499
1354.77014 142.46523 329.17761 417
268.16473 6.83942 203.49770 314
409.34601 29.17161 171.85867 309
475.54242 39.63973 165.08574 300
1300.39343 170.31619 108.65221 423
1294.49414 169.32668 145.17375 499
1339.68298 176.35127 179.45865 499
1339.24817 176.47264 216.49687 499
1337.92346 175.99052 253.70851 499
1335.45190 175.91130 290.52530 499
1348.19116 177.84979 328.84985 434
268.00140 8.34821 203.50836 314
408.43509 35.09812 171.87250 309
471.84192 47.20740 165.54944 448
1293.76917 203.78317 108.74959 423
1288.34265 202.86491 145.17200 499
1333.20496 211.32961 179.31285 499
1332.74805 211.48381 216.51587 499
1330.82300 210.99150 253.48895 499
1329.17078 210.66678 290.35251 499
1341.15234 213.09128 328.92847 435
267.80246 9.84093 203.50795 314
407.39639 41.01315 171.87183 309
464.79022 53.84468 166.73546 452
1287.33740 237.50420 108.73597 465
1282.09192 236.30835 145.15764 499
1327.39270 246.67221 179.31972 499
1326.00708 246.22784 216.36874 499
1325.18091 245.93132 253.59637 499
1322.77966 245.62061 290.63040 498
1334.96082 248.14650 328.85709 403
1393.66272 261.44904 415.16290 279
267.53629 11.33035 203.50108 314
406.11630 46.91129 171.85915 309
457.03964 59.98793 167.90495 297
1281.01562 271.29529 108.75801 465
1275.86035 269.96591 145.23558 499
1563.21094 343.99817 171.08679 498
1327.24390 283.23059 216.46034 374
1318.31348 280.90887 253.49937 499
1316.93579 280.70633 290.82376 499
1329.96790 283.95383 329.39285 417
1379.18921 296.72617 373.83597 390
267.23563 12.80773 203.49831 314
404.68628 52.71885 171.83003 309
455.45511 67.44333 167.84924 297
1274.47559 305.31308 108.38331 464
1269.70532 304.05780 145.03111 498
1554.94873 386.98526 171.01405 498
1388.37646 338.56638 336.14212 493
1386.85925 337.97183 376.28918 480
380.17230 51.06956 171.60239 316
431.48331 67.74108 164.81767 308
1268.24304 339.60379 107.92045 463
1263.27271 337.83881 144.71915 497
1429.49817 391.76767 383.93665 389
1417.08081 387.75223 424.36511 404
378.63513 56.10587 171.54248 316
429.26581 74.28684 164.86546 308
1262.01843 374.09903 107.37056 462
1256.89209 372.04968 144.21713 496
376.94373 61.04933 171.54700 316
421.48517 78.66417 166.25066 429
1255.75793 408.90717 107.00893 461
1250.62036 406.74255 143.78543 495
1563.44067 530.71960 169.31827 293
375.10892 65.97075 171.50952 316
413.46988 82.54599 167.63245 435
1249.47827 444.35251 106.22996 419
1244.01648 441.87796 143.48807 493
1404.57593 511.50275 174.21019 431
1404.08691 510.91852 216.65198 431
1403.40112 510.91077 258.75140 352
396.14371 81.65118 164.67221 317
410.41324 88.33566 167.75145 305
1243.29028 480.04895 105.31264 417
1237.33105 477.28119 143.06303 491
1294.43738 504.20792 177.70454 313
1522.00415 611.23047 216.59096 385
393.46826 87.05521 164.67485 317
1236.76306 516.66974 104.38898 421
1230.73230 513.69116 142.33197 489
1283.38232 540.36102 177.62271 489
1512.67273 657.11755 216.57848 392
389.57529 91.79684 165.06721 429
1230.66113 554.05078 103.23260 419
1223.71240 550.25714 141.56369 487
1409.80054 652.43433 172.28049 499
1410.30920 652.94818 216.57608 499
382.16342 94.36581 166.45427 434
1224.37610 592.45026 101.65492 417
1216.61926 587.99731 140.84184 484
1267.73413 617.93604 176.61336 484
1313.12634 644.97174 216.53049 497
375.54056 97.07649 167.63660 315
1217.45703 631.16278 139.14336 390
1292.64087 678.94263 174.86652 499
1293.26221 679.41779 216.67703 499
372.54898 101.95605 167.60359 315
1282.81458 720.59113 174.65688 450
1282.95276 720.69922 216.57742 458
369.42673 106.71293 167.58270 313
1240.99084 739.86145 257.66458 458
-47.07913 925.90778 89.43320 476
-48.47846 930.53125 120.98807 476
-50.41463 937.38428 152.38805 373
120.86637 149.41959 167.98401 489
114.77193 148.25383 167.31424 441
108.17654 147.41966 166.41672 314
101.09984 146.82742 165.30612 419
92.65455 147.46303 163.70389 424
87.67253 143.81065 163.52089 307
75.52021 156.71259 166.30829 305
104.39985 118.34480 171.50784 316
70.70102 151.98567 166.24921 305
-936.31250 1159.40503 55.14083 353
-982.49786 1205.42212 104.56723 356
100.87960 114.44279 171.53383 316
64.58566 148.52724 165.79999 409
-924.11377 1077.23340 61.28615 402
-996.92682 1145.63928 106.96554 399
97.47887 110.46791 171.55669 316
53.82311 148.92162 163.86006 403
-903.50269 993.41888 68.61621 425
-985.32861 1065.37805 110.98794 405
94.19194 106.40467 171.59758 316
75.37988 121.95885 171.77356 308
-941.46814 963.33728 67.52494 421
-971.66260 988.39001 115.00306 411
91.05641 102.23260 171.63651 316
71.78043 117.15591 171.78378 308
22.74746 155.22633 166.06743 297
-1006.93115 954.03882 63.00956 419
-995.28290 945.01624 115.31718 432
88.06264 97.93478 171.64908 316
68.34251 112.27866 171.82977 308
15.90263 150.35736 165.49881 389
-1076.99707 944.69971 58.26873 408
-1062.51282 933.99261 112.48588 427
-1360.45789 1150.71143 152.59102 311
85.20167 93.58082 171.67462 316
65.09032 107.24620 171.86487 308
1.12029 150.71716 163.02878 382
-1153.67395 935.71741 52.40240 403
-1134.06299 922.57172 108.77366 421
-1428.82788 1122.63940 151.19836 489
82.43722 89.15072 171.72534 316
61.93444 102.15167 171.88753 308
34.93707 119.29558 172.06972 300
-1210.80676 910.27020 105.00248 415
-1426.88037 1046.83740 152.80135 421
79.86653 84.61820 171.71954 316
58.94730 96.95690 171.92413 308
31.46061 113.18485 172.15224 300
-44.57787 158.17056 165.07698 286
-1293.01501 896.86255 100.79629 409
-1414.42395 968.61871 154.02667 423
77.38532 79.97829 171.76665 316
56.16027 91.65787 171.91835 308
37.59900 101.85022 174.32022 319
-53.27778 151.83665 164.35794 373
-1393.39490 888.60901 95.78458 360
75.05158 75.31221 171.77672 316
60.30774 82.82977 173.75409 385
50.33057 87.88913 177.82687 325
26.29185 100.14951 179.99693 292
-1612.06738 935.12646 81.41917 268
72.92707 70.54298 171.79471 316
63.95453 74.77258 175.33774 390
56.34978 78.34474 179.74576 300
20.76556 95.10742 179.50244 314
-24.85591 116.53749 180.36420 284
74.01368 64.36749 172.71928 386
67.44482 67.23332 176.75948 381
54.14483 72.98399 179.71848 300
32.32067 82.40055 182.07967 336
19.42376 87.96447 187.27444 315
-4.51182 98.31999 192.11118 266
76.44601 57.91259 173.98889 420
70.90276 60.10603 178.10641 386
47.37845 69.39558 178.77661 389
39.70290 72.44309 183.81264 373
30.69428 76.01734 189.21936 336
18.28095 80.95479 194.81844 332
0.67690 87.90914 200.90028 311
77.85702 52.08898 174.88100 423
72.75954 53.96798 179.01530 419
50.94815 61.79102 179.95621 393
43.90079 64.31982 184.92349 388
36.12503 67.10849 190.27412 373
27.10138 70.39140 195.97141 368
16.85106 74.05649 202.22673 332
79.26328 46.52997 175.69652 427
73.51753 48.38330 179.59035 308
54.18712 54.68183 181.02341 410
47.60634 56.83530 185.91641 393
40.44991 59.16611 191.17508 388
32.64702 61.66048 196.77229 372
23.45087 64.63988 202.80009 367
80.63889 41.12899 176.42188 432
72.15918 43.58866 179.59492 308
56.49934 48.17352 181.78629 421
50.46592 49.89746 186.67644 409
43.99383 51.78012 191.89157 404
37.02527 53.84512 197.43213 387
29.14046 56.13476 203.33557 372
81.98080 35.95176 177.13193 435
70.96121 38.75705 179.63130 308
58.46570 41.98055 182.48492 424
52.87521 43.41164 187.34000 420
46.73888 45.00619 192.44617 408
40.12568 46.70299 197.90033 403
33.00882 48.54059 203.67545 397
-188.42026 105.37474 202.71606 484
83.24702 30.94415 177.75111 457
65.55562 34.86785 178.56808 432
60.40318 36.03215 183.13925 428
54.97713 37.27076 187.91995 423
49.23599 38.53570 192.99062 418
43.00378 39.95066 198.31512 406
36.15841 41.48459 203.99994 401
28.58237 43.15681 210.12656 358
-186.85030 91.36225 216.70448 296
83.47752 26.25303 178.06004 459
67.22109 29.37292 179.20334 455
62.25724 30.29937 183.68369 431
57.03305 31.32017 188.40810 426
51.47986 32.34909 193.43716 421
45.57132 33.48173 198.70557 416
39.17949 34.69497 204.28847 405
32.14665 36.05791 210.24469 364
-182.81604 77.05542 216.72728 424
83.76144 21.64177 178.30598 461
67.51940 24.21641 179.45317 456
62.93585 24.93015 183.98849 452
58.06926 25.67990 188.73521 447
52.99075 26.49497 193.73616 442
47.68145 27.34509 198.98886 437
41.86901 28.28990 204.50066 414
35.34550 29.33818 210.41972 402
84.03400 17.06043 178.51477 462
67.86647 19.11528 179.67432 457
63.27886 19.71430 184.19489 453
58.48398 20.28935 188.95471 448
53.47756 20.91477 193.90437 443
48.16751 21.60995 199.13113 438
42.57883 22.28732 204.63632 433
36.69300 23.06034 210.48303 428
84.37867 12.55579 178.71204 463
68.24831 14.08991 179.89392 459
63.70459 14.51824 184.39587 454
58.93467 14.96062 189.08664 450
53.93699 15.43751 194.00420 445
48.76429 15.95562 199.23860 440
43.22520 16.44481 204.69754 435
37.43868 17.00183 210.52287 429
84.69322 8.08355 178.87605 464
68.61418 9.09671 180.05161 460
64.08731 9.38919 184.52328 455
59.40789 9.66496 189.23795 451
54.50033 9.99863 194.12323 446
49.34938 10.30355 199.30356 441
43.88074 10.67340 204.77823 436
38.16505 10.99813 210.54018 430
-187.24782 25.17820 271.09225 304
-187.46573 25.19777 285.03128 360
85.07661 3.65775 179.02994 465
69.04208 4.16147 180.18649 461
64.58038 4.29486 184.68094 457
59.96930 4.41670 189.35498 452
55.08944 4.58629 194.25319 447
49.97848 4.76757 199.39856 442
44.53579 4.92274 204.83110 437
38.83385 5.07155 210.59802 431
