# .PCD v.7 - Point Cloud Data file format
VERSION .7
FIELDS x y z rgb
SIZE 4 4 4 4
TYPE F F F U
COUNT 1 1 1 1
WIDTH 532
HEIGHT 1
VIEWPOINT 6697.660645 581.917114 137.841156 -0.647089 -0.090486 -0.080016 0.752785
POINTS 532
DATA ascii
85.15858 -0.79631 179.28056 467
69.23845 -0.77631 180.42700 462
64.89860 -0.79470 184.83029 457
60.30046 -0.78117 189.46710 453
55.52468 -0.78476 194.32764 448
50.48979 -0.76764 199.38913 443
45.15803 -0.76562 204.77783 438
39.51485 -0.79765 210.44142 432
-152.82327 -0.74951 241.22197 419
-181.50912 -0.81132 269.82462 487
-143.88911 -0.82435 277.16714 284
84.77694 -5.15290 179.19160 465
68.74774 -5.64675 180.29118 461
64.36079 -5.79571 184.72650 456
59.77171 -5.94564 189.36778 452
54.91518 -6.07313 194.21483 447
49.85888 -6.24948 199.35324 442
44.50407 -6.40538 204.71567 437
38.82927 -6.59834 210.40875 431
-153.11446 -12.61752 241.26204 416
-181.54713 -13.46558 269.87836 487
-150.23103 -12.51274 278.32172 266
84.40953 -9.54060 179.06512 464
68.34014 -10.55226 180.16112 460
63.88434 -10.84824 184.60892 455
59.20871 -11.14046 189.27293 451
54.35332 -11.44866 194.13892 446
49.21460 -11.75282 199.26260 441
43.84311 -12.13245 204.66881 436
38.12809 -12.49297 210.39977 430
-181.58496 -26.29176 269.98083 486
84.05865 -13.97488 178.87794 463
67.98216 -15.51143 180.00880 459
63.45495 -15.95170 184.44164 454
58.73978 -16.36143 189.11192 449
53.82524 -16.82799 193.99596 445
48.61739 -17.34534 199.17818 440
43.21467 -17.83455 204.59398 435
37.43676 -18.38810 210.34955 429
-181.51811 -39.12058 270.05286 486
83.77752 -18.44242 178.68503 462
67.61617 -20.48430 179.78864 457
63.07689 -21.08435 184.25989 453
58.31968 -21.67954 188.98042 448
53.35919 -22.29492 193.87149 443
48.09237 -22.96458 199.02249 438
42.56280 -23.67560 204.48889 433
36.70591 -24.39021 210.30756 428
83.49573 -22.98851 178.43016 461
67.28324 -25.52626 179.58023 456
62.72915 -26.27483 184.06650 452
57.95108 -27.03329 188.77229 447
52.89660 -27.84569 193.70268 442
47.48452 -28.67191 198.89183 419
41.49651 -29.61370 204.40065 414
34.92387 -30.69803 210.24812 402
83.20795 -27.54353 178.16554 459
66.75356 -30.67950 179.24055 435
61.76804 -31.67088 183.71796 431
56.56056 -32.63274 188.39204 426
51.04024 -33.71323 193.36345 421
45.16601 -34.80131 198.57812 416
38.77287 -36.01576 204.16170 404
31.71932 -37.40896 210.09929 399
-183.05363 -78.31292 216.44582 424
82.83560 -32.25603 177.83809 439
65.04404 -36.19429 178.58096 432
59.88669 -37.35613 183.10706 428
54.52042 -38.56396 187.88957 423
48.83507 -39.81227 192.92979 418
42.54596 -41.24195 198.20364 406
35.71186 -42.74850 203.86525 401
28.26121 -44.44219 209.91945 358
-188.96455 -92.97768 216.44313 296
81.48272 -37.22612 177.19440 435
70.45002 -40.09064 179.61830 308
57.99602 -43.27854 182.46379 424
52.41845 -44.67776 187.31595 420
46.24754 -46.26259 192.40804 408
39.63711 -47.97299 197.75832 402
32.59000 -49.81265 203.54611 397
24.34507 -51.89000 209.74614 263
80.15776 -42.39665 176.47195 432
71.67862 -44.89258 179.62238 308
56.06017 -49.39849 181.77925 414
49.97483 -51.15533 186.63371 409
43.55304 -53.02666 191.78806 404
36.40008 -55.10352 197.29486 387
28.39848 -57.46833 203.16908 371
78.77541 -47.74314 175.71310 427
73.04850 -49.62979 179.60164 308
53.66605 -55.91456 180.98497 397
46.96435 -58.09398 185.84920 393
39.79417 -60.42322 191.06810 388
31.92043 -63.01957 196.62517 372
22.72916 -66.00832 202.65146 367
77.40441 -53.33373 174.90070 423
72.33865 -55.12826 179.05215 419
50.31536 -63.04714 179.86453 393
43.27274 -65.60686 184.87709 388
35.40199 -68.43455 190.17770 372
26.43733 -71.68583 195.87506 367
15.46085 -75.58043 201.97087 332
76.03288 -59.08790 174.01758 420
70.22487 -61.39005 178.07425 386
46.77283 -70.68233 178.68315 389
38.96812 -73.75974 183.74393 373
29.40796 -77.54353 189.00323 336
16.63493 -82.60736 194.58592 316
-1.25274 -89.65694 200.66104 311
73.31142 -65.65134 172.71028 386
66.75185 -68.47379 176.72818 395
53.94778 -74.04224 179.78290 300
31.08691 -83.95325 181.87718 336
17.70861 -89.68413 186.96890 315
-13.30187 -103.09487 191.10503 265
72.44404 -71.68328 171.82877 316
63.36869 -75.99809 175.30135 390
56.21182 -79.32704 179.74550 300
17.79195 -97.38765 178.96872 286
-24.34169 -117.27175 180.47528 284
74.63161 -76.43695 171.82770 316
59.08418 -84.37242 173.53111 328
48.87262 -89.55452 177.58272 325
26.40912 -100.98722 179.98845 292
76.96407 -81.08606 171.81561 316
55.86991 -92.70143 171.97551 308
35.01838 -104.13378 173.79062 272
-51.95387 -151.93781 164.60138 373
79.47060 -85.68071 171.79425 316
58.69957 -97.93146 171.96068 308
31.42057 -114.06780 172.19272 300
-44.25893 -158.84175 165.20712 286
82.09510 -90.18457 171.74379 316
61.72182 -103.11259 171.90785 308
34.94179 -120.07864 172.14748 300
-2301.59521 -1602.64075 118.43157 462
84.83762 -94.62724 171.75081 316
64.84046 -108.20354 171.90753 308
2.11049 -150.81047 163.31917 382
87.75124 -98.94633 171.72603 316
68.18751 -113.17025 171.88837 308
16.76740 -150.45961 165.78105 389
90.75616 -103.20176 171.68007 316
71.61709 -118.06470 171.86319 308
22.83402 -155.89319 166.08994 297
-3366.69263 -2784.74536 67.65509 314
93.90821 -107.37370 171.66768 316
47.41618 -145.83707 163.39967 300
-3040.20435 -2699.26880 76.82136 312
97.21319 -111.41041 171.65141 316
54.41202 -149.14813 164.13571 403
-2768.98828 -2637.62817 85.90096 374
100.64227 -115.37532 171.59708 316
65.12402 -148.70587 166.08577 409
-2861.67603 -2896.54248 77.50375 358
104.17636 -119.24407 171.57231 316
70.63499 -152.76402 166.31270 306
87.42851 -144.68268 163.54366 307
93.00401 -147.69200 163.96832 424
101.42757 -147.04317 165.61388 419
108.05006 -148.21051 166.43460 314
114.87916 -148.73538 167.47241 316
-490.90521 -1050.04602 91.18947 459
-496.44205 -1057.96619 132.50545 380
631.39294 -2151.97192 144.83278 412
687.44379 -2086.62524 146.54868 446
742.30804 -2031.00806 147.94731 469
797.86383 -1987.57300 148.79535 482
855.28485 -1952.88403 149.11493 497
915.36609 -1929.94385 149.35327 499
975.49689 -1906.62720 149.20502 499
1036.57092 -1886.48572 148.94604 413
1099.34119 -1868.39502 148.92339 484
1162.14734 -1848.68066 148.85254 482
1226.06580 -1829.94324 148.25896 485
611.86670 -581.86658 100.43718 470
614.58246 -585.69501 123.27107 423
631.13098 -570.65680 100.14487 426
633.55072 -574.00598 123.12557 364
365.97031 -108.09802 167.59761 315
369.29639 -103.36954 167.62148 315
372.51898 -98.58706 167.65674 315
379.31543 -95.87840 166.51221 434
386.86169 -93.29735 165.11143 429
391.01691 -88.57536 164.76117 317
393.86710 -83.18488 164.70799 317
408.13190 -89.84936 167.80000 305
373.12091 -67.48962 171.55174 316
411.46423 -84.13067 167.62952 434
375.16473 -62.60549 171.56760 316
419.56253 -80.17728 166.26923 429
377.06674 -57.65942 171.58011 316
427.61514 -75.83128 164.91235 308
378.85059 -52.66719 171.58899 316
430.04413 -69.30254 164.85362 308
266.10284 -14.37045 203.50542 314
403.51144 -54.30561 171.84906 309
454.25031 -69.04536 167.87140 297
266.60178 -12.88846 203.50520 314
405.17056 -48.48862 171.82718 309
456.06137 -61.54008 167.96358 297
267.06693 -11.40915 203.50047 314
406.59323 -42.64473 171.86421 309
463.79129 -55.39229 166.74809 452
1591.12683 -307.39523 170.59387 420
1623.48669 -314.94214 216.71077 291
267.47443 -9.90422 203.49960 314
407.87488 -36.73625 171.89041 309
470.94266 -48.74758 165.69342 448
1560.95312 -256.81143 172.01833 439
1600.74341 -264.45499 216.51895 328
267.84048 -8.39580 203.50537 314
409.01099 -30.77613 171.86954 309
475.21680 -41.30346 165.14020 300
1606.34534 -220.42816 124.68031 379
1533.19556 -208.98088 172.98595 454
1681.46936 -232.57307 216.53165 267
268.15707 -6.88211 203.50146 314
409.89001 -24.82392 171.89214 309
441.11685 -28.73590 172.21373 301
1520.07886 -165.34946 130.53455 386
1511.58960 -164.27043 173.85573 459
268.42706 -5.37098 203.50774 314
410.63080 -18.82487 171.88162 309
441.95676 -21.78572 172.17258 301
1494.12830 -121.27612 132.55626 436
1494.21936 -121.29842 174.77191 455
268.65640 -3.84544 203.49899 314
411.22308 -12.83856 171.86920 309
442.60883 -14.81147 172.17870 301
1474.48596 -79.90350 134.04161 469
1480.47095 -80.05643 175.21361 434
268.82285 -2.31926 203.50348 314
411.60367 -6.82486 171.89703 309
443.04715 -7.78058 172.20049 301
1458.67554 -39.73174 135.37445 478
1469.08923 -40.23778 175.70346 416
1504.54102 -41.35593 216.58186 469
1491.59949 -40.75919 300.05508 492
268.95819 -0.78615 203.50121 314
411.78296 -0.78290 171.89284 309
443.20490 -0.78242 172.23213 301
512.55579 -0.77025 168.27484 288
1445.47229 -0.99166 136.44971 483
1459.03186 -0.93329 176.12144 417
1485.10217 -0.81941 216.50047 494
1484.50134 -1.05590 257.83289 494
1482.92834 -1.05951 299.24741 493
1598.26208 -1.06234 352.50949 405
269.03198 0.75359 203.50681 314
411.81537 5.19859 171.90146 309
443.25333 6.21142 172.17058 301
1434.57520 37.35077 136.94496 491
1449.44727 37.58353 176.22479 420
1476.76428 38.69316 216.45164 496
1476.25122 38.52805 257.78894 496
1474.41492 38.35255 298.85507 494
269.06100 2.27794 203.50038 314
411.63190 11.24784 171.88528 309
443.03839 13.21899 172.19493 301
1427.26733 75.00726 137.46437 495
1440.95447 76.02451 176.52733 369
1462.83618 77.09551 216.67296 497
1462.60620 77.06067 257.27261 497
1461.66626 77.18181 298.07697 497
269.04572 3.79762 203.50786 314
411.27551 17.25287 171.88013 309
442.61658 20.19724 172.16447 301
1415.98206 112.13472 137.81638 496
1433.48535 113.76879 176.80978 370
1455.33630 115.82339 216.67599 498
1454.69775 115.59435 257.04703 498
1452.93933 115.40707 297.58926 497
268.97946 5.32870 203.50172 314
410.75571 23.20839 171.88921 309
442.00580 27.15331 172.19754 301
1410.41675 149.50467 138.06439 498
1426.24109 151.42378 176.70978 371
1449.83374 154.32298 216.59579 269
1447.01001 153.89111 256.97568 269
1445.38062 153.63156 297.55682 498
268.87210 6.84244 203.50023 314
410.07748 29.20234 171.87863 309
476.33435 39.66220 165.09961 300
1399.91675 185.87386 138.33823 498
1419.20496 188.97781 176.93124 371
1444.85486 192.85829 216.45479 499
1444.11108 192.81012 257.26617 499
1442.40759 192.61903 297.66360 498
268.70996 8.34516 203.50830 314
409.18268 35.13973 171.88255 309
471.94302 47.13076 165.67873 448
1395.01526 223.14151 138.21672 498
1412.02625 226.32317 176.91783 371
1436.84595 230.99446 216.76544 499
1436.36353 230.83505 257.21884 499
1434.66809 230.48613 297.65060 498
1513.19250 245.77449 346.13303 499
268.49741 9.84315 203.50471 314
408.11395 41.04003 171.87578 309
464.87878 53.75080 166.86418 452
1384.72241 259.40836 138.43280 498
1404.68884 263.60608 176.92992 371
1428.75537 269.11707 216.63309 499
1428.10168 269.08279 257.03195 499
1427.35461 268.66577 297.78726 499
1433.98010 270.13281 339.05621 499
1437.03845 271.03876 380.63095 490
268.24310 11.34162 203.50166 314
406.86145 46.89260 171.81367 309
457.87448 60.01449 167.95602 297
1379.79395 296.49402 138.25929 498
1397.26013 301.10461 176.92973 371
1497.98291 327.07150 346.59872 496
1540.82336 338.10971 395.94580 341
267.94946 12.82011 203.49846 314
405.41910 52.72985 171.81314 309
456.25327 67.51296 167.86783 297
1371.80371 333.56683 137.92535 498
1389.98193 338.51984 176.74986 362
1543.00635 382.95779 397.78171 479
380.91187 51.09175 171.57004 316
432.26492 67.74915 164.84169 308
1363.21741 370.30630 137.97600 447
379.35101 56.08407 171.57718 316
430.03598 74.35178 164.84875 308
1356.36230 407.76697 137.62457 496
377.65585 61.04459 171.53510 316
421.79922 78.52557 166.35359 429
1346.19153 444.50995 137.35460 495
1592.82776 541.83716 168.40332 292
1507.86951 508.58749 261.89703 496
375.80118 65.95934 171.54587 316
413.82526 82.42485 167.72318 435
1340.84692 483.39102 136.82326 493
1358.70984 491.06430 175.91835 319
396.88486 81.68831 164.71262 316
411.18677 88.40891 167.72595 305
1330.23450 520.69977 136.14607 492
1350.42346 530.23950 175.82182 319
1365.13159 536.99542 216.73465 485
394.22253 87.10056 164.72745 317
1324.63562 560.92859 135.62698 490
1341.78308 569.79449 175.58575 318
1356.53394 577.15747 216.63165 480
390.00034 91.65222 165.16191 429
1314.01746 599.58148 134.74902 411
1333.18225 610.15186 175.22130 314
1406.81555 650.48254 216.71193 499
382.62387 94.19833 166.57434 434
1404.48633 698.40662 126.72432 423
1384.04480 686.35834 172.49298 499
1384.94043 686.77948 216.63596 499
376.30981 97.08909 167.59831 315
373.33215 101.95514 167.61147 315
370.18518 106.67513 167.58313 313
30368.26172 50970.30469 -1721.69824 0
44.68890 933.07947 91.43845 420
43.27676 940.70807 122.13871 281
-15398.50391 60876.01562 -12288.56445 0
120.83229 150.96259 167.40254 316
115.93788 148.11937 167.26520 441
109.45214 147.20520 166.41339 314
102.26991 146.71944 165.25830 419
93.77524 147.42020 163.65019 424
88.99358 143.52614 163.50902 307
76.88446 156.41725 166.27660 305
-821.43707 1113.12073 65.87646 357
-912.48853 1209.93896 107.47823 475
105.68754 118.16784 171.50247 316
72.11297 151.76404 166.27521 305
-833.36102 1057.47656 69.04607 276
-902.48553 1126.46143 111.79648 365
102.18195 114.26611 171.55357 316
65.75890 148.50946 165.70508 409
-829.40796 989.62030 74.21425 453
-873.57910 1031.04822 117.72394 487
98.81897 110.29894 171.56943 316
55.02085 148.93513 163.81241 403
-879.78668 973.50183 71.23621 445
-873.69904 967.70648 120.48222 462
95.54676 106.22176 171.59325 316
76.79958 121.76234 171.77057 308
-932.93781 957.05493 68.63376 441
-925.63739 951.01605 118.75962 460
92.41982 102.07263 171.62729 316
73.20322 116.99042 171.77713 308
24.29616 154.89551 166.02647 297
-988.41211 940.35638 65.08718 413
-979.46497 933.76501 116.73483 456
89.43536 97.79436 171.64647 316
69.81483 112.10394 171.79131 308
17.20448 150.32283 165.47392 389
-1048.95264 925.04315 61.21364 409
-1035.78516 915.62708 114.49649 451
-1294.59790 1103.71240 154.75900 452
86.60162 93.47125 171.65540 316
66.50349 107.08271 171.85236 308
2.40193 150.71136 163.01596 382
-1112.62830 908.45471 57.43991 425
-1094.85095 896.70020 111.84094 446
-1340.58386 1063.85522 154.55942 482
83.86928 89.03223 171.72176 316
63.39428 102.02670 171.86896 308
36.48575 119.08245 172.11424 300
-1180.77258 891.85840 52.34657 395
-1156.82935 876.74921 109.44691 441
-1314.67017 976.58624 156.57613 390
81.28070 84.50217 171.70259 316
60.42817 96.81282 171.90576 308
33.04020 113.01939 172.13948 300
-42.71862 157.84915 165.16930 286
-1223.66235 856.33630 106.36050 411
-1231.87561 861.26886 160.88196 406
78.84363 79.88564 171.73573 316
57.65207 91.52516 171.93620 308
36.79858 103.04152 173.73515 319
-52.00151 151.88356 164.25305 373
-1319.08789 848.37018 101.06019 376
76.53887 75.22581 171.78542 316
59.95637 83.71282 173.22476 328
49.64997 88.92080 177.31921 325
27.97178 99.97793 179.92700 292
-1468.17273 862.28229 91.83540 317
74.41681 70.49473 171.78267 316
63.90879 75.38825 174.88213 390
58.00957 78.19662 179.70766 300
19.69174 96.24876 179.00397 286
-23.05310 116.31989 180.39581 284
74.08756 64.90838 172.31561 386
67.47713 67.76427 176.37140 381
55.78400 72.88331 179.73482 300
31.97874 83.15915 181.70171 336
18.82442 88.83403 186.87460 315
-8.66441 100.73289 191.42694 266
76.67757 58.35341 173.58153 420
70.95693 60.63063 177.71466 386
47.40400 69.92062 178.37711 389
39.67885 73.01772 183.51678 373
30.32314 76.72871 188.87926 336
17.68821 81.69003 194.53598 316
-0.09719 88.74883 200.65828 311
78.12920 52.52229 174.47516 423
72.95366 54.38087 178.63626 419
51.02558 62.31691 179.56171 393
43.91557 64.83039 184.60794 388
36.04784 67.68439 189.98297 373
27.03688 70.93626 195.73328 368
16.37382 74.74398 201.99730 332
79.51283 46.93826 175.29253 429
74.50105 48.56404 179.42087 423
54.37428 55.12070 180.67038 410
47.62776 57.26301 185.60988 393
40.44085 59.63694 190.87831 388
32.54644 62.20218 196.51389 372
23.26994 65.21269 202.61517 367
80.90072 41.50698 176.04840 432
73.79864 43.58494 179.59795 308
56.64734 48.55893 181.49448 421
50.61733 50.32658 186.37820 409
44.06496 52.21384 191.59268 404
36.96313 54.28629 197.15753 387
29.01474 56.57681 203.11702 372
82.25237 36.29572 176.73001 435
72.61445 38.73899 179.61372 308
58.65222 42.35086 182.17499 424
53.03877 43.77224 187.04698 420
46.83382 45.39693 192.18938 408
40.17459 47.09952 197.66898 403
33.00315 48.91368 203.51640 397
24.98721 51.01469 209.78261 355
83.57578 31.22721 177.39082 457
65.75092 35.19382 178.19949 432
60.59906 36.37785 182.80452 428
55.12648 37.60269 187.62480 423
49.35283 38.88100 192.71971 418
43.05883 40.27682 198.06418 406
36.20577 41.81939 203.81435 401
28.72480 43.49231 209.95634 358
-187.23904 91.81401 216.53334 296
83.80396 26.52734 177.67633 459
67.51102 29.62206 178.83615 435
62.47158 30.60357 183.40102 431
57.16705 31.61116 188.13972 426
51.62916 32.68471 193.14180 421
45.67897 33.79215 198.47227 416
39.27233 35.00867 204.10414 405
32.16849 36.38921 210.09663 399
-182.91701 77.45006 216.51424 424
84.07219 21.85922 177.95193 461
67.83269 24.42926 179.12167 456
63.22034 25.18966 183.69102 452
58.34284 25.97502 188.47552 447
53.25146 26.75139 193.47192 442
47.89405 27.60234 198.75182 437
41.94063 28.55622 204.30254 414
35.37130 29.58578 210.23083 402
84.39495 17.30913 178.16000 462
68.19096 19.35917 179.33833 457
63.57113 19.91818 183.90915 453
58.76079 20.53262 188.64015 448
53.70380 21.17166 193.62776 443
48.40047 21.82552 198.88762 438
42.77790 22.54413 204.41881 433
36.83792 23.30882 210.29558 428
84.70828 12.75951 178.34512 463
68.57262 14.27553 179.52028 459
64.00468 14.69086 184.07219 454
59.20417 15.16950 188.79001 450
54.17521 15.61305 193.74112 445
48.92790 16.11762 199.00665 440
43.40731 16.67098 204.52213 435
37.57910 17.18853 210.37384 429
85.04573 8.23036 178.50366 464
68.93245 9.24963 179.72006 460
64.42181 9.53706 184.20280 455
59.69250 9.85571 188.92548 451
54.74712 10.12829 193.85919 446
49.52532 10.49305 199.11115 441
44.07870 10.81549 204.59573 436
38.27169 11.20615 210.41570 430
-187.83966 25.41049 271.23972 304
-187.74174 25.42270 285.21561 360
85.43891 3.75931 178.64503 465
69.37698 4.28867 179.82967 461
64.88446 4.39882 184.33630 457
60.22659 4.56057 189.05945 452
55.30341 4.70222 193.95905 447
50.16877 4.86654 199.15274 442
44.75308 5.06020 204.63704 437
38.99921 5.23972 210.40228 431
