# .PCD v.7 - Point Cloud Data file format
VERSION .7
FIELDS x y z rgb
SIZE 4 4 4 4
TYPE F F F U
COUNT 1 1 1 1
WIDTH 529
HEIGHT 1
VIEWPOINT 6679.066406 450.407867 138.986908 -0.645560 -0.092467 -0.080239 0.753833
POINTS 529
DATA ascii
85.07616 -0.84172 179.36191 466
69.18009 -0.87638 180.49756 462
64.78537 -0.85615 184.91380 457
60.19349 -0.86331 189.55832 453
55.42417 -0.88255 194.39833 448
50.38661 -0.88147 199.48174 443
45.06778 -0.85714 204.88680 438
39.41414 -0.85136 210.55745 432
-181.49280 -0.90476 270.04111 487
-136.36319 -0.87846 276.16510 495
84.68147 -5.24767 179.26587 465
68.69114 -5.72580 180.36195 461
64.25195 -5.89198 184.81012 456
59.66826 -6.00185 189.45161 452
54.82832 -6.16328 194.30887 447
49.76157 -6.31588 199.42058 442
44.40408 -6.50077 204.81000 437
38.71030 -6.69498 210.54237 431
-181.47968 -13.67592 270.06757 487
-151.85947 -12.69758 278.68472 266
84.32012 -9.61729 179.13470 464
68.26351 -10.65455 180.25533 460
63.78437 -10.92629 184.69296 455
59.11012 -11.20988 189.35004 451
54.25084 -11.52971 194.22136 446
49.12660 -11.85167 199.35297 441
43.71155 -12.17666 204.77977 436
38.03340 -12.55224 210.49387 430
-181.48532 -26.38282 270.11929 486
83.98305 -14.07234 178.95621 463
67.88810 -15.57751 180.06136 459
63.36266 -16.00545 184.51816 454
58.64151 -16.45890 189.18521 449
53.72164 -16.95483 194.09579 445
48.53549 -17.44549 199.22073 440
43.08366 -17.92106 204.67644 435
37.28625 -18.47147 210.45139 429
-181.45015 -39.21123 270.15793 486
83.67884 -18.54897 178.75745 462
67.53252 -20.58414 179.89569 457
62.99153 -21.13234 184.33461 453
58.24627 -21.77837 189.02568 448
53.24124 -22.39141 193.93980 443
48.02108 -23.04061 199.11871 438
42.45850 -23.73700 204.62204 433
36.58617 -24.47558 210.38585 428
83.41462 -23.04024 178.51163 461
67.22396 -25.63114 179.66815 456
62.62632 -26.36206 184.13577 452
57.85323 -27.12986 188.83910 447
52.79757 -27.90147 193.78615 442
47.37305 -28.75720 199.01053 419
41.35556 -29.74955 204.46619 414
34.77931 -30.74950 210.32220 402
83.13300 -27.61582 178.24335 459
66.64510 -30.76872 179.32310 435
61.66705 -31.72552 183.77721 431
56.42911 -32.72217 188.48227 426
50.91409 -33.78001 193.42220 421
45.06685 -34.92052 198.66765 416
38.60338 -36.15508 204.24081 404
31.56923 -37.50016 210.18291 364
-182.89192 -78.40636 216.64081 424
82.70193 -32.32955 177.91464 438
64.93052 -36.27961 178.67290 432
59.78593 -37.45517 183.19543 428
54.42178 -38.63755 187.94469 423
48.71785 -39.90672 193.00729 418
42.38467 -41.32840 198.29906 406
35.60204 -42.84070 203.92783 401
28.04316 -44.53463 210.01132 358
-189.74899 -93.26122 216.60429 296
81.40236 -37.31015 177.25394 435
63.18127 -42.00781 177.96024 429
57.88022 -43.33559 182.55873 424
52.34171 -44.79881 187.37943 420
46.11609 -46.38792 192.45251 408
39.50269 -48.06985 197.86455 402
32.41353 -49.87286 203.65025 397
-188.40326 -106.63035 202.65785 484
80.07395 -42.47237 176.58958 432
71.26643 -45.03945 179.61488 308
55.91880 -49.47945 181.86804 414
49.86747 -51.22794 186.75291 409
43.39363 -53.12264 191.87750 404
36.23496 -55.21347 197.38313 387
28.24064 -57.50871 203.25307 371
78.68964 -47.80792 175.79890 427
72.65616 -49.78538 179.61798 308
53.53517 -55.98938 181.02837 397
46.81552 -58.17927 185.94125 393
39.67413 -60.52964 191.11559 388
31.77346 -63.06551 196.74513 372
22.55330 -66.07335 202.73683 367
77.30247 -53.35546 174.98186 423
72.21031 -55.18711 179.11786 419
50.16430 -63.12507 179.97234 393
43.11633 -65.70605 184.93253 388
35.26457 -68.49111 190.26108 372
26.24771 -71.75582 195.93216 367
15.29872 -75.68937 202.09775 332
75.91425 -59.11899 174.11443 420
70.06808 -61.43584 178.17108 386
46.64369 -70.71898 178.78619 388
38.86942 -73.82708 183.81757 373
29.20719 -77.66705 189.06781 336
16.33589 -82.75744 194.62646 316
-1.52927 -89.81989 200.68564 311
73.18872 -65.69444 172.78987 386
66.65588 -68.54859 176.78944 395
53.51561 -74.25326 179.79877 300
30.84871 -83.99952 181.96481 336
17.47791 -89.79518 187.02824 315
-14.24574 -103.57375 191.07117 265
72.05398 -71.85097 171.81787 316
63.27825 -76.02209 175.37445 390
55.75774 -79.57179 179.77406 300
17.39535 -97.59530 179.01952 286
-25.05643 -117.60340 180.46013 284
74.28647 -76.60253 171.80663 316
58.92940 -84.39628 173.61342 328
48.73969 -89.58778 177.65131 325
25.88723 -101.22017 180.05063 292
76.61803 -81.26810 171.79875 316
55.47459 -92.88190 171.98555 308
34.69693 -104.28587 173.81610 272
-51.94991 -151.97348 164.72154 373
79.09153 -85.84165 171.79402 316
58.29122 -98.14422 171.93642 308
30.97493 -114.32552 172.20895 300
-261.12823 -154.39612 -50.09201 286
81.68744 -90.38346 171.76256 316
61.27084 -103.29909 171.94659 308
34.43822 -120.33696 172.15228 300
84.45343 -94.78364 171.73137 316
64.46764 -108.39815 171.88042 308
1.93576 -150.88023 163.39928 382
87.35630 -99.12828 171.72845 316
67.77493 -113.37893 171.86813 308
16.67218 -150.46503 165.87646 389
90.39384 -103.36362 171.66583 316
71.20242 -118.26023 171.86778 308
22.35989 -156.17397 166.11314 297
93.52470 -107.52782 171.66080 316
46.97237 -146.05772 163.38353 300
-3098.70752 -2747.83472 74.84522 342
96.81321 -111.58063 171.64906 316
54.24854 -149.13611 164.21675 403
-2819.43481 -2682.64014 83.33166 352
100.21909 -115.53736 171.61617 316
64.86507 -148.72630 166.10072 409
-2598.83374 -2650.37573 89.04238 335
-2815.78711 -2853.88086 216.37895 466
103.76170 -119.38863 171.58672 316
70.18300 -152.98459 166.31755 306
-2615.05298 -2838.57788 85.39262 459
86.96799 -144.88840 163.57263 307
92.74361 -147.66362 164.06354 424
101.12539 -147.09361 165.66322 419
107.63683 -148.39490 166.47836 314
112.27941 -151.91389 166.46552 314
120.79513 -149.65991 168.26088 489
127.72834 -149.19742 169.39992 396
-355.50537 -1050.90283 98.45916 417
-358.76443 -1057.06592 137.54538 353
764.61176 -2134.60352 143.20462 428
818.89465 -2073.81714 144.28784 459
873.46442 -2020.97522 145.51569 469
928.89203 -1978.54468 146.65253 490
985.79211 -1943.07776 146.68420 498
1079.29309 -2177.55933 215.01715 492
1047.16394 -1919.46753 147.15871 498
1110.99939 -1899.68896 146.82825 497
6051.27246 -12400.34668 2934.99414 0
1172.91797 -1876.59509 146.74197 495
1238.03064 -1857.41980 145.92830 494
1305.05859 -1839.82800 145.42343 474
1373.30017 -1821.40283 145.18204 478
751.07373 -567.84088 87.62701 488
753.23700 -570.01428 113.27822 489
755.60205 -572.73193 138.95734 454
757.91321 -575.11047 164.48752 445
366.72626 -107.86113 167.63283 315
370.06128 -103.12962 167.64308 315
373.29410 -98.32248 167.65526 315
380.06494 -95.62946 166.52554 434
387.63861 -93.04014 165.11595 429
391.85352 -88.41200 164.76135 317
394.75708 -83.00390 164.73822 317
408.95905 -89.66803 167.79755 305
374.01706 -67.33590 171.54907 316
412.10260 -83.85687 167.68965 434
376.09735 -62.45345 171.58243 316
420.14328 -79.90310 166.31696 429
377.99402 -57.53403 171.59760 316
428.51395 -75.68019 164.86757 308
379.80133 -52.50716 171.60626 316
430.94363 -69.12149 164.88008 308
381.42599 -47.46453 171.60379 317
404.46289 -54.18924 171.84662 309
455.11356 -68.89961 167.90721 297
267.73923 -12.84052 203.50125 314
406.11050 -48.36912 171.85727 309
456.98535 -61.42503 167.92723 298
268.22064 -11.35509 203.50513 314
407.60712 -42.48794 171.87714 309
464.04279 -55.14518 166.88158 452
268.65213 -9.86915 203.50194 314
408.88809 -36.64373 171.87518 309
471.18048 -48.46507 165.83479 448
1706.31873 -284.03909 166.85057 410
1735.86450 -289.54742 216.37852 336
269.04129 -8.36827 203.50435 314
410.04303 -30.67654 171.90643 309
476.19189 -41.16058 165.09209 300
1769.93555 -246.19344 113.64244 342
1680.60583 -231.74586 167.95781 443
1728.22827 -239.26160 216.50795 467
269.37469 -6.85698 203.50078 314
410.96542 -24.75280 171.89565 309
442.10095 -28.65065 172.22864 301
1717.23047 -189.68936 117.51550 383
1649.40271 -181.07950 169.16202 458
269.67557 -5.34314 203.50392 314
411.75922 -18.78340 171.87633 309
442.98022 -21.74225 172.22643 301
1639.98157 -135.03267 122.95944 341
1627.56982 -133.67392 170.19240 467
269.91782 -3.81998 203.50613 314
412.33542 -12.77124 171.87967 309
443.62589 -14.72676 172.20244 301
1610.48535 -88.20119 125.27443 407
1609.62659 -87.93399 170.80278 458
270.12228 -2.29387 203.50627 314
412.75146 -6.77661 171.90547 309
444.08261 -7.74186 172.20090 301
1590.45801 -43.96239 126.55285 455
1594.99097 -43.80240 171.35957 436
1637.70435 -45.33648 216.59229 469
1624.29602 -45.06351 308.50833 492
270.26514 -0.77058 203.50679 314
412.98166 -0.73886 171.91486 309
444.32904 -0.77198 172.18959 301
513.62177 -0.75297 168.31462 288
1574.88464 -0.83798 127.73549 484
1583.27429 -0.91771 172.04265 438
1615.24915 -0.74764 216.25960 473
1615.26477 -0.99130 262.05939 494
1615.17749 -0.88827 307.76999 494
270.37512 0.75645 203.50676 314
413.00943 5.26401 171.90961 309
444.38937 6.19464 172.19440 301
1561.94324 41.52642 128.66544 489
1572.11926 41.77353 172.06064 417
1605.86658 42.83817 216.30307 496
1606.09644 42.76474 261.94199 496
1605.96741 42.63793 307.29712 495
270.42670 2.27637 203.50230 314
412.89734 11.22103 171.91559 309
444.22583 13.22907 172.23131 301
1550.76233 82.76936 129.01984 492
1562.48389 83.52980 172.35014 419
1590.87280 85.17246 216.47409 497
1590.59827 85.38363 261.18573 494
1590.54419 85.38377 306.43182 496
1603.61157 86.02135 352.92886 463
1603.59058 85.88644 398.82220 463
1603.95593 86.18220 444.92526 462
270.43802 3.80038 203.50438 314
412.55786 17.26576 171.91006 309
443.79004 20.20489 172.18843 301
1540.86011 123.93004 129.65692 495
1553.29211 125.13556 172.55037 420
1583.01794 127.94397 216.55208 498
1583.13269 127.92130 261.34454 498
1581.61230 127.68779 305.87091 497
270.38715 5.31932 203.50139 314
412.02826 23.21474 171.88626 309
443.21005 27.15699 172.18011 301
1532.32300 164.73978 129.92519 495
1545.08130 166.42596 172.69392 421
1579.33081 170.68869 216.42731 499
1578.60413 170.58080 261.11502 497
1572.83936 169.93654 305.73856 498
270.29709 6.83200 203.50084 314
411.38446 29.17318 171.86365 309
477.62311 39.65176 165.06523 300
1523.89551 205.22749 130.21077 496
1536.89270 207.51248 173.04742 421
1570.62378 212.85788 216.42308 499
1570.21948 212.70923 261.01459 499
1564.28003 211.91982 305.60526 499
1706.75598 234.25447 364.71149 454
270.17184 8.33102 203.50565 314
410.51495 35.09126 171.85425 309
472.24683 46.85820 165.91986 448
1515.28528 245.76202 130.11032 496
1528.42139 248.27031 173.10402 422
1561.74841 254.85109 216.66147 499
1560.99561 254.38976 261.24057 499
1561.60925 254.51503 305.70966 499
1619.65833 265.56021 356.71805 498
1667.15479 274.82602 410.03040 419
269.98911 9.82834 203.51012 314
409.47113 41.00719 171.89236 309
465.17230 53.46553 167.04573 452
1506.82227 286.29044 130.25612 496
1519.89905 289.34134 172.79082 422
1594.67761 305.76917 308.75858 256
384.95392 40.89107 171.60948 316
408.25165 46.88696 171.85899 309
459.26480 59.99701 167.91237 297
1498.41724 326.88525 130.35641 495
1511.66956 330.21637 172.76241 422
1623.61145 359.09030 359.06711 497
1673.28357 371.66269 413.75241 462
383.73230 46.01410 171.61238 316
136.30122 39.60168 -33.09558 308
457.69702 67.48889 167.87401 297
1489.86572 367.48889 129.92606 495
382.36588 51.04652 171.58839 316
433.70078 67.73277 164.87141 308
1481.72131 408.37033 129.81343 494
380.85699 56.04327 171.56920 316
430.92151 74.07205 165.03314 424
1472.98352 449.31323 129.61266 493
1754.40894 550.44568 163.03584 497
379.18552 61.03334 171.59068 316
422.53418 78.15461 166.51541 430
1464.51501 490.65955 128.93832 492
1477.17151 495.67572 172.28000 397
1751.79468 604.55377 216.53609 484
377.37158 65.91681 171.53668 316
415.19070 82.29015 167.77434 305
1455.66602 532.46881 128.41936 490
1468.11157 537.93036 172.05907 396
1492.22363 548.32678 216.41908 482
398.44165 81.58681 164.68085 317
412.79526 88.38074 167.71158 305
1447.10999 574.96582 127.81413 489
1458.72925 580.56897 171.72742 395
1483.08728 591.79236 216.71773 481
395.84665 87.03113 164.70367 317
1440.30994 619.17542 127.05353 428
1527.97131 663.76666 168.59242 499
1529.60535 664.78278 216.41656 499
391.04788 91.28629 165.36546 429
1507.64404 704.88153 168.71851 466
1509.92834 706.14691 216.50182 472
383.72073 93.85635 166.74158 434
378.03177 97.07016 167.62375 315
375.04120 101.90119 167.60736 315
371.98605 106.67989 167.55426 313
194.72711 933.30731 94.04855 464
194.39244 938.06104 124.53536 415
124.51299 148.72485 168.14006 489
118.15145 147.99864 167.33888 441
111.51018 147.28365 166.38358 314
104.63704 146.50551 165.36223 419
-698.86670 1117.75220 73.72566 346
-779.78693 1215.81006 113.20634 324
96.07372 147.29826 163.72420 424
-682.51727 1030.62634 81.27716 275
-782.95367 1144.43787 116.63483 352
91.15389 143.57388 163.50900 311
79.07347 156.47054 166.30756 305
-702.97223 989.38574 82.89053 461
-754.08704 1043.81042 122.84233 359
107.85487 118.25212 171.48091 316
74.29407 151.78731 166.28036 305
-749.48578 975.55249 80.78482 452
-743.55737 969.60126 126.76487 470
104.39754 114.37871 171.50449 316
68.13961 148.40356 165.79092 409
-797.45782 961.27631 78.40443 449
-790.89850 955.12665 125.43638 466
101.03445 110.37992 171.55119 316
57.46648 148.82521 163.83975 403
-847.11377 946.13489 75.76830 424
-840.04028 940.21973 123.46967 462
97.83488 106.28476 171.57693 316
79.03233 121.86031 171.72186 308
-901.18182 932.76099 72.35912 420
-891.24408 924.33057 121.68293 458
94.72909 102.10333 171.61191 316
75.46220 117.04996 171.77547 308
26.60419 154.94006 166.02412 297
-957.54376 918.43469 68.84105 416
-944.64111 908.44690 119.36430 453
-1192.79578 1101.00781 157.91769 474
91.75256 97.85431 171.61560 316
72.06778 112.12595 171.78232 308
19.57826 150.29437 165.45999 389
-1017.24524 903.41724 65.11136 406
-1000.20148 891.50909 117.31960 449
-1212.60828 1045.42957 158.65523 385
88.92048 93.46144 171.63715 316
68.84885 107.12642 171.84776 308
4.86647 150.60796 163.04337 382
-1080.74744 888.20544 60.74578 381
-1058.67480 873.27252 114.89272 444
-1185.92322 959.91205 160.63066 391
86.22813 89.03053 171.70087 316
65.76657 102.04463 171.86681 308
38.78964 119.17000 172.05066 300
-1158.92712 879.06512 54.73810 349
-1124.89783 857.70166 111.68064 402
-1135.59363 864.33313 163.65697 407
83.69808 84.52312 171.67937 316
62.80607 96.85785 171.86427 308
35.35757 113.04496 172.08650 300
-40.14919 157.76801 165.15305 286
-1219.43787 855.32111 106.68095 367
81.27284 79.91141 171.71637 316
60.06962 91.54527 171.91063 308
32.12320 106.91813 172.10822 300
-49.70891 151.85587 164.26872 373
-1366.54468 875.95850 97.25839 321
79.03124 75.20379 171.76682 316
58.74102 85.51585 172.27383 328
48.21064 90.89081 176.42073 324
30.39954 99.98686 179.94363 292
76.88554 70.49020 171.74437 316
63.75059 76.65422 174.17331 390
57.75009 79.47119 179.12134 386
16.37652 98.94123 177.91031 286
-20.69719 116.36479 180.32510 284
74.91988 65.67213 171.77553 316
67.47796 68.87495 175.72635 381
58.26258 72.84176 179.68442 300
31.12183 84.58489 181.10405 336
17.35393 90.58907 186.32382 315
77.00587 59.24296 172.94443 420
71.02364 61.61550 177.10405 386
56.25911 67.46438 179.72928 300
39.44090 74.08038 182.98532 373
29.45870 78.06186 188.35529 336
16.20464 83.27769 194.08809 316
-2.35268 90.66875 200.31963 285
77.97031 51.85935 174.88670 423
72.84640 53.71407 179.01585 419
51.07885 61.50822 179.95161 393
44.00231 64.08049 184.95354 388
36.31092 66.80875 190.31349 373
27.34083 70.03776 196.02808 367
17.26762 73.69233 202.21774 332
79.34886 46.26765 175.71913 427
73.42999 48.17100 179.58611 308
54.33227 54.35397 181.03690 410
47.75328 56.50894 185.94917 393
40.62290 58.83012 191.17152 388
32.88472 61.32503 196.79570 372
23.68905 64.30322 202.79736 367
80.68621 40.82864 176.50261 432
71.98045 43.35075 179.59642 308
56.57311 47.83706 181.87480 421
50.61586 49.59161 186.73315 409
44.15800 51.44419 191.88820 404
37.23840 53.45433 197.44302 387
29.36682 55.72482 203.35037 382
81.99259 35.63944 177.22876 435
63.81948 40.32037 177.95386 429
58.52370 41.64294 182.54233 424
52.97804 43.09166 187.38734 420
46.86731 44.64621 192.48549 408
40.27934 46.34261 197.90761 403
33.19088 48.16267 203.68115 397
24.53541 50.35845 209.90202 269
83.17831 30.60515 177.86348 457
65.55241 34.54420 178.65736 432
60.44353 35.68139 183.18567 428
55.08444 36.88805 187.97313 423
49.38409 38.16000 193.03535 418
43.14972 39.53052 198.33347 406
36.33473 41.05184 204.02049 401
28.88062 42.73776 210.07838 358
-185.98703 90.78250 216.63263 296
83.39212 25.94818 178.18738 459
67.17867 29.06673 179.29092 455
62.33074 29.98948 183.79295 431
57.07674 30.94196 188.48476 426
51.58655 32.01634 193.46899 421
45.72781 33.10402 198.68372 416
39.40767 34.34437 204.27780 404
32.41454 35.65150 210.21059 399
-182.81787 76.77026 216.67172 424
83.62648 21.35027 178.47290 461
67.43461 23.90512 179.58298 456
62.82920 24.64590 184.09096 452
58.06101 25.40061 188.80200 447
53.02195 26.20438 193.75702 442
47.71943 27.00834 198.98692 437
42.02512 27.93114 204.49234 414
35.57458 28.95493 210.37663 402
83.91191 16.82253 178.70045 462
67.75246 18.85480 179.85228 457
63.21257 19.40303 184.32950 453
58.45072 19.98985 189.03470 448
53.46770 20.64808 193.96170 443
48.20650 21.31367 199.14111 438
42.68036 21.99488 204.59747 433
36.83688 22.70073 210.39980 428
84.19662 12.30515 178.90913 463
68.09275 13.82692 180.06094 459
63.56827 14.24337 184.52412 454
58.87094 14.71397 189.17361 450
53.94457 15.17462 194.06660 445
48.74192 15.65049 199.23787 440
43.31284 16.17222 204.70706 435
37.50748 16.70222 210.44565 429
84.49532 7.87548 179.13420 464
68.44187 8.86639 180.22913 460
63.97264 9.14922 184.69220 455
59.32490 9.45180 189.31442 451
54.45229 9.72304 194.19846 446
49.36795 10.04005 199.35028 441
43.93914 10.40003 204.76051 436
38.24828 10.73940 210.46872 430
-181.44696 24.47943 270.05569 486
-186.86969 24.81205 284.53192 360
84.83852 3.47170 179.28873 465
68.88171 3.98495 180.38600 461
64.43829 4.09405 184.83337 456
59.84459 4.25330 189.47937 452
55.01984 4.39612 194.30923 447
49.94288 4.55458 199.42126 442
44.61587 4.71996 204.81038 437
38.91477 4.89760 210.51395 431
-181.46516 11.77555 269.98422 487
