# .PCD v.7 - Point Cloud Data file format
VERSION .7
FIELDS x y z rgb
SIZE 4 4 4 4
TYPE F F F U
COUNT 1 1 1 1
WIDTH 520
HEIGHT 1
VIEWPOINT 6665.669434 361.567078 139.431824 -0.644800 -0.092933 -0.079871 0.754465
POINTS 520
DATA ascii
85.02553 -0.71546 179.44202 466
69.11070 -0.71747 180.56775 462
64.75074 -0.73579 184.97003 457
60.18595 -0.71356 189.59605 453
55.37263 -0.71655 194.43591 448
50.37384 -0.70968 199.53995 443
45.03695 -0.73949 204.87811 438
39.44048 -0.69867 210.56599 432
-181.53403 -0.69981 269.84131 487
-143.93231 -0.74548 277.23810 284
84.60267 -5.08784 179.35544 465
68.61755 -5.61952 180.44362 461
64.21525 -5.75111 184.85814 457
59.59932 -5.86522 189.50696 452
54.81538 -6.01239 194.34348 447
49.74806 -6.16497 199.45558 442
44.39968 -6.37242 204.83023 437
38.70911 -6.54984 210.56105 431
-181.51353 -13.42373 269.86542 487
-149.63881 -12.39884 278.19492 285
84.26803 -9.47528 179.20546 464
68.23100 -10.49392 180.32912 460
63.76502 -10.77067 184.75220 455
59.07741 -11.08002 189.38089 451
54.22301 -11.38442 194.26105 446
49.14067 -11.69298 199.38351 441
43.71443 -12.04020 204.80359 436
38.00906 -12.40503 210.49178 430
-181.53203 -26.20483 269.94070 486
83.93531 -13.91830 179.02042 463
67.82213 -15.46817 180.16307 459
63.35114 -15.84738 184.57806 454
58.64409 -16.31157 189.25241 450
53.66492 -16.79619 194.16003 445
48.50708 -17.28913 199.26749 440
43.06113 -17.76565 204.69611 435
37.32779 -18.33750 210.45953 429
-181.52226 -39.00513 270.02377 486
83.60161 -18.39421 178.82367 462
67.48540 -20.45550 179.93834 457
62.92618 -20.99699 184.42302 453
58.21386 -21.58250 189.11642 448
53.21413 -22.24176 193.99982 443
47.98810 -22.87229 199.19196 438
42.42913 -23.61713 204.64436 433
36.57602 -24.35264 210.42062 428
83.34397 -22.90132 178.60408 461
67.15139 -25.46826 179.70076 456
62.58148 -26.20029 184.23340 452
57.81268 -26.97803 188.90292 447
52.75068 -27.75539 193.84276 442
47.41219 -28.60830 199.06407 420
41.36758 -29.54320 204.51410 414
34.83437 -30.56407 210.36696 402
83.06070 -27.47524 178.36418 459
66.60846 -30.62177 179.41263 435
61.63126 -31.58143 183.84727 431
-105.23865 -20.07194 -17.72203 426
50.90231 -33.59677 193.49538 421
45.08213 -34.73199 198.71556 416
38.67200 -35.95949 204.25984 404
31.60375 -37.30048 210.18671 364
-182.91315 -78.23619 216.47508 424
82.68375 -32.16676 178.01180 439
64.89178 -36.11790 178.75084 432
59.80155 -37.28283 183.29538 428
54.40575 -38.49117 188.04491 423
48.71449 -39.76571 193.07669 418
42.43144 -41.12195 198.36125 406
35.61721 -42.67745 203.96994 401
28.11859 -44.33603 210.02107 358
-188.92145 -92.88555 216.47253 296
81.33913 -37.13511 177.35812 435
63.12767 -41.83769 178.05118 429
57.88602 -43.18762 182.65440 424
52.33732 -44.61937 187.46446 420
46.16250 -46.18117 192.52705 408
39.56178 -47.86438 197.91881 402
32.46783 -49.67411 203.70549 397
-188.40257 -106.37106 202.58752 484
80.00283 -42.30534 176.66365 430
70.85432 -44.96404 179.64285 308
55.94864 -49.31470 181.94272 414
49.86929 -51.07452 186.80115 409
43.43653 -52.93762 191.94836 404
36.34247 -54.99757 197.43495 387
28.36594 -57.33402 203.28902 371
78.66412 -47.65016 175.90927 427
72.23467 -49.73795 179.63519 308
53.54767 -55.81446 181.15909 397
46.86830 -57.96326 186.00575 393
39.69775 -60.28288 191.21423 388
31.81395 -62.86686 196.78448 372
22.68758 -65.81799 202.75005 367
77.26699 -53.21268 175.07895 423
72.20354 -55.03621 179.23328 419
50.18120 -62.96386 180.04768 393
43.14667 -65.49766 185.01942 388
35.36305 -68.27427 190.32784 372
26.37150 -71.52445 195.99692 367
15.52075 -75.43410 202.15047 332
75.87525 -58.94559 174.20819 420
70.08452 -61.23501 178.29126 386
46.64120 -70.54503 178.90367 389
38.92502 -73.59500 183.88757 373
29.41221 -77.33073 189.16830 336
16.65543 -82.39149 194.74927 316
-1.11855 -89.43977 200.76836 311
73.20001 -65.48917 172.91466 386
66.72517 -68.28415 176.92384 395
53.03990 -74.20758 179.79591 300
31.05984 -83.70203 182.08456 336
17.77318 -89.46268 187.14771 315
-12.42250 -102.51541 191.32919 265
71.67136 -71.85294 171.85680 316
63.29473 -75.79124 175.47054 390
55.30100 -79.54708 179.79025 300
18.04348 -97.05164 179.24265 286
-25.47313 -117.53878 180.48453 284
73.84998 -76.56995 171.84485 316
59.14052 -84.07542 173.79562 328
49.02073 -89.24335 177.81879 325
25.41625 -101.28036 180.02563 292
76.19165 -81.27784 171.81987 316
55.02259 -92.89136 172.00642 308
35.88538 -103.41700 174.22119 272
-52.35892 -151.95445 164.72433 373
78.65652 -85.85027 171.79143 316
57.87888 -98.14023 171.96368 308
30.51731 -114.35020 172.21936 300
-45.43621 -159.21053 165.14453 286
81.25408 -90.37624 171.77780 316
60.82562 -103.36065 171.91872 308
33.97171 -120.36519 172.18228 300
84.03590 -94.79980 171.74080 316
64.00468 -108.43832 171.93510 308
1.54516 -150.83313 163.44101 382
86.91937 -99.17409 171.71135 316
67.29095 -113.43482 171.86427 308
16.22740 -150.47290 165.89796 389
89.96012 -103.42293 171.67125 316
70.73931 -118.30921 171.83812 308
21.80819 -156.28482 166.10898 297
93.11578 -107.56924 171.64835 316
46.44067 -146.19130 163.35812 300
-3193.17627 -2826.03149 71.56507 305
96.39194 -111.66714 171.62750 316
53.85774 -149.14847 164.27214 404
-2868.84009 -2726.14966 81.53576 352
99.80727 -115.62253 171.61375 316
64.51399 -148.78026 166.17000 409
-2620.33984 -2669.85938 88.79565 322
103.31211 -119.45641 171.59666 316
69.66711 -153.07237 166.30957 306
-2704.21118 -2925.82471 80.18725 365
86.48697 -145.02971 163.55623 307
-2477.02148 -2875.08228 87.13804 424
92.32540 -147.69461 164.07587 424
100.71907 -147.11444 165.65613 419
107.15696 -148.52571 166.46727 314
111.79003 -151.99446 166.43629 314
120.54821 -149.48734 168.36559 489
127.64030 -148.71774 169.59502 486
-236.47073 -1058.56323 102.99117 494
-239.12401 -1064.34204 140.52869 466
895.43890 -2087.86255 145.26216 442
949.27325 -2034.01599 146.47018 466
1004.03101 -1987.46716 147.00520 485
1060.67212 -1949.42554 147.83627 496
1121.31079 -1921.31689 147.41376 498
1186.53882 -1901.57336 147.28246 495
1252.43396 -1882.33301 147.00545 494
1317.32092 -1859.48694 146.50658 492
1385.11902 -1839.86963 145.83519 408
1457.39807 -1823.10986 145.27090 478
837.72363 -581.34015 105.12328 459
840.08905 -583.44128 132.93265 459
842.46497 -585.70007 160.86357 458
368.26401 -108.39240 167.61218 313
371.58176 -103.59482 167.62822 315
374.84970 -98.78062 167.64101 315
380.63971 -95.45233 166.80833 434
388.17184 -92.81622 165.42262 429
393.40747 -88.70099 164.73439 317
396.30557 -83.29299 164.75020 317
410.69940 -90.02905 167.75191 305
375.50278 -67.57333 171.56232 316
413.34970 -83.97601 167.81987 305
377.58511 -62.67786 171.57277 316
420.60980 -79.66959 166.64091 429
379.55798 -57.69946 171.60330 316
429.12085 -75.55562 165.17519 424
381.33212 -52.68190 171.61763 316
432.65997 -69.36328 164.88481 308
382.92764 -47.62398 171.61116 316
434.82471 -62.69546 164.86021 308
457.10211 -69.12195 167.91017 297
384.41602 -42.48313 171.63353 316
407.77344 -48.48373 171.84480 309
458.90839 -61.65622 167.98656 297
385.74216 -37.37775 171.63776 316
409.22614 -42.60382 171.89563 309
464.26614 -54.92102 167.23511 452
270.07629 -9.89887 203.50963 314
410.54510 -36.70408 171.90485 309
471.35818 -48.29301 166.13741 448
1821.77063 -305.75821 163.56314 332
270.46765 -8.38562 203.50116 314
411.62241 -30.73792 171.90192 309
478.01935 -41.25993 165.10426 300
1784.34912 -248.45059 164.93188 442
1843.10303 -257.72284 216.73409 339
270.81851 -6.86502 203.50792 314
412.59900 -24.74966 171.93800 309
443.87448 -28.72705 172.24567 301
1829.51294 -203.94814 110.84547 379
1757.52905 -194.59349 166.19365 455
1883.42004 -210.59245 216.80002 328
271.11353 -5.33101 203.50974 314
413.33890 -18.80089 171.92319 309
444.75577 -21.76627 172.24794 301
1750.62122 -145.35388 116.12691 275
1727.92786 -143.05811 167.24657 466
271.36380 -3.79697 203.50029 314
413.90723 -12.79552 171.89969 309
445.37659 -14.77860 172.21484 301
1711.59937 -94.48122 119.06720 403
1707.90710 -94.02763 168.29997 458
271.56650 -2.26830 203.50706 314
414.31631 -6.74617 171.91156 309
445.82413 -7.73503 172.23428 301
1687.31677 -46.69505 120.88038 453
1691.80420 -46.78173 168.57997 436
1769.34583 -49.22312 216.86858 252
1716.94092 -47.55229 314.98596 413
271.71054 -0.73409 203.49814 314
414.55557 -0.72576 171.90353 309
446.03757 -0.72413 172.20845 301
1669.64465 -0.90534 122.12212 482
1678.48254 -0.61444 169.26350 416
1714.37024 -0.80332 216.86542 253
1707.80078 -0.68881 265.43887 494
1705.96228 -0.78842 314.02518 414
271.82352 0.80332 203.50847 314
414.58429 5.31075 171.90195 309
446.06305 6.27816 172.24564 301
1654.82715 44.14258 122.97383 488
1666.40869 44.48973 169.48511 418
1698.20471 45.59224 216.68620 495
1697.63330 45.71592 265.00107 495
1695.00391 45.58119 313.36758 415
271.88034 2.34144 203.50810 314
414.41846 11.31406 171.90981 309
445.85178 13.28733 172.21660 301
1642.37732 88.69157 123.72893 491
1655.40869 89.25241 169.96579 420
1682.44458 91.23291 216.90897 496
1682.34924 90.88916 264.58261 496
1684.48645 91.26775 312.81073 416
271.88870 3.87290 203.50146 314
414.06213 17.32929 171.90726 309
445.43655 20.26849 172.20566 301
1631.56580 132.53905 123.90372 494
1644.92212 133.71858 169.88477 422
1672.40051 136.21822 216.94939 498
1672.27820 136.28767 264.50522 498
1673.92334 136.43748 312.45685 417
271.84644 5.40023 203.50087 314
413.55969 23.31327 171.88959 309
444.81555 27.23049 172.23119 301
1622.01831 175.80307 124.41107 495
1635.59290 177.66289 170.09576 423
1668.02014 181.57545 216.61913 498
1667.78162 181.57603 264.37872 498
1663.65979 181.34229 312.07513 418
271.78409 6.91404 203.49678 286
412.85364 29.28087 171.90883 309
479.23343 39.78041 165.07530 300
1612.38733 219.33585 124.61514 495
1625.93323 221.50616 170.30203 423
1658.04492 226.56155 216.89479 499
1657.73547 226.33751 264.35403 499
1653.73157 225.94154 311.70312 418
388.37189 30.68170 171.67189 316
412.00986 35.19951 171.89273 309
472.37338 46.68860 166.26352 448
1602.64075 262.48450 124.62150 496
1616.35571 264.94638 170.11551 424
1648.22632 270.87280 216.68103 499
1647.72705 270.93472 264.02841 499
1638.48779 269.15475 311.18506 417
1730.11621 286.78955 367.77969 481
387.45444 35.84775 171.63687 316
410.92795 41.11560 171.88953 309
465.39215 53.26337 167.32718 452
1593.23865 305.21454 124.77686 496
1606.92188 308.37186 170.24973 424
1716.40845 333.05014 367.28818 493
386.39377 40.98417 171.63719 316
409.72318 46.98176 171.85170 309
460.90344 60.13534 167.95830 297
1584.01562 348.53568 124.62589 496
1597.00366 351.85568 170.17458 424
1763.52148 394.41104 373.24667 421
1748.14893 390.62936 423.95288 462
385.20291 46.08748 171.62512 316
437.06525 61.17987 164.90308 308
1574.44580 391.43616 124.32293 494
383.84229 51.12387 171.63184 316
435.19669 67.84653 164.87859 308
1564.87671 434.82187 124.08942 494
1865.76697 532.48236 159.94357 272
382.28442 56.11620 171.57558 316
431.42975 73.82154 165.25266 424
1555.38086 478.39191 123.78265 493
1567.77966 482.77838 169.91045 400
1843.71497 582.14783 216.58630 478
380.60895 61.09414 171.58081 316
423.06403 77.90871 166.77235 430
1545.53979 522.47034 123.43492 492
1557.72986 527.08679 169.86209 399
1831.30554 635.60760 216.45169 483
378.79324 65.99496 171.54773 316
416.69305 82.36783 167.75766 305
1535.94348 566.69482 122.97926 490
1547.76782 571.61829 169.21161 398
1572.26990 582.39685 216.53638 396
399.90686 81.67534 164.69164 317
414.31290 88.47358 167.71837 305
1526.17969 611.73090 122.25480 489
1537.38916 616.82794 169.16794 397
1620.69531 656.04633 216.39644 498
393.46838 87.39387 164.69560 317
1617.94519 711.14142 114.40625 451
1589.49683 696.61804 167.13454 498
1591.45251 697.65411 217.45880 480
389.20981 91.91158 165.19131 429
381.80746 94.50318 166.58083 434
375.58624 97.41715 167.60881 315
372.59241 102.26700 167.58733 315
369.47708 107.02501 167.56128 313
283.85663 935.23022 93.28643 454
284.41467 942.76532 123.60416 332
119.89708 147.83932 167.35127 441
-649.37781 1206.59680 69.33076 285
113.17672 147.25111 166.40671 314
-613.59442 1084.23022 81.42655 273
-708.77161 1207.13855 116.47096 481
106.47114 146.30374 165.41608 419
-600.21027 1000.40894 88.70610 367
-686.07104 1104.69275 122.29474 348
97.87435 147.19775 163.73230 414
-636.48169 979.90680 87.65803 459
-643.21722 987.72650 130.23485 340
92.85596 143.62564 163.50574 311
80.84666 156.44199 166.27751 305
-682.01215 968.75873 85.61607 454
-677.53064 963.71466 129.66557 473
109.51753 118.29050 171.48709 316
76.06880 151.72360 166.30531 305
-727.58142 955.50397 83.28800 451
-722.55389 950.33832 128.54022 470
106.08497 114.40236 171.49503 316
69.90926 148.33080 165.79483 409
-774.56396 941.30975 80.81723 448
-769.21802 936.34497 126.66805 466
102.73954 110.42509 171.52078 316
59.26313 148.75060 163.88602 403
-824.91125 928.49658 78.33862 421
-817.40649 921.78223 124.96861 462
-1045.93823 1123.19141 160.74120 462
99.50133 106.35101 171.55925 316
53.16717 144.68578 163.39752 300
-878.22821 915.16010 74.91290 417
-867.61536 906.63794 123.26472 457
-1104.97412 1102.80078 159.92068 476
96.42699 102.17531 171.58098 316
77.16391 117.08716 171.73026 308
28.47174 154.88054 166.09117 297
-933.62585 901.16272 71.60008 401
-920.07288 890.80249 121.01011 453
-1130.76392 1054.14355 160.05527 378
93.47435 97.88295 171.63214 316
73.79624 112.18508 171.76427 308
21.50228 150.18933 165.49101 386
-993.17249 887.43207 67.66911 397
-974.95349 874.16681 119.17297 448
-1103.59326 967.45514 162.73604 384
90.68036 93.54802 171.62817 316
70.54686 107.19730 171.80179 308
6.68858 150.57812 162.98569 382
-1063.05408 877.74011 62.79121 351
-1036.38928 859.57446 116.29617 417
-1045.37122 865.89905 166.14200 410
83.52680 89.02078 171.68031 316
63.01576 102.00642 171.89603 308
36.12877 119.06975 172.08920 300
-1125.13989 856.36505 111.28394 375
80.79893 84.48105 171.70773 316
59.91582 96.80813 171.91840 308
32.56164 112.96171 172.15233 300
-43.14489 157.78815 165.09277 286
-1248.47546 870.93494 103.86897 336
78.17654 79.81792 171.75749 316
56.97812 91.47503 171.93564 308
37.39215 102.26528 173.99706 319
-52.71539 151.86986 164.24690 373
75.74781 75.14394 171.75893 316
60.39392 82.98993 173.54573 385
50.23575 88.13262 177.59952 325
27.24752 99.86368 179.97765 292
73.44990 70.39561 171.79388 316
64.03201 74.82733 175.19667 390
57.03445 78.11936 179.73607 300
20.86072 95.12062 179.33910 314
-23.83180 116.20741 180.39406 284
-15067.04199 7195.78613 1874.97241 0
74.10445 64.36533 172.61639 386
67.55894 67.18420 176.68796 381
54.70490 72.78270 179.74989 300
32.50731 82.37601 182.01340 336
19.64499 87.91580 187.13724 315
-3.63029 98.01843 192.08664 266
76.55170 57.84329 173.91919 420
71.04000 60.00195 178.09575 386
47.50454 69.32251 178.70197 389
39.87223 72.36741 183.77008 373
30.92801 75.87026 189.12645 337
18.57096 80.77258 194.72777 332
1.08661 87.67621 200.77878 311
77.92999 51.99494 174.83083 424
72.80704 53.81326 179.00371 419
51.08420 61.64343 179.90921 393
44.03194 64.22433 184.92365 388
36.29948 66.95673 190.23352 373
27.37220 70.21646 195.91876 368
17.19933 73.81911 202.13014 332
79.31730 46.36079 175.70079 427
73.55051 48.24389 179.58330 308
54.32553 54.48733 180.96211 410
47.73741 56.63928 185.91003 393
40.61508 58.97289 191.13831 388
32.85266 61.48440 196.74052 372
23.71274 64.42961 202.73376 367
80.63936 40.97745 176.46371 432
72.07570 43.47784 179.61772 308
56.57915 47.98182 181.79684 421
50.58352 49.71850 186.68066 409
44.15556 51.56269 191.84119 404
37.19431 53.57277 197.35873 387
29.35470 55.86112 203.25284 382
81.96642 35.78385 177.19151 435
63.81086 40.45741 177.94435 429
58.53608 41.77086 182.50468 424
52.98534 43.19824 187.33934 420
46.88135 44.76038 192.43521 408
40.24081 46.49558 197.82390 403
33.19757 48.28495 203.61023 397
25.22860 50.34710 209.83511 355
83.19342 30.76974 177.82784 458
65.52815 34.67789 178.66273 432
60.42252 35.85774 183.16295 428
55.04744 37.05625 187.94832 423
49.37075 38.30863 192.95250 418
43.15400 39.68166 198.26888 406
36.34806 41.23976 203.94212 401
28.94415 42.84723 209.99133 358
-185.40082 90.77850 216.43535 296
83.40482 26.07576 178.15346 459
67.15633 29.15461 179.28911 455
62.29832 30.09950 183.79675 431
57.05773 31.08942 188.49825 426
51.55050 32.16219 193.44482 421
45.72130 33.24218 198.65379 416
39.36266 34.44315 204.22849 405
32.35933 35.82037 210.18756 399
-183.07643 76.93225 216.40958 424
83.60834 21.45791 178.47571 461
67.43394 24.03360 179.56123 456
62.84332 24.76620 184.09940 452
58.06186 25.53913 188.80495 447
53.03032 26.30468 193.77078 442
47.72183 27.15888 198.99391 437
42.01506 28.07767 204.46977 414
35.53941 29.08913 210.30128 402
83.89011 16.92761 178.72621 462
67.75291 18.99110 179.82919 457
63.20354 19.56277 184.31932 453
58.43500 20.11665 188.99950 448
53.47385 20.75631 193.94785 444
48.21397 21.41964 199.12042 438
42.66772 22.15395 204.59480 433
36.83766 22.88637 210.39836 428
84.17499 12.42237 178.95657 463
68.06581 13.96002 180.06450 459
63.56617 14.39902 184.53619 454
58.86802 14.84654 189.15730 450
53.94323 15.28465 194.09390 445
48.77819 15.80638 199.21330 440
43.33731 16.27934 204.67995 435
37.55927 16.82259 210.43459 429
84.48330 7.99841 179.14255 464
68.42005 9.02180 180.23811 460
63.94844 9.29668 184.67618 455
59.31065 9.58443 189.34363 451
54.45855 9.88563 194.22160 446
49.32884 10.18814 199.31776 441
43.92870 10.55729 204.72490 436
38.26639 10.88612 210.45006 430
-181.48418 24.79606 269.93991 486
-187.22191 25.06826 284.44360 360
84.80309 3.58820 179.30731 465
68.81833 4.10608 180.39319 461
64.42928 4.24939 184.82924 457
59.83277 4.39804 189.48619 452
55.03623 4.52049 194.30188 447
49.92479 4.67988 199.42863 442
44.59599 4.86386 204.77429 437
38.95783 5.04721 210.48769 431
-181.54410 11.98015 269.90488 487
