# .PCD v.7 - Point Cloud Data file format
VERSION .7
FIELDS x y z rgb
SIZE 4 4 4 4
TYPE F F F U
COUNT 1 1 1 1
WIDTH 567
HEIGHT 1
VIEWPOINT 6719.289062 666.197998 137.771667 -0.645410 -0.090559 -0.078795 0.754345
POINTS 567
DATA ascii
85.35316 -0.76952 179.07654 467
69.42069 -0.75567 180.26639 462
64.98696 -0.78275 184.75491 457
60.37603 -0.78057 189.38554 453
55.53994 -0.76042 194.28157 448
50.43770 -0.75230 199.44563 443
45.07159 -0.77036 204.88330 438
39.36534 -0.80210 210.60645 432
-136.41031 -0.75119 276.52594 495
84.98323 -5.19778 178.95171 465
68.94479 -5.72759 180.09975 461
64.50433 -5.85343 184.62547 456
59.81245 -5.98623 189.27727 452
54.93020 -6.13683 194.21663 447
49.80083 -6.32364 199.38799 442
44.37960 -6.48889 204.83133 437
38.68851 -6.63067 210.60153 431
-151.00771 -12.56214 278.91562 266
84.66187 -9.64741 178.78636 464
68.54441 -10.66791 179.95479 460
64.00816 -10.98807 184.46519 455
59.32206 -11.26573 189.16670 451
54.37388 -11.54975 194.08054 446
49.20402 -11.88815 199.26183 441
43.74182 -12.26012 204.72775 436
37.95235 -12.61148 210.54660 430
84.32785 -14.18025 178.60938 463
68.18875 -15.70847 179.77640 459
63.62487 -16.13961 184.27809 454
58.83228 -16.57622 189.01213 449
53.84327 -17.03530 193.92929 445
48.60504 -17.55832 199.15826 440
43.10894 -18.04675 204.69597 435
37.25239 -18.60133 210.51126 429
84.03632 -18.72066 178.35434 462
67.87969 -20.76812 179.52728 457
63.24125 -21.36124 184.05965 453
58.44046 -21.93483 188.82130 448
53.40055 -22.60221 193.80022 443
48.08888 -23.27621 199.04956 438
42.42318 -23.99273 204.57207 433
36.54512 -24.72344 210.44992 428
83.81660 -23.33985 178.10500 461
67.54301 -25.91692 179.26003 456
62.90272 -26.61547 183.81557 452
58.05502 -27.40921 188.60033 447
52.94303 -28.23708 193.64871 442
47.36942 -29.10003 198.86627 419
41.22547 -30.07757 204.44952 414
34.52808 -31.12906 210.36678 402
83.57798 -27.99141 177.78130 459
66.91310 -31.16384 178.87340 435
61.85294 -32.15239 183.44481 431
56.55927 -33.16220 188.19429 426
50.93537 -34.22143 193.21303 421
44.98103 -35.34379 198.53703 416
38.44246 -36.62931 204.19270 404
31.21889 -37.98971 210.20584 364
-182.83980 -78.84569 216.76888 424
83.04097 -32.81737 177.36057 438
65.15248 -36.78846 178.22099 432
59.94325 -37.98014 182.81569 428
54.49776 -39.17117 187.66039 423
48.71968 -40.49222 192.76608 418
42.27314 -41.92511 198.13329 406
35.32399 -43.49940 203.87590 401
27.65400 -45.21243 210.04034 358
-191.67303 -94.19794 216.73882 296
81.30379 -37.25113 177.36929 435
63.10656 -41.92201 178.10384 429
57.80692 -43.23331 182.65471 424
52.26173 -44.66866 187.50945 420
46.06441 -46.26093 192.60092 408
39.44782 -47.94281 197.96622 402
32.37045 -49.74947 203.73599 397
-188.38498 -106.43484 202.81294 484
79.99013 -42.40666 176.67972 430
70.82132 -45.06270 179.63220 308
55.85748 -49.39369 181.97198 414
49.80039 -51.17182 186.85066 409
43.33871 -53.06041 192.01413 404
36.21412 -55.11253 197.50221 387
28.21443 -57.45004 203.34303 371
78.60388 -47.78909 175.92235 427
72.20789 -49.85498 179.64023 308
53.47668 -55.93524 181.15967 397
46.77655 -58.12783 186.01772 393
39.58975 -60.43901 191.24132 388
31.68224 -63.00515 196.82979 372
22.49897 -65.95933 202.83438 367
77.22389 -53.35181 175.09163 423
72.16035 -55.17165 179.20407 419
50.11533 -63.09160 180.04315 393
43.07774 -65.63934 185.07620 388
35.21120 -68.47516 190.34579 372
26.15730 -71.71601 196.02307 367
15.19429 -75.63188 202.21346 332
75.82928 -59.11028 174.21370 420
70.01118 -61.40853 178.23897 386
46.54130 -70.69428 178.88571 388
38.73055 -73.78778 183.90263 373
29.08921 -77.58798 189.20941 336
16.26483 -82.68660 194.75208 316
-1.59278 -89.71281 200.84560 311
73.07936 -65.71210 172.86221 386
66.62221 -68.50119 176.88408 395
52.99680 -74.41499 179.78542 300
30.78523 -84.00449 182.06111 336
17.32173 -89.81829 187.16821 315
-14.52091 -103.62173 191.20477 265
71.73305 -71.99601 171.84259 316
63.21021 -76.02295 175.46951 390
55.26860 -79.73982 179.79489 300
17.20161 -97.63524 179.10289 286
-25.82568 -117.90565 180.46457 284
73.98186 -76.75632 171.83653 316
58.79590 -84.47916 173.66974 328
48.64704 -89.61488 177.72720 325
25.31356 -101.52515 180.02637 292
76.33970 -81.41319 171.80794 316
55.11795 -93.07938 171.98880 308
34.21463 -104.53758 173.83759 272
-51.97596 -151.91760 164.85588 373
78.85361 -86.03041 171.76410 316
57.95204 -98.38970 171.95192 308
30.52210 -114.56702 172.19147 300
-45.62604 -159.61922 165.17552 286
81.48568 -90.55315 171.75540 316
60.98572 -103.58314 171.95129 308
34.05891 -120.66712 172.15947 300
84.25085 -95.02816 171.73625 316
64.15450 -108.63984 171.89818 308
2.07822 -150.81444 163.55872 382
87.16348 -99.36626 171.70915 316
67.51788 -113.65163 171.89041 308
16.76019 -150.46419 165.97672 389
-3648.91919 -2812.78467 60.06634 307
90.20935 -103.63940 171.70921 316
70.96822 -118.55841 171.83231 308
21.94588 -156.61110 166.07031 297
-3467.73022 -2863.27515 64.15672 479
93.40131 -107.82100 171.68217 316
46.65218 -146.49527 163.37212 300
-3241.51416 -2865.94238 69.66729 474
96.72615 -111.86544 171.63148 316
54.46510 -149.11855 164.35995 403
-3080.33813 -2911.89575 72.54189 313
100.13876 -115.83948 171.59482 316
65.11684 -148.75153 166.26886 409
103.71666 -119.72504 171.60170 316
70.03426 -153.36748 166.33174 306
86.86945 -145.30217 163.55545 307
93.05534 -147.67322 164.20482 424
101.52386 -147.03494 165.76416 419
107.66647 -148.76930 166.43593 314
114.57433 -149.27977 167.44824 316
-493.94196 -1054.28577 91.18996 425
-498.72894 -1061.16577 132.89247 287
599.25208 -1981.24084 150.93961 456
655.33759 -1943.29468 151.71858 472
711.36127 -1910.82788 151.91219 492
768.63379 -1886.25122 152.59682 497
827.56226 -1868.30505 152.43336 498
891.02802 -1861.33179 151.79657 491
955.08575 -1855.47571 151.34776 489
1019.51294 -1846.01355 150.86426 416
1086.65100 -1840.53540 150.30650 404
512.03113 -572.10297 89.03348 496
513.57489 -575.06921 110.24438 496
514.96948 -578.02905 131.32584 496
516.67072 -581.25775 152.41588 493
518.15430 -584.25183 173.73976 452
1156.92480 -1837.30188 148.90947 468
533.93115 -570.11646 87.29857 363
1228.68262 -1833.85547 148.35048 469
365.49298 -108.07551 167.63997 315
368.83475 -103.33507 167.61766 315
372.02924 -98.50594 167.66325 315
379.07092 -96.00687 166.41185 434
386.62787 -93.40160 165.02554 429
390.49918 -88.53674 164.72273 317
393.35110 -83.17194 164.72580 317
407.55057 -89.84870 167.74969 305
372.55978 -67.49129 171.53595 316
411.24207 -84.21994 167.57010 434
374.59839 -62.56670 171.55942 316
419.35855 -80.32285 166.15797 429
376.49673 -57.63634 171.55180 316
427.02396 -75.83192 164.86934 308
264.91464 -15.76937 203.51006 314
429.48880 -69.29110 164.85553 308
265.44583 -14.31520 203.50420 314
402.90973 -54.28272 171.84700 309
453.63651 -69.03611 167.86562 297
265.93994 -12.83919 203.50821 314
404.55008 -48.43443 171.83499 309
455.43188 -61.52942 167.98021 297
1522.62952 -335.73996 172.60497 272
266.39056 -11.36532 203.50085 314
406.02264 -42.59666 171.84938 309
463.68738 -55.51021 166.65517 452
1444.79968 -275.19464 175.58922 429
1473.63916 -281.46283 216.59557 290
266.80136 -9.86484 203.50043 314
407.26990 -36.71538 171.88155 309
470.82825 -48.85675 165.59430 448
1441.68567 -234.30850 135.12956 312
1419.76001 -230.13980 176.67279 445
1500.67871 -245.61093 216.46793 272
267.14978 -8.36298 203.51009 314
408.36774 -30.77281 171.87901 309
474.61481 -41.28363 165.10149 300
1404.68140 -188.59250 137.93306 422
1400.20874 -187.89964 177.63132 458
1568.55054 -214.68430 216.63789 271
267.46063 -6.85966 203.50710 314
409.23270 -24.81224 171.86708 309
440.47687 -28.75823 172.19327 301
1382.51099 -147.94275 139.87849 459
1384.48157 -148.28757 178.12747 456
267.72006 -5.33526 203.50026 314
409.99817 -18.81896 171.90036 309
441.30670 -21.79621 172.19815 301
1365.09998 -109.17063 141.12411 463
1372.66101 -109.81451 178.68401 434
267.93549 -3.82200 203.50522 314
410.51584 -12.79089 171.87482 309
441.91934 -14.80379 172.22211 301
22968.64062 -1436.15869 -3545.22144 0
1354.12781 -72.15942 142.19841 474
1362.54480 -72.75792 178.93976 417
1399.76953 -75.22580 216.75932 467
268.09308 -2.29057 203.49750 314
410.87448 -6.80919 171.90826 309
442.35855 -7.80139 172.17152 301
1338.47046 -36.03086 143.35875 483
1354.36646 -36.75860 179.27174 371
1381.44714 -37.58043 216.56154 471
1485.77856 -40.64021 257.91733 497
1368.66248 -37.01195 292.01068 494
1379.54663 -37.55273 330.79855 413
268.21887 -0.75901 203.49849 314
411.06915 -0.77815 171.87280 309
442.56049 -0.78414 172.18562 301
511.73627 -0.81366 168.27847 288
1343.22339 -0.86287 105.81754 350
1330.11328 -1.03131 143.86070 487
1348.51501 -0.95710 179.71088 371
1364.59204 -0.79029 216.60355 495
1363.33459 -0.89354 254.08043 495
1361.88892 -0.86164 291.43433 495
1373.03516 -0.77160 330.13004 414
268.28036 0.76711 203.50705 314
411.09372 5.23673 171.87137 309
442.50943 6.21781 172.16391 301
1327.07202 33.96595 107.41248 353
1317.48328 33.65540 144.58830 492
1342.14502 34.38286 179.72403 372
1358.04333 34.87110 216.46336 496
1356.55884 34.85318 253.84489 497
1355.27368 34.82184 291.14725 496
1366.03931 35.04190 329.60443 415
268.30460 2.28656 203.50301 314
410.93137 11.25129 171.87862 309
442.28610 13.19105 172.16772 301
1315.72766 68.16344 108.33640 418
1307.10657 67.54774 145.27298 495
1348.04993 70.17033 179.52780 273
1344.88586 69.99626 216.51445 497
1343.44153 69.84447 253.54857 498
1342.22388 69.64474 290.21136 498
1358.80310 70.61412 329.05154 416
268.28174 3.81369 203.50853 314
410.56079 17.24587 171.89726 309
441.88806 20.19444 172.17046 301
1306.99438 101.94958 109.01818 421
1299.91211 101.22998 145.48114 497
1345.18958 105.29285 179.53905 498
1339.21790 104.86196 216.60190 498
1338.03699 104.89573 253.33340 498
1336.65320 104.62592 290.13141 498
1351.92749 106.21475 328.53113 417
1584.59827 128.14336 397.16498 470
1583.01160 128.04517 442.45782 469
1581.48254 127.71621 488.78857 468
1580.27820 127.55957 535.14203 322
268.20435 5.32740 203.50993 314
409.99960 23.23019 171.89986 309
441.24170 27.14787 172.18788 301
1299.40186 135.34395 109.29597 422
1293.19104 134.73004 145.75122 499
1338.45593 140.32127 179.75267 498
1332.88586 139.75670 216.65399 499
1331.73047 139.47292 253.33093 499
1329.10706 139.15533 289.95822 499
1345.47437 141.29506 328.37967 417
268.07938 6.84260 203.49814 314
409.29617 29.18344 171.85680 309
475.55170 39.63591 165.10866 300
1292.38928 168.99268 109.76865 423
1286.89392 168.07990 145.73969 499
1332.12329 175.08554 179.63701 499
1331.55811 174.99046 216.62360 499
1330.43030 175.01642 253.50316 499
1327.67651 174.40021 290.02719 498
1339.63696 176.37094 328.37228 417
267.90918 8.35141 203.50800 314
408.39548 35.09730 171.83844 309
471.86099 47.19082 165.53815 448
1286.02734 202.34702 109.86478 465
1280.86719 201.39766 145.91876 499
1325.54846 210.01712 179.67868 499
1325.07837 209.79106 216.67970 499
1323.48950 209.50842 253.31506 390
1321.17297 209.26602 290.14407 499
1333.44495 211.32597 328.29001 417
267.69913 9.83946 203.50168 314
407.32364 41.01812 171.83400 309
464.70441 53.88296 166.72719 452
1279.50940 235.88219 109.75479 465
1274.45618 234.72914 145.79068 499
1319.72559 244.83896 179.77089 499
1318.27502 244.55537 216.60689 499
1317.21692 244.30286 253.50404 499
1314.75635 243.77188 290.14856 498
1327.25513 246.54178 328.18869 417
1382.23755 258.68579 413.25806 491
267.42609 11.33186 203.50131 314
406.07724 46.87633 171.83136 309
457.01767 59.96029 167.92969 297
1273.04004 269.25214 109.38287 465
1268.26807 268.21271 145.67311 499
1313.20410 279.81976 179.65059 498
1311.87109 279.40991 216.58464 499
1310.54846 278.94330 253.52283 499
1309.29578 278.52600 290.24527 499
1320.99011 281.59705 328.34424 417
1370.64746 294.59747 372.86533 390
267.11551 12.80771 203.49979 314
404.59811 52.75234 171.79698 309
455.38797 67.44025 167.89856 297
1266.60791 303.13980 109.21308 464
1261.95935 301.76706 145.54771 498
1547.42285 384.45200 171.22452 498
1381.24768 336.33136 335.59082 474
1378.44824 335.40607 375.33752 485
266.79309 14.27722 203.49202 288
431.37726 67.74708 164.80807 308
1260.31799 337.09503 108.94666 463
1255.52429 335.32190 145.21828 497
1424.43274 390.14542 383.13126 453
1411.76965 385.99496 423.51993 448
378.54993 56.10341 171.54988 316
429.14368 74.32756 164.86064 308
1254.07947 371.07791 108.35517 462
1249.31421 369.50769 144.85239 496
376.80582 61.05433 171.56721 316
421.42316 78.68954 166.22055 429
1247.63416 405.69177 107.89400 461
1242.79248 403.63913 144.61954 495
1564.27600 530.85065 169.45941 292
374.94806 65.93098 171.50409 316
413.44418 82.56412 167.59248 435
1241.01343 440.60315 107.16989 460
1236.03503 438.60065 143.97963 493
1417.78235 517.05139 173.86148 307
1396.52917 508.02390 258.39841 493
395.99643 81.65285 164.69177 317
410.29645 88.33371 167.74513 305
1234.79529 476.07959 106.16037 417
1229.63855 473.81064 143.35347 491
1296.23206 505.13400 177.70744 312
393.35742 87.06593 164.70982 317
1228.33240 512.44037 105.35352 416
1222.85632 509.51590 142.92789 489
1275.25964 536.31793 177.74771 489
1503.91907 652.97803 216.53165 497
389.47351 91.83799 165.03221 429
1221.94727 549.39136 104.06259 419
1216.02148 546.07520 142.29929 487
1402.94202 648.81842 172.23096 499
1404.14319 649.55707 216.63678 459
382.06885 94.40656 166.46854 434
1215.65308 587.13269 102.83083 417
1208.73230 583.22504 141.40451 484
1259.44714 613.10028 176.98592 484
1306.12390 640.72247 216.68839 497
375.41519 97.06796 167.64282 315
1206.45972 624.39661 139.91309 393
1285.97339 674.86469 175.15176 499
1286.38452 675.18347 216.54297 499
1460.76221 785.89075 264.54752 397
372.41473 101.91807 167.60847 315
1273.59717 714.41187 175.06718 450
1274.04126 714.43713 216.46115 458
369.26099 106.65292 167.58241 313
1669.56763 7582.32422 -1061.97681 0
-47.16219 925.76398 89.10162 495
-48.13769 929.81476 120.69427 497
-49.23259 933.75641 152.45700 496
120.85380 149.35599 167.92105 489
114.70896 148.20953 167.21098 441
108.28492 147.15477 166.41774 314
100.99279 146.83994 165.20013 419
92.54915 147.47299 163.61214 424
87.81887 143.51302 163.53871 307
75.73417 156.37787 166.31404 305
104.50191 118.12075 171.53439 316
70.90530 151.71869 166.29263 306
-946.12952 1169.25623 53.44650 353
100.98955 114.28039 171.52556 316
64.47007 148.52144 165.72327 409
-934.05023 1086.40540 59.60078 403
-1007.31097 1155.42786 105.47090 399
97.62219 110.30414 171.60297 316
53.78401 148.95947 163.74719 403
-912.60150 1001.32111 67.14804 426
-995.07849 1073.84119 109.55026 405
94.36447 106.20399 171.61252 316
75.58763 121.75897 171.76929 308
-939.89581 962.11469 67.70083 443
-984.25940 998.72980 113.66885 411
91.22115 102.07355 171.64153 316
72.00538 116.94093 171.76843 308
23.08015 154.91634 166.02055 297
-1008.69177 955.60034 62.44874 420
-997.78595 946.92865 114.76178 432
88.19954 97.79187 171.67302 316
68.56078 112.07893 171.84750 308
15.87404 150.33850 165.45415 389
-1078.78735 946.01385 57.84718 409
-1065.66345 936.00403 111.97498 426
85.30963 93.42095 171.68456 316
65.27822 107.04777 171.84441 308
1.02779 150.70045 162.98911 382
-1155.91125 937.11426 51.77378 403
-1137.41101 924.62006 108.49684 421
-1434.99084 1126.58691 150.51387 489
82.57706 89.00053 171.70184 316
62.14671 101.95343 171.89351 308
35.23781 119.08484 172.08232 300
-1214.07996 912.07776 104.64634 415
-1435.78467 1052.48804 151.74197 419
80.00590 84.46395 171.74146 316
59.17662 96.77733 171.90541 308
31.77015 112.98136 172.09848 300
-44.10322 157.91789 165.08130 286
-1296.90491 898.74384 100.34996 409
-1423.24390 973.35669 153.69598 424
77.53835 79.85970 171.77750 316
56.32048 91.52915 171.95383 308
37.81448 101.71056 174.29532 319
-53.36346 151.82901 164.28754 373
-1395.63623 889.76953 94.99918 364
75.19993 75.19096 171.75896 316
60.41653 82.72975 173.72443 385
50.49210 87.75945 177.77942 325
26.64955 99.90334 179.98621 292
-1599.31567 928.41766 82.06940 290
73.03472 70.44606 171.78894 316
64.01875 74.65975 175.27492 390
56.65515 78.17541 179.74602 300
20.99589 94.97088 179.50630 314
-24.35066 116.29073 180.42068 284
74.07647 64.29761 172.72200 386
67.52494 67.14121 176.71538 381
54.41691 72.85113 179.71889 300
32.47226 82.32485 182.05887 336
19.67736 87.86916 187.20953 315
-3.54975 97.91995 192.12758 266
76.50858 57.83075 173.93176 420
70.98854 60.04169 178.09590 386
47.45832 69.32256 178.69278 389
39.79764 72.38628 183.81566 373
30.84554 75.90472 189.15732 336
18.48127 80.83217 194.74927 332
0.97248 87.77305 200.85471 311
77.92085 52.07189 174.84296 423
72.81332 53.91205 178.98972 419
51.03493 61.75085 179.89427 393
43.96841 64.26172 184.88017 388
36.24233 67.08155 190.23634 373
27.27526 70.32478 195.91032 368
17.03393 73.97260 202.14577 332
79.31897 46.48763 175.66005 427
73.70763 48.30458 179.59048 308
54.27665 54.62481 180.93964 410
47.67167 56.76130 185.86057 393
40.53899 59.11510 191.10068 388
32.71258 61.60228 196.69276 372
23.53576 64.61048 202.71791 367
80.68805 41.11247 176.41750 432
72.37893 43.54706 179.58902 308
56.56935 48.10726 181.74074 421
50.52452 49.86963 186.64696 409
44.06269 51.76743 191.83340 404
37.11989 53.80025 197.32730 387
29.27046 56.03724 203.26773 382
82.01208 35.91648 177.10854 435
71.17882 38.70105 179.63194 308
58.54549 41.94997 182.45090 424
52.93459 43.36823 187.28612 420
46.82367 44.94888 192.40735 408
40.17545 46.68735 197.82529 403
33.09875 48.51109 203.61316 397
24.76864 50.63217 209.81194 269
83.27524 30.88445 177.70309 457
65.60182 34.88643 178.52742 432
60.46491 36.01988 183.07484 428
55.03118 37.22918 187.84245 423
49.33039 38.51062 192.90486 418
43.06286 39.87572 198.24319 406
36.24292 41.44858 203.91565 401
28.75852 43.12113 210.03984 358
-186.39189 91.21956 216.59756 296
83.52302 26.22835 177.99428 459
67.28020 29.32766 179.16710 455
62.34232 30.28391 183.65759 431
57.09713 31.27379 188.39725 426
51.53063 32.33020 193.34108 421
45.68536 33.46370 198.61057 416
39.27519 34.68137 204.21530 405
32.23080 36.00945 210.19774 399
-182.86386 77.12491 216.59808 424
83.79028 21.62534 178.28967 461
67.56864 24.18513 179.41772 456
62.98694 24.91602 183.96556 452
58.13686 25.67772 188.70184 447
53.07716 26.49352 193.69942 442
47.73304 27.33419 198.92052 437
41.95772 28.25561 204.44688 414
35.40950 29.31096 210.32079 402
84.07413 17.08139 178.48790 462
67.89634 19.10565 179.66075 457
63.31658 19.68172 184.17641 453
58.54805 20.27345 188.89523 448
53.53642 20.93300 193.85545 443
48.22981 21.58342 199.04170 438
42.66846 22.28758 204.57039 433
36.77388 23.03923 210.37247 428
84.39982 12.54903 178.70645 463
68.28593 14.07898 179.85362 459
63.74198 14.51632 184.32803 454
58.99158 14.98293 189.05347 450
54.02397 15.41459 193.98337 445
48.80703 15.93333 199.14056 440
43.30996 16.42338 204.63895 435
37.48085 17.01484 210.45210 429
84.74068 8.09580 178.87378 464
68.67937 9.08063 180.02222 460
64.14163 9.39744 184.47826 455
59.48624 9.67157 189.16852 451
54.59124 9.97330 194.09985 446
49.43450 10.29475 199.24588 441
43.95386 10.63396 204.68561 436
38.20385 11.03253 210.49017 430
-181.36142 24.82584 270.25656 486
-187.49484 25.25386 284.84595 360
85.11987 3.64326 178.99422 465
69.09888 4.15172 180.12604 461
64.62724 4.27733 184.61494 457
59.99659 4.41977 189.30055 452
55.13480 4.61048 194.15918 447
50.03638 4.75117 199.31017 442
44.64297 4.94177 204.77975 437
38.93950 5.11091 210.49446 431
-181.41710 11.99415 270.18948 487
