# .PCD v.7 - Point Cloud Data file format
VERSION .7
FIELDS x y z rgb
SIZE 4 4 4 4
TYPE F F F U
COUNT 1 1 1 1
WIDTH 433
HEIGHT 1
VIEWPOINT 4292.477539 -4104.699219 134.412582 -0.006634 -0.115886 -0.005610 0.993225
POINTS 433
DATA ascii
82.34750 -0.69839 179.53885 316
68.57654 -0.69748 181.10292 462
64.27809 -0.71865 185.45911 457
59.78309 -0.67543 190.00038 453
55.07963 -0.71548 194.72562 448
50.15093 -0.68715 199.75046 443
44.93805 -0.69569 204.98384 438
39.42551 -0.68185 210.58226 432
-152.63165 -0.68837 240.90668 419
-181.79652 -0.69900 269.43515 487
-148.37132 -0.69078 277.31244 284
82.45890 -5.05130 179.54468 316
68.10615 -5.48482 180.96866 461
63.80748 -5.60933 185.33813 457
59.28693 -5.78244 189.87746 452
54.55283 -5.93592 194.64159 447
49.53444 -6.08108 199.66618 442
44.30301 -6.22904 204.92743 437
38.73381 -6.42352 210.53185 431
-152.72502 -12.39332 240.96422 416
-181.76373 -13.32275 269.40356 487
-151.24135 -12.34405 277.81378 285
82.68785 -9.38252 179.54152 316
67.70698 -10.33777 180.83842 460
63.32557 -10.60027 185.20340 455
58.75196 -10.86249 189.74490 451
53.97989 -11.16036 194.54262 446
48.95885 -11.51011 199.56503 441
43.64526 -11.81491 204.89481 436
38.05787 -12.18016 210.52704 430
-181.81444 -26.03094 269.51834 486
83.01867 -13.69817 179.51292 316
67.34402 -15.16990 180.66814 459
62.91970 -15.60001 185.03214 454
58.32854 -16.01708 189.59134 450
53.46807 -16.50461 194.39032 445
48.39375 -16.95388 199.45546 440
43.04847 -17.47624 204.79344 435
37.35822 -18.03501 210.44009 429
-181.67012 -38.74246 269.66245 486
83.10912 -18.07319 179.40295 462
67.05037 -20.10103 180.43488 457
62.58659 -20.67095 184.84325 453
57.92031 -21.26292 189.43411 448
53.00521 -21.88477 194.25946 443
47.83461 -22.51942 199.35474 438
42.41345 -23.20932 204.71616 433
36.68392 -23.90833 210.43106 428
82.82023 -22.53155 179.14490 461
66.72516 -25.06696 180.20145 456
62.22724 -25.77010 184.60733 452
57.51107 -26.53933 189.26201 447
52.58313 -27.33136 194.08192 442
47.37207 -28.11699 199.20134 437
41.51640 -29.03928 204.61713 414
35.11803 -30.08027 210.31659 402
82.59203 -27.01446 178.89508 459
66.31563 -30.12870 179.89024 435
61.42514 -31.06799 184.26056 431
56.31200 -32.02975 188.90027 426
50.88816 -33.05624 193.76086 421
45.14746 -34.15114 198.90060 416
38.87897 -35.33873 204.32471 404
32.00357 -36.69291 210.20058 399
-183.06944 -77.74793 216.45000 424
82.31313 -31.61624 178.55559 438
64.64481 -35.54290 179.26274 432
59.62978 -36.69420 183.67725 428
54.32586 -37.84671 188.35910 423
48.73227 -39.08554 193.32477 418
42.60582 -40.46373 198.51006 406
35.89603 -41.96056 204.05693 401
28.54334 -43.60288 209.99011 358
-187.00574 -91.78246 216.41133 296
81.04864 -36.51701 177.89301 435
62.93679 -41.17953 178.53499 429
57.76527 -42.52148 183.03699 424
52.27004 -43.89781 187.79211 420
46.22964 -45.44202 192.76913 408
39.77206 -47.14662 198.08803 402
32.76402 -48.92112 203.76204 397
24.54352 -51.05937 209.84201 269
79.73528 -41.60534 177.18694 430
68.80813 -44.76679 179.65204 308
55.83907 -48.55768 182.35738 421
49.92617 -50.30032 187.12770 409
43.56301 -52.14522 192.21599 404
36.71134 -54.12207 197.59093 387
28.94364 -56.38146 203.35638 371
78.41452 -46.91088 176.43881 427
70.26617 -49.55958 179.62990 308
53.56658 -54.97244 181.56516 410
47.08836 -57.08680 186.34848 393
40.02672 -59.32958 191.47519 388
32.35888 -61.82184 196.94772 372
23.38454 -64.76269 202.84920 367
77.04729 -52.38544 175.59912 423
71.83163 -54.23658 179.64302 308
50.36224 -61.98239 180.50577 393
43.39727 -64.49612 185.37148 388
35.81347 -67.20186 190.62840 372
27.00116 -70.41438 196.20917 367
16.95405 -74.03141 202.25871 332
75.69511 -58.07500 174.73874 420
70.23762 -60.23274 178.75529 386
46.85466 -69.50127 179.31953 388
39.32673 -72.46517 184.24416 373
30.53498 -75.96770 189.55553 336
18.33059 -80.77900 195.01913 331
1.09118 -87.62570 200.96759 311
73.28944 -64.43903 173.45010 386
66.93793 -67.19087 177.43275 395
42.90141 -77.60316 177.92386 373
32.13861 -82.22623 182.56618 336
19.52099 -87.68018 187.59259 315
-2.42161 -97.19850 192.51755 265
70.08205 -71.53146 171.92619 381
63.62483 -74.56766 176.01353 390
53.76328 -79.18993 179.76006 300
20.77334 -94.68777 180.00285 314
-26.64645 -117.04601 180.47289 284
72.18530 -76.32813 171.83817 316
60.01266 -82.50175 174.45807 384
50.60546 -87.30777 178.48701 325
24.12038 -100.76498 180.06476 292
74.57806 -80.96346 171.80957 316
53.51379 -92.55005 171.96970 308
38.11095 -101.03385 175.03943 319
-54.39562 -151.86029 164.65010 373
77.12477 -85.52675 171.77673 316
56.40300 -97.78115 171.94894 308
29.16319 -113.89873 172.19162 300
-46.77635 -158.77267 165.14722 286
79.82394 -90.00607 171.79692 316
59.48745 -102.92157 171.92320 308
32.73365 -119.88596 172.20540 300
82.64073 -94.42300 171.77206 316
62.69925 -107.98754 171.94118 308
-0.45397 -150.90558 163.28641 382
85.60289 -98.74229 171.70616 316
66.07690 -112.90488 171.90471 308
14.31642 -150.57011 165.67049 389
88.68427 -102.96423 171.67999 316
69.60992 -117.76813 171.84769 308
20.75362 -155.68623 166.08076 297
91.92917 -107.10210 171.65616 316
73.25996 -122.50613 171.85571 308
95.25838 -111.16698 171.66878 316
52.03962 -149.19846 164.03735 404
98.74378 -115.05965 171.60353 316
62.81229 -148.82927 165.93034 409
102.30785 -118.89543 171.60765 316
68.77892 -152.44792 166.33829 306
85.56205 -144.39342 163.57455 307
73.65812 -157.11427 166.37189 305
90.86041 -147.75365 163.83238 424
99.22020 -147.28369 165.35715 419
106.38823 -147.80843 166.43933 314
110.37753 -152.01514 166.47896 314
126.67730 -148.22307 169.75702 441
-273.05627 -1923.31738 86.89849 499
-275.14450 -1931.71472 151.57808 488
220.54892 -1432.33447 122.92838 488
220.16167 -1440.18860 169.64217 487
716.83228 -975.50909 109.06728 403
749.57990 -963.40027 108.56557 314
366.95773 -107.58241 167.61113 315
370.15109 -102.86682 167.61642 315
373.17566 -98.07117 167.67867 315
56200.00000 -35526.45312 -6302.94629 1000
380.22104 -95.61652 166.39294 434
387.66757 -93.00288 165.00084 429
391.28171 -88.15628 164.72070 317
393.99542 -82.78952 164.71751 317
407.98044 -89.36987 167.77431 305
373.00375 -67.15340 171.54176 316
411.89606 -83.93468 167.48894 434
374.94553 -62.26852 171.57761 316
419.85849 -80.03983 166.10480 429
376.67999 -57.36938 171.58421 316
427.04425 -75.49229 164.85631 308
264.96423 -15.57852 203.50676 314
429.30075 -68.95354 164.85304 308
265.37125 -14.16214 203.50586 314
402.61301 -54.06268 171.82861 309
453.00925 -68.65574 167.91716 297
265.73065 -12.73337 203.50893 314
404.12286 -48.25822 171.85100 309
454.81015 -61.31614 167.96100 424
266.03439 -11.29860 203.49796 314
405.42496 -42.47527 171.84756 309
463.65536 -55.49680 166.48506 452
266.30334 -9.86465 203.50307 314
406.51840 -36.60349 171.85344 309
470.77649 -48.84864 165.34578 448
266.52435 -8.41214 203.50404 314
407.48120 -30.73126 171.85710 309
473.32053 -41.14362 165.09486 300
266.70459 -6.95466 203.50960 314
408.26590 -24.81820 171.85176 309
439.13428 -28.73954 172.15973 301
267.86731 -5.30900 203.50128 314
410.32028 -18.79680 171.87544 308
441.59695 -21.75579 172.19006 301
268.00217 -3.81016 203.49829 314
410.76465 -12.81242 171.89700 309
442.08307 -14.77445 172.22581 301
268.08044 -2.31281 203.50650 314
411.04276 -6.81217 171.87149 309
442.41104 -7.79750 172.20299 301
268.11612 -0.80997 203.50317 314
411.13617 -0.79917 171.87206 309
442.54468 -0.79398 172.18605 301
511.78284 -0.82080 168.29752 288
264.61624 0.59673 204.43471 293
411.04922 5.17614 171.90685 309
442.45688 6.16760 172.18512 301
268.04645 2.20074 203.50504 314
410.76373 11.15614 171.90826 309
442.09094 13.12540 172.19583 301
267.93619 3.71267 203.50737 314
410.30112 17.14103 171.88315 309
441.59073 20.10451 172.17007 301
4897.24072 441.70834 218.29654 479
267.78629 5.19927 203.51009 314
409.68256 23.11063 171.85640 309
440.88031 27.03881 172.20216 301
4856.24463 585.52759 218.43970 490
26.38603 4.17738 -7.14817 314
408.87973 29.08872 171.87459 309
475.17175 39.60178 165.10966 300
4822.58838 728.80042 218.55084 338
4954.95361 749.10272 375.13315 399
267.33148 8.17635 203.50356 314
407.87964 34.99510 171.85593 308
471.88785 47.21380 165.49715 448
4814.10791 875.62830 218.04593 438
267.04349 9.65202 203.49951 314
406.74216 40.89227 171.85240 308
464.78384 53.87207 166.55055 452
4807.56738 1025.37549 217.86981 437
266.69818 11.12943 203.50162 314
405.42490 46.75435 171.84590 308
456.25650 59.82380 167.94348 297
4804.08984 1176.35376 218.01083 412
266.30734 12.58785 203.50464 314
403.90475 52.54464 171.81812 308
454.57053 67.27859 167.87483 297
265.88297 14.02587 203.50404 314
430.62735 67.51234 164.83589 308
265.40421 15.45564 203.50102 314
428.26303 74.10899 164.86377 308
375.92203 60.79718 171.51701 316
421.26877 78.76331 166.00676 429
373.97754 65.69743 171.50116 316
413.21609 82.67509 167.38708 435
394.95456 81.40515 164.65927 316
409.08875 88.06711 167.76598 305
392.19586 86.77904 164.68294 317
406.40408 94.03726 167.70348 305
389.02255 91.97971 164.80367 429
381.54657 94.59917 166.18991 434
374.44235 97.05962 167.46274 439
370.91885 101.53364 167.58977 315
367.70456 106.30484 167.60098 315
4719.32178 4791.70166 215.60425 474
4667.33887 5042.95947 215.70238 417
789.39703 1034.28296 99.98158 486
789.71362 1034.89514 138.90335 486
790.05237 1035.68225 177.54092 487
790.43152 1036.73157 216.31215 451
790.90723 1037.35608 254.98257 450
791.66852 1038.21997 294.15930 450
3215.85327 5877.42578 216.26268 385
2974.58423 5850.83496 215.85428 443
2743.47559 5829.30566 215.68805 480
2613.70312 6046.92139 215.65887 338
1344.46436 3121.29785 107.05375 381
1291.37610 3296.02563 103.05683 346
2169.38599 5999.51318 215.00632 334
1319.83972 3784.25244 86.99373 293
268.98465 1543.90967 114.84905 474
268.90491 1543.44409 165.53784 497
269.06000 1543.53125 216.11623 497
269.01804 1543.79492 267.06860 495
126.15172 148.00514 169.54344 441
-8284.82812 12509.92285 3217.45044 1000
110.17088 151.18346 166.37799 314
105.49645 147.65776 166.38710 314
98.25558 147.16374 165.27069 419
89.83923 147.57758 163.72943 424
84.68304 143.94733 163.51891 307
72.60468 156.82350 166.24226 305
101.43534 118.40222 171.56253 316
67.74001 152.11034 166.28391 306
97.87709 114.51009 171.55249 316
61.49861 148.65868 165.73875 409
94.38647 110.51984 171.60617 316
50.65533 149.08827 163.80829 403
91.04718 106.43219 171.61705 316
72.32653 121.90462 171.79625 308
87.87806 102.20343 171.68550 316
68.65414 117.13593 171.81680 308
19.61542 155.19371 165.98311 295
84.77997 97.92455 171.68492 316
65.14875 112.21330 171.86565 308
12.50542 150.48059 165.45279 389
81.87956 93.53798 171.73439 316
61.82062 107.16418 171.86681 308
-2.43750 150.78835 162.97098 382
79.03555 89.08545 171.75941 316
58.61037 102.04486 171.90567 308
31.78923 119.08892 172.12433 300
76.41806 84.54501 171.74178 316
55.58951 96.84779 171.95282 308
28.25535 113.04273 172.14696 300
-47.92329 158.02139 165.04576 288
73.90373 79.92044 171.78462 316
52.71672 91.56459 171.97581 308
40.23279 98.43152 175.69333 319
14.82053 112.39548 177.84473 270
71.52602 75.22092 171.79129 316
60.69101 80.75535 174.76825 385
52.59371 84.90637 179.10591 325
1.50898 110.88618 176.00705 293
70.70078 69.81999 172.23311 381
64.26218 72.82489 176.34291 390
52.91719 78.17277 179.73232 300
23.12210 92.16879 180.58339 315
-27.83073 116.16389 180.42108 343
73.92184 62.73221 173.82050 386
67.60088 65.46537 177.77722 395
43.66393 75.80632 178.26195 373
33.81408 80.10812 182.99393 336
21.71342 85.35614 188.04488 331
3.73154 93.11384 193.27922 283
75.98472 56.51965 174.96696 420
70.81889 58.57070 179.07500 415
47.51508 67.83072 179.59431 389
40.16825 70.72045 184.56735 373
31.53895 74.12145 189.83711 368
20.25902 78.62492 195.34972 332
3.93325 85.05663 201.30824 311
77.34930 50.85351 175.83910 424
71.23476 53.04433 179.60204 308
50.96486 60.36588 180.73132 393
44.08865 62.83001 185.59814 388
36.69893 65.51140 190.82243 373
27.94410 68.61858 196.42593 368
18.38344 72.08004 202.46539 362
78.69708 45.36987 176.64539 427
69.72118 48.30280 179.61145 308
53.99874 53.42952 181.74184 410
47.73013 55.45874 186.59900 393
40.76391 57.70689 191.67383 388
33.26001 60.12738 197.17151 383
24.35513 63.04216 203.04927 367
80.03882 40.13840 177.38329 431
61.56601 45.47943 177.97748 425
56.22485 47.02500 182.55385 421
50.36972 48.74049 187.34775 409
44.06546 50.54140 192.36592 404
37.36046 52.51912 197.79625 399
29.77581 54.68928 203.56145 382
81.32899 35.04448 178.08278 435
63.32240 39.65254 178.75818 429
58.11948 40.97517 183.21449 424
52.70916 42.41368 187.94354 420
46.77057 43.93074 192.95514 408
40.29800 45.59287 198.24568 403
33.38915 47.37131 203.89481 397
24.85896 49.53516 209.92511 269
82.41393 30.18998 178.69221 458
65.00868 34.03811 179.42720 432
60.01669 35.16312 183.84367 428
54.75515 36.34941 188.52521 423
49.16053 37.58117 193.44336 418
43.10475 38.96984 198.63065 406
36.47374 40.45749 204.19086 401
29.13766 42.06090 210.11740 358
-183.40559 89.55117 216.51326 296
82.62672 25.58525 178.98029 459
66.50369 28.69149 180.00464 455
61.85036 29.59088 184.42712 431
56.73211 30.53725 189.04501 426
51.33238 31.55826 193.88440 421
45.60040 32.66525 198.99773 416
39.43720 33.84433 204.45586 405
32.56269 35.13039 210.28180 399
-183.01347 76.21317 216.42918 424
82.87235 21.08175 179.23808 461
66.77828 23.63658 180.27373 456
62.29182 24.37249 184.71225 452
57.57408 25.10475 189.31622 447
52.61699 25.88529 194.16956 442
47.42961 26.70514 199.31122 437
41.92133 27.60199 204.71371 432
35.69690 28.59912 210.38777 402
83.15041 16.65225 179.46571 462
67.08968 18.66130 180.49713 457
62.64317 19.24143 184.91711 453
57.99555 19.83766 189.51186 448
53.10117 20.45567 194.34824 444
47.93998 21.09552 199.42781 438
42.49756 21.78790 204.77095 433
36.76310 22.48365 210.45079 428
82.82990 12.31780 179.51105 316
67.41710 13.77989 180.72798 459
63.02467 14.19043 185.08145 454
58.37782 14.61681 189.65747 450
53.54765 15.07848 194.46123 445
48.47015 15.54012 199.51503 440
43.15075 16.06873 204.85374 435
37.45725 16.58238 210.51163 429
82.49381 7.97575 179.50922 316
67.78303 8.91939 180.87173 460
63.43013 9.18885 185.26123 456
58.87878 9.46559 189.79276 451
54.10945 9.74877 194.58134 446
49.08223 10.07638 199.61221 441
43.77080 10.42474 204.94881 436
38.15973 10.75921 210.54575 430
-181.71889 24.57680 269.51971 486
-186.96638 24.91509 283.88470 360
82.33736 3.63341 179.54428 316
68.21861 4.06887 181.01970 461
63.90881 4.22513 185.39334 457
59.36707 4.37316 189.94893 452
54.63482 4.48155 194.68500 447
49.68586 4.66919 199.71347 442
44.44295 4.84619 204.99976 437
38.87917 4.99078 210.55394 431
-181.72516 11.94563 269.41080 487
