# .PCD v.7 - Point Cloud Data file format
VERSION .7
FIELDS x y z rgb
SIZE 4 4 4 4
TYPE F F F U
COUNT 1 1 1 1
WIDTH 586
HEIGHT 1
VIEWPOINT 6736.521484 796.486755 137.949478 -0.650050 -0.089202 -0.079690 0.750418
POINTS 586
DATA ascii
84.73467 -0.76474 179.51553 316
69.02052 -0.76087 180.65854 462
64.65604 -0.78380 185.10048 457
60.06976 -0.75707 189.71024 453
55.32159 -0.75087 194.50266 448
50.30317 -0.77565 199.60754 443
44.99159 -0.75609 204.93439 438
39.36179 -0.78036 210.61900 432
-181.49509 -0.72088 269.91376 487
-143.55762 -0.76942 277.16983 284
84.54942 -5.14577 179.42427 465
68.54221 -5.65089 180.53819 461
64.17195 -5.77328 184.95461 456
59.53080 -5.90697 189.56415 452
54.75275 -6.04027 194.43466 447
49.67028 -6.20586 199.51791 442
44.33445 -6.38759 204.92259 437
38.68610 -6.54315 210.58595 431
-181.55206 -13.43038 269.93512 487
-149.61124 -12.44563 278.31058 266
84.19098 -9.54395 179.25844 464
68.14970 -10.52086 180.36887 460
63.69350 -10.83151 184.79749 455
59.03501 -11.09683 189.43570 451
54.18793 -11.43267 194.33212 446
49.06704 -11.73099 199.45778 441
43.68962 -12.09358 204.84323 436
37.96410 -12.41615 210.57755 430
-181.51654 -26.24997 270.06018 486
83.88680 -13.96668 179.05693 463
67.80863 -15.47466 180.16940 459
63.31012 -15.90285 184.65085 454
58.60816 -16.36462 189.28358 449
53.62626 -16.81267 194.18028 445
48.49200 -17.28879 199.30611 440
43.04024 -17.82629 204.74173 435
37.28732 -18.38916 210.51862 429
-181.45546 -38.98758 270.14938 486
83.59643 -18.44899 178.83635 462
67.49025 -20.46403 179.96808 457
62.91709 -21.06755 184.43401 453
58.18189 -21.64594 189.12517 448
53.19582 -22.27423 194.02635 443
47.94391 -22.94126 199.20183 438
42.37558 -23.66671 204.65134 433
36.53533 -24.40863 210.49773 428
83.35546 -22.98115 178.57098 461
67.17873 -25.55407 179.68369 456
62.59206 -26.26139 184.18867 452
57.78085 -27.05329 188.90956 447
52.75717 -27.83138 193.87891 442
47.33420 -28.71491 199.05301 419
41.30777 -29.65590 204.54257 414
34.74026 -30.69358 210.39995 402
83.10477 -27.60564 178.30028 459
66.60691 -30.73028 179.35707 435
61.66138 -31.70314 183.83238 431
56.41887 -32.66623 188.54309 426
50.88984 -33.75388 193.47067 421
45.04611 -34.87376 198.75148 416
38.54927 -36.08312 204.28497 404
31.48567 -37.44509 210.26155 364
-182.79327 -78.35384 216.63939 424
82.70271 -32.29587 177.91371 438
64.90362 -36.26596 178.70207 432
59.78642 -37.42143 183.21977 428
54.37179 -38.62951 187.97896 423
48.67542 -39.91537 193.05185 418
42.34974 -41.30128 198.34329 406
35.53724 -42.82707 204.02512 401
27.96468 -44.55084 210.07892 358
-189.92461 -93.21074 216.66493 296
81.40779 -37.33889 177.24280 435
63.15064 -42.03016 177.94920 429
57.88869 -43.38018 182.57031 424
52.31365 -44.82645 187.40279 420
46.08643 -46.39809 192.48219 408
39.47486 -48.10926 197.90204 402
32.35848 -49.91691 203.69217 397
-188.39510 -106.63468 202.77071 484
80.06165 -42.57016 176.51637 432
71.45283 -45.08011 179.64514 308
55.90105 -49.59352 181.86191 414
49.81122 -51.35260 186.73521 409
43.35353 -53.21977 191.90749 404
36.13839 -55.32473 197.38002 387
28.10471 -57.63300 203.30656 371
78.73520 -47.94937 175.73468 427
72.90411 -49.87526 179.61539 308
53.48281 -56.16640 181.00743 397
46.75388 -58.37506 185.90930 393
39.57799 -60.70340 191.13710 388
31.57092 -63.29023 196.75854 372
22.36609 -66.29677 202.75903 367
77.36581 -53.60261 174.89116 423
72.21670 -55.43983 179.04327 419
50.11411 -63.40926 179.88469 393
43.00313 -65.96049 184.89972 388
35.11567 -68.81451 190.19949 372
26.02834 -72.04005 195.94920 367
14.80814 -76.07484 202.07532 316
75.95035 -59.42299 173.95123 420
70.00520 -61.81281 178.03175 386
46.54866 -71.07238 178.67577 388
38.63700 -74.17517 183.74582 373
28.77872 -78.12850 189.02527 336
15.64929 -83.29324 194.57631 316
-2.69462 -90.57350 200.68362 284
73.10082 -66.15902 172.53423 386
66.56779 -68.99880 176.60129 395
54.01592 -74.39760 179.80362 300
30.39226 -84.66245 181.81427 336
16.69554 -90.56530 186.88474 315
72.85032 -71.99823 171.83374 316
63.07696 -76.60566 175.12956 390
56.39713 -79.76089 179.73752 300
15.55356 -98.97399 178.56866 286
-24.67840 -117.92165 180.41997 284
75.18356 -76.74380 171.81915 316
58.17929 -85.40640 173.19145 328
47.88010 -90.66072 177.25774 325
26.52622 -101.55307 180.01392 292
77.64430 -81.46149 171.78227 316
56.40791 -93.10165 171.99567 308
30.17571 -107.55306 172.60350 272
-50.59278 -151.95805 164.82614 373
80.24936 -86.04948 171.77802 316
59.37232 -98.43165 171.92232 308
31.94011 -114.60749 172.18932 300
-43.99921 -159.54054 165.18306 286
83.00558 -90.61406 171.72954 316
62.52024 -103.57926 171.94508 308
35.57163 -120.70734 172.12717 300
85.88349 -95.04987 171.73695 316
65.76204 -108.73353 171.88107 308
3.86448 -150.82762 163.54353 382
-3873.47632 -2785.97534 54.97776 289
88.89619 -99.40849 171.69032 316
69.21232 -113.70507 171.88042 308
18.67283 -150.43045 166.01604 389
-3463.61938 -2680.35400 67.81464 304
92.03100 -103.70377 171.67354 316
72.82619 -118.62149 171.86612 308
23.85677 -156.55200 166.14424 297
-3415.02197 -2824.54272 65.51433 346
95.35352 -107.87636 171.62685 316
48.65362 -146.46796 163.36449 300
-3247.47681 -2873.22217 69.29848 307
98.75181 -111.99777 171.63103 316
56.72723 -149.07416 164.42224 404
102.28962 -115.94370 171.60841 316
67.46782 -148.64552 166.29262 409
103.74919 -119.77931 171.58875 316
70.06899 -153.46202 166.31079 306
86.93327 -145.38087 163.53801 307
93.16016 -147.64957 164.20955 424
101.61934 -147.03772 165.79250 419
-646.14795 -1050.65100 82.64866 400
107.80295 -148.84935 166.47426 314
114.68417 -149.29588 167.47682 316
411.45541 -2006.65002 150.89722 416
469.73795 -1964.33154 151.73459 467
527.07776 -1929.60596 152.99625 480
584.25696 -1903.48914 153.29507 495
642.38879 -1883.82800 153.32802 499
370.21677 -579.94495 97.66302 452
370.98550 -583.00635 117.33125 452
371.78622 -585.92517 137.15259 452
373.52722 -592.41437 156.37659 483
702.59241 -1873.93457 153.25185 495
388.68762 -575.82465 97.55417 449
389.65866 -579.20312 117.22973 449
391.08752 -584.09949 136.56732 392
764.89838 -1870.64868 153.05418 493
827.63477 -1866.66028 152.33368 491
891.06555 -1860.29602 151.67316 418
956.15344 -1856.18396 151.14726 487
1023.32855 -1854.00256 150.39383 470
1095.79041 -1859.05786 149.16484 319
368.62753 -108.10326 167.60785 313
371.80264 -103.32004 167.66048 315
374.81314 -98.52473 167.66179 315
380.79941 -95.39568 166.73019 434
388.24249 -92.79671 165.34404 429
392.91272 -88.46628 164.76231 317
395.65753 -83.06044 164.70255 317
409.90714 -89.77576 167.78583 305
374.66116 -67.40971 171.55035 316
412.39243 -83.71642 167.84286 305
376.60663 -62.51695 171.58818 316
420.30762 -79.84995 166.44547 429
378.35782 -57.55697 171.56564 316
428.75189 -75.69284 164.90039 424
379.99365 -52.53447 171.59985 316
431.22156 -69.21390 164.86409 308
381.42462 -47.48381 171.63715 316
404.54385 -54.21091 171.85738 309
455.27356 -68.95165 167.86511 297
1406.46594 -345.20496 175.92509 263
264.99350 -12.77104 203.50037 314
403.57977 -48.37303 171.83713 309
454.48947 -61.48442 167.96684 424
1344.84387 -290.10226 140.36774 457
1333.81372 -287.45221 178.78938 424
1392.31360 -302.43219 216.43141 299
265.41263 -11.30341 203.50841 314
405.03387 -42.50040 171.84383 309
463.53207 -55.61486 166.50217 452
1311.51587 -245.20457 142.97369 429
1311.86804 -245.44221 179.85324 432
1361.55322 -256.37704 216.63028 437
265.80029 -9.81660 203.49934 314
406.26349 -36.61610 171.86230 309
470.73044 -48.90718 165.40013 448
1290.00781 -205.28867 145.17310 443
1296.12268 -206.36551 180.66499 416
1430.87378 -232.37384 216.65224 334
266.13101 -8.31105 203.50285 314
407.32706 -30.68068 171.87189 309
473.55121 -41.17232 165.06386 300
1345.08008 -179.47592 104.17065 380
1275.28113 -168.25354 146.28305 457
1283.50623 -169.44705 181.18132 401
266.41113 -6.81275 203.50162 314
408.21899 -24.71237 171.85291 309
439.43521 -28.65658 172.20128 301
1273.16943 -134.25468 111.67323 324
1255.99255 -131.91199 147.91444 462
1272.94812 -134.11415 181.61618 409
263.15536 -4.96222 204.44492 314
408.95395 -18.76302 171.89189 309
440.22821 -21.73542 172.19505 301
1247.69495 -98.13778 114.66211 393
1244.15625 -97.73209 149.06096 469
1266.11646 -99.74445 182.10429 365
263.33383 -3.56442 204.44359 314
409.47229 -12.76131 171.85278 309
440.83017 -14.72932 172.16513 301
1230.99878 -64.53299 116.62408 445
1227.29211 -64.19532 150.26065 481
1275.61853 -67.22103 181.93977 275
1352.17017 -72.28256 216.58344 259
1337.17822 -71.32253 289.99554 268
263.46643 -2.14674 204.44563 314
409.80383 -6.76217 171.90358 309
441.23904 -7.78134 172.17580 301
510.49841 -9.95759 168.30884 288
1218.28601 -32.29536 117.95002 478
1216.99133 -32.19415 151.13103 485
1258.79895 -33.51851 182.34146 469
1336.74841 -35.90783 216.66898 259
1251.98608 -33.41722 250.51181 493
1250.82007 -33.23462 284.14758 493
1256.52209 -33.51553 318.78729 412
263.56195 -0.74016 204.44162 314
409.97388 -0.72804 171.89075 309
441.38388 -0.75580 172.17070 301
510.42798 -0.72782 168.33653 288
1207.80627 -0.84540 119.00588 481
1207.27612 -0.82400 151.75520 475
1247.91235 -0.91323 182.87251 494
1245.77051 -0.70537 216.52477 493
1245.44873 -0.89990 250.06895 494
1244.35156 -0.95923 283.76315 494
1228.78870 -0.77316 315.94308 329
263.61481 0.66942 204.44388 314
409.94598 5.28192 171.88786 309
441.34662 6.23241 172.21359 301
510.63974 8.41510 168.26631 288
1198.83203 29.97413 119.93195 486
1199.30774 29.88639 152.34895 479
1241.04541 31.34863 182.95815 495
1239.28601 31.11680 216.39894 495
1238.97852 31.31477 249.98161 496
1237.82263 31.27807 283.28177 496
1221.40564 30.68781 315.32663 471
263.61737 2.08306 204.45018 314
409.76657 11.27692 171.85526 309
441.09805 13.24050 172.20877 301
1190.59583 60.18199 120.69866 489
1191.86609 60.43803 152.73895 481
1228.88135 62.69068 183.46951 496
1228.16479 62.60734 216.58182 497
1226.97180 62.69629 249.68758 497
1225.65588 62.54165 282.75525 497
1214.98962 61.95435 314.77200 472
263.57791 3.48814 204.44324 314
409.38895 17.24192 171.85089 309
440.68018 20.24335 172.16136 301
1183.28223 90.35223 121.16432 490
1185.04260 90.41084 152.86212 482
1222.66809 93.92664 183.56039 497
1220.95959 93.77821 216.51985 497
1220.75537 93.84213 249.61420 498
1219.50256 93.79681 282.33093 498
1208.49780 92.79386 314.55145 473
266.98334 5.33749 203.50793 314
408.83121 23.23990 171.84087 309
440.00305 27.17583 172.18619 301
1176.80713 120.26073 121.51008 492
1178.73938 120.37101 153.21982 484
1216.13867 125.19868 183.67218 498
1214.50098 124.95164 216.47964 498
1213.13074 124.75459 249.45291 499
1212.06140 124.53857 282.14203 499
1202.08740 123.36678 314.09915 473
266.83783 6.83369 203.50995 314
408.07224 29.17124 171.84114 309
474.31400 39.71334 165.10847 300
1170.70886 150.03003 121.55093 493
1172.51587 150.34045 153.36899 484
1215.27661 156.92607 183.43988 499
1213.34119 156.56207 216.63126 498
1213.33972 156.77472 249.50822 499
1211.99084 156.55795 282.54691 499
1195.77905 153.90225 313.96481 474
266.65314 8.33285 203.50537 314
407.13080 35.13374 171.81833 309
471.65430 47.39613 165.35208 448
1164.64282 179.59268 121.62105 493
1166.77881 179.82715 153.33083 484
1209.13770 187.90771 183.39978 499
1206.96863 187.73706 216.52147 498
1206.90930 187.62027 249.36876 499
1205.78943 187.50858 282.32071 499
1189.63367 184.29343 313.72028 474
1335.64429 212.14009 366.28021 408
266.41800 9.82571 203.50114 314
406.05688 41.00879 171.81836 309
464.50015 54.05806 166.51913 452
1158.47424 209.19179 121.81432 493
1160.46570 209.61957 153.17128 484
1202.69568 219.07321 183.55511 499
1200.71179 218.55609 216.63492 498
1200.67737 218.62766 249.36336 499
1199.50513 218.40421 282.48523 499
1183.41431 214.70311 313.85498 474
1275.13794 235.08362 358.98505 498
266.12469 11.30771 203.50150 314
404.79126 46.91672 171.84143 309
455.85468 60.00409 167.90744 424
1152.56519 238.83296 121.56402 492
1154.42993 239.34700 153.16179 484
1196.31750 250.08850 183.62767 499
1195.17310 249.67758 216.58125 499
1193.96057 249.44443 249.48808 499
1192.74951 249.25179 282.48587 499
1177.23108 245.18199 313.86218 474
1247.33484 263.29282 356.20120 498
1283.08240 272.47015 397.70068 468
265.79895 12.78543 203.50768 314
403.29803 52.68900 171.80705 309
454.03131 67.41119 167.88962 297
1146.29919 268.61020 121.29189 492
1148.28430 269.15927 153.15715 483
1430.30469 351.03412 175.39409 498
1174.49854 276.61380 314.50912 429
1264.62903 302.90274 359.82352 468
265.41431 14.24048 203.49866 314
430.05551 67.71242 164.83003 308
1140.31531 298.47275 121.23718 490
1142.33167 298.92661 152.98000 483
1422.24841 389.97110 174.95329 497
1255.87292 336.07425 360.05728 484
1304.08972 351.77496 404.70602 453
265.00150 15.67646 203.50017 314
427.81619 74.28148 164.86179 308
1134.14709 328.44904 120.77159 489
1136.05188 329.15933 152.54807 480
1271.59033 378.12323 363.75739 332
1272.38354 378.21359 401.32034 347
375.50562 61.02633 171.54567 316
420.86703 78.96286 165.97197 429
1128.18604 358.94943 120.32869 488
1129.73779 359.61142 152.36034 479
373.60028 65.94112 171.48878 316
412.80725 82.91048 167.39452 435
1121.89832 389.66611 119.71944 487
1166.93579 409.23334 148.85472 274
1436.69910 525.74994 173.28844 299
394.65442 81.59844 164.67851 317
408.81726 88.26138 167.76660 305
1115.44202 420.77029 119.06995 485
1157.08813 440.15732 148.52985 274
1270.72766 493.98804 178.33896 443
1274.17908 495.38757 216.63969 355
1273.32422 495.16992 254.50351 492
391.94696 87.04160 164.67070 317
1109.07397 452.25385 118.13970 483
1109.70142 452.59482 150.97200 477
1210.11035 503.68509 180.12027 266
1387.95789 594.63446 216.38359 384
388.66571 92.08781 164.84563 429
1102.69531 484.45746 117.16257 481
1102.89526 484.89951 150.56380 475
1199.92505 538.13989 180.05109 266
1136.53052 503.06671 216.56651 347
381.21408 94.71608 166.28134 434
1096.18115 517.57001 116.20725 478
1096.00085 517.29242 149.67155 473
1129.20325 536.86102 181.90634 485
1293.57886 634.33667 216.40994 350
374.13257 97.14944 167.53885 439
1089.50000 550.91638 114.96893 476
1089.01685 550.74713 149.09935 471
1186.88672 612.76392 179.08379 499
1190.96777 615.38489 216.53864 386
370.92828 101.83230 167.61761 315
1082.69824 585.42084 113.67640 473
1081.60266 584.77325 148.08411 468
1168.57825 643.79657 178.97928 499
1169.02051 644.10339 216.42424 499
367.74527 106.55241 167.56801 315
1156.04480 679.27179 140.82712 418
1150.05859 674.99512 178.85416 499
1150.59509 675.31763 216.64714 498
11300.42676 38129.08203 -1083.84363 0
-182.58142 931.35193 82.89704 400
-184.95587 936.85272 116.05810 400
118.04253 150.84959 167.39273 316
111.17287 150.58948 166.41440 314
106.54086 147.09320 166.39224 314
99.00063 147.06816 165.10674 419
90.62290 147.54686 163.56316 424
86.01539 143.42625 163.50471 307
73.87752 156.32524 166.26326 305
102.75436 117.94814 171.53807 316
69.05981 151.68364 166.27260 305
99.20695 114.10908 171.58293 316
62.49049 148.60201 165.64471 409
95.79641 110.14609 171.60609 316
51.73143 149.01430 163.70341 403
-1075.21509 1142.42969 46.02052 459
-1129.52771 1190.64734 98.24809 413
92.52890 106.05450 171.59802 316
73.77218 121.57380 171.79507 308
-1072.08142 1069.50110 51.18820 430
-1120.80908 1109.78052 102.11800 418
89.39017 101.86584 171.66597 316
70.16914 116.80914 171.78790 308
21.18064 154.82585 166.06233 297
-1044.17957 981.31659 58.71699 413
-1112.60742 1034.37939 105.70464 424
86.39977 97.64527 171.68787 316
66.73706 111.89056 171.82234 308
13.73062 150.42143 165.36006 389
-1109.77344 966.54150 54.38268 405
-1096.07666 956.55731 109.80582 434
83.50058 93.24662 171.69127 316
63.43292 106.89146 171.86407 308
-1.11708 150.74277 162.90598 382
-1190.00720 958.93036 48.35992 395
-1172.82617 947.48102 105.76482 413
-1501.47913 1170.61487 147.95795 415
80.77082 88.84468 171.71896 316
60.30389 101.83050 171.88728 308
33.41244 118.87602 172.13142 300
-1255.91528 937.32721 101.56571 407
-1566.35059 1134.21106 147.33290 425
78.15532 84.30534 171.75069 316
57.32452 96.61153 171.94337 308
29.92444 112.83430 172.13663 300
-46.12068 157.86317 165.07616 286
-1346.07446 926.78876 97.14146 401
-1556.69885 1051.15552 149.03487 429
75.70696 79.73192 171.78738 316
54.49014 91.36160 171.92226 308
39.39924 99.67875 175.05051 319
10.07249 115.81931 176.56569 270
-1438.82520 912.62262 92.08352 394
-1547.53662 972.23914 150.34047 434
73.39608 75.02998 171.78722 316
60.69366 81.51450 174.24864 385
51.85906 86.01172 178.49451 325
24.92933 99.71486 180.00793 292
-1575.19788 915.23840 84.48771 299
71.18411 70.30158 171.81664 316
64.24346 73.58299 175.82716 390
54.84876 77.99214 179.74077 300
22.36863 93.23511 180.06229 314
-26.04869 116.06304 180.42673 343
74.10421 63.36962 173.25191 386
67.65210 66.13074 177.26540 381
43.69634 76.50294 177.84740 373
33.34552 81.00851 182.57372 336
21.11030 86.28815 187.69307 315
1.27558 94.85490 192.79442 283
76.31900 57.06665 174.43433 420
71.05208 59.12023 178.58679 386
47.61087 68.42457 179.14624 389
40.08371 71.40382 184.18573 373
31.37581 74.86060 189.46695 368
19.61652 79.53551 195.03835 332
2.81239 86.14117 201.02486 311
77.71798 51.34863 175.34006 423
72.65231 53.14978 179.40968 419
51.11415 60.91854 180.30702 393
44.14941 63.43622 185.27473 388
36.57142 66.11854 190.55914 373
27.72704 69.33522 196.18077 368
17.98706 72.98344 202.23186 362
79.05944 45.81249 176.11298 427
71.84588 48.16468 179.58405 308
54.20091 53.91768 181.33119 410
47.83171 55.99174 186.21095 393
40.75135 58.30394 191.36363 388
33.12973 60.73195 196.94235 372
24.09212 63.70848 202.84512 367
-3849.19873 1322.59045 75.54154 485
-3850.14502 1322.81140 215.88741 485
80.43594 40.52599 176.87334 432
70.50344 43.41998 179.59930 308
56.48352 47.46769 182.11937 421
50.55238 49.21760 186.94058 409
44.17393 51.07224 192.09944 404
37.33358 53.03760 197.52185 399
29.62934 55.30296 203.34709 382
81.72710 35.41725 177.55936 435
63.61993 40.07632 178.24707 429
58.37173 41.41651 182.80376 424
52.90743 42.79702 187.61235 420
46.85847 44.35161 192.63374 408
40.33701 46.02109 198.01471 403
33.30946 47.84918 203.70309 397
25.28368 49.91333 209.87791 269
82.88953 30.48137 178.15501 457
65.37843 34.37609 178.94273 432
60.29867 35.55317 183.44627 428
54.93570 36.71658 188.18375 423
49.32967 37.97252 193.17160 418
43.16495 39.37698 198.40022 406
36.39700 40.87548 204.02287 401
29.06094 42.51075 210.04881 358
-184.67365 90.30096 216.51318 296
83.11793 25.85660 178.43176 459
66.92657 28.95000 179.56693 455
62.15245 29.86088 184.01292 431
56.95856 30.84615 188.67319 426
51.50294 31.89665 193.60176 421
45.72289 32.99060 198.77327 416
39.44145 34.20195 204.31308 405
32.46279 35.54462 210.17607 399
-182.95602 76.62290 216.56416 424
83.39441 21.33197 178.70016 461
67.21030 23.85658 179.82149 456
62.66724 24.57817 184.28242 452
57.91599 25.36048 188.95201 447
52.87394 26.15414 193.88783 442
47.63797 26.96586 199.04762 437
42.01641 27.84539 204.56583 414
35.60461 28.88244 210.36165 402
83.65849 16.82793 178.94812 462
67.55781 18.85263 180.03940 457
63.05731 19.42908 184.47614 453
58.29011 19.99508 189.16565 448
53.34151 20.63739 194.05144 443
48.14455 21.31196 199.20137 438
42.63936 22.02265 204.65359 433
36.84708 22.71934 210.38956 428
83.96724 12.36548 179.13496 463
67.89632 13.86135 180.20766 459
63.43190 14.30420 184.64577 454
58.72969 14.74074 189.28922 450
53.80553 15.19789 194.17194 445
48.68421 15.67785 199.31299 440
43.25728 16.20274 204.70230 435
37.50746 16.75410 210.47171 429
84.29439 7.96454 179.31261 464
68.30293 8.98100 180.39677 460
63.82226 9.24579 184.80211 455
59.20214 9.51946 189.42949 451
54.37571 9.83675 194.31401 446
49.30167 10.17085 199.40530 441
43.90022 10.48100 204.78210 436
38.24518 10.85815 210.46800 430
-181.52805 24.63731 269.84589 486
-187.13176 25.09093 284.41949 360
84.67454 3.57047 179.41626 465
68.70430 4.07602 180.55191 461
64.32157 4.20670 184.96968 457
59.75439 4.36511 189.54900 452
54.91477 4.51933 194.39014 447
49.90487 4.66638 199.50034 442
44.55402 4.82573 204.86079 437
38.92665 5.01519 210.51822 431
-181.55670 11.96636 269.81747 487
