# .PCD v.7 - Point Cloud Data file format
VERSION .7
FIELDS x y z rgb
SIZE 4 4 4 4
TYPE F F F U
COUNT 1 1 1 1
WIDTH 551
HEIGHT 1
VIEWPOINT 6704.026855 628.981567 138.220871 -0.648112 -0.090384 -0.080031 0.751915
POINTS 551
DATA ascii
85.53076 -0.76437 178.90782 467
69.60915 -0.77869 180.06892 462
65.17538 -0.76453 184.53438 457
60.54379 -0.77190 189.22873 453
55.67635 -0.74657 194.14290 448
50.58511 -0.78794 199.28716 443
45.21933 -0.77758 204.71472 438
39.48854 -0.74596 210.47058 432
-181.33540 -0.70765 270.23935 487
-136.37035 -0.75750 276.44458 495
85.17936 -5.21877 178.76022 465
69.15390 -5.73005 179.93715 461
64.65771 -5.83816 184.41246 456
59.99319 -5.98282 189.11229 452
55.10419 -6.15025 194.03606 447
49.96748 -6.32282 199.22803 442
44.53125 -6.47704 204.68004 437
38.79073 -6.65047 210.44043 431
-181.35172 -13.60446 270.33051 487
-151.12227 -12.64508 278.90878 266
84.86251 -9.68225 178.58447 464
68.76711 -10.68606 179.73839 460
64.18997 -10.97415 184.28383 455
59.48254 -11.25297 188.96394 451
54.56586 -11.60310 193.93770 446
49.36974 -11.91245 199.11432 441
43.88614 -12.28031 204.62247 436
38.07730 -12.64094 210.41376 430
84.54115 -14.21404 178.37561 463
68.41009 -15.70995 179.54884 459
63.80019 -16.14633 184.07298 454
59.03590 -16.61045 188.79701 449
54.02418 -17.07556 193.79233 445
48.76828 -17.59953 199.01311 440
43.22246 -18.10581 204.52472 435
37.38667 -18.63168 210.37405 429
84.26570 -18.74861 178.16296 462
68.05904 -20.81201 179.33749 457
63.42697 -21.37717 183.88623 453
58.64182 -22.01742 188.62027 448
53.54411 -22.64899 193.63753 443
48.23989 -23.31010 198.88631 438
42.60371 -24.01006 204.44119 433
36.65003 -24.77724 210.33623 428
83.40765 -22.84486 178.53210 461
67.23040 -25.38353 179.67834 456
62.64587 -26.14077 184.16707 452
57.86984 -26.87784 188.85983 447
52.83487 -27.68063 193.79663 442
47.45638 -28.49139 199.02454 419
41.46808 -29.47490 204.47020 414
34.91657 -30.48191 210.33783 402
83.13463 -27.44037 178.27206 459
66.71141 -30.53815 179.34224 435
61.71792 -31.51602 183.78627 431
56.48353 -32.48490 188.51562 426
50.97902 -33.52361 193.43948 421
45.17206 -34.63049 198.69647 416
38.73005 -35.87130 204.21855 404
31.71941 -37.18740 210.18591 364
-182.87366 -78.15405 216.52559 424
82.75587 -32.08438 177.92340 438
64.95921 -36.07276 178.71506 432
59.87094 -37.20074 183.21031 428
54.49563 -38.43121 187.98570 423
48.81312 -39.67210 193.02510 418
42.49553 -41.09846 198.33086 406
35.67432 -42.60618 203.93857 401
28.18172 -44.29389 210.02521 358
-188.89008 -92.78127 216.52391 296
81.44978 -37.09219 177.31465 435
63.23360 -41.78900 178.01819 429
57.92876 -43.13059 182.58658 424
52.42088 -44.55249 187.40080 420
46.20141 -46.11244 192.47711 408
39.59085 -47.81084 197.89706 402
32.50894 -49.63787 203.67438 397
-188.42311 -106.27924 202.60286 484
80.11016 -42.25952 176.61008 432
71.19290 -44.86774 179.64845 308
56.00794 -49.29364 181.92854 421
49.96031 -51.05175 186.75598 409
43.48350 -52.89819 191.91090 404
36.38500 -54.93745 197.38792 387
28.39142 -57.26498 203.27223 371
78.72104 -47.64865 175.83104 427
72.58965 -49.61822 179.63324 308
53.60764 -55.80024 181.07564 397
46.91629 -57.97363 185.94336 393
39.77518 -60.26550 191.19841 388
31.90683 -62.83654 196.73346 372
22.68305 -65.81937 202.78862 367
77.35513 -53.21502 175.03020 423
72.25011 -55.02010 179.14781 419
50.27352 -62.93166 180.00969 393
43.22968 -65.47010 184.96613 388
35.38798 -68.27638 190.31454 372
26.36726 -71.54337 195.96748 367
15.53309 -75.39799 202.12753 332
75.94678 -58.99258 174.13838 420
70.17074 -61.24496 178.18462 386
46.69153 -70.55486 178.83247 388
38.96208 -73.62757 183.85953 373
29.40658 -77.38617 189.13649 336
16.65766 -82.45161 194.70038 316
-1.16141 -89.50031 200.79379 311
73.24511 -65.57242 172.82239 386
66.72475 -68.34653 176.86002 395
53.39045 -74.11598 179.76193 300
31.04246 -83.79588 182.03813 336
17.73094 -89.55624 187.14342 315
-12.92098 -102.81773 191.24771 265
72.03009 -71.80028 171.81786 316
63.32297 -75.86494 175.38695 390
55.63758 -79.48772 179.75360 300
17.83740 -97.29019 179.11697 286
-25.34184 -117.54761 180.48210 284
74.21255 -76.52425 171.79671 316
59.08099 -84.25411 173.69130 328
48.90403 -89.39232 177.68820 325
25.70746 -101.21971 179.99873 292
76.58375 -81.21549 171.79237 316
55.37732 -92.82681 171.96738 308
35.18618 -103.93793 173.94542 272
-52.07827 -151.93439 164.79907 373
79.03967 -85.80836 171.79350 316
58.23406 -98.12914 171.97585 308
30.81724 -114.32710 172.17447 300
-45.32732 -159.33173 165.15245 286
81.69001 -90.33806 171.74438 316
61.20595 -103.34386 171.93309 308
34.29528 -120.39103 172.14189 300
84.42829 -94.78281 171.75909 316
64.39754 -108.44505 171.92784 308
1.96329 -150.84114 163.48506 382
87.33242 -99.15435 171.71368 316
67.70411 -113.39355 171.86076 308
16.63408 -150.46538 165.89034 389
90.36877 -103.42007 171.68863 316
71.15563 -118.32445 171.87625 308
22.16462 -156.33115 166.13510 297
-3314.99780 -2744.48486 70.69829 314
93.56570 -107.59554 171.67943 316
46.83482 -146.25214 163.40292 300
-3018.58813 -2681.62988 79.58667 315
-3196.78931 -2828.47510 217.26711 414
96.86517 -111.65963 171.66072 316
54.35439 -149.14186 164.24544 404
-3105.08301 -2933.70630 72.27900 354
-2999.22144 -2841.11890 217.34215 469
100.25597 -115.65068 171.62434 316
65.00076 -148.71056 166.17575 409
-2818.99658 -2856.37573 81.49027 375
103.82954 -119.49737 171.58427 316
70.15090 -153.13692 166.35085 305
87.00826 -145.09755 163.55037 307
92.96538 -147.69997 164.09579 425
101.39560 -147.04973 165.72745 419
107.74867 -148.58334 166.47374 314
114.58393 -149.05650 167.45163 316
-537.95093 -1047.19714 89.59824 454
-542.87012 -1053.48889 131.75664 447
-12677.89941 -44397.22656 -12156.56055 0
622.65350 -2105.20190 147.06839 436
678.73071 -2047.69519 148.01775 455
734.96155 -2001.32300 149.44814 480
791.44556 -1963.50012 149.89001 491
850.64117 -1938.67578 150.18036 499
11667.04395 -35231.57812 3870.29395 0
911.34387 -1917.68079 150.04404 499
971.51605 -1896.92529 150.25920 499
1032.28528 -1876.24390 149.80450 499
1092.17651 -1852.89600 149.50150 430
1155.60986 -1835.48889 149.31778 492
564.62701 -582.22095 105.12632 459
565.98486 -584.40979 127.33424 460
567.32379 -586.93689 149.47440 458
568.82507 -589.39026 171.73997 408
585.37830 -575.60443 104.23480 383
365.80396 -108.16279 167.63524 315
369.11621 -103.41437 167.65877 315
372.30585 -98.55425 167.65785 315
379.19815 -95.96486 166.45004 434
386.76477 -93.30592 165.07693 429
390.81653 -88.59715 164.74702 317
393.69809 -83.15286 164.71674 317
407.90616 -89.89778 167.75600 305
372.85989 -67.51270 171.55748 316
411.37042 -84.21001 167.58162 434
374.93127 -62.60089 171.56837 316
419.46188 -80.22528 166.24191 429
376.79495 -57.62887 171.58495 316
427.40051 -75.84942 164.91037 308
265.22067 -15.78625 203.50435 288
429.82065 -69.29116 164.87581 308
265.75009 -14.33143 203.50037 314
403.24756 -54.30899 171.80605 309
454.06067 -69.04676 167.86520 297
266.25232 -12.85197 203.50696 314
404.88486 -48.45260 171.84215 309
455.86111 -61.59230 167.94922 297
266.69897 -11.37203 203.50732 314
406.35739 -42.58392 171.85704 309
463.70020 -55.44877 166.71793 452
1542.06738 -296.42853 172.21031 422
1566.26587 -302.09995 216.84114 366
267.10608 -9.87466 203.50090 314
407.60178 -36.68572 171.87630 309
470.87256 -48.79348 165.66147 448
1612.34509 -266.62582 123.60378 321
1513.83057 -247.79388 173.61807 438
1563.14514 -257.43192 216.74611 440
267.46683 -8.36785 203.50635 314
408.68262 -30.77722 171.85815 309
474.94720 -41.29810 165.11693 300
1505.27747 -204.62372 131.26904 325
1487.97668 -201.70459 174.63678 454
1673.31311 -231.25726 216.60886 261
267.78354 -6.84651 203.49831 314
409.61871 -24.77889 171.86943 309
440.86646 -28.74725 172.19801 301
1470.42285 -159.00951 134.10797 427
1467.24646 -158.66785 175.61200 446
268.03558 -5.33666 203.51006 314
410.31348 -18.79095 171.87585 309
441.68063 -21.74170 172.17767 301
1447.95605 -117.06829 135.68086 462
1451.13293 -117.23943 176.19490 454
268.26208 -3.80631 203.50627 314
410.90659 -12.78331 171.88524 309
442.30139 -14.80549 172.16946 301
1430.14648 -77.01907 137.23363 469
1437.79858 -77.40884 176.66356 432
1518.50574 -82.56107 216.61746 260
268.42224 -2.27848 203.50879 314
411.27008 -6.80014 171.86816 309
442.69693 -7.78228 172.22029 301
1415.05774 -38.56632 138.31572 478
1427.32971 -38.81323 177.13651 414
1461.69556 -40.04302 216.55450 468
1567.51794 -43.28368 260.73959 496
1450.73254 -39.38598 297.50241 492
268.54794 -0.74734 203.51024 314
411.46692 -0.78808 171.89586 309
442.90970 -0.75106 172.21744 301
512.23352 -0.79773 168.30717 288
1404.07153 -0.86301 138.90097 272
1417.50708 -0.76867 177.55055 415
1443.07544 -0.85400 216.53143 494
1443.13538 -0.73150 256.70731 494
1441.65173 -0.71521 296.82077 493
1460.96936 -0.71775 338.96289 408
268.61819 0.77689 203.50670 314
60.04171 1.87979 -14.00014 309
442.88077 6.22000 172.21738 301
1392.11279 35.96024 139.81630 491
1408.18408 36.61880 177.89783 366
1435.01721 37.20413 216.67616 496
1434.77100 37.23547 256.48926 495
1433.51221 37.26362 296.11298 494
1452.09558 37.90198 337.93143 409
268.64078 2.30656 203.50232 314
411.27173 11.27441 171.90997 309
442.70358 13.23641 172.18216 301
1384.70215 72.51755 140.24217 495
1400.46252 73.33124 177.95932 367
1421.89062 74.71120 216.72124 497
1421.36938 74.61563 256.17636 497
1420.93115 74.64185 295.52203 496
1443.47839 76.26788 337.33713 410
268.60654 3.83368 203.50099 314
410.89832 17.24524 171.88347 309
442.23416 20.24172 172.17110 301
1373.35901 108.15074 140.76443 496
1393.17432 109.97424 178.24136 368
1413.90100 111.96210 216.64430 498
1413.75159 112.13157 255.94394 498
1412.03833 111.92783 294.99414 496
1435.16992 113.99524 336.97678 411
268.53604 5.34991 203.50548 314
410.35327 23.23388 171.85503 309
441.61890 27.19993 172.16562 301
1368.01611 144.16026 140.89183 498
1386.11206 146.28818 178.18895 369
1405.43506 148.81799 216.57104 499
1405.18335 148.88086 255.89059 499
1404.77393 148.70148 294.80740 498
1427.04297 151.61232 336.59055 412
268.41595 6.85752 203.49869 314
409.66486 29.19352 171.86160 309
475.96475 39.68385 165.06760 300
1382.17480 183.00789 100.82146 288
1357.88599 179.45343 141.04004 498
1379.03674 182.50871 178.18517 369
1403.13660 186.59581 216.59770 499
1403.09424 186.36148 255.93628 499
1401.79224 186.10956 295.00299 498
1419.08105 188.97678 336.23965 412
268.24802 8.37066 203.50221 314
408.73621 35.15297 171.87721 309
471.86194 47.21801 165.62093 448
1371.90710 218.86717 101.26903 288
1352.93420 215.05995 140.94998 499
1372.07861 218.67949 178.16052 369
1395.62085 223.42754 216.76730 499
1395.32703 223.26199 255.86403 499
1393.94641 223.10637 294.84137 498
1411.24463 226.47835 335.98264 412
268.03473 9.87308 203.50177 314
407.68076 41.07688 171.82536 309
464.75592 53.83297 166.77959 452
1362.67029 254.34061 101.45586 288
1345.39807 250.54105 141.19969 499
1364.89941 254.93245 178.25165 369
1387.61987 260.19119 216.67766 499
1387.20300 260.02753 255.86140 499
1386.97083 259.76459 295.09280 499
1402.59460 263.42853 336.07916 412
1476.38123 279.87869 385.95255 280
267.77023 11.35854 203.50378 314
406.40518 46.94441 171.80821 309
457.39716 60.03973 167.96373 297
1353.85620 290.12473 101.40398 288
1337.20276 285.74573 141.10870 455
1357.66943 290.96820 178.21831 369
1468.53516 319.66617 343.35825 498
267.46674 12.83979 203.50726 314
404.97571 52.76533 171.81885 309
455.84613 67.54090 167.86905 297
1346.04077 325.95020 101.22009 288
1330.37048 321.44498 140.96320 498
1350.28943 327.27390 178.08395 312
1452.03674 356.80984 342.90018 428
1504.54504 372.16821 392.62088 468
1492.23462 368.72818 435.32169 492
1489.64417 367.88986 479.39066 388
380.44943 51.12627 171.58018 316
431.76312 67.76336 164.81084 308
1338.56506 362.45691 100.85392 288
1319.97510 356.42819 140.92824 497
378.88037 56.10127 171.56950 316
429.52820 74.33979 164.85776 308
1331.61755 399.18652 100.32345 288
1314.92529 392.95169 140.45334 496
377.19678 61.06254 171.53796 316
421.52054 78.61238 166.27357 429
1325.48608 436.38315 99.57288 294
1304.82361 428.16260 140.25809 495
1583.34424 538.46613 168.59619 496
375.30945 65.99946 171.50656 316
413.56305 82.55283 167.66858 435
1319.44006 474.29291 98.89207 293
1299.51733 465.86884 139.68132 494
1395.50317 507.47556 174.83548 494
1581.10938 587.50604 216.53027 476
396.38950 81.66280 164.69142 316
410.67389 88.38715 167.76147 305
1289.08533 501.76291 139.23557 492
1313.26660 513.27197 177.10399 317
1325.83020 519.10791 216.76848 358
393.72519 87.12966 164.71744 317
1283.67908 540.36603 138.37959 490
1305.01160 551.24365 176.93434 312
1316.24756 557.24884 216.47922 480
389.64917 91.77609 165.08035 429
1272.95728 577.46716 137.80190 488
1296.76050 590.26953 176.37541 312
1308.05029 596.65259 216.60063 478
382.24225 94.33817 166.47838 434
1268.39575 618.17847 136.79543 417
1349.71509 666.58838 173.73975 499
1350.88196 667.21869 216.40640 499
375.78015 97.10835 167.59995 315
1334.38110 705.38513 173.47638 458
1335.82080 706.39203 216.59317 465
372.74597 101.93472 167.60251 315
1295.94690 729.30328 258.96774 323
369.62436 106.68601 167.57675 313
13.94690 930.81158 90.68022 480
12.78459 935.59857 121.97136 480
11.39531 941.90692 153.13750 383
120.04577 151.07396 167.39751 316
115.11458 148.20888 167.23138 441
108.61388 147.23215 166.37871 314
101.41077 146.81976 165.28780 419
92.93405 147.42628 163.65572 424
88.12424 143.60910 163.52280 307
76.02480 156.47728 166.31268 305
-906.01733 1202.58081 53.89593 316
104.82407 118.17715 171.51546 316
71.19677 151.79901 166.24152 305
-854.19916 1077.06458 66.43982 377
-968.13922 1191.34180 105.64973 359
101.29512 114.32529 171.56886 316
64.88516 148.55219 165.76326 409
-847.90295 1005.69781 71.60207 474
-934.70923 1087.49561 112.00335 366
97.90358 110.34888 171.57901 316
54.17440 148.94598 163.80914 403
-897.95306 988.61072 68.94044 448
-892.25031 983.33112 118.86149 476
94.68639 106.30092 171.60121 316
75.86238 121.83591 171.74571 308
-951.00110 971.33435 66.17738 446
-942.95056 964.83026 116.98586 461
91.51904 102.10766 171.64568 316
72.29480 116.99467 171.79050 308
23.34376 154.98788 166.00742 297
-1006.87988 954.48962 62.79298 420
-997.25635 946.57764 115.21462 457
88.50928 97.83840 171.66293 316
68.87166 112.14286 171.83044 308
16.26968 150.39044 165.45839 389
-1066.50562 937.26184 59.30585 434
-1053.69263 928.01038 113.02473 453
85.68379 93.47553 171.68753 316
65.58955 107.11591 171.82259 308
1.42133 150.73895 163.00830 382
-1129.18726 919.11029 55.44157 430
-1112.65283 908.19135 110.33048 448
-1375.91931 1086.88269 153.09608 485
82.93281 89.03992 171.71417 316
62.43810 102.03164 171.86386 308
35.54243 119.09408 172.09361 300
-1198.05554 901.89545 50.53294 402
-1174.71741 887.34479 107.83076 443
-1370.01025 1011.46106 154.74417 392
80.35455 84.47861 171.75081 316
59.49988 96.80530 171.88452 308
32.06173 113.05343 172.09827 300
-43.80000 157.95302 165.10316 286
-1239.78894 865.33282 104.91295 438
-1341.77698 925.29803 156.86890 398
77.89495 79.86216 171.74757 316
56.71412 91.52842 171.92323 308
37.49597 102.13499 174.14275 319
-52.98313 151.80037 164.31334 373
-1322.37329 849.87628 100.98693 386
75.57681 75.20245 171.74910 316
60.36176 83.00201 173.60979 385
50.25019 88.12743 177.66061 325
26.96115 99.99242 179.95497 292
-1450.15210 852.63171 93.28056 324
73.43166 70.44279 171.78644 316
64.02377 74.87688 175.15738 390
56.96897 78.18877 179.74203 300
20.70080 95.26504 179.38179 314
-24.10366 116.31615 180.36577 284
74.06549 64.46779 172.57397 386
67.52378 67.35068 176.62686 381
54.77251 72.82946 179.76170 300
32.33025 82.59049 181.99454 336
19.42715 88.13551 187.15442 315
-5.07221 98.77739 191.90245 266
76.54407 57.98318 173.86522 420
70.98502 60.22429 178.00397 386
47.42905 69.53951 178.62166 389
39.75978 72.56049 183.71407 373
30.69958 76.16314 189.09560 336
18.27356 81.10845 194.69775 332
0.60537 88.06996 200.76837 311
77.96156 52.16264 174.72900 423
72.83340 54.01990 178.91518 419
50.99010 61.87272 179.83264 393
43.93007 64.44495 184.81004 388
36.21199 67.21899 190.15700 373
27.17222 70.50022 195.89073 368
16.81685 74.24080 202.09309 332
79.35471 46.59850 175.56314 427
74.09042 48.29407 179.57933 308
54.27857 54.74879 180.86305 410
47.65903 56.89235 185.80809 393
40.48074 59.24706 191.07152 388
32.67091 61.75440 196.67035 372
23.47223 64.79322 202.70872 367
80.72030 41.20529 176.27740 432
72.75458 43.51069 179.59421 308
56.61616 48.23343 181.66377 421
50.55504 49.96161 186.57764 409
44.09782 51.86514 191.79993 404
37.09079 53.89925 197.29526 387
29.17845 56.21533 203.25241 372
82.10161 36.00002 177.00899 435
71.58876 38.71692 179.58849 308
58.56198 42.04653 182.35374 424
52.96080 43.50309 187.24142 420
46.83157 45.06075 192.33981 408
40.19535 46.77710 197.79509 403
33.07302 48.60226 203.62126 397
24.67452 50.78869 209.86078 269
83.35899 30.97416 177.60567 457
65.63037 34.93838 178.46341 432
60.49484 36.09365 182.99049 428
55.04616 37.31519 187.77417 423
49.31499 38.58972 192.84558 418
43.08875 40.00857 198.19218 406
36.20300 41.53394 203.92770 401
28.74667 43.21589 210.01727 358
-186.65230 91.33007 216.64464 296
83.59676 26.30287 177.93100 459
67.37219 29.39576 179.07513 455
62.39454 30.33139 183.56914 431
57.11200 31.37511 188.29256 426
51.53116 32.43060 193.32678 421
45.67145 33.53693 198.60474 416
39.28257 34.78860 204.17461 405
32.19470 36.08069 210.15895 399
-182.87854 77.14273 216.65042 424
83.86671 21.66455 178.15598 461
67.65665 24.22639 179.35263 456
63.03300 24.99006 183.89862 452
58.17895 25.74700 188.64966 447
53.14170 26.53422 193.63124 442
47.75515 27.41720 198.88101 437
41.95655 28.30525 204.43414 414
35.37313 29.35119 210.29178 402
84.18086 17.12031 178.41766 462
67.98135 19.16286 179.56804 457
63.42174 19.74087 184.08763 453
58.60005 20.34413 188.80571 448
53.58640 20.98446 193.76349 443
48.26569 21.66553 199.00699 438
42.69233 22.36845 204.53172 433
36.78476 23.11131 210.38245 428
84.47634 12.60014 178.61082 463
68.36320 14.10770 179.74312 459
63.81301 14.55155 184.23895 454
59.06224 15.01287 188.94920 450
54.04479 15.47892 193.92953 445
48.82429 15.94170 199.10835 440
43.34233 16.47019 204.58925 435
37.50940 17.03467 210.44824 429
84.82379 8.10336 178.75735 464
68.74858 9.12855 179.91264 460
64.22186 9.41190 184.41019 455
59.53294 9.69751 189.12833 451
54.60008 9.99000 194.03427 446
49.42529 10.33983 199.20975 441
43.97153 10.69234 204.67674 436
38.21297 11.02720 210.46060 430
-187.16815 25.24777 271.04623 304
-187.49673 25.24252 284.99011 360
85.19976 3.63749 178.87950 465
69.16917 4.14019 180.03606 461
64.73306 4.29733 184.54826 457
60.08308 4.46306 189.19954 452
55.18209 4.59078 194.15369 447
50.08514 4.77474 199.31308 442
44.67972 4.91509 204.75557 437
38.93437 5.08466 210.51852 431
-181.32614 12.01360 270.31427 487
