# .PCD v.7 - Point Cloud Data file format
VERSION .7
FIELDS x y z rgb
SIZE 4 4 4 4
TYPE F F F U
COUNT 1 1 1 1
WIDTH 511
HEIGHT 1
VIEWPOINT 6633.262695 148.578964 141.479080 -0.642564 -0.094383 -0.082859 0.755869
POINTS 511
DATA ascii
84.97205 -0.72131 179.46977 466
69.11465 -0.73714 180.55927 462
64.74432 -0.74254 184.99135 457
60.17210 -0.71249 189.59193 453
55.37546 -0.72278 194.42543 448
50.36411 -0.72057 199.54219 443
45.06400 -0.74058 204.88138 438
39.44997 -0.72766 210.54236 432
-181.59123 -0.67572 269.90973 487
-144.06355 -0.72626 277.25476 284
84.60565 -5.08551 179.35303 465
68.59669 -5.60250 180.47981 461
64.19608 -5.72614 184.89389 457
59.59925 -5.89389 189.49739 452
54.80921 -6.03145 194.38808 447
49.73173 -6.19881 199.47406 442
44.42189 -6.35890 204.81844 437
38.72112 -6.50562 210.55106 431
-181.54965 -13.41757 269.91681 487
-149.63373 -12.45819 278.21921 285
84.21484 -9.47310 179.21907 464
68.18746 -10.50328 180.34509 460
63.73457 -10.76971 184.78291 455
59.08051 -11.03547 189.38849 451
54.23180 -11.35763 194.26003 446
49.12070 -11.66750 199.40385 441
43.74376 -12.02864 204.76807 436
38.05272 -12.37045 210.50635 430
-181.55984 -26.13576 269.97958 486
83.91163 -13.90762 179.08818 463
67.81610 -15.43193 180.15752 459
63.33099 -15.85608 184.62798 454
58.60902 -16.28443 189.28804 449
53.68461 -16.75911 194.15221 445
48.51102 -17.22153 199.29742 440
43.10167 -17.75923 204.73077 435
37.31508 -18.30599 210.44501 429
-181.48112 -38.99265 270.03665 486
83.60074 -18.37364 178.87184 462
67.46207 -20.41124 179.97437 457
62.92992 -20.94942 184.43201 453
58.16417 -21.54571 189.13852 448
53.21693 -22.19687 194.00963 443
47.98693 -22.86613 199.16663 438
42.43139 -23.55246 204.61000 433
36.64653 -24.29417 210.39398 428
83.30984 -22.86276 178.65170 461
67.12857 -25.40987 179.77325 456
62.55981 -26.14032 184.24416 452
57.78343 -26.88421 188.96083 447
52.76759 -27.67460 193.84608 442
47.40292 -28.55839 199.07278 419
41.43059 -29.48564 204.50410 414
34.86907 -30.50420 210.34506 402
83.04294 -27.40294 178.41875 459
66.60105 -30.53734 179.44838 435
61.64649 -31.48404 183.87981 431
56.43832 -32.49542 188.55690 426
50.94170 -33.55905 193.51740 421
45.12140 -34.63723 198.75304 416
38.69852 -35.89007 204.28415 404
31.68630 -37.23947 210.17619 364
-182.91989 -78.11632 216.59799 424
82.66109 -32.07672 178.05246 439
64.89682 -36.04872 178.80119 432
59.78302 -37.19730 183.31137 428
54.39245 -38.37005 188.05492 423
48.72369 -39.66135 193.06351 418
42.48732 -41.05406 198.36330 406
35.68798 -42.55231 203.98997 401
28.18436 -44.24349 210.05119 358
-188.85988 -92.74940 216.51578 296
81.32777 -37.03541 177.41682 435
63.12656 -41.74110 178.12506 429
57.86369 -43.07415 182.67783 424
52.33888 -44.51282 187.50598 420
46.18741 -46.07800 192.54472 408
39.60838 -47.77158 197.95580 402
32.53149 -49.56682 203.69444 397
-188.36194 -106.26371 202.66978 484
79.97746 -42.18560 176.74022 430
70.59020 -44.94210 179.62578 308
55.92836 -49.19390 181.99953 421
49.90471 -50.94928 186.85617 409
43.43627 -52.81936 192.00156 404
36.39858 -54.86237 197.45099 387
28.45260 -57.13328 203.30478 371
78.63337 -47.52134 175.98172 427
71.93829 -49.70744 179.61922 308
53.57084 -55.66861 181.18752 397
46.92447 -57.82098 186.07460 393
39.78046 -60.12011 191.25108 388
31.94981 -62.70478 196.81956 372
22.80524 -65.67489 202.80101 367
77.23963 -53.02962 175.17709 423
72.16582 -54.86292 179.28906 419
50.22500 -62.74812 180.12946 393
43.22058 -65.26512 185.07436 388
35.40922 -68.06705 190.40184 372
26.44994 -71.31632 196.02003 367
15.76640 -75.18989 202.17006 332
75.83321 -58.77769 174.29568 420
70.12895 -61.04660 178.34412 386
46.72109 -70.29446 178.97595 388
38.99582 -73.35155 183.97417 373
29.59830 -77.08767 189.24780 336
16.99432 -82.04552 194.81050 316
-0.72088 -89.10689 200.85303 311
-58256.30078 -23150.90430 8492.57520 0
73.19451 -65.28251 173.02425 386
66.75884 -68.04669 177.02928 395
52.68343 -74.14270 179.77176 300
31.27430 -83.39011 182.20343 336
18.10805 -89.10221 187.23260 315
-10.37889 -101.42882 191.57764 265
71.26810 -71.78116 171.85555 316
63.38971 -75.48058 175.61078 390
54.92821 -79.45117 179.78275 300
18.85946 -96.45508 179.47433 286
-25.86472 -117.46602 180.47578 284
73.45284 -76.52054 171.80273 316
59.47203 -83.64891 173.99475 328
49.37685 -88.76509 177.95662 325
25.02737 -101.17140 180.04329 292
75.75012 -81.17724 171.83022 316
54.58979 -92.79958 172.00534 308
36.70728 -102.63937 174.48920 319
-52.91237 -151.90996 164.71074 373
78.20156 -85.78942 171.78427 316
57.37980 -98.10683 171.96819 308
30.05448 -114.22680 172.17839 300
-45.96222 -159.18904 165.16927 286
80.79451 -90.30618 171.78596 316
60.34794 -103.28445 171.93619 308
33.53912 -120.27513 172.18736 300
83.53006 -94.70622 171.73842 316
63.50622 -108.31218 171.92528 308
0.89783 -150.84708 163.44043 382
86.37146 -99.05997 171.73572 316
66.78328 -113.30172 171.88730 308
15.55346 -150.56042 165.85918 389
89.41745 -103.33397 171.70367 316
70.20020 -118.22270 171.88408 308
21.25058 -156.14935 166.07739 297
-1860.01099 -1615.24121 130.37868 396
92.51407 -107.49944 171.66385 316
45.84909 -146.08434 163.39497 300
95.79595 -111.53604 171.66843 316
53.08990 -149.15848 164.18558 404
99.18905 -115.52321 171.60654 316
63.74775 -148.80942 166.09546 409
-2692.05176 -2736.20337 85.51958 370
102.69459 -119.35127 171.59348 316
69.02352 -153.02214 166.34781 306
-2454.69531 -2676.69019 92.17134 377
85.84316 -144.91847 163.56953 307
-2263.39526 -2646.37256 97.90319 410
91.50684 -147.73161 164.00743 424
-2299.25171 -2860.07910 92.10460 452
99.84212 -147.22949 165.56850 419
106.38760 -148.38474 166.45909 314
111.03931 -151.90765 166.44911 314
119.99004 -149.02127 168.48206 489
127.09309 -148.19464 169.73529 441
-3868.32104 -8677.69629 -1046.17456 0
-20.16104 -1056.45593 110.10336 499
-20.75297 -1060.53491 145.52744 485
1120.68982 -2082.85742 142.75510 453
1174.70923 -2030.05627 143.56708 475
1229.74377 -1983.04175 143.97403 490
1288.40833 -1944.25232 144.32668 498
1351.98987 -1914.58374 144.04221 260
1419.99731 -1891.35535 143.97414 490
1491.87891 -1871.26880 143.21358 405
1565.96289 -1852.17957 141.81619 471
1640.77844 -1831.37207 141.37756 468
1718.43127 -1811.33057 140.01491 469
373.78320 -103.44247 167.64670 315
1059.55798 -569.58356 116.96994 499
1061.38733 -570.77960 150.34352 488
1065.03723 -573.33716 183.41978 388
377.08493 -98.65386 167.68326 315
382.23334 -94.91448 167.03741 434
389.71915 -92.30154 165.67795 429
395.77667 -88.61546 164.76093 317
398.71759 -83.17709 164.75482 317
413.09976 -89.96896 167.75740 305
401.37677 -77.62944 164.71797 317
415.81128 -83.91145 167.82999 305
380.06952 -62.56898 171.58195 316
421.76498 -79.13400 166.97485 429
382.00766 -57.65387 171.63106 316
430.25113 -74.97116 165.52087 424
383.82321 -52.62455 171.63362 316
435.21194 -69.30151 164.87292 308
385.50580 -47.56389 171.65166 316
437.39243 -62.63918 164.89969 308
387.03970 -42.46363 171.64874 316
410.34003 -48.47425 171.87128 309
461.55377 -61.63817 167.95839 297
388.39389 -37.35492 171.65924 316
411.83267 -42.57693 171.89781 309
464.78516 -54.40282 167.71513 452
389.59955 -32.17671 171.68381 316
81.69018 -15.58417 -19.38596 309
471.84509 -47.88865 166.62036 448
390.65411 -26.97838 171.68393 317
414.35876 -30.75736 171.93402 309
479.18808 -41.00775 165.46655 443
2029.95642 -286.70880 156.92056 432
391.52408 -21.78939 171.69087 317
415.35733 -24.75275 171.96219 309
481.91321 -33.16099 165.11990 300
1993.32043 -224.34857 158.46338 499
392.26669 -16.52444 171.73447 317
416.13480 -18.82199 171.92252 309
447.45505 -21.73771 172.22902 301
2030.73145 -171.51826 97.66048 389
1957.89709 -164.46115 159.88052 459
392.82477 -11.28223 171.72781 317
416.77951 -12.76869 171.95081 309
448.15927 -14.76788 172.24318 301
1989.69409 -111.87964 100.98542 411
1931.12915 -108.23804 160.81987 468
393.20468 -6.03428 171.74254 317
417.20660 -6.76642 171.96414 309
448.67499 -7.76166 172.22906 301
1918.36938 -54.19363 105.76976 359
1909.29016 -53.80659 161.40073 456
393.45563 -0.77486 171.69833 317
417.48935 -0.78661 171.96016 309
448.94135 -0.78005 172.22696 301
1891.24170 -0.83789 107.44128 425
1893.02173 -0.71636 162.08803 432
1989.91357 -0.52079 216.58440 276
1929.24121 -0.76866 272.16415 493
1950.81152 -0.84727 329.91937 407
269.54718 0.83089 203.50867 314
412.63211 5.29886 171.89450 309
444.23413 6.28165 172.23164 301
1866.15442 51.04055 109.22430 431
1871.99121 50.94513 163.11549 436
1908.94409 52.49211 217.41835 495
1911.39966 52.32691 272.87485 494
1932.13098 52.95462 329.43491 408
269.64789 2.37059 203.50031 314
412.48193 11.31466 171.88834 309
444.06708 13.31576 172.21794 301
1850.89270 101.67423 110.37763 472
1858.74353 102.00016 163.63461 413
1891.69275 104.31445 217.22644 496
1894.22668 104.54085 272.23422 496
1919.18591 105.91042 328.80569 409
269.69882 3.91125 203.49977 314
412.18686 17.38588 171.90100 309
443.73090 20.32108 172.22183 301
1837.95764 151.86624 110.84297 474
1847.17407 152.89037 163.93999 415
1880.66504 156.15874 217.47231 497
1881.66211 156.31668 271.79129 498
1906.79517 158.65996 328.14825 410
269.70285 5.43961 203.50099 314
411.75986 23.37332 171.90552 309
443.14725 27.31603 172.19650 301
1826.65808 202.01428 111.04418 475
1835.82910 203.37093 164.12198 415
1873.57312 208.06775 217.23615 498
1876.08179 208.32735 271.94385 498
1894.38330 210.40404 328.06430 410
269.65689 6.96460 203.50533 314
411.09351 29.35755 171.88496 308
477.63904 39.92579 165.09631 300
1815.08960 251.41791 111.44831 476
1824.67859 253.05124 164.00247 416
1861.74512 259.12000 217.14172 499
1864.50476 259.45047 271.80875 498
1881.29053 262.35699 327.59241 396
1946.27393 272.27579 389.26587 455
269.56192 8.49174 203.49738 314
410.26700 35.31812 171.87431 308
472.00421 47.11173 165.97311 448
1803.64148 301.18231 111.67908 476
1813.50745 303.00027 164.05046 416
2091.12769 356.03381 217.38000 483
1933.21289 325.75974 331.39267 498
1966.98828 332.16324 392.31125 352
269.42133 10.00117 203.50681 314
409.21530 41.23571 171.87794 308
464.93747 53.69454 167.11075 452
1792.54431 350.52158 111.63821 476
1802.50330 352.56360 164.06532 417
1977.96436 391.91724 394.56650 495
1969.08105 390.10434 453.24451 478
269.24139 11.49736 203.50528 314
408.04083 47.10604 171.87488 308
459.35629 60.26151 167.94669 297
1781.14246 399.76010 111.65750 477
383.47125 46.23363 171.62825 316
435.42300 61.35038 164.86723 308
457.79449 67.78652 167.84239 297
1770.29590 448.88272 111.65551 476
382.10611 51.30453 171.61633 316
433.57480 67.99870 164.84610 308
1758.88049 498.48584 111.22855 476
1767.54358 501.16534 164.13551 393
380.60083 56.30413 171.59299 316
430.49567 74.24464 165.12770 424
1747.82764 548.52850 110.89306 475
1755.77124 551.36157 163.95396 436
378.96201 61.26788 171.58720 316
422.11703 78.32848 166.61383 429
1736.56079 598.59766 110.59090 474
1744.27246 601.65253 163.39270 436
1852.06824 644.55383 217.09381 302
377.20309 66.18060 171.54861 316
415.13712 82.60911 167.77267 305
1831.81018 695.66827 102.26881 471
1809.86902 685.99152 160.51549 496
1813.56702 687.60303 216.95869 482
398.30655 81.93503 164.67441 316
412.76837 88.71300 167.74406 305
1797.83569 740.20728 160.05121 470
1761.32324 723.20667 217.06284 430
395.74915 87.36837 164.70509 317
390.67175 91.44273 165.42876 429
383.32135 93.93775 166.83592 434
377.97366 97.40051 167.62198 315
375.07590 102.25265 167.63159 315
468.85550 939.48267 88.76942 440
470.73804 946.45166 120.31373 380
-436.67084 1215.25305 79.92928 287
-441.88815 1138.27832 86.49378 270
-487.36340 1215.31018 124.06229 305
-404.72809 993.98517 100.44259 318
-492.47729 1132.08606 128.35342 324
-28.08783 41.33899 -13.40257 489
-436.42773 974.38855 100.46124 472
-462.08463 1012.13910 136.31325 332
118.13037 147.98839 167.34892 441
-474.17389 963.00641 99.02157 464
-471.99402 960.56732 138.69604 483
111.19103 147.34590 166.39581 314
-513.42731 952.57251 97.50755 462
-511.19312 949.92340 137.48523 480
104.14330 146.53683 165.38620 419
-553.45245 941.59216 95.86771 459
-551.16254 938.84381 136.57779 477
95.37464 147.33308 163.71275 424
-594.71887 930.40558 94.17278 456
-592.30090 927.62830 135.20880 474
90.19630 143.65109 163.53258 307
78.13165 156.58141 166.29840 305
-637.82648 919.22675 91.97059 430
-635.00165 915.97144 133.96004 470
106.70043 118.31903 171.48123 316
73.11522 151.88213 166.27271 306
-683.76892 909.03619 89.62368 427
-678.88959 904.10443 132.48572 466
-888.58643 1114.12463 164.80461 479
103.01394 114.41879 171.51631 316
66.79374 148.46899 165.75923 409
-731.36523 898.05872 87.20079 426
-724.31519 891.25153 130.90274 463
-927.64862 1082.45569 164.68150 480
99.46004 110.45757 171.58170 316
55.87891 148.90251 163.87830 403
-780.52759 886.28625 84.21861 407
-771.41705 878.24695 129.21710 458
-911.95905 1002.20758 166.58693 372
96.04578 106.34451 171.61729 316
77.23491 121.89043 171.74486 308
-834.24622 875.86584 80.99409 397
-821.61774 865.88599 127.26703 431
-829.73505 872.16345 171.47298 427
92.72026 102.16466 171.61285 316
73.46718 117.10995 171.77011 308
24.60802 155.04445 166.05820 297
-904.52380 875.83081 75.55754 358
-886.89728 862.09174 123.94046 398
89.57670 97.89358 171.64706 316
69.89551 112.15431 171.83118 308
17.42658 150.30588 165.44044 389
-999.33551 889.35663 67.28391 328
-968.80646 866.84290 119.42767 375
86.52464 93.52473 171.68568 316
66.41742 107.13307 171.84184 308
2.35657 150.70450 163.01483 382
-1087.41211 891.62549 112.36388 320
83.61765 89.05476 171.72212 316
63.14571 102.05475 171.86424 308
36.23862 119.18290 172.09935 300
80.87427 84.53732 171.74054 316
60.03576 96.84325 171.88799 308
32.60681 113.05363 172.10316 300
-43.23818 157.90019 165.14323 286
78.25354 79.89461 171.72646 316
57.05565 91.58031 171.89639 308
37.16972 102.50433 173.99074 319
-52.58149 151.84175 164.32745 373
75.80785 75.21416 171.75594 316
60.32536 83.07772 173.53688 328
50.10479 88.28307 177.58676 325
27.16356 100.00065 179.98935 292
73.47314 70.47575 171.80328 316
63.97560 74.89144 175.16104 390
57.02488 78.21172 179.70918 300
20.69848 95.32299 179.36890 314
-23.98568 116.35535 180.35701 284
74.09847 64.42220 172.61641 386
67.49743 67.29044 176.65240 381
54.63321 72.84586 179.75519 300
32.40385 82.46508 181.98265 336
19.51049 88.04136 187.12639 315
-4.51464 98.45147 191.98463 266
76.49995 57.88602 173.90810 420
70.96034 60.08257 178.06897 386
47.47541 69.37177 178.68253 389
39.77723 72.45195 183.76720 373
30.78624 75.99553 189.15205 336
18.43982 80.92067 194.73251 332
0.92218 87.85858 200.83400 311
77.89307 52.02142 174.84541 424
72.77476 53.88863 178.99660 419
51.02913 61.70655 179.92300 393
43.97345 64.23637 184.92372 388
36.28197 67.01421 190.24342 373
27.27942 70.27626 195.91718 368
17.05247 73.92240 202.13841 332
79.25990 46.41194 175.72209 427
73.49165 48.29558 179.57870 308
54.25591 54.52448 181.01898 410
47.68811 56.65487 185.93307 393
40.55224 58.99632 191.13914 388
32.77403 61.50709 196.74252 372
23.59954 64.48801 202.74429 367
80.61846 40.98703 176.48042 432
71.98926 43.53596 179.60324 308
56.52753 48.03074 181.85059 421
50.53424 49.74770 186.68477 409
44.09713 51.62833 191.89432 404
37.11947 53.66064 197.37117 387
29.32253 55.94020 203.25829 382
81.94621 35.81538 177.23180 435
63.75133 40.46931 177.96915 429
58.48186 41.82777 182.53267 424
52.91370 43.23337 187.40997 420
46.83895 44.80394 192.46619 408
40.20028 46.49644 197.88846 403
33.15471 48.34698 203.67989 397
24.82147 50.46245 209.82443 269
83.15500 30.78325 177.85692 457
65.50423 34.71179 178.69687 432
60.35564 35.87026 183.19930 428
55.00892 37.09069 187.95605 423
49.32253 38.33777 192.98106 418
43.09959 39.71234 198.31268 406
36.27355 41.24080 203.99013 401
28.83316 42.90088 210.01323 358
-185.78638 90.92263 216.58743 296
83.33003 26.10324 178.19220 459
67.13000 29.21815 179.35242 455
62.23920 30.11084 183.81366 431
56.98925 31.13527 188.48773 426
51.49016 32.15804 193.47308 421
45.68113 33.28145 198.71913 416
39.33840 34.50031 204.28416 405
32.29639 35.81668 210.21346 399
-182.92444 76.85873 216.55542 424
83.59396 21.47653 178.51273 461
67.40426 24.04901 179.60629 456
62.80731 24.79586 184.12297 452
58.02083 25.52813 188.82489 447
52.96688 26.32640 193.76973 442
47.66413 27.20759 198.99158 437
42.00383 28.07795 204.52495 414
35.50354 29.10011 210.31497 402
83.83288 16.94517 178.76363 462
67.70381 19.01122 179.86937 457
63.16562 19.55562 184.35698 453
58.41196 20.15923 189.05244 448
53.41203 20.77253 193.96451 443
48.16718 21.47023 199.16464 438
42.61163 22.13528 204.62093 433
36.80756 22.89255 210.41661 428
84.13035 12.44692 178.97549 463
68.04623 13.97641 180.09752 459
63.51122 14.38923 184.53644 454
58.79347 14.86613 189.22211 450
53.88607 15.31358 194.09441 445
48.71117 15.78434 199.26424 440
43.27565 16.32183 204.70750 435
37.48722 16.88441 210.46149 429
84.41715 7.99910 179.19923 464
68.39869 9.02734 180.28281 460
63.89097 9.32965 184.75417 455
59.25039 9.61132 189.37057 451
54.39335 9.92275 194.22559 446
49.31298 10.25592 199.39098 441
43.88816 10.59159 204.76308 436
38.20925 10.95798 210.51636 430
-181.45312 24.73515 270.06369 486
-187.25615 25.14873 284.53772 360
84.75366 3.61304 179.36729 465
68.76961 4.10396 180.45526 461
64.39788 4.26206 184.89548 457
59.76745 4.39607 189.53621 452
54.97013 4.55439 194.37585 447
49.90855 4.72513 199.46924 442
44.56823 4.86955 204.84129 437
38.88011 5.08246 210.55542 431
-181.56638 12.05323 269.87424 487
