# .PCD v.7 - Point Cloud Data file format
VERSION .7
FIELDS x y z rgb
SIZE 4 4 4 4
TYPE F F F U
COUNT 1 1 1 1
WIDTH 540
HEIGHT 1
VIEWPOINT 6702.446777 619.777283 138.373383 -0.647975 -0.090996 -0.079701 0.751995
POINTS 540
DATA ascii
85.49275 -0.69657 178.93552 467
69.56407 -0.67221 180.14516 462
65.11914 -0.69092 184.60909 457
60.49022 -0.67876 189.28734 453
55.61285 -0.67587 194.21227 448
50.50818 -0.71490 199.36215 443
45.12763 -0.70353 204.82367 438
39.43332 -0.70519 210.56271 432
-136.42601 -0.68866 276.60721 495
85.13464 -5.12739 178.82132 465
69.10344 -5.65090 180.00220 461
64.59039 -5.76713 184.46652 456
59.91811 -5.91416 189.16885 452
55.05162 -6.06562 194.10173 447
49.87804 -6.26305 199.28625 442
44.47737 -6.39139 204.74197 437
38.71085 -6.56764 210.53479 431
-150.17322 -12.48431 278.94116 266
84.81941 -9.61451 178.65747 464
68.70748 -10.62410 179.81508 460
64.13875 -10.92452 184.34595 455
59.40659 -11.22457 189.06680 451
54.44936 -11.50822 194.01015 446
49.26888 -11.86994 199.19777 441
43.82005 -12.18159 204.69630 436
38.00622 -12.58236 210.50888 430
84.48804 -14.12351 178.45638 463
68.32693 -15.66355 179.64241 459
63.74039 -16.08455 184.13211 454
58.95420 -16.56614 188.86948 449
53.93325 -17.01310 193.86400 445
48.66061 -17.50197 199.12012 440
43.12030 -18.03699 204.60135 435
37.26006 -18.58238 210.45367 429
83.61477 -18.32262 178.85454 462
67.46222 -20.35006 179.95174 457
62.94514 -20.93669 184.43103 453
58.19575 -21.55078 189.10167 448
53.18293 -22.18013 194.02496 443
47.95030 -22.83157 199.23883 438
42.37228 -23.51005 204.66902 433
36.55318 -24.27500 210.46468 428
83.33798 -22.85753 178.58578 461
67.16599 -25.42542 179.71515 456
62.55556 -26.14823 184.22383 452
57.76057 -26.90162 188.95171 447
52.74710 -27.70425 193.87834 442
47.36794 -28.54363 199.10396 419
41.38732 -29.47528 204.54575 414
34.75913 -30.53869 210.39633 402
83.10757 -27.43518 178.33580 459
66.63887 -30.56493 179.42746 435
61.63787 -31.53143 183.85237 431
56.42015 -32.50484 188.55077 426
50.92212 -33.55038 193.54581 421
45.04510 -34.67201 198.74667 416
38.64331 -35.89325 204.34117 404
31.55841 -37.27133 210.26811 364
-182.85332 -78.09071 216.65846 424
82.68755 -32.13973 177.98106 438
64.91230 -36.09978 178.75288 432
59.80285 -37.21664 183.27438 428
54.41944 -38.44847 188.06985 423
48.68735 -39.73323 193.08453 418
42.40426 -41.11074 198.40692 406
35.57590 -42.62286 204.02620 401
27.98651 -44.32815 210.09431 358
-189.47322 -92.90742 216.70847 296
81.37796 -37.13599 177.35072 435
63.17239 -41.78536 178.05188 429
57.90154 -43.17729 182.63432 424
52.33197 -44.58914 187.47084 420
46.14325 -46.18682 192.53400 408
39.52590 -47.85145 197.96161 402
32.44061 -49.67774 203.72160 397
-188.32310 -106.32703 202.77644 484
80.05381 -42.29454 176.65213 432
70.90952 -44.93416 179.61716 308
55.90942 -49.31814 181.94347 414
49.84131 -51.06925 186.81911 409
43.37851 -52.96054 191.96870 404
36.28683 -54.99497 197.49318 387
28.30962 -57.33343 203.36174 371
78.66534 -47.67447 175.90475 427
72.30081 -49.74955 179.60818 308
53.53267 -55.82268 181.14772 397
46.84517 -57.99917 186.00253 393
39.67723 -60.33102 191.25156 388
31.78848 -62.90982 196.82756 372
22.59354 -65.86896 202.85501 367
77.27664 -53.23857 175.08429 423
72.17410 -55.05500 179.20988 419
50.18150 -62.96260 180.05092 393
43.13814 -65.51013 185.03062 388
35.30362 -68.33077 190.33426 372
26.28322 -71.60780 196.00961 367
15.35879 -75.53035 202.19391 332
75.87429 -59.02081 174.20116 420
70.11278 -61.32084 178.25607 386
46.64254 -70.56791 178.85274 388
38.86332 -73.64427 183.89801 373
29.27191 -77.44569 189.16310 336
16.46865 -82.49704 194.76302 316
-1.41826 -89.57545 200.83020 311
73.18168 -65.60384 172.82719 386
66.67382 -68.39566 176.86687 395
53.10373 -74.26405 179.81073 300
30.91117 -83.84623 182.07326 336
17.55099 -89.66479 187.15833 315
-13.64522 -103.13937 191.23253 265
71.82639 -71.88383 171.83826 316
63.26201 -75.88694 175.46141 390
55.39049 -79.61432 179.76442 300
17.60967 -97.37262 179.13431 286
-25.69646 -117.75144 180.45593 284
74.06913 -76.63561 171.83649 316
58.99903 -84.26549 173.71355 328
48.83169 -89.45601 177.73169 325
25.41008 -101.37958 180.03664 292
76.38431 -81.28055 171.79901 316
55.20568 -92.97623 171.96156 308
34.85955 -104.13010 173.94174 272
-52.06562 -151.92526 164.81519 373
78.88794 -85.91878 171.76398 316
58.04374 -98.23919 171.96678 308
30.62486 -114.43536 172.16707 300
-45.50429 -159.43591 165.17529 286
81.53777 -90.43137 171.78008 316
61.05280 -103.44544 171.93063 308
34.13011 -120.50124 172.16597 300
-33212.78906 -21212.54297 4121.76221 0
84.31940 -94.88843 171.74326 316
64.23009 -108.50434 171.91130 308
1.96030 -150.81461 163.52036 382
87.23377 -99.25777 171.70338 316
67.57981 -113.54743 171.86414 308
16.66195 -150.46738 165.97112 389
90.29322 -103.51655 171.70775 316
71.03123 -118.42831 171.84814 308
22.01744 -156.44704 166.09941 297
-3336.13892 -2760.65063 70.10158 323
93.45918 -107.69157 171.67421 316
46.70351 -146.34657 163.37254 300
-3098.82544 -2747.44800 76.14864 497
-3197.93970 -2829.93921 216.75592 414
96.74869 -111.76884 171.63789 316
54.32214 -149.12703 164.31821 404
-3000.12842 -2840.90234 76.52840 469
-2996.03784 -2837.02710 217.04002 394
100.17751 -115.74609 171.62932 316
65.00298 -148.73367 166.19424 409
-2855.45435 -2890.71216 78.96045 289
103.73002 -119.60726 171.56357 316
70.06862 -153.24399 166.35706 305
86.94187 -145.14128 163.52423 307
92.94838 -147.67883 164.12326 424
101.40977 -147.07785 165.71309 419
107.70022 -148.67220 166.47423 314
114.55914 -149.12836 167.48564 316
624.63300 -2116.40771 146.29982 433
680.58002 -2056.04419 147.84274 451
736.31067 -2007.38696 148.81747 478
792.42609 -1968.26501 149.47020 491
851.52753 -1941.14258 149.68504 499
912.15527 -1920.40210 149.77287 499
972.58453 -1900.02173 149.96094 499
1033.48853 -1879.31702 149.64421 499
1094.54810 -1858.16541 149.23222 498
1156.31738 -1836.97815 149.34465 497
1225.84314 -1829.53528 148.54190 475
571.85022 -594.46448 102.55762 342
584.44336 -574.22870 104.38982 480
586.13214 -576.63153 126.83370 481
587.88153 -579.36444 148.95912 432
590.29108 -583.38849 171.27232 377
365.87906 -108.04413 167.60274 315
369.20847 -103.31694 167.62692 315
372.36282 -98.49866 167.66377 315
379.31854 -95.91314 166.46489 434
386.89078 -93.27751 165.07817 429
390.86606 -88.50079 164.75854 317
393.68085 -83.05945 164.71599 317
407.97623 -89.80188 167.74858 305
372.90634 -67.39730 171.51411 316
411.49997 -84.14045 167.54959 434
374.93448 -62.52192 171.55765 316
419.58749 -80.16439 166.18666 429
376.84918 -57.54906 171.56201 316
427.42691 -75.78639 164.88776 308
265.24384 -15.68762 203.50009 314
429.82513 -69.17802 164.85924 308
265.78387 -14.22310 203.49954 314
403.22992 -54.17814 171.82071 309
453.97220 -68.95969 167.89896 297
266.28790 -12.75598 203.50581 314
404.90125 -48.37727 171.86531 309
455.80551 -61.46809 167.95319 297
266.73447 -11.27318 203.50192 314
406.30338 -42.52705 171.86221 309
463.83783 -55.34254 166.67581 452
1552.22253 -298.85382 171.79112 423
1576.62427 -304.26352 216.67119 366
267.13382 -9.77716 203.50381 314
407.58203 -36.58845 171.85066 309
470.96655 -48.68047 165.63023 448
1624.49304 -269.11386 122.85100 315
1523.68408 -249.69968 173.00455 438
1572.97180 -259.22519 216.79523 441
267.49762 -8.27980 203.50909 314
408.67645 -30.64426 171.88869 309
474.88840 -41.19198 165.12839 300
1516.49841 -206.26712 130.48405 326
1497.38721 -203.16068 174.08955 454
1690.43506 -233.83508 216.53049 261
267.80685 -6.77031 203.50963 314
409.55759 -24.69738 171.88147 309
440.78082 -28.66512 172.21628 301
1480.50281 -160.27742 133.30153 387
1476.12476 -159.71193 175.25327 446
268.07581 -5.25066 203.50906 314
410.29791 -18.71862 171.87163 309
441.56598 -21.66989 172.18433 301
1457.41211 -117.93121 135.19086 437
1459.86389 -118.11756 175.76381 453
268.28964 -3.73916 203.49892 314
410.83444 -12.70778 171.88034 309
442.22479 -14.68731 172.19780 301
1439.24268 -77.43836 136.45224 469
1446.57117 -78.12470 176.28661 432
1538.67151 -83.73350 216.42355 260
268.45770 -2.20549 203.50876 314
411.18951 -6.74289 171.89474 309
442.62949 -7.71366 172.18440 301
1424.14709 -38.71129 137.42389 479
1435.42932 -38.87743 176.71790 414
1470.73547 -40.28373 216.64000 468
1576.32739 -43.48589 260.92267 496
1459.77661 -39.57732 297.98080 492
268.57477 -0.68552 203.50316 314
411.40860 -0.73245 171.88051 309
442.78778 -0.70880 172.18031 301
512.00684 -0.71017 168.30333 288
1410.95312 -0.85260 138.28442 483
1425.61340 -0.95168 177.10641 415
1452.30261 -0.73739 216.63470 494
1452.07812 -0.68877 256.97519 494
1450.68787 -0.77139 297.19275 492
1470.93994 -0.75545 339.84225 408
268.65173 0.84515 203.49947 314
411.40067 5.32314 171.89511 309
442.82025 6.31427 172.19827 301
1400.88184 36.40002 138.94600 491
1416.14148 36.92598 177.29451 418
1444.17590 37.65261 216.54918 496
1443.80786 37.81298 256.53146 495
1442.56140 37.77854 296.64554 494
1462.02148 38.39571 338.74725 409
268.67462 2.36480 203.49773 314
411.21857 11.30854 171.87012 309
442.57974 13.30337 172.22444 301
1393.38501 72.99467 139.30161 495
1407.97266 73.74586 177.42931 366
1430.00598 75.32121 216.62325 497
1430.16113 75.26655 256.15750 497
1429.92249 75.27424 295.91803 496
1434.78625 75.60289 336.43765 496
268.64716 3.88735 203.49811 314
410.83850 17.31129 171.87697 309
442.12054 20.23668 172.20114 301
1382.13953 109.13699 139.89807 496
1400.35693 110.67213 177.59305 368
1422.79968 112.90514 216.41295 498
1422.72778 112.87457 255.91191 498
1421.21606 112.65889 295.56409 496
1444.97131 114.87596 337.72604 411
268.58151 5.40593 203.50645 314
410.28262 23.28493 171.88342 309
441.49564 27.22563 172.19867 301
1376.55847 145.37251 140.03317 498
1393.28601 147.26161 177.91472 368
1414.27588 149.94054 216.49806 499
1414.02100 150.01088 255.74400 499
1413.79028 149.88498 295.47067 498
1436.42273 152.69205 337.15558 411
268.46350 6.91983 203.51018 314
409.61166 29.23658 171.87326 309
475.82217 39.72910 165.11342 300
1366.48547 180.80086 140.46164 498
1386.04333 183.88773 177.94040 368
1412.26343 187.81689 216.38985 499
1412.00464 187.88100 255.86520 499
1410.62109 187.90213 295.41367 498
1428.41699 190.53764 336.83978 412
268.28693 8.41687 203.50087 314
408.70648 35.18241 171.87993 309
471.81781 47.24030 165.61757 448
1361.62244 216.82562 140.43291 499
1379.09192 220.25804 177.85930 368
1404.33765 224.98866 216.35233 499
1404.31042 224.95197 255.90332 499
1402.89636 224.64093 295.41269 498
1420.61267 228.25977 336.62534 412
268.07684 9.90928 203.50200 314
407.61816 41.05265 171.83090 309
464.73264 53.83253 166.78395 452
1353.53674 252.33820 140.24138 461
1371.73730 256.51776 177.67555 368
1396.41638 261.95828 216.56490 499
1395.98364 261.97324 255.86914 499
1395.80688 261.83746 295.47958 499
1411.79968 265.35651 336.64551 412
1480.20801 280.60861 386.39847 280
267.82410 11.39957 203.50700 314
406.34409 46.96585 171.81969 309
457.30109 60.04668 167.94318 297
1346.34241 288.34088 140.22372 499
1364.27954 292.65591 177.95197 368
1478.07288 322.16937 344.33908 265
267.50879 12.86913 203.50214 314
404.94409 52.78567 171.81259 309
455.65628 67.53198 167.89551 297
1338.72729 323.93039 140.27275 498
1356.81348 329.36121 177.83871 360
1514.21777 375.17981 393.81268 495
1501.53894 371.41293 436.64252 492
1497.73560 370.26471 480.97662 480
380.43176 51.10586 171.60417 316
431.67932 67.75713 164.81238 308
1328.52258 359.12210 140.00031 497
378.87161 56.11021 171.57405 316
429.47629 74.30389 164.88574 308
1323.38477 395.97134 139.47437 496
377.18390 61.08783 171.55801 316
421.55145 78.63815 166.23447 429
1313.11133 431.70880 139.32320 495
1591.96826 541.88867 168.05461 496
375.31958 65.99706 171.52963 316
413.58524 82.54818 167.62451 435
1307.84985 469.40527 138.91768 494
1349.89905 487.46054 176.04498 292
1590.10400 591.58954 216.36522 480
396.36322 81.67629 164.67105 317
410.63281 88.33926 167.72156 305
1297.65015 505.84769 138.51431 492
1317.28381 514.89209 176.79613 316
1580.20874 638.58148 216.45702 480
393.70154 87.07559 164.69191 317
1292.01233 544.83917 137.52383 490
1308.81482 553.41968 176.37085 316
1324.54028 561.35583 216.57921 480
389.70178 91.75706 165.07822 429
1281.54138 581.98987 137.23856 488
1299.83154 592.21167 176.06842 315
1316.03223 600.90167 216.49973 478
382.29407 94.32655 166.49722 434
1321.89026 649.81659 132.81903 486
1356.71460 670.40338 173.12924 499
1358.11060 671.44183 216.50714 499
375.75281 97.08593 167.60852 315
1343.96448 711.53369 172.74686 458
1345.09717 712.35870 216.34689 463
372.79221 101.89439 167.61566 315
1301.84631 733.16284 258.99411 468
369.64893 106.65619 167.58850 313
7936.83154 15137.74023 4177.57031 0
14.57921 928.92639 90.70506 493
13.58020 932.89514 122.02276 493
12.87060 936.87000 153.14243 469
120.34967 150.85526 167.38152 316
115.29597 148.16090 167.17555 441
108.92433 147.09180 166.40671 314
101.59188 146.82603 165.22844 419
93.08249 147.44341 163.60481 424
88.45860 143.42229 163.53293 307
76.38972 156.29607 166.26675 305
-890.48553 1185.93469 55.70094 316
105.12177 118.03050 171.52686 316
71.53561 151.64571 166.30159 306
-842.37122 1065.80127 67.64594 377
-953.90680 1177.34985 107.08096 360
101.63631 114.19419 171.56503 316
65.09176 148.53468 165.67314 409
-844.69104 1002.63452 71.97832 456
-921.79846 1075.60059 113.33581 367
98.24126 110.23183 171.56978 316
54.35474 148.96396 163.74854 403
-895.34259 986.11768 69.07764 448
-887.94678 979.90411 118.93450 474
94.96478 106.17397 171.59962 316
76.22989 121.65847 171.76178 308
-948.27380 969.14392 66.24484 445
-939.86792 962.32452 117.31857 461
91.87217 101.97198 171.64763 316
72.65450 116.91084 171.76230 308
23.78868 154.82198 166.01048 297
-1004.60809 952.60822 63.02260 438
-993.84210 944.26990 115.10221 457
88.84220 97.73438 171.64168 316
69.22047 111.98346 171.81882 308
16.41372 150.33804 165.39586 389
-1063.93066 935.29523 59.60295 434
-1050.61145 925.71008 112.81026 452
-1310.95618 1114.81934 153.89142 304
86.00659 93.37574 171.68553 316
65.92958 106.98447 171.86337 308
1.59444 150.70859 162.91766 382
-1126.62537 917.77313 55.32191 398
-1109.42859 905.89075 110.68787 448
-1369.82947 1082.56982 153.32486 485
83.24246 88.94166 171.71808 316
62.81440 101.89987 171.89285 308
35.93797 118.97046 172.11372 300
-1196.17920 901.27643 50.65138 401
-1171.66626 885.26361 108.00971 443
-1360.42957 1005.38800 155.12735 392
80.67902 84.43592 171.70871 316
59.80656 96.75269 171.90497 308
32.47193 112.91890 172.14761 300
-43.32703 157.75949 165.16211 286
-1236.95203 863.72772 105.13968 438
-1247.62891 870.07623 160.23102 435
78.23140 79.80499 171.73267 316
57.02309 91.47631 171.94943 308
37.39825 102.26664 174.01740 319
-52.73305 151.79530 164.28749 373
-1321.13867 849.47424 100.49840 384
75.93288 75.12511 171.78873 316
60.37200 83.08504 173.51546 385
50.19521 88.26937 177.56497 325
27.36596 99.88875 179.97649 292
-1452.39746 854.15363 93.16790 326
73.75236 70.38110 171.79701 316
64.03472 74.98205 175.08234 390
57.35112 78.12148 179.72997 300
20.71733 95.37085 179.31560 314
-23.59257 116.18856 180.36670 284
74.11931 64.55710 172.49509 386
67.54639 67.41903 176.56642 381
55.14201 72.80402 179.74590 300
32.34594 82.63656 181.88971 336
19.40034 88.26231 187.08142 315
-5.48240 98.98039 191.83298 266
76.63633 58.06065 173.76651 420
71.01278 60.25023 177.91573 386
47.47623 69.58996 178.54564 389
39.77772 72.65282 183.65202 373
30.67953 76.23106 189.03018 336
18.21544 81.18548 194.64336 332
0.56752 88.14001 200.72218 311
78.04951 52.23134 174.66872 423
72.88374 54.07602 178.83179 419
51.03357 61.93374 179.76137 393
43.99355 64.51890 184.75093 388
36.20063 67.27751 190.11649 373
27.17951 70.55692 195.84233 368
16.77557 74.26437 202.02710 332
79.41920 46.62370 175.47247 427
74.41876 48.28430 179.57927 308
54.33048 54.78202 180.82671 410
47.73210 56.94665 185.72920 393
40.52653 59.27132 190.97820 388
32.71797 61.83479 196.60097 372
23.49827 64.83962 202.64946 367
80.81258 41.25896 176.20862 432
73.08775 43.47097 179.60252 308
56.66035 48.29023 181.60074 421
50.59903 50.03118 186.50081 409
44.11611 51.93657 191.70453 404
37.11097 53.94046 197.26631 387
29.17688 56.25210 203.15625 372
82.14890 36.04435 176.93326 435
71.93539 38.70134 179.62582 308
58.60704 42.07405 182.29182 424
53.00668 43.54558 187.14925 420
46.88409 45.11356 192.31346 408
40.21360 46.80832 197.75105 403
33.10080 48.64470 203.56084 397
25.06218 50.73885 209.80049 355
83.44712 31.00896 177.54572 457
65.72078 34.96675 178.36334 432
60.54392 36.16029 182.93187 428
55.09516 37.36447 187.72768 423
49.36995 38.63586 192.80289 418
43.10003 40.03804 198.14180 406
36.27246 41.56945 203.85048 401
28.81433 43.24330 209.97093 358
-186.63564 91.37742 216.58070 296
83.69711 26.32559 177.82767 459
67.42423 29.42471 179.00005 455
62.40708 30.37760 183.53246 431
57.13712 31.40698 188.24838 426
51.59140 32.45065 193.24539 421
45.68870 33.58171 198.52438 416
39.31432 34.81168 204.11920 405
32.23571 36.14649 210.10472 399
-182.92094 77.19726 216.62535 424
83.93240 21.69075 178.09801 461
67.74478 24.28086 179.28885 456
63.11503 24.99356 183.81018 452
58.24228 25.78532 188.55745 447
53.15155 26.59641 193.56653 442
47.81442 27.42827 198.81406 437
41.96804 28.36108 204.36014 414
35.45114 29.38750 210.27966 402
84.24116 17.11389 178.32387 462
68.04134 19.18921 179.48709 457
63.47086 19.76821 184.03809 453
58.66254 20.37634 188.77277 448
53.65053 20.98676 193.71040 443
48.30384 21.66190 198.97652 438
42.74431 22.35296 204.50137 433
36.86203 23.10361 210.33995 428
-37052.07812 4710.03076 6419.30322 0
84.56342 12.58901 178.51685 463
68.42213 14.10834 179.66566 459
63.87779 14.53997 184.19897 454
59.08362 15.01233 188.91513 450
54.08806 15.48677 193.84680 445
48.88115 15.98836 199.07852 440
43.38294 16.51259 204.58293 435
37.55985 17.04753 210.38086 429
84.91330 8.13370 178.68076 464
68.79507 9.12923 179.86403 460
64.27639 9.40890 184.35104 455
59.56540 9.72011 189.06752 451
54.67998 10.02008 193.99854 446
49.50236 10.32872 199.14091 441
44.02127 10.69243 204.63519 436
38.23923 11.05054 210.41960 430
-187.13211 25.20708 271.05649 304
-187.51292 25.21757 285.01877 360
85.28205 3.64794 178.83980 465
69.24706 4.16455 179.97827 461
64.79688 4.32257 184.46971 457
60.10529 4.43639 189.14111 452
55.24475 4.62400 194.08464 447
50.12560 4.78692 199.25450 442
44.70498 4.94952 204.68182 437
38.98110 5.11710 210.45918 431
-181.37962 12.09400 270.29489 487
