# .PCD v.7 - Point Cloud Data file format
VERSION .7
FIELDS x y z rgb
SIZE 4 4 4 4
TYPE F F F U
COUNT 1 1 1 1
WIDTH 418
HEIGHT 1
VIEWPOINT 4289.228027 -4110.710449 136.098602 -0.000486 -0.116728 0.002576 0.993160
POINTS 418
DATA ascii
82.60192 -0.68756 179.53452 316
68.63750 -0.69886 181.07095 462
64.35278 -0.72947 185.39211 457
59.82397 -0.69222 189.95927 453
55.13588 -0.69473 194.70348 448
50.20856 -0.73821 199.68173 443
44.95231 -0.70126 204.96007 438
39.45786 -0.73257 210.54980 432
-152.66669 -0.83369 240.96945 419
-181.80081 -0.75533 269.44589 487
-147.71498 -0.82390 277.27792 284
82.68592 -5.02482 179.52861 316
68.14771 -5.50551 180.91956 461
63.81957 -5.64770 185.29950 456
59.31818 -5.78036 189.85036 452
54.54425 -5.91908 194.63507 447
49.55872 -6.08607 199.64449 442
44.31027 -6.28210 204.91826 437
38.73228 -6.41782 210.52423 431
-152.91785 -12.53061 241.01961 416
-181.71399 -13.40297 269.53671 487
-151.64821 -12.52923 277.96735 285
82.84995 -9.36676 179.50539 316
67.75445 -10.31988 180.81018 460
63.37703 -10.58553 185.14140 455
58.78048 -10.90783 189.71782 451
54.01268 -11.20203 194.50067 446
48.99039 -11.50918 199.55278 441
43.67334 -11.86161 204.87401 436
38.08037 -12.19560 210.48218 430
-181.67599 -26.07846 269.60754 486
83.18156 -13.71176 179.52344 316
67.37566 -15.20463 180.62874 459
62.98027 -15.60850 184.98502 454
58.34629 -16.07134 189.60512 449
53.46288 -16.51156 194.40918 445
48.38528 -16.99772 199.43832 440
43.05029 -17.51307 204.77771 435
37.34536 -18.06146 210.45798 429
-181.61523 -38.82100 269.72113 486
83.13087 -18.09303 179.37569 462
67.05681 -20.10618 180.42186 457
62.57349 -20.66303 184.81517 453
57.89112 -21.26871 189.41820 448
52.99363 -21.88272 194.24014 443
47.83920 -22.55668 199.36096 438
42.41011 -23.21384 204.70647 433
36.66092 -23.94223 210.42551 428
82.86645 -22.50585 179.14859 461
66.72169 -25.06033 180.20221 456
62.22393 -25.80914 184.59856 452
57.50925 -26.52849 189.23167 447
52.55803 -27.32865 194.07863 442
47.35543 -28.15956 199.21814 437
41.49741 -29.07359 204.59264 414
35.05877 -30.08534 210.33249 402
82.60341 -27.03282 178.87024 459
66.32736 -30.12228 179.88748 435
61.42691 -31.08715 184.30191 431
56.27839 -32.05303 188.88678 426
50.87863 -33.09379 193.75729 421
45.13704 -34.16861 198.90897 416
38.82040 -35.37974 204.35225 404
31.92040 -36.68917 210.18159 399
-182.95309 -77.82472 216.54538 424
82.31356 -31.66815 178.54825 438
64.65263 -35.57726 179.26559 432
59.59007 -36.71324 183.68129 428
54.28932 -37.90524 188.39264 423
48.68980 -39.12831 193.32242 418
42.53906 -40.52800 198.53731 406
35.82692 -42.04354 204.06355 401
28.48480 -43.65964 210.03513 358
-187.58356 -92.04252 216.54970 296
81.02162 -36.52030 177.89468 435
62.91501 -41.21881 178.54221 429
57.73571 -42.51088 183.08881 424
52.27588 -43.91423 187.81157 419
46.21530 -45.51409 192.81726 408
39.68707 -47.14307 198.09998 402
32.70962 -48.95184 203.78706 397
23.92708 -51.22517 209.85779 269
79.72960 -41.62043 177.21912 430
68.72183 -44.83113 179.64948 308
55.78860 -48.60198 182.37100 421
49.84410 -50.29432 187.17679 409
43.52620 -52.15726 192.22604 404
36.63838 -54.17126 197.61737 387
28.89026 -56.43846 203.44078 371
78.37582 -46.91665 176.48196 427
70.13529 -49.60833 179.63188 308
53.52725 -55.00734 181.55748 410
47.03124 -57.09764 186.39368 393
39.95595 -59.38938 191.53508 388
32.29485 -61.88751 196.99011 372
23.25851 -64.81579 202.87865 367
77.03711 -52.41413 175.62950 423
71.66655 -54.30623 179.62186 308
50.24909 -62.03490 180.54330 393
43.36203 -64.51725 185.43140 388
35.74329 -67.27663 190.64250 372
26.85995 -70.44979 196.23070 367
16.75766 -74.07694 202.29205 332
75.62969 -58.07581 174.76271 420
70.19458 -60.26131 178.82526 386
46.79670 -69.52825 179.32198 388
39.21241 -72.50738 184.32320 373
30.39453 -76.04222 189.58052 336
18.17749 -80.85600 195.05737 331
0.79438 -87.76693 201.00987 310
73.19630 -64.47462 173.52875 386
66.90688 -67.22980 177.50044 395
42.79409 -77.64178 177.97275 373
31.98572 -82.31595 182.61864 335
19.27538 -87.84460 187.63945 315
-3.52444 -97.67820 192.49559 265
69.99842 -71.54586 171.95023 381
63.53442 -74.62884 176.04878 390
53.38493 -79.37912 179.77376 300
20.53718 -94.83734 180.03577 314
-27.28316 -117.38978 180.46602 284
71.88053 -76.45271 171.83063 316
59.93316 -82.54967 174.49448 384
50.44027 -87.40314 178.54117 325
23.64013 -101.05559 180.07117 292
74.26371 -81.12977 171.81230 316
53.13820 -92.75895 171.99803 308
37.88191 -101.14284 175.04845 318
-54.35736 -151.90219 164.74409 373
76.81300 -85.71537 171.78767 316
56.02886 -97.99950 172.00182 308
28.69588 -114.16554 172.23346 300
-47.49205 -159.24763 165.09712 286
79.46578 -90.22837 171.77055 316
59.07635 -103.19638 171.94873 308
32.23298 -120.20862 172.17221 300
98.91248 -77.90175 211.80002 1000
82.23993 -94.67506 171.77635 316
62.24133 -108.26795 171.89946 308
-0.44880 -150.89444 163.40109 383
85.19083 -99.02368 171.74210 316
65.58067 -113.27154 171.87376 308
14.30182 -150.58801 165.82173 389
88.24165 -103.31105 171.72009 316
69.08456 -118.17021 171.88278 308
20.08328 -156.21724 166.12268 295
91.46712 -107.46750 171.66621 316
44.79810 -146.09195 163.39166 300
94.79462 -111.55906 171.64102 316
52.08630 -149.21071 164.22665 404
98.21397 -115.52878 171.64191 316
62.81510 -148.79475 166.11819 409
101.82563 -119.40492 171.60464 316
68.16970 -153.09581 166.36021 306
84.99786 -145.00276 163.53464 307
90.82206 -147.76801 164.03067 425
-27034.04492 -30920.91211 -2484.83228 1000
99.21096 -147.28165 165.62668 419
105.81126 -148.56339 166.44379 314
110.50439 -152.05151 166.44202 314
126.83182 -148.21262 169.78717 441
265.71866 -1427.44592 75.78991 402
745.14600 -954.68292 108.99869 499
747.26428 -958.61517 144.57660 499
749.44440 -962.72333 180.26131 484
368.06534 -108.19306 167.62845 313
371.25275 -103.44289 167.65259 315
374.35724 -98.66318 167.63394 315
380.38235 -95.53468 166.73294 434
387.80542 -92.96992 165.33180 429
392.60565 -88.70392 164.76581 317
395.40149 -83.32903 164.73633 317
409.67471 -90.04816 167.74634 305
374.50345 -67.67246 171.53419 316
412.24615 -83.98717 167.79898 305
376.50354 -62.76195 171.55646 316
419.98831 -79.96270 166.52208 429
378.30878 -57.80546 171.56639 316
428.47125 -75.88912 164.98224 424
379.98227 -52.85113 171.61011 316
431.21680 -69.50407 164.85718 308
381.52371 -47.77605 171.59290 316
404.60037 -54.48621 171.82729 309
455.42349 -69.27844 167.91422 297
267.68176 -13.14004 203.49971 314
406.14771 -48.67551 171.83922 309
457.17419 -61.77426 167.92101 298
3666.95386 -885.10596 216.51680 439
268.04984 -11.65170 203.50452 314
407.55136 -42.82375 171.85403 309
463.76682 -55.36576 166.95604 452
268.37704 -10.15363 203.50330 314
408.76108 -36.94769 171.86703 309
470.90247 -48.77491 165.83450 448
268.65945 -8.64931 203.50018 314
409.79153 -30.99241 171.88165 309
476.02377 -41.47775 165.10287 300
268.88828 -7.13971 203.50323 314
410.61508 -25.03336 171.88437 309
441.88797 -28.94876 172.17905 301
269.07480 -5.61212 203.50749 314
411.25522 -19.03809 171.88881 309
442.60397 -21.99673 172.18900 301
269.20001 -4.08936 203.49753 314
411.76599 -13.06551 171.87431 309
443.19574 -14.99475 172.17650 301
269.29572 -2.54883 203.49919 314
412.05209 -7.00282 171.90840 309
443.53525 -8.00850 172.21428 301
269.32404 -1.01294 203.50751 314
412.17050 -1.00325 171.89397 309
443.65298 -1.03765 172.21985 301
513.12872 -0.98021 168.33563 288
269.31674 0.51613 203.50377 314
412.08725 5.02687 171.88744 309
443.59915 5.98809 172.19554 301
269.26364 2.05462 203.49805 314
411.86301 11.01506 171.91451 309
443.30167 13.04196 172.18410 301
269.14774 3.58265 203.50023 314
411.39236 17.06637 171.88551 309
442.84454 20.03955 172.22585 301
4944.15186 446.28680 216.80487 418
269.00269 5.12144 203.49966 314
410.79507 23.03674 171.85657 309
442.10663 27.01377 172.17809 301
4868.04395 585.85809 216.74098 487
268.78821 6.65006 203.49870 314
409.99988 29.00855 171.89096 309
476.40399 39.55173 165.07838 300
4840.60596 730.26550 216.18877 486
268.54092 8.16107 203.50830 314
409.02045 34.97052 171.85812 309
472.06335 46.97990 165.64740 448
4828.30664 878.41711 216.71272 331
267.53018 9.73708 203.49878 314
406.93185 40.98120 171.85754 309
464.67874 53.93215 166.57954 452
4821.20264 1030.32642 215.00935 330
267.17471 11.22112 203.50288 314
405.62674 46.85369 171.81416 309
456.38257 59.91505 167.93596 298
4816.67529 1181.57458 215.06964 329
266.77933 12.68183 203.50912 314
404.09317 52.64974 171.79976 309
454.73837 67.38763 167.90344 297
266.33578 14.13624 203.50401 314
430.74600 67.65678 164.86421 308
377.91888 55.98096 171.56059 316
428.47800 74.24289 164.82831 308
376.15039 60.95558 171.54243 316
421.20618 78.82452 166.05666 430
374.20120 65.86773 171.49449 316
413.15375 82.72365 167.46852 435
395.12524 81.52989 164.68622 317
409.34155 88.21522 167.71799 305
392.41989 86.95447 164.69984 317
27883.01367 14108.54102 4300.67236 1000
388.97333 91.96785 164.85034 429
381.48874 94.61580 166.29056 434
374.44910 97.07259 167.54732 439
371.15045 101.75778 167.59592 315
367.92401 106.48262 167.57547 315
14504.70605 21031.04688 5273.67920 1000
2991.01318 5891.94092 216.55547 380
2747.46460 5843.72314 217.10522 469
2531.64087 5839.27686 216.90100 480
2582.42236 5968.92090 426.16833 481
1411.32068 3308.56641 216.47803 469
1297.41321 3316.90112 217.14120 470
1299.76562 3717.17505 216.16063 490
117.42545 150.81178 167.40109 316
110.47307 150.59532 166.36780 314
105.74148 147.10431 166.40227 314
98.07179 147.15784 165.08884 419
89.65376 147.54738 163.55287 424
85.60558 143.08423 163.52974 307
73.46815 155.98541 166.27269 305
102.25833 117.67133 171.53534 316
68.58363 151.30598 166.27753 305
98.71355 113.82690 171.55420 316
61.53187 148.64659 165.53926 409
95.23701 109.84874 171.58897 316
50.66800 149.06230 163.55763 403
91.90091 105.83063 171.61864 316
73.18082 121.29368 171.80640 308
88.65253 101.66660 171.66835 316
69.53742 116.53132 171.80098 308
20.49505 154.51904 166.04068 295
85.56763 97.43614 171.69247 316
65.98850 111.61242 171.83105 308
12.50049 150.42451 165.25769 389
82.62096 93.07939 171.69019 316
62.61349 106.67049 171.87117 308
-2.42372 150.80110 162.76974 382
79.84467 88.65602 171.71042 316
59.44558 101.57370 171.87587 308
32.61056 118.62048 172.11995 300
77.16379 84.14399 171.76163 316
56.36762 96.45530 171.90671 308
29.07758 112.58361 172.12233 300
-47.11576 157.58514 165.10393 286
74.63071 79.58897 171.75693 316
53.48670 91.19762 171.95505 308
40.50381 98.28013 175.54315 319
15.54107 112.01701 177.76474 270
72.21082 74.90598 171.81569 316
60.86406 80.71745 174.61957 385
52.82719 84.76825 178.97308 325
1.62855 110.85269 175.85391 293
70.90692 69.73817 172.12740 381
64.44901 72.78672 176.18787 390
53.76426 77.81845 179.73315 300
23.43845 92.04667 180.44591 315
-6.19889 105.99654 183.42336 264
74.11760 62.69582 173.65778 386
67.76672 65.47194 177.60118 395
43.90659 75.75700 178.14851 373
34.07659 80.03499 182.86481 336
21.96587 85.25442 187.95959 331
4.25814 92.91936 193.23434 283
76.16856 56.50301 174.78474 420
70.98875 58.54909 178.89717 415
47.67923 67.75252 179.44400 389
40.31715 70.64542 184.39301 373
31.70871 74.08667 189.67488 368
20.46803 78.49272 195.25330 332
4.24073 84.94489 201.13771 311
77.50641 50.85255 175.67729 424
71.98016 52.82643 179.59810 308
51.17457 60.29349 180.60867 393
44.28952 62.77356 185.48404 388
36.86240 65.43876 190.72966 373
28.11786 68.59985 196.26183 368
18.56878 72.06078 202.36714 362
78.85001 45.35378 176.50578 427
70.37254 48.12499 179.59744 308
54.15385 53.36069 181.64815 410
47.92484 55.39188 186.47995 393
40.93220 57.69654 191.55859 388
33.38693 60.12019 197.06709 383
24.55120 62.99263 202.88817 367
80.16513 40.11387 177.27174 430
68.98396 43.37602 179.62347 308
56.37646 47.01644 182.44199 421
50.53102 48.73566 187.19614 409
44.22985 50.55296 192.27614 404
37.50494 52.51160 197.63237 399
29.95392 54.67949 203.43750 382
81.46349 35.03236 177.95576 435
63.41804 39.64935 178.60855 429
58.24389 40.98169 183.10345 424
52.84575 42.40104 187.85037 420
46.88131 43.88875 192.82112 408
40.42934 45.56863 198.11578 403
33.42871 47.29669 203.80707 397
25.71964 49.31366 209.83374 355
82.53600 30.16570 178.56183 457
65.15398 34.07111 179.30453 432
60.14262 35.16907 183.74165 428
54.84653 36.34320 188.39127 423
49.30313 37.61184 193.32782 418
43.22982 38.94672 198.55284 406
36.58658 40.41293 204.07808 401
29.36662 42.05192 210.03003 361
-183.23412 89.44356 216.51488 296
82.75083 25.60353 178.86586 459
66.59106 28.66619 179.88414 455
61.94086 29.56459 184.32137 431
56.81416 30.52804 188.93709 426
51.44918 31.56573 193.78700 421
45.71521 32.64850 198.92677 416
39.52426 33.81313 204.37204 405
32.67963 35.16582 210.17427 399
-183.08804 76.23583 216.47064 424
83.00616 21.12788 179.12668 461
66.87688 23.65424 180.19617 456
62.38890 24.35395 184.58516 452
57.65459 25.12206 189.23972 447
52.75689 25.90316 194.07901 442
47.55841 26.69940 199.20393 437
42.05998 27.56278 204.58549 432
35.79119 28.56649 210.29901 402
83.24644 16.68144 179.39105 462
67.20143 18.67157 180.41887 457
62.75267 19.26575 184.81363 453
58.04439 19.82598 189.42865 448
53.15164 20.43815 194.23463 443
48.04423 21.11229 199.32672 438
42.61253 21.79784 204.70555 433
36.87125 22.48794 210.38121 428
83.25198 12.29769 179.51099 316
67.52067 13.76072 180.62914 459
63.10337 14.17539 184.99585 454
58.46644 14.63005 189.59735 450
53.63556 15.07512 194.37103 445
48.57694 15.54061 199.45621 440
43.20036 16.08421 204.78130 435
37.57338 16.57345 210.43056 429
82.89326 7.97984 179.52336 316
67.87758 8.91113 180.82222 460
63.48847 9.18575 185.18150 456
58.95573 9.48253 189.73187 451
54.14554 9.78030 194.50893 446
49.15028 10.07209 199.55647 441
43.86179 10.39838 204.84850 436
38.26243 10.77447 210.46349 430
-181.70636 24.57792 269.50211 486
-186.77573 24.79256 283.86078 360
82.70102 3.64397 179.51379 316
68.27181 4.10836 180.94138 461
63.96387 4.21891 185.30089 456
59.45109 4.37704 189.87469 452
54.69688 4.52587 194.63562 447
49.74411 4.67506 199.61594 442
44.47928 4.84429 204.94083 437
38.91576 4.99006 210.50339 431
-181.71674 11.89282 269.46320 487
