# .PCD v.7 - Point Cloud Data file format
VERSION .7
FIELDS x y z rgb
SIZE 4 4 4 4
TYPE F F F U
COUNT 1 1 1 1
WIDTH 416
HEIGHT 1
VIEWPOINT 4288.380859 -4113.375000 137.183548 0.002190 -0.116355 0.002264 0.993203
POINTS 416
DATA ascii
82.43972 -0.60631 179.50833 316
68.62018 -0.64148 181.09286 462
64.32892 -0.61875 185.46358 457
59.83854 -0.62334 189.96115 453
55.09191 -0.61732 194.72478 448
50.18995 -0.61545 199.72902 443
44.93537 -0.60913 205.01363 438
39.44042 -0.63494 210.54869 432
-152.59641 -0.65370 240.95978 419
-181.75505 -0.72201 269.38620 487
-148.11427 -0.68806 277.31146 284
82.50338 -4.96697 179.51619 316
68.13240 -5.40725 180.97408 461
63.80991 -5.57753 185.33876 456
59.28395 -5.69226 189.88368 452
54.53814 -5.83541 194.67142 447
49.57033 -5.99908 199.68336 442
44.32491 -6.18668 204.94389 437
38.75988 -6.33905 210.54361 431
-152.81546 -12.40384 240.93652 416
-181.77657 -13.38955 269.49203 487
-151.24997 -12.38985 277.84891 285
82.67627 -9.31654 179.53415 316
67.71727 -10.23979 180.82584 460
63.31474 -10.54498 185.20053 455
58.77902 -10.82219 189.77303 451
53.97734 -11.10154 194.54488 446
48.95350 -11.41362 199.58481 441
43.65373 -11.75233 204.89178 436
38.05535 -12.12242 210.54120 430
-181.78818 -25.99580 269.54312 486
83.00358 -13.62446 179.52684 316
67.35865 -15.11888 180.64354 459
62.91108 -15.53259 185.05365 454
58.31813 -15.98308 189.63052 449
53.43439 -16.42821 194.42664 445
48.36411 -16.91069 199.46593 440
43.03168 -17.42430 204.82109 435
37.32819 -17.94057 210.50444 429
-181.69447 -38.69106 269.70731 486
83.06339 -17.98477 179.40497 462
67.01943 -20.05037 180.46788 457
62.55042 -20.61614 184.85228 453
57.89773 -21.17955 189.45499 448
52.97593 -21.79406 194.28668 443
47.83175 -22.44381 199.39450 438
42.37574 -23.15405 204.74071 433
36.64148 -23.86982 210.46329 428
82.80035 -22.44839 179.18054 461
66.70055 -25.01495 180.24396 456
62.19205 -25.70029 184.63913 452
57.46230 -26.47929 189.27243 447
52.53224 -27.24556 194.12376 442
47.30146 -28.06095 199.23428 437
41.49018 -29.02194 204.64435 414
35.04574 -30.02491 210.36813 402
82.58090 -26.95316 178.91978 459
66.31862 -30.05808 179.95789 435
61.44622 -31.00283 184.34712 431
56.27595 -31.95277 188.92053 426
50.87031 -32.99337 193.80734 421
45.10721 -34.12282 198.97060 416
38.84088 -35.30525 204.41980 404
31.94075 -36.60915 210.23611 364
-183.01817 -77.67705 216.48195 424
82.29057 -31.53840 178.61549 438
64.63176 -35.48523 179.29015 432
59.57866 -36.59710 183.73836 428
54.28607 -37.78027 188.42683 423
48.72372 -39.03487 193.37265 418
42.56089 -40.42627 198.57898 406
35.85431 -41.91476 204.10881 401
28.42614 -43.58637 210.06499 358
-187.45308 -91.91947 216.49908 296
81.01147 -36.47552 177.98647 435
62.87774 -41.09976 178.63026 429
57.73358 -42.45560 183.10793 424
52.25288 -43.83735 187.85963 419
46.17927 -45.38324 192.82631 408
39.71531 -47.09340 198.14972 402
32.73811 -48.87891 203.85565 397
-188.39507 -105.67422 202.73128 484
79.70185 -41.53908 177.27591 430
68.48195 -44.79434 179.63335 308
55.80756 -48.49814 182.45587 421
49.86095 -50.26006 187.20345 409
43.50608 -52.05890 192.30464 404
36.61388 -54.06145 197.69099 387
28.90297 -56.34877 203.45903 371
78.36473 -46.82624 176.51729 427
69.90872 -49.58501 179.64093 308
53.47592 -54.91184 181.62094 410
47.01074 -57.02071 186.44798 393
39.98915 -59.29947 191.58807 388
32.31671 -61.81136 197.07997 372
23.23973 -64.72232 202.95895 367
76.97938 -52.30656 175.69397 423
71.43559 -54.30645 179.62666 308
50.29023 -61.93317 180.57147 393
43.32211 -64.43476 185.47812 388
35.73426 -67.19313 190.71095 372
26.86986 -70.34922 196.30455 367
16.86310 -74.00276 202.34393 332
75.61440 -58.02123 174.82809 420
70.15943 -60.17670 178.85094 386
46.76733 -69.45090 179.40161 388
39.21853 -72.45084 184.35681 373
30.41081 -75.95266 189.63466 336
18.21799 -80.72938 195.13757 331
0.86009 -87.60074 201.09062 310
73.20115 -64.40962 173.59177 386
66.87160 -67.12579 177.55141 395
42.79361 -77.59740 178.05884 373
31.99934 -82.23503 182.68306 335
19.32582 -87.72983 187.73724 315
-3.05648 -97.39732 192.54398 265
69.95995 -71.50842 171.98669 381
63.51171 -74.52560 176.11426 390
53.14359 -79.41535 179.76886 300
20.56373 -94.73639 180.08495 314
-27.62090 -117.47082 180.44843 284
71.70308 -76.50172 171.81755 316
59.95382 -82.44590 174.55641 384
50.48101 -87.27611 178.62592 325
23.33476 -101.15833 180.04973 292
74.05206 -81.17348 171.80844 316
52.88444 -92.77917 172.00792 308
37.93243 -101.05540 175.17436 318
-54.49237 -151.90533 164.81512 373
76.59614 -85.78504 171.80960 316
55.79407 -98.06514 171.96352 308
28.45403 -114.24039 172.21660 300
-47.79532 -159.38785 165.16183 288
79.22550 -90.27583 171.76501 316
58.81875 -103.25555 171.96799 308
31.94734 -120.30582 172.17502 300
82.04115 -94.73387 171.73824 316
61.98796 -108.35159 171.94247 308
-0.52334 -150.93999 163.43269 383
84.95995 -99.10149 171.72643 316
65.38503 -113.39622 171.92451 308
14.18097 -150.53569 165.90321 389
88.04767 -103.37046 171.70946 316
68.86147 -118.26008 171.88556 308
19.75800 -156.38382 166.11589 295
91.25489 -107.57944 171.66075 316
44.52577 -146.23148 163.38792 300
94.55974 -111.66831 171.63737 316
51.97873 -149.23108 164.27338 404
98.03770 -115.64054 171.60814 316
62.69976 -148.84178 166.13501 409
101.63790 -119.52156 171.58331 316
67.94688 -153.19464 166.35733 306
-10684.27441 -10908.92969 721.92273 1000
84.79195 -145.16762 163.52846 307
90.74802 -147.75824 164.11969 425
99.17712 -147.31915 165.67543 419
105.65038 -148.69016 166.48061 314
110.34631 -152.23064 166.43697 314
126.77594 -148.21649 169.83615 441
265.81897 -1417.32507 77.33772 460
266.13412 -1427.24951 123.33237 408
745.04718 -954.38647 109.69582 490
747.55444 -958.81390 145.28043 443
750.37933 -963.83984 180.81610 379
368.61426 -108.43757 167.61551 313
371.83356 -103.70798 167.65086 315
374.90009 -98.89096 167.67242 315
380.52832 -95.51274 166.84688 434
387.93835 -92.89314 165.49910 429
393.16724 -88.84492 164.75754 317
395.93085 -83.41941 164.71568 317
410.35019 -90.18661 167.76530 305
375.00793 -67.76569 171.54659 316
412.84259 -84.13778 167.80096 305
376.99646 -62.84483 171.56100 316
420.13623 -79.92706 166.60306 429
378.79718 -57.86038 171.59085 316
428.59338 -75.76079 165.11653 424
380.47086 -52.85926 171.62343 316
431.84164 -69.52385 164.87549 308
381.95947 -47.79762 171.61623 316
433.90799 -62.84338 164.91071 308
456.18857 -69.31055 167.85439 297
383.35226 -42.70678 171.64891 316
406.74911 -48.68309 171.85414 309
457.90686 -61.82997 167.93402 297
268.45782 -11.61315 203.50574 314
408.08035 -42.79505 171.89441 309
463.91916 -55.26209 167.10922 452
268.77881 -10.10297 203.50644 314
409.27014 -36.90003 171.88417 309
471.02835 -48.67068 166.01230 448
269.06036 -8.57785 203.50255 314
410.25891 -30.93756 171.88303 309
476.65826 -41.42950 165.14194 300
269.28229 -7.05404 203.50668 314
411.09778 -24.93325 171.87657 309
442.48859 -28.93607 172.20053 301
269.45538 -5.51602 203.50676 314
411.75229 -18.95774 171.92836 309
443.20871 -21.91717 172.22260 301
269.57928 -3.96945 203.50827 314
412.23068 -12.95419 171.90558 309
443.74091 -14.90936 172.23364 301
269.66486 -2.43310 203.50415 314
412.53067 -6.90104 171.90990 309
444.08331 -7.87864 172.22263 301
269.70062 -0.87949 203.49918 314
412.60571 -0.88608 171.92683 309
444.17636 -0.87748 172.22134 301
513.85480 -0.87886 168.28288 288
269.67737 0.66137 203.50977 314
412.54974 5.15450 171.89116 309
444.09128 6.14139 172.21844 301
269.61508 2.20880 203.50096 314
412.29236 11.20036 171.88731 309
443.83563 13.19508 172.20297 301
269.50439 3.75560 203.49800 314
411.84921 17.20553 171.88135 309
443.29987 20.16434 172.21805 301
269.33350 5.29987 203.50284 314
411.18140 23.20255 171.89584 309
442.57236 27.16656 172.18001 301
4870.60889 586.95038 216.60921 489
269.12201 6.82801 203.50522 314
410.36734 29.23934 171.86125 309
476.83441 39.72667 165.06348 300
4830.88281 730.19287 216.53160 329
268.86511 8.35298 203.50806 314
409.39429 35.14825 171.88489 309
471.96747 47.10221 165.80934 448
4812.56006 874.99609 217.05464 327
268.55341 9.87656 203.50279 314
408.26212 41.07990 171.87918 309
464.84201 53.76147 166.89304 452
4809.99463 1025.60889 216.29292 327
268.19794 11.38581 203.49844 314
406.88553 47.00688 171.86043 309
458.09415 60.14291 167.91902 297
4805.83496 1176.57678 216.87096 326
267.79434 12.89024 203.50581 314
405.36737 52.87709 171.84766 309
456.35455 67.65338 167.86038 297
380.65054 51.52383 171.60107 316
432.10873 68.26943 164.85100 308
378.96002 56.55872 171.54874 316
429.46857 74.79418 164.93925 424
377.17056 61.51638 171.54213 316
420.98007 78.92672 166.44136 430
375.18259 66.46210 171.50549 316
413.06537 82.86293 167.76456 305
396.06409 82.14738 164.66087 317
410.46069 88.94604 167.73088 305
393.32700 87.59136 164.72681 317
388.76022 92.08715 165.20786 429
3780.91357 1959.15442 216.72011 488
381.29385 94.68710 166.61169 434
375.02979 97.61694 167.59503 315
371.89914 102.49055 167.58289 315
368.67184 107.19943 167.58392 313
3006.87134 5926.86572 215.52486 379
2756.56836 5865.77588 216.86775 468
2825.22412 6025.81787 430.70569 477
2537.57690 5859.11133 216.43147 480
1413.72473 3318.53027 216.73639 470
1300.27820 3327.93408 216.25261 470
1217.05811 3433.70361 216.50391 307
882.01489 10561.39648 2683.01367 1000
117.35126 150.90338 167.41554 316
110.36725 150.66132 166.38655 314
105.68149 147.15157 166.38916 314
98.03775 147.16255 165.10800 419
89.68559 147.55457 163.53461 424
84.97620 143.49423 163.50206 307
72.84672 156.38846 166.28595 305
101.67927 117.96740 171.52736 316
67.93179 151.70816 166.28304 305
98.14365 114.10981 171.56879 316
61.33631 148.66444 165.61508 409
94.84149 110.16512 171.60866 316
50.68444 149.10487 163.68890 403
91.51061 106.08817 171.62032 316
72.76953 121.60328 171.78659 308
88.29127 101.95099 171.66901 316
69.10541 116.77637 171.81459 308
20.01861 154.79025 165.98969 295
85.22304 97.65478 171.66289 316
65.57031 111.89769 171.83543 308
12.51239 150.44789 165.34384 389
82.25805 93.29418 171.73483 316
62.22019 106.92545 171.88396 308
-2.43185 150.78764 162.83473 382
79.42628 88.85505 171.75378 316
59.03379 101.83201 171.90237 308
32.19840 118.87394 172.14513 300
76.80199 84.36944 171.74417 316
55.96449 96.63573 171.91862 308
28.62466 112.79440 172.14305 300
-47.56567 157.83678 165.08250 286
74.23254 79.78248 171.78638 316
53.07975 91.35097 171.96835 308
40.38591 98.36452 175.59625 319
15.23166 112.17840 177.82735 270
71.84418 75.07573 171.80927 316
60.78083 80.71362 174.72072 385
52.68890 84.85562 179.05005 325
1.50876 110.88963 175.91820 293
70.79955 69.77724 172.15347 381
64.31397 72.82944 176.25908 390
53.33071 77.99231 179.73976 300
23.31745 92.09660 180.52251 315
-6.64253 106.23303 183.41489 264
74.03119 62.75484 173.72391 386
67.65930 65.48608 177.65450 395
43.80233 75.79899 178.18831 373
33.90083 80.09496 182.91914 336
21.83883 85.30241 188.00021 331
4.01962 92.98403 193.26099 283
76.06425 56.55853 174.89168 420
70.89925 58.55679 178.98900 415
47.60536 67.80553 179.53247 389
40.24484 70.70602 184.50935 373
31.63877 74.09243 189.74022 368
20.36496 78.58072 195.31294 332
4.06904 85.02886 201.24086 311
77.43333 50.84569 175.76807 424
71.56261 52.95868 179.59558 308
51.03234 60.32510 180.66954 393
44.20101 62.83582 185.55460 388
36.75054 65.48318 190.77901 373
28.02011 68.63095 196.32254 368
18.44429 72.04253 202.42957 362
78.77396 45.40086 176.57170 427
70.03722 48.24753 179.61401 308
54.05643 53.41545 181.71100 410
47.80322 55.43214 186.54306 393
40.85095 57.73343 191.62750 388
33.33356 60.17272 197.11391 383
24.45000 63.03553 203.00092 367
80.07880 40.15195 177.35582 431
61.58593 45.51942 177.91846 425
56.29338 47.02868 182.51285 421
50.41721 48.75263 187.24655 409
44.13651 50.55297 192.32248 404
37.41288 52.54494 197.70107 399
29.84448 54.70093 203.49466 382
81.40953 35.05151 178.03688 435
63.37223 39.70565 178.66727 429
58.20137 40.98970 183.18611 424
52.74267 42.40334 187.91585 420
46.79969 43.92288 192.88570 408
40.34539 45.56623 198.19011 403
33.43197 47.34009 203.83641 397
25.40894 49.38078 209.90437 269
82.45657 30.19459 178.63083 458
65.05975 34.09356 179.36057 432
60.03440 35.19313 183.82162 428
54.76313 36.37409 188.48917 423
49.22720 37.62707 193.40109 418
43.14101 38.95224 198.61253 406
36.53054 40.46212 204.13083 401
29.24260 42.07489 210.07825 358
-183.19411 89.52037 216.47478 296
82.69839 25.62620 178.91208 459
66.55396 28.69698 179.96872 455
61.89381 29.60400 184.37953 431
56.74195 30.55024 188.97929 426
51.38526 31.61086 193.84261 421
45.64071 32.66960 198.95395 416
39.48990 33.86309 204.41968 405
32.61811 35.16747 210.23582 399
-183.04799 76.17732 216.46672 424
82.93961 21.14196 179.18533 461
66.82650 23.66563 180.23267 456
62.30177 24.36688 184.67892 452
57.60175 25.12602 189.26904 447
52.69860 25.92166 194.12131 442
47.46586 26.74865 199.27623 437
41.96323 27.60401 204.67265 432
35.70047 28.56317 210.36696 402
83.20277 16.69119 179.45531 462
67.11008 18.69601 180.48146 457
62.66434 19.27004 184.85374 453
58.00523 19.83918 189.49083 448
53.11267 20.46806 194.29420 444
47.97363 21.12230 199.39336 438
42.51342 21.79125 204.77258 433
36.83493 22.50867 210.45224 428
83.00936 12.32200 179.52132 316
67.47636 13.77712 180.66238 459
63.05510 14.22705 185.04486 454
58.40311 14.64845 189.63887 450
53.58146 15.10384 194.44629 445
48.53429 15.57917 199.47891 440
43.17585 16.06553 204.82269 435
37.49912 16.62253 210.50520 429
82.65302 7.99524 179.52776 316
67.81939 8.91914 180.85556 460
63.43528 9.18860 185.19719 456
58.90397 9.47234 189.79666 451
54.10545 9.77253 194.55724 446
49.11281 10.12545 199.59579 441
43.78492 10.43096 204.89093 436
38.19063 10.80343 210.51166 430
-181.68616 24.51748 269.50043 486
-186.78658 24.83945 283.85925 360
82.44057 3.68881 179.52007 316
68.25347 4.11900 181.00403 461
63.93121 4.22890 185.37807 457
59.39746 4.37358 189.90689 452
54.64976 4.51078 194.65482 447
49.67202 4.69691 199.67662 442
44.44942 4.84538 204.96124 437
38.86098 5.02720 210.58041 431
-181.77203 11.90094 269.40891 487
