# .PCD v.7 - Point Cloud Data file format
VERSION .7
FIELDS x y z rgb
SIZE 4 4 4 4
TYPE F F F U
COUNT 1 1 1 1
WIDTH 411
HEIGHT 1
VIEWPOINT 4288.129883 -4113.793945 137.096619 0.002885 -0.116044 0.002695 0.993236
POINTS 411
DATA ascii
82.38236 -0.66986 179.53653 316
68.61127 -0.68625 181.09097 462
64.27474 -0.66671 185.43738 457
59.80749 -0.67433 189.98500 453
55.10559 -0.67291 194.72252 448
50.14988 -0.66173 199.73248 443
44.93377 -0.68581 204.99696 438
39.41991 -0.66115 210.59509 432
-152.60085 -0.79753 240.98685 419
-181.77698 -0.76109 269.42429 487
-148.04507 -0.75355 277.34869 284
82.46085 -5.02601 179.52263 316
68.12801 -5.45705 180.96518 461
63.79364 -5.59039 185.34848 456
59.25796 -5.74560 189.90950 452
54.53593 -5.90485 194.65065 447
49.53997 -6.06996 199.69702 442
44.27999 -6.23835 204.95802 437
38.73530 -6.41424 210.54590 431
-152.79947 -12.53544 241.00435 416
-181.80803 -13.37011 269.46988 487
-151.46471 -12.48699 277.97720 285
82.64780 -9.35710 179.52245 316
67.71300 -10.30151 180.85458 460
63.31688 -10.56639 185.20705 455
58.73985 -10.87573 189.76709 451
53.97450 -11.16074 194.57195 446
48.96201 -11.46384 199.58148 441
43.63381 -11.81400 204.89465 436
38.01286 -12.16806 210.51714 430
-181.72845 -26.11912 269.49774 486
82.98356 -13.68188 179.53256 316
67.33021 -15.17415 180.65585 459
62.93092 -15.55453 185.06204 454
58.28827 -16.01329 189.62943 449
53.43949 -16.49351 194.41792 445
48.37452 -16.97533 199.49861 440
42.97890 -17.44887 204.81139 435
37.34896 -17.99717 210.49844 429
-181.62599 -38.75603 269.64044 486
83.05797 -18.02031 179.43732 462
67.02311 -20.06324 180.48628 457
62.53894 -20.65805 184.87546 453
57.89306 -21.23528 189.48671 448
52.96909 -21.85026 194.30806 443
47.81450 -22.51348 199.38193 438
42.34962 -23.20462 204.74567 433
36.65154 -23.90713 210.46375 428
82.81302 -22.48694 179.20802 461
66.69675 -25.02867 180.23294 456
62.17140 -25.74543 184.66006 452
57.45392 -26.48260 189.26593 447
52.52887 -27.28895 194.15471 442
47.29954 -28.11241 199.26068 437
41.50464 -29.02922 204.64389 414
35.06066 -30.07452 210.40181 402
82.54468 -26.98248 178.93909 459
66.28589 -30.09313 179.92284 435
61.43275 -31.01052 184.31665 431
56.28066 -32.01526 188.94098 426
50.86779 -33.02637 193.77507 421
45.13283 -34.15788 198.93597 416
38.80341 -35.35665 204.41528 404
31.87333 -36.66111 210.25531 364
-182.95171 -77.77014 216.45979 424
82.29758 -31.57571 178.58928 438
64.61890 -35.51865 179.29480 432
59.58826 -36.64445 183.74106 428
54.25808 -37.84475 188.39575 423
48.66558 -39.09089 193.33607 418
42.51278 -40.47300 198.56563 406
35.83111 -41.98022 204.13794 401
28.44551 -43.63567 210.06781 358
-187.39403 -91.92111 216.53828 296
80.98236 -36.50825 177.95486 435
62.88707 -41.13653 178.58282 429
57.72466 -42.50563 183.13113 424
52.25459 -43.91339 187.86362 419
46.17779 -45.45267 192.84102 408
39.68542 -47.11626 198.14146 402
32.69357 -48.92461 203.80888 397
-188.41859 -105.72066 202.67683 484
79.69170 -41.59609 177.27762 430
68.54141 -44.84768 179.64445 308
55.77658 -48.51897 182.40581 421
49.83665 -50.29220 187.20978 409
43.46849 -52.10840 192.29073 404
36.61471 -54.10633 197.67558 387
28.88243 -56.35718 203.44945 371
78.36213 -46.86028 176.50217 427
69.95186 -49.62202 179.65024 308
53.51570 -54.93045 181.63312 410
47.01576 -57.06750 186.42836 393
39.94699 -59.36316 191.55302 388
32.28976 -61.85516 197.03456 372
23.22465 -64.80272 202.95836 367
77.01208 -52.34509 175.70168 423
71.47952 -54.32926 179.60980 308
50.26685 -61.96031 180.53517 393
43.34244 -64.45417 185.46750 388
35.70147 -67.21009 190.69305 372
26.85531 -70.41161 196.25761 367
16.79241 -74.05906 202.34332 332
75.64040 -58.02979 174.80086 420
70.15961 -60.19163 178.86388 386
46.79777 -69.48223 179.40256 388
39.20666 -72.45056 184.38100 373
30.42113 -75.93454 189.60124 336
18.20619 -80.78939 195.11874 331
0.82261 -87.65248 201.02200 310
73.18186 -64.42461 173.53810 386
66.90520 -67.17168 177.54720 395
42.76273 -77.59334 178.05347 373
32.01648 -82.25745 182.66624 335
19.31666 -87.77136 187.67996 315
-3.11800 -97.50373 192.52783 265
69.96510 -71.53291 172.01398 381
63.54220 -74.52927 176.11523 390
53.22492 -79.39670 179.77974 300
20.58094 -94.74836 180.08923 314
-27.41686 -117.38976 180.43552 284
71.76735 -76.45967 171.82858 316
59.95564 -82.48280 174.53191 384
50.47831 -87.29430 178.58362 325
23.44927 -101.10087 180.04341 292
74.12922 -81.12348 171.80402 316
52.99728 -92.79265 171.98634 308
37.97083 -101.07774 175.11156 318
-54.43796 -151.84688 164.77155 373
76.67192 -85.75304 171.79732 316
55.87921 -98.01520 171.98465 308
28.56642 -114.19758 172.22075 300
-47.59008 -159.22650 165.12251 286
79.33492 -90.24846 171.79311 316
58.93082 -103.19608 171.97661 308
32.09592 -120.22269 172.19429 300
82.13088 -94.68137 171.76926 316
62.14520 -108.29597 171.90240 308
-0.56494 -150.90062 163.38287 383
85.08567 -99.03995 171.75673 316
65.46516 -113.32101 171.88554 308
14.23166 -150.56502 165.83241 389
88.11845 -103.31486 171.71939 316
68.97292 -118.19017 171.89772 308
19.95432 -156.23395 166.05881 295
91.33250 -107.47723 171.68529 316
44.66462 -146.14934 163.39006 300
94.68100 -111.57405 171.67366 316
51.98539 -149.19847 164.19336 404
98.15765 -115.55019 171.61250 316
62.74276 -148.84140 166.14786 409
101.73871 -119.43427 171.61116 316
68.04488 -153.08292 166.30719 306
84.88604 -145.02072 163.51419 307
90.79090 -147.75874 164.08192 425
99.15581 -147.27264 165.59502 419
105.75011 -148.55739 166.47989 314
110.43592 -152.07396 166.47153 314
126.77356 -148.22829 169.77699 441
265.53137 -1415.56812 76.79355 492
265.61874 -1424.58032 122.78365 461
745.68152 -955.46924 109.36160 458
749.21326 -962.22693 144.52353 338
368.31079 -108.27155 167.60828 313
371.53131 -103.54043 167.64549 315
374.59592 -98.73756 167.68082 315
380.48355 -95.49167 166.76213 434
387.92789 -92.95369 165.40181 429
392.83902 -88.72749 164.75795 317
395.61670 -83.29768 164.71640 317
409.92575 -90.06016 167.73897 305
374.69156 -67.63918 171.53854 316
412.46393 -83.95627 167.83521 305
376.68079 -62.72772 171.57420 316
420.09109 -79.94041 166.50134 429
378.46909 -57.74334 171.56509 316
428.59851 -75.80109 165.02817 424
380.14352 -52.76119 171.62068 316
431.44272 -69.39964 164.87433 308
381.64047 -47.68763 171.63647 316
404.78250 -54.43145 171.85999 309
455.63693 -69.21603 167.87196 297
267.74042 -13.03227 203.50043 314
406.32300 -48.60852 171.87698 309
457.41364 -61.71222 167.96326 297
268.09616 -11.54185 203.50264 314
407.67175 -42.73671 171.84508 309
463.89780 -55.25294 167.01910 452
268.41443 -10.03552 203.50307 314
408.85428 -36.82636 171.87874 309
471.00677 -48.61975 165.84323 448
268.67850 -8.52679 203.50233 314
409.86841 -30.89005 171.87891 309
476.18973 -41.34402 165.12056 300
268.88791 -7.00538 203.49953 314
410.65524 -24.88171 171.90097 309
441.99313 -28.83953 172.22586 301
269.06778 -5.47446 203.50139 314
412.15875 -19.03723 171.89186 309
442.70499 -21.88489 172.18640 301
269.18344 -3.93358 203.50023 314
411.79294 -12.90923 171.91731 309
443.24915 -14.89208 172.21239 301
269.25946 -2.40461 203.50645 314
412.04596 -6.89654 171.92250 309
443.54074 -7.85051 172.20020 301
269.28006 -0.86777 203.50468 314
412.15424 -0.87437 171.88626 309
443.69604 -0.87712 172.18016 301
513.13477 -0.81912 168.27161 288
269.25763 0.67241 203.49736 314
412.07217 5.15301 171.91008 309
443.57590 6.19387 172.23398 301
269.17999 2.20638 203.50735 314
411.82822 11.21611 171.88795 309
443.27228 13.16277 172.22418 301
269.06049 3.74378 203.50638 314
411.33688 17.21372 171.86986 309
442.76746 20.19950 172.21642 301
268.89053 5.27720 203.50038 314
410.72238 23.18065 171.88603 309
442.00092 27.15469 172.16113 301
4872.83594 586.70691 216.27995 490
268.66913 6.79327 203.50827 314
409.88446 29.18173 171.89555 309
476.25443 39.67347 165.11436 300
4841.23438 731.35345 216.71576 485
268.40848 8.31155 203.50798 314
408.89899 35.11042 171.84245 309
471.93405 47.15435 165.71036 448
4820.78906 876.76550 217.37578 329
268.09949 9.81617 203.50993 314
407.76834 41.03402 171.87495 309
464.82443 53.77267 166.78706 452
4818.43213 1026.80029 216.90076 328
267.72983 11.32143 203.50208 314
406.37292 46.92995 171.82100 309
457.49091 60.06482 167.91345 297
267.32877 12.80615 203.50414 314
404.84634 52.74410 171.79626 309
455.73087 67.54947 167.83357 297
266.97012 14.30565 203.47307 288
431.55411 67.78749 164.81337 308
378.95837 56.42377 171.56274 316
429.62503 74.72819 164.87766 424
377.12619 61.39765 171.53719 316
421.09833 78.84636 166.39677 430
375.13596 66.31628 171.54413 316
413.10541 82.78622 167.76628 435
396.12567 82.08597 164.66772 317
410.51889 88.86538 167.74284 305
393.35040 87.50346 164.72667 317
388.92389 92.01918 165.20332 429
3781.30908 1959.38000 217.91066 497
381.40942 94.64217 166.56068 434
375.03104 97.53584 167.61809 315
371.92740 102.37636 167.61491 315
368.67218 107.14814 167.57494 313
3018.21362 5948.87695 217.33026 325
2759.71924 5871.27637 218.38466 462
2540.89453 5864.37988 218.21146 480
1414.50513 3319.94092 217.82014 470
1301.93188 3329.24902 217.42401 471
1209.38574 3407.91870 217.50864 307
117.30266 150.89917 167.41052 316
110.34200 150.70604 166.38124 314
105.64824 147.15695 166.41489 314
98.01824 147.18320 165.09435 419
89.63872 147.57115 163.55048 424
84.97921 143.46686 163.49326 307
72.83553 156.40082 166.25824 305
101.70724 117.97615 171.53685 316
67.96683 151.71063 166.25168 305
98.11591 114.10091 171.56050 316
61.29445 148.66185 165.64026 409
94.66695 110.11881 171.59117 316
50.50041 149.08638 163.67911 403
91.02364 106.36243 171.65530 316
72.22353 121.87099 171.77798 308
87.81634 102.15108 171.65384 316
68.54981 117.05478 171.84062 308
19.31542 155.26141 166.03319 295
84.76114 97.86608 171.69574 316
65.08608 112.14574 171.85426 308
12.29681 150.42310 165.44492 389
81.83070 93.50584 171.73912 316
61.72715 107.13631 171.86447 308
-2.63474 150.85020 162.94743 382
79.02713 89.00511 171.74614 316
58.53607 102.01620 171.92381 308
31.58672 119.12928 172.09903 300
76.33717 84.46299 171.77245 316
55.50598 96.83118 171.94141 308
28.08900 113.01398 172.15263 300
-48.33399 158.15988 165.04482 288
73.85632 79.88514 171.76350 316
52.64618 91.50560 171.94661 308
40.38972 98.25429 175.76836 319
15.60274 111.86130 178.02771 270
71.47668 75.19553 171.78908 316
60.74829 80.62357 174.80110 385
52.73088 84.68456 179.17226 325
0.95195 111.05851 175.92012 293
70.74338 69.71325 172.26433 381
64.32540 72.75491 176.34521 390
52.81561 78.12946 179.74860 300
23.28213 92.02798 180.61919 315
-6.42555 106.02092 183.61743 264
73.93909 62.66962 173.83612 386
67.64466 65.36711 177.75929 395
43.75644 75.73525 178.29767 373
33.92316 79.97229 183.02547 336
21.84042 85.18771 188.12952 331
4.14125 92.86012 193.35001 283
75.98701 56.43716 174.96556 420
70.85946 58.47179 179.08723 415
47.55629 67.68060 179.61823 389
40.21615 70.63095 184.61147 373
31.56847 73.99422 189.84140 368
20.35559 78.44311 195.39825 332
4.06624 84.84760 201.34416 311
77.37704 50.77397 175.84845 424
71.19390 52.97466 179.61285 308
50.99458 60.24958 180.76550 393
44.13164 62.70644 185.67761 388
36.73787 65.39225 190.87309 373
27.98096 68.49994 196.46786 368
18.40839 71.96701 202.53014 362
78.71507 45.31581 176.66557 427
69.65401 48.27233 179.60683 308
54.02579 53.30256 181.78394 410
47.75610 55.34560 186.60072 393
40.79241 57.61491 191.72223 388
33.30669 60.06104 197.18474 383
24.39102 62.93462 203.07742 367
80.04857 40.03685 177.42509 431
61.56866 45.42071 178.02600 425
56.22298 46.96664 182.55159 421
50.41096 48.66884 187.35568 409
44.10977 50.49060 192.38837 404
37.35212 52.44776 197.81689 399
29.79887 54.63760 203.56435 382
81.37737 34.98308 178.10245 435
63.32185 39.59322 178.73770 429
58.17084 40.93787 183.24005 424
52.71561 42.31315 188.00755 420
46.76984 43.85498 192.95367 408
40.27552 45.46924 198.28644 403
33.35635 47.25358 203.89546 397
-188.48553 104.13405 202.68477 483
82.41547 30.12634 178.67540 458
65.02102 33.98397 179.45601 432
60.00076 35.09127 183.90474 428
54.74078 36.27297 188.52812 423
49.17379 37.52528 193.48663 418
43.11767 38.85007 198.67825 406
36.48775 40.34431 204.20422 401
29.12542 41.99332 210.13930 358
-183.26086 89.42245 216.53261 296
82.61710 25.53600 178.99667 459
66.48225 28.60363 180.04871 455
61.84343 29.50095 184.46912 431
56.74817 30.49945 189.05907 426
51.33054 31.49617 193.92786 421
45.59708 32.57682 199.06302 416
39.43066 33.74115 204.47755 405
32.56591 35.04416 210.29524 364
-182.99638 76.07648 216.47437 424
82.86697 21.03891 179.25017 461
66.78709 23.58240 180.29773 456
62.26386 24.29243 184.71329 452
57.54679 25.03341 189.33144 447
52.64097 25.81166 194.20274 442
47.42681 26.65376 199.29633 437
41.92872 27.48740 204.69919 432
35.70592 28.48753 210.44327 402
83.15410 16.60347 179.50711 462
67.10170 18.64033 180.54633 457
62.62497 19.19027 184.93605 453
57.96871 19.79107 189.53601 448
53.07876 20.37232 194.38329 444
47.92525 21.04649 199.44421 438
42.48425 21.69108 204.79326 433
36.73879 22.43555 210.52792 428
82.75011 12.27121 179.52956 316
67.43467 13.71510 180.72827 459
63.00814 14.11039 185.13239 454
58.36875 14.56163 189.68629 450
53.53175 14.99652 194.51355 445
48.44704 15.48977 199.55869 440
43.13565 16.00470 204.88560 435
37.47156 16.53774 210.53027 429
82.42587 7.95339 179.51817 316
67.78284 8.85838 180.89326 460
63.37931 9.11508 185.28351 456
58.83640 9.41481 189.84618 451
54.05029 9.69778 194.60475 446
49.05529 10.03357 199.66034 441
43.75321 10.34551 204.98169 436
38.15739 10.72351 210.56563 430
-181.71303 24.49404 269.50995 486
-186.75435 24.73603 283.89795 496
82.24414 3.61920 179.51715 316
68.21648 4.03497 181.03598 461
63.86362 4.16489 185.40125 457
59.34827 4.29285 189.94525 452
54.60284 4.45082 194.74483 447
49.63582 4.60288 199.71617 442
44.41396 4.75680 205.03590 437
38.86083 4.95802 210.61752 431
-181.72397 11.81250 269.44189 487
