# .PCD v.7 - Point Cloud Data file format
VERSION .7
FIELDS x y z rgb
SIZE 4 4 4 4
TYPE F F F U
COUNT 1 1 1 1
WIDTH 416
HEIGHT 1
VIEWPOINT 4287.985352 -4113.381836 134.850494 0.004274 -0.113774 0.006026 0.993479
POINTS 416
DATA ascii
81.92441 -0.80701 179.52797 316
68.48374 -0.80898 181.18681 462
64.17104 -0.79212 185.56406 457
59.70047 -0.81776 190.08989 453
54.97298 -0.81145 194.82469 448
50.04210 -0.82125 199.85788 443
44.81667 -0.80495 205.10085 438
39.27959 -0.81314 210.69533 432
-152.56140 -0.85620 240.98344 419
-181.78281 -0.86084 269.44672 487
-147.52635 -0.90761 277.26736 284
82.01920 -5.12631 179.51544 316
68.00418 -5.59270 181.06572 461
63.69049 -5.71310 185.44147 457
59.17502 -5.88228 190.00471 452
54.40757 -6.02753 194.77116 447
49.44820 -6.17600 199.75951 442
44.15940 -6.36414 205.04871 437
38.63556 -6.53919 210.66664 431
-152.90819 -12.58843 241.05096 416
-181.72054 -13.52280 269.49716 487
-152.21591 -12.57818 278.10358 285
82.22410 -9.47307 179.54198 316
67.63812 -10.40605 180.93347 460
63.22862 -10.67177 185.30272 455
58.63482 -10.96592 189.84259 451
53.87678 -11.29403 194.63628 446
48.84513 -11.59712 199.68405 441
43.53082 -11.94540 204.98662 436
37.93534 -12.30020 210.61943 430
-181.75450 -26.25378 269.58319 486
82.59832 -13.81164 179.52104 316
67.26077 -15.24965 180.73317 459
62.82883 -15.67350 185.13951 454
58.21795 -16.13339 189.71761 450
53.33444 -16.58073 194.52342 445
48.26421 -17.09391 199.57858 440
42.92269 -17.60005 204.90175 435
37.24844 -18.14459 210.56026 429
-181.68681 -38.84795 269.61923 486
83.01070 -18.13427 179.47884 462
66.91692 -20.18492 180.51175 457
62.44080 -20.73561 184.95271 453
57.80950 -21.34316 189.53061 448
52.89442 -21.95333 194.36719 443
47.74653 -22.63031 199.45079 438
42.28479 -23.33397 204.84653 433
36.56635 -24.05083 210.51167 428
82.73660 -22.60932 179.25784 461
66.62885 -25.13332 180.30406 456
62.13692 -25.86650 184.73784 452
57.40256 -26.60414 189.32860 447
52.45993 -27.39221 194.21931 442
47.24527 -28.20619 199.31657 437
41.37711 -29.16798 204.70563 414
34.90454 -30.19694 210.44571 402
82.48326 -27.07566 178.95781 459
66.20924 -30.21550 179.99788 435
61.29805 -31.11880 184.38237 431
56.18878 -32.11636 188.98445 426
50.77892 -33.14935 193.82474 421
45.00543 -34.26286 199.01057 416
38.72366 -35.46425 204.47488 404
31.73043 -36.79993 210.30830 364
-183.07372 -77.79465 216.47517 424
82.20926 -31.65385 178.63158 439
64.52306 -35.62501 179.33589 432
59.49599 -36.76136 183.77309 428
54.20183 -37.92074 188.43420 423
48.62397 -39.20106 193.40239 418
42.44015 -40.58280 198.61870 406
35.76369 -42.08851 204.16342 401
28.31651 -43.74807 210.12294 358
-187.47542 -92.02202 216.44458 296
80.93422 -36.58355 178.00136 435
62.83058 -41.23525 178.63954 429
57.61212 -42.59758 183.14058 424
52.16674 -43.98460 187.88992 420
46.09849 -45.52975 192.88817 408
39.57792 -47.22474 198.18311 402
32.63964 -49.01844 203.86539 397
-188.44301 -105.80783 202.68584 484
79.63062 -41.65744 177.30933 430
68.34944 -44.93750 179.66396 308
55.73727 -48.60373 182.45352 421
49.77818 -50.38320 187.21135 409
43.40902 -52.21970 192.30408 404
36.56239 -54.21504 197.72113 387
28.76357 -56.47736 203.44804 371
78.29992 -46.93387 176.52844 427
69.79003 -49.69821 179.66141 308
53.43370 -55.02571 181.61775 410
46.94109 -57.16950 186.43082 393
39.87101 -59.43768 191.55298 388
32.18679 -61.96469 197.06766 372
23.20016 -64.84979 202.94167 367
76.95711 -52.43005 175.70923 423
71.38003 -54.42173 179.62564 308
50.20214 -62.05358 180.55832 393
43.27822 -64.54014 185.44299 388
35.65158 -67.31467 190.66702 372
26.78946 -70.50345 196.27393 367
16.72588 -74.11091 202.33824 332
75.57052 -58.08482 174.81003 420
70.09066 -60.27073 178.86362 386
46.75437 -69.52254 179.36063 389
39.14213 -72.55975 184.37964 373
30.31710 -76.05675 189.61333 336
18.15344 -80.85424 195.12135 331
0.76147 -87.75676 201.02991 311
73.14285 -64.49792 173.56380 386
66.85789 -67.22788 177.54832 395
42.73185 -77.67062 178.00688 373
31.92513 -82.31264 182.63368 336
19.29945 -87.82746 187.64523 315
-3.37158 -97.61717 192.50421 265
69.95879 -71.53774 171.98137 381
63.50411 -74.59238 176.09213 390
53.26652 -79.43321 179.80544 300
20.56092 -94.82587 180.03896 314
-27.16618 -117.32109 180.47842 284
71.76530 -76.48610 171.85844 316
59.91493 -82.54632 174.53580 384
50.45660 -87.36775 178.55656 325
23.57228 -101.04192 180.04297 292
74.18281 -81.14271 171.81746 316
53.08917 -92.74874 171.97258 308
37.91695 -101.06403 175.11142 319
-54.40263 -151.92215 164.73061 373
76.74207 -85.73707 171.77924 316
55.96298 -98.00610 171.96088 308
28.70294 -114.14424 172.22444 300
-47.15773 -159.04816 165.10294 286
79.42469 -90.23191 171.79517 316
59.01629 -103.14491 171.95923 308
32.29121 -120.14016 172.15611 300
82.25013 -94.63898 171.76117 316
62.25568 -108.23778 171.94238 308
-0.54721 -150.87575 163.32440 382
85.17801 -98.99634 171.73619 316
65.61969 -113.17435 171.91783 308
14.18536 -150.57143 165.75569 389
88.29053 -103.23125 171.72250 316
69.18112 -118.05998 171.85268 308
20.26428 -156.00575 166.10794 295
91.48267 -107.35339 171.66136 316
44.94325 -145.87650 163.38922 300
94.84810 -111.43089 171.63010 316
51.97440 -149.25175 164.13261 404
98.33617 -115.37988 171.62784 316
62.70829 -148.80949 166.05632 409
101.90223 -119.20383 171.57991 316
68.31690 -152.81644 166.35715 306
85.14423 -144.69315 163.55347 307
90.72986 -147.75296 163.96794 425
99.11129 -147.30318 165.48816 419
105.97265 -148.18814 166.46248 314
110.66707 -151.66013 166.47209 314
126.75280 -148.25175 169.62936 441
-11561.33008 -45893.57422 213.04309 1000
265.53464 -1416.26208 76.42473 496
265.64774 -1427.18103 122.25282 468
749.39899 -962.39642 108.40905 337
367.83252 -107.86855 167.60204 313
371.01422 -103.12402 167.65340 315
374.08905 -98.32713 167.66905 315
380.54929 -95.50694 166.57837 434
388.00900 -92.89753 165.19942 429
392.22125 -88.33675 164.72226 317
394.98730 -82.90079 164.70645 317
409.20285 -89.58209 167.76462 305
374.00085 -67.25083 171.54701 316
412.26151 -83.73581 167.68152 434
375.97488 -62.31833 171.54245 316
420.22327 -79.86449 166.29532 429
377.74509 -57.39941 171.56732 316
428.29156 -75.60540 164.89818 308
379.37292 -52.41031 171.59264 316
430.57065 -69.00889 164.89476 308
266.43915 -14.13813 203.50133 314
403.89612 -54.05190 171.86191 309
454.54788 -68.75293 167.88771 297
266.81329 -12.67440 203.50499 314
405.38165 -48.23990 171.84286 309
456.23618 -61.28702 167.97684 297
267.14471 -11.20335 203.49916 314
406.66589 -42.38754 171.87379 309
463.98581 -55.20266 166.73964 452
267.41913 -9.71684 203.50284 314
407.82535 -36.49601 171.86647 309
471.09402 -48.52383 165.62943 448
267.64935 -8.21851 203.50883 314
408.81387 -30.53505 171.89038 309
474.98767 -41.00605 165.10210 300
267.84015 -6.72678 203.50272 314
409.58945 -24.58096 171.90878 309
440.72266 -28.50613 172.18620 301
267.97449 -5.21277 203.49969 314
410.19733 -18.66256 171.88756 309
441.42569 -21.60772 172.21069 301
268.06503 -3.70920 203.50156 314
410.61499 -12.66743 171.88972 309
441.90274 -14.63348 172.17462 301
268.10306 -2.20848 203.50108 314
410.83780 -6.69024 171.87692 309
442.17807 -7.65994 172.16660 301
264.62463 -0.70136 204.43845 293
410.90741 -0.70252 171.88686 309
442.27109 -0.66313 172.20505 301
511.28806 -0.68300 168.30280 288
264.53973 0.69611 204.44691 293
410.80460 5.29622 171.88672 309
442.12671 6.31189 172.17207 301
267.94150 2.30052 203.50710 314
410.48215 11.31091 171.87204 309
441.73846 13.24954 172.19289 301
267.79288 3.79905 203.50307 314
410.00470 17.27737 171.87386 309
441.17584 20.23845 172.20952 301
267.59839 5.28939 203.50574 314
409.32632 23.21045 171.86220 309
440.42480 27.14217 172.17413 301
267.35306 6.77467 203.49788 314
408.50650 29.16283 171.84097 309
474.58987 39.62574 165.05171 300
267.07196 8.24883 203.49907 314
407.50095 35.04253 171.83034 309
471.74332 47.30678 165.38060 448
266.73303 9.71280 203.49825 314
406.28589 40.93158 171.86134 309
464.60510 53.98928 166.48326 452
5000.66846 1067.51697 377.13962 495
266.35654 11.15890 203.50084 314
404.90063 46.76436 171.80933 309
456.11008 59.86381 167.86209 424
265.93622 12.60077 203.50493 314
403.36063 52.52066 171.82024 309
453.91776 67.22895 167.87485 297
265.46844 14.02843 203.50418 314
430.01447 67.50227 164.83771 308
264.94745 15.43164 203.50885 314
427.62320 74.04260 164.83870 308
375.36987 60.73799 171.54050 316
421.08844 78.85963 165.89391 430
373.39343 65.62656 171.50793 316
413.07196 82.79730 167.26070 435
395.78259 82.05173 164.66451 316
410.20300 88.85659 167.73044 305
393.01913 87.52457 164.67699 316
388.72040 92.08609 165.14470 429
381.25604 94.68533 166.54611 434
374.76065 97.52306 167.61598 315
371.63599 102.35967 167.61668 315
368.41464 107.09982 167.56786 313
761.74249 1063.18542 177.90665 396
760.68085 1060.95911 217.03831 451
759.88641 1059.44238 255.92387 452
759.44403 1057.90369 294.85617 487
758.52942 1056.85315 333.74850 487
2781.44336 5923.06445 429.28214 475
2562.25415 5918.29346 426.67633 479
2661.14746 6166.80908 654.30792 499
1359.02319 3163.46851 217.92342 303
1253.90186 3184.11694 216.99715 416
1194.68677 3357.81763 217.10570 357
-1116.81140 42289.41406 1606.81787 1000
-3033.54248 9033.23730 1162.48059 1000
117.32478 150.87488 167.44418 316
110.39840 150.61646 166.39468 314
105.70430 147.13480 166.39494 314
98.05761 147.18225 165.07312 419
89.65170 147.54996 163.54413 424
84.95159 143.48541 163.49263 307
72.83959 156.35388 166.24928 305
101.69553 117.96181 171.55566 316
67.94038 151.72621 166.26059 305
98.13132 114.11482 171.58400 316
61.29276 148.69154 165.64969 409
-4900.79932 4807.93896 1854.36768 1000
94.64973 110.13940 171.61800 316
50.48304 149.10844 163.72844 403
91.31181 106.03708 171.62068 316
72.57589 121.56805 171.76784 308
88.11433 101.86324 171.65115 316
68.92175 116.77962 171.82704 308
19.81467 154.86977 166.02452 295
85.04946 97.60999 171.66504 316
65.43457 111.88121 171.85280 308
12.35057 150.44205 165.33829 389
81.30375 93.80363 171.69437 316
61.19217 107.49310 171.86679 308
-2.64245 150.82420 163.06659 382
78.50448 89.32484 171.72697 316
57.98288 102.34213 171.92744 308
31.01250 119.43971 172.10550 300
75.85425 84.76180 171.77475 316
54.95017 97.09037 171.92360 308
27.53018 113.35706 172.14035 300
-48.89198 158.43143 165.02695 288
73.34506 80.14489 171.77715 316
52.10560 91.77813 171.98097 308
40.17580 98.36362 175.81290 319
14.97150 112.21285 178.04318 270
70.96474 75.39650 171.79024 316
60.59687 80.69421 174.93895 385
52.53376 84.82740 179.27505 325
0.93584 111.04025 176.03299 293
70.60468 69.76117 172.35292 381
64.18623 72.78266 176.45952 390
52.20540 78.39561 179.74934 300
22.99368 92.15384 180.68738 315
-28.83446 116.52640 180.43561 284
73.80557 62.73370 173.93236 386
67.50705 65.43916 177.87741 395
43.54909 75.81535 178.41589 373
33.69980 80.06361 183.13640 336
21.58718 85.28912 188.16534 331
3.61312 93.03841 193.44461 283
75.84911 56.52503 175.06085 420
70.69389 58.55426 179.20319 415
47.41737 67.76594 179.68155 389
40.04185 70.67268 184.65807 373
31.42931 74.09251 189.96773 368
20.12320 78.54076 195.46930 332
3.82486 85.02623 201.42578 311
77.24191 50.81184 175.95995 424
70.68454 53.17648 179.59427 308
50.85298 60.28409 180.88300 393
43.99017 62.79532 185.76688 388
36.55417 65.43769 190.97984 373
27.81439 68.59760 196.56369 368
18.25518 72.01403 202.59573 362
78.60219 45.34411 176.74165 427
69.14203 48.43246 179.64400 308
53.91517 53.39192 181.89278 410
47.63789 55.42108 186.70354 393
40.65803 57.69395 191.82814 388
33.12278 60.10359 197.31245 383
24.26365 63.00039 203.18372 367
79.91559 40.07887 177.49628 431
61.44594 45.44114 178.07944 425
56.11189 46.98115 182.68689 421
50.25866 48.68553 187.45256 409
43.98441 50.54246 192.51443 404
37.24641 52.50217 197.92204 399
29.65366 54.69609 203.69220 382
81.23614 35.02695 178.20947 435
63.19320 39.62216 178.83905 429
58.03640 40.95685 183.35362 424
52.61153 42.35613 188.08397 420
46.65335 43.86784 193.07661 408
-20.63760 5.29178 -2.10748 403
33.22696 47.30173 204.03876 398
-188.57031 104.23193 202.81302 483
-362.99240 148.89246 336.29330 1000
82.30640 30.16029 178.77667 458
64.90596 34.01860 179.52393 432
59.90152 35.14981 183.95805 428
54.61896 36.32457 188.65254 423
49.04538 37.58662 193.56529 418
43.02065 38.94002 198.77573 406
36.35992 40.39168 204.30962 401
28.92246 42.05381 210.23494 358
-183.57220 89.50094 216.62747 296
82.53272 25.58368 179.09158 459
66.36816 28.64793 180.13397 455
61.75261 29.54013 184.53029 431
56.63879 30.53186 189.12837 426
51.20494 31.55138 194.01505 421
45.48943 32.62333 199.14253 417
39.30629 33.81569 204.58231 405
32.38354 35.11714 210.38730 364
-182.89307 76.13004 216.60097 424
82.79230 21.09122 179.36327 461
66.68989 23.62858 180.38171 456
62.16521 24.33551 184.81683 452
57.47366 25.10594 189.41521 447
52.51853 25.87606 194.28549 442
47.31573 26.69352 199.40390 437
41.84377 27.52976 204.80971 432
35.55228 28.52783 210.51376 403
82.81347 16.65822 179.50514 316
66.99442 18.65830 180.62569 458
62.54192 19.24426 185.01028 453
57.86420 19.80997 189.62262 448
52.99685 20.42227 194.42903 444
47.81577 21.09783 199.51016 438
42.39547 21.74186 204.87502 434
36.68240 22.47350 210.60960 428
82.37731 12.32946 179.50903 316
67.33566 13.75289 180.81482 459
62.93141 14.15027 185.20636 454
58.30865 14.58384 189.79103 450
53.45047 15.04663 194.57024 445
48.40444 15.52885 199.62857 440
43.02336 16.06149 204.96140 435
37.38567 16.59557 210.61882 429
82.09371 7.99789 179.53831 316
67.71811 8.87102 180.96074 460
63.29940 9.15923 185.36417 456
58.74214 9.43104 189.93144 451
54.01006 9.73665 194.70723 446
48.97681 10.06200 199.71895 441
43.69702 10.39681 205.02060 436
38.06758 10.73156 210.64536 430
-181.73978 24.47200 269.62122 486
-186.76166 24.85341 283.95715 496
81.94017 3.65634 179.52135 316
68.12421 4.08056 181.11574 461
63.80011 4.22281 185.48286 457
59.27596 4.36110 190.04941 452
54.56102 4.47552 194.80881 447
49.54533 4.63066 199.82785 442
44.29474 4.82707 205.07613 437
38.75405 4.99323 210.70081 431
-181.69823 11.79728 269.54221 487
