# .PCD v.7 - Point Cloud Data file format
VERSION .7
FIELDS x y z rgb
SIZE 4 4 4 4
TYPE F F F U
COUNT 1 1 1 1
WIDTH 412
HEIGHT 1
VIEWPOINT 4393.664551 -4102.087402 140.838745 -0.015488 -0.124639 -0.001614 0.992080
POINTS 412
DATA ascii
78.20922 -0.84110 179.57602 316
67.78694 -0.85048 181.90472 462
63.61354 -0.85032 186.10805 457
59.27205 -0.80770 190.54980 453
54.68610 -0.83649 195.12869 448
49.89671 -0.80845 199.98703 443
44.82209 -0.82128 205.09563 437
39.45783 -0.78814 210.51434 432
-152.42792 -0.48078 240.53407 419
-182.09154 -0.48146 268.73459 487
-154.66464 -0.47943 277.54337 284
-111.75320 -0.55471 281.47000 494
78.37968 -5.15156 179.56667 316
67.34077 -5.47656 181.75429 461
63.14904 -5.62067 185.97269 456
58.74770 -5.74613 190.42296 452
54.16066 -5.86408 195.03078 447
49.32200 -6.01616 199.92569 442
44.18004 -6.17573 205.06915 437
38.80026 -6.32965 210.50446 431
-152.23175 -12.05800 240.54614 416
-182.04076 -12.93228 268.83984 487
-154.63472 -12.11154 277.57889 290
78.72640 -9.46877 179.54117 316
66.99121 -10.16179 181.58920 460
62.70173 -10.42964 185.85104 455
58.25309 -10.72661 190.28357 451
53.61184 -11.00341 194.94676 446
48.74464 -11.29271 199.85306 441
43.55608 -11.59624 204.98552 436
38.12579 -11.96586 210.49818 430
-182.09222 -25.42206 268.91833 486
79.16537 -13.76045 179.54396 316
66.63626 -14.92861 181.40891 459
62.34029 -15.32377 185.65399 454
57.81532 -15.74985 190.13971 449
53.10063 -16.18599 194.81386 445
48.14828 -16.62293 199.72086 440
42.95212 -17.12032 204.92487 435
37.42524 -17.63279 210.42130 429
-182.02586 -38.05293 269.00656 486
79.74663 -18.02324 179.56667 316
66.35419 -19.68422 181.18361 457
61.97933 -20.23644 185.47545 453
57.43606 -20.80577 189.96359 448
52.64313 -21.41954 194.64052 443
47.62115 -22.06135 199.63104 438
42.32587 -22.70901 204.85066 433
36.76214 -23.41142 210.37883 428
80.46186 -22.30136 179.55463 316
66.05466 -24.54057 180.90868 456
61.67850 -25.26248 185.25948 452
57.05488 -25.95113 189.75243 447
52.22492 -26.72684 194.50648 442
47.17645 -27.51200 199.50084 437
41.67720 -28.38022 204.75838 414
35.41555 -29.36472 210.33389 402
81.32916 -26.54611 179.52641 316
65.81039 -29.49375 180.64163 455
61.06105 -30.38346 184.94768 431
56.07309 -31.34883 189.42352 426
50.79527 -32.32638 194.14377 421
45.20090 -33.38651 199.15942 416
39.12264 -34.54219 204.53009 404
32.39104 -35.79237 210.22662 399
-183.06586 -76.61785 216.50803 424
81.68921 -30.89843 179.38275 457
64.19977 -34.77235 179.99750 432
59.30099 -35.88469 184.35675 428
54.11607 -37.03922 188.92195 423
48.70131 -38.26163 193.73518 418
42.73587 -39.56726 198.83234 406
36.20308 -41.04159 204.24332 401
29.03404 -42.61917 210.03819 358
-184.09198 -89.97518 216.44232 296
80.50266 -35.70797 178.71443 434
62.54036 -40.30669 179.31033 429
57.50277 -41.58798 183.70204 424
52.17237 -42.93969 188.31628 420
46.30772 -44.47296 193.23608 408
39.92957 -46.09267 198.38196 402
33.12606 -47.79698 203.93845 397
25.30050 -49.78708 209.85979 269
79.23840 -40.72037 178.00774 430
60.82738 -46.01592 178.52075 425
55.60958 -47.55455 182.99414 421
49.82897 -49.19445 187.66711 409
43.65075 -51.00987 192.62894 404
37.02275 -52.90559 197.92099 399
29.57123 -55.06259 203.58719 382
77.94971 -45.87864 177.23024 427
67.07552 -49.42749 179.66208 308
53.44392 -53.84408 182.21048 410
47.23393 -55.83703 186.93504 393
40.38015 -58.06539 191.95027 388
32.97618 -60.42449 197.31403 383
24.18508 -63.31715 203.06824 367
76.65468 -51.29644 176.41811 424
68.75916 -54.10349 179.63461 308
50.39330 -60.69462 181.16483 393
43.64440 -63.11916 185.98991 388
36.31464 -65.75096 191.10281 372
27.68371 -68.83195 196.54025 367
18.25628 -72.21655 202.51738 362
75.34676 -56.89280 175.51218 420
70.28631 -58.87345 179.55457 415
47.00900 -68.08807 180.00038 389
39.73085 -70.92914 184.91367 373
31.20560 -74.28732 190.05942 368
20.05996 -78.70909 195.51062 332
3.83964 -85.07826 201.36649 311
73.25720 -63.05404 174.33701 386
67.19303 -65.68446 178.26344 395
43.19149 -76.03677 178.68202 373
33.42535 -80.22872 183.33778 336
21.45993 -85.40511 188.34558 331
3.71134 -93.06160 193.51622 283
70.10060 -70.06860 172.79478 381
63.89157 -72.95406 176.85207 390
50.91507 -79.05413 179.79855 300
22.80441 -92.22393 180.93417 314
-29.71672 -116.84532 180.50792 284
69.40781 -76.22322 171.83731 316
60.34188 -80.80561 175.25824 385
52.43060 -84.82330 179.53883 325
-0.02799 -111.49354 176.09612 293
71.90942 -80.86896 171.82349 316
51.33949 -92.15101 172.15457 322
40.21083 -98.25219 176.10670 319
16.00172 -111.52618 178.45892 270
74.59228 -85.43355 171.79633 316
53.79101 -97.72188 172.00197 308
26.48740 -113.82063 172.24879 300
-50.02547 -158.96515 165.13210 288
77.36143 -89.97414 171.77101 316
56.98401 -102.84363 171.98097 308
30.17681 -119.84834 172.20387 300
80.30639 -94.39558 171.76581 316
60.33334 -107.94946 171.91972 308
-3.19418 -150.93459 163.27963 382
83.35491 -98.73899 171.74934 316
63.77693 -112.91375 171.92479 308
11.80424 -150.60600 165.70779 389
86.58698 -102.99912 171.72145 316
67.42066 -117.81693 171.89218 308
18.16345 -155.92339 166.07918 295
89.92811 -107.15537 171.68312 316
71.23834 -122.56648 171.87117 308
93.37930 -111.21855 171.64598 316
50.12000 -149.31993 164.08131 403
96.95418 -115.17204 171.61992 316
60.99701 -148.85951 165.99336 409
100.67377 -119.03148 171.60519 316
66.94582 -152.72250 166.32895 305
83.93274 -144.63690 163.53073 307
71.95600 -157.37109 166.31813 305
89.58661 -147.83282 163.90759 424
98.10296 -147.38531 165.46384 419
105.20613 -148.17596 166.45551 314
110.01817 -151.69508 166.44463 314
126.43804 -148.27646 169.64062 441
-404.72943 -1923.61365 84.29430 425
-12573.04688 -43947.91406 10894.23730 1000
617.40289 -992.75751 111.59048 333
369.32944 -108.25999 167.62703 313
372.68530 -103.54126 167.62520 315
375.98563 -98.69888 167.68207 315
381.39673 -95.17183 166.94859 434
388.90045 -92.57496 165.61272 429
394.67017 -88.78488 164.77226 317
397.58566 -83.38542 164.74748 317
411.86078 -90.09880 167.78743 305
400.29776 -77.86211 164.72514 317
414.54880 -84.07720 167.81935 305
379.03592 -62.82906 171.58430 316
421.01346 -79.47318 166.87341 429
381.00827 -57.91480 171.58990 317
429.42514 -75.37502 165.44327 424
382.85764 -52.89909 171.64868 317
434.00037 -69.56190 164.89453 308
384.55426 -47.88023 171.65448 317
436.18869 -62.93373 164.87265 308
386.06100 -42.80788 171.68207 317
409.23044 -48.79964 171.89323 309
460.19342 -61.92855 167.93668 298
387.43954 -37.67189 171.65634 317
410.82492 -42.92134 171.87221 309
464.24808 -54.91022 167.55086 452
388.69580 -32.53061 171.67369 317
412.16574 -37.05252 171.93016 309
471.28232 -48.41264 166.43460 448
389.76028 -27.33901 171.67215 317
413.37125 -31.14059 171.91600 309
478.65717 -41.53191 165.26303 443
390.67078 -22.13081 171.69000 317
414.38525 -25.18846 171.91460 309
480.75647 -33.59798 165.16273 300
391.41522 -16.89801 171.68500 317
415.22827 -19.18487 171.96172 309
446.40921 -22.19666 172.25293 301
392.00919 -11.68441 171.72867 317
415.82675 -13.17757 171.96542 309
447.08789 -15.16843 172.26666 301
392.40952 -6.42896 171.71971 317
416.31772 -7.21153 171.92964 309
447.62650 -8.20037 172.24345 301
392.71530 -1.14930 171.72444 317
416.60684 -1.20345 171.95306 309
447.95132 -1.20349 172.23109 301
392.80676 4.11164 171.72174 317
416.72284 4.80379 171.94460 309
448.04944 5.75317 172.26178 301
392.75021 9.33195 171.72964 317
416.63724 10.83136 171.92647 309
447.91574 12.80732 172.24014 301
4794.20654 283.09769 214.43127 460
392.58160 14.58322 171.72684 317
416.41779 16.81566 171.96358 309
447.64862 19.78445 172.24429 301
392.19519 19.84761 171.70528 317
415.94986 22.83465 171.94177 309
447.12338 26.75136 172.24437 301
391.69473 25.06608 171.68645 317
415.33755 28.77591 171.94214 309
480.58594 39.05042 165.34335 443
390.98685 30.26286 171.68672 317
414.56168 34.75322 171.92482 309
473.29095 45.87240 166.55937 448
390.14670 35.42225 171.68672 317
413.56870 40.63023 171.92188 309
466.29279 52.37941 167.68431 452
389.18259 40.58257 171.64848 317
412.44357 46.56009 171.91536 309
463.61890 59.66437 167.92639 297
388.01572 45.70704 171.67726 317
439.84238 60.74282 164.86940 307
386.72452 50.75187 171.63956 316
438.07132 67.38880 164.85497 308
385.24048 55.79354 171.62671 316
433.09811 73.00570 165.59422 424
383.65286 60.76189 171.62650 316
424.80319 77.01254 167.10191 429
405.37283 75.83020 164.75537 317
419.89508 82.13071 167.75157 305
403.02408 81.38754 164.74327 317
417.54446 88.19077 167.73479 305
400.50119 86.85966 164.77777 317
394.13254 90.21404 165.87198 429
386.84613 92.74529 167.28831 434
382.88611 97.02402 167.65367 315
380.04459 101.86753 167.64273 313
4760.31152 4821.97754 216.33551 413
4835.55469 5222.90088 217.08405 424
3239.24194 5890.82080 216.79018 278
710.09009 1024.72375 104.91682 480
710.35602 1025.11365 142.18129 481
710.81525 1026.12573 179.45587 441
711.46790 1027.55884 216.64307 382
2750.93530 5811.18213 216.97009 476
2617.28589 6014.22900 217.83553 348
1333.76135 3064.44507 110.42999 295
13382.79688 40299.21875 -2557.79810 1000
1255.94421 3155.15210 108.52377 369
2168.70386 5950.67725 216.68001 365
1244.03735 3487.87500 97.61915 290
120.81948 149.34644 167.88203 489
112.76416 150.61258 166.41017 314
108.00774 147.05367 166.40248 314
100.38732 146.92737 165.14360 419
91.83688 147.49908 163.56731 424
87.03679 143.44104 163.50507 307
74.84867 156.36880 166.25751 305
103.61565 117.96391 171.53848 316
69.91494 151.69002 166.25340 305
99.94843 114.10124 171.53740 316
63.21856 148.58943 165.70059 409
96.38078 110.13627 171.57336 316
52.32525 148.98306 163.74226 403
92.97209 106.04125 171.60870 316
74.20821 121.61980 171.76097 308
89.69257 101.88426 171.65900 316
70.46737 116.83925 171.82860 308
21.33029 154.97997 166.00777 297
86.53979 97.63390 171.65714 316
66.85200 111.94417 171.82320 308
13.95447 150.39131 165.41020 389
83.54441 93.25629 171.71429 316
63.42033 106.93553 171.85298 308
-1.01746 150.80327 162.92183 382
80.66396 88.83058 171.73732 316
60.14558 101.82294 171.88252 308
33.25809 118.93211 172.13794 300
77.92651 84.27101 171.76489 316
57.03568 96.61929 171.91373 308
29.60762 112.85300 172.13789 300
-46.67425 158.01476 165.06282 286
75.31072 79.68495 171.78526 316
54.08267 91.37994 171.95915 308
39.66417 99.29810 175.23161 319
11.31664 114.89346 176.88515 270
72.86999 75.02197 171.79152 316
60.71590 81.21030 174.43614 384
52.19864 85.56414 178.72386 325
24.34321 99.78368 179.99962 292
70.89400 70.09303 171.90799 381
64.29388 73.18448 176.01884 390
54.16576 78.00423 179.75296 300
22.73481 92.76588 180.28242 314
-26.90396 116.14449 180.38272 284
74.09737 62.99450 173.48183 386
67.67025 65.78123 177.47569 395
43.76255 76.14842 178.01062 373
33.67461 80.50864 182.72433 336
21.48557 85.79893 187.83240 331
2.48143 93.98374 193.08237 283
76.20974 56.69271 174.70369 420
71.02587 58.78041 178.80544 415
47.61624 68.04646 179.37793 388
40.20872 70.96764 184.37019 373
31.51779 74.42574 189.65968 368
19.98512 78.95236 195.19287 331
3.41300 85.57343 201.20099 311
77.55565 50.97700 175.56740 423
72.31850 52.89178 179.59521 308
51.07489 60.51904 180.56755 393
44.16702 63.01439 185.45346 388
36.70506 65.68357 190.72279 373
27.87530 68.85696 196.30592 367
18.23436 72.35255 202.37315 362
78.89886 45.45342 176.40657 427
70.69373 48.12957 179.62561 308
54.15644 53.51063 181.58374 410
47.84872 55.56669 186.43588 393
40.81352 57.84939 191.56012 388
33.22647 60.29063 197.05145 383
24.31602 63.23802 202.96373 367
80.24673 40.17635 177.18082 430
69.19608 43.35747 179.64159 308
56.35545 47.11996 182.38979 421
50.49539 48.83808 187.18698 409
44.14135 50.66948 192.27592 404
37.37742 52.60603 197.70657 399
29.77263 54.87128 203.48811 382
81.53908 35.07687 177.90739 435
63.46465 39.69055 178.56509 429
58.26926 41.04197 183.08771 424
52.78976 42.43117 187.86050 420
46.82523 43.99607 192.84886 408
40.34114 45.66294 198.17752 403
33.39907 47.44555 203.84268 397
25.06286 49.58730 209.89696 269
82.58701 30.18290 178.52231 457
65.18120 34.07531 179.28831 432
60.14939 35.18581 183.70827 428
54.82632 36.36593 188.39513 423
49.24789 37.65579 193.36577 418
43.18826 39.00383 198.56590 406
36.50123 40.49224 204.12923 401
29.13986 42.12425 210.09621 358
-184.02780 89.77954 216.50806 296
82.80219 25.58422 178.83125 459
66.62697 28.67597 179.90581 455
61.95106 29.58793 184.34082 431
56.81295 30.54848 188.95259 426
51.42690 31.60304 193.78099 421
45.65102 32.65454 198.94095 416
39.45974 33.85544 204.40106 404
32.57282 35.18031 210.25308 399
-182.93349 76.36749 216.52097 424
82.99916 21.09204 179.12497 461
66.88193 23.60606 180.18164 456
62.38379 24.33057 184.61317 452
57.66680 25.08256 189.23433 447
52.71768 25.86730 194.10715 442
47.47768 26.68203 199.22369 437
41.97760 27.55547 204.65184 432
35.68219 28.56163 210.39336 402
83.26073 16.63288 179.36346 462
67.18891 18.63171 180.42810 457
62.74414 19.21719 184.80331 453
58.03592 19.80794 189.44350 448
53.15327 20.41434 194.29285 443
47.98707 21.08992 199.36153 438
42.56292 21.76145 204.75241 433
36.82773 22.49853 210.44441 428
83.25959 12.23668 179.53279 316
67.54289 13.72891 180.64731 459
63.11076 14.15795 185.03479 454
58.45317 14.56675 189.60289 450
53.62358 15.02225 194.42496 445
48.54465 15.52609 199.47031 440
43.18916 16.03212 204.83073 435
37.48231 16.59267 210.50548 429
82.86082 7.91528 179.51596 316
67.85402 8.84202 180.80652 460
63.47403 9.13620 185.20090 456
58.89544 9.43497 189.77965 451
54.13964 9.70966 194.55708 446
49.11793 10.03379 199.56970 441
43.81354 10.37864 204.89670 436
38.18568 10.73698 210.51540 430
-181.65408 24.59550 269.57635 486
-186.95233 24.91155 283.92487 360
82.59915 3.58190 179.53783 316
68.27621 4.02579 180.96300 461
63.92575 4.15674 185.34396 456
59.39878 4.33946 189.91266 452
54.67074 4.46880 194.65158 447
49.71508 4.61495 199.68185 442
44.45175 4.80172 204.95518 437
38.85342 4.95066 210.55312 431
-181.72823 11.90631 269.58136 487
