# .PCD v.7 - Point Cloud Data file format
VERSION .7
FIELDS x y z rgb
SIZE 4 4 4 4
TYPE F F F U
COUNT 1 1 1 1
WIDTH 416
HEIGHT 1
VIEWPOINT 4362.328125 -4105.109863 139.165192 -0.010746 -0.122161 -0.001034 0.992452
POINTS 416
DATA ascii
79.32768 -0.86641 179.56311 316
68.00751 -0.82524 181.70589 462
63.78431 -0.81378 185.93532 457
59.40485 -0.83495 190.38046 453
54.81294 -0.82754 195.04358 448
49.97890 -0.79540 199.90945 443
44.87790 -0.82301 205.07715 437
39.48001 -0.78797 210.54053 432
-152.43915 -0.50092 240.67538 419
-181.98984 -0.49710 268.96591 487
-153.03485 -0.48026 277.50198 284
79.49337 -5.16931 179.54039 316
67.53909 -5.53768 181.54939 461
63.33146 -5.64376 185.81816 456
58.86664 -5.75761 190.28217 452
54.24983 -5.92617 194.94722 447
49.39381 -6.05664 199.85876 442
44.21940 -6.21482 205.03185 437
38.78266 -6.35658 210.48178 431
-152.37537 -12.13358 240.69392 416
-181.99852 -13.01335 269.00549 487
-153.26230 -12.07363 277.57349 290
79.79137 -9.46079 179.54881 316
67.17177 -10.23884 181.40349 460
62.85783 -10.49200 185.65007 455
58.37013 -10.79162 190.14127 451
53.73413 -11.05603 194.81697 446
48.77172 -11.34859 199.75169 441
43.59138 -11.70853 204.98215 436
38.10323 -12.00678 210.49083 430
-181.95880 -25.49965 269.05539 486
80.20586 -13.76294 179.52965 316
66.81572 -15.00803 181.21159 459
62.48971 -15.43249 185.48923 454
57.94625 -15.83902 189.97101 449
53.17251 -16.27824 194.71385 445
48.23672 -16.74382 199.66348 440
42.97625 -17.24904 204.90863 435
37.43010 -17.74455 210.43095 429
-181.86673 -38.16114 269.25537 486
80.76361 -18.04591 179.53448 316
66.52683 -19.83291 180.97661 457
62.15679 -20.37473 185.28726 453
57.56104 -20.95155 189.82422 448
52.72951 -21.57041 194.57066 443
47.70321 -22.20630 199.55966 438
42.35879 -22.83216 204.79118 433
36.72120 -23.53424 210.39751 428
81.46274 -22.31738 179.55225 316
66.23358 -24.71400 180.71524 456
61.81239 -25.42118 185.07440 452
57.18018 -26.12636 189.60732 447
52.30910 -26.89661 194.39240 442
47.20168 -27.72066 199.40291 437
41.63686 -28.60051 204.72057 414
35.32209 -29.57055 210.32907 402
82.03912 -26.61134 179.46869 459
65.95634 -29.66908 180.46786 435
61.17068 -30.55951 184.77480 431
56.13211 -31.51829 189.29059 426
50.82241 -32.52050 194.05110 421
45.19342 -33.59631 199.12961 416
39.02681 -34.78918 204.46150 404
32.24144 -36.07379 210.20349 399
-183.00650 -76.82413 216.47565 424
81.85106 -31.10059 179.15247 457
64.32723 -34.99885 179.78171 432
59.38999 -36.11246 184.14406 428
54.16102 -37.24650 188.75935 423
48.66894 -38.48949 193.58760 418
42.68919 -39.83703 198.74826 406
36.11470 -41.30541 204.21619 401
28.89583 -42.90101 210.03734 358
-184.88097 -90.38317 216.53795 296
80.63628 -35.97115 178.50948 434
62.61777 -40.56799 179.10083 429
57.52826 -41.84663 183.50565 424
52.15950 -43.23010 188.21429 420
46.24882 -44.74926 193.10226 408
39.88411 -46.39046 198.33574 402
33.01276 -48.12245 203.91855 397
24.96109 -50.20105 209.86880 269
79.35752 -40.98594 177.79781 430
60.90708 -46.32904 178.35875 425
55.64793 -47.80993 182.84419 421
49.83914 -49.53438 187.52199 409
43.59183 -51.32336 192.52930 404
36.96917 -53.25552 197.83711 399
29.36975 -55.44271 203.53636 382
78.04707 -46.16933 177.04227 427
67.92997 -49.44940 179.65721 308
53.43370 -54.17037 182.01990 410
47.17915 -56.19781 186.79137 393
40.23963 -58.43277 191.82901 388
32.82050 -60.83723 197.22148 372
23.91663 -63.72237 203.02361 367
76.76881 -51.61753 176.20816 424
69.59488 -54.15305 179.63446 308
50.38172 -61.04804 180.98347 393
43.57190 -63.49240 185.83086 388
36.14994 -66.14851 190.96472 372
27.43802 -69.28365 196.46738 367
17.96956 -72.71876 202.46878 362
75.42104 -57.21896 175.32521 420
70.23932 -59.26240 179.35403 386
46.91683 -68.45387 179.84081 389
39.58437 -71.37856 184.73729 373
31.03177 -74.75707 189.95033 368
19.52440 -79.30304 195.39337 332
3.04975 -85.79671 201.24631 311
73.21585 -63.45503 174.13013 386
67.08672 -66.12965 178.03783 395
43.06188 -76.48908 178.47685 373
33.02190 -80.81561 183.15196 336
21.01837 -86.00038 188.13545 331
1.98162 -94.23021 193.23138 283
70.08410 -70.48158 172.53755 381
63.77364 -73.45368 176.63710 390
51.62663 -79.14982 179.77548 300
22.19302 -92.92450 180.64688 314
-29.05319 -117.02859 180.45348 284
70.14486 -76.30417 171.86559 316
60.25984 -81.31485 175.04276 385
51.89492 -85.55181 179.28168 325
2.14824 -110.80052 176.40257 293
72.63979 -80.94625 171.81683 316
51.49910 -92.53944 172.03540 308
39.56679 -99.10201 175.82047 319
12.86491 -113.69127 177.68721 270
75.23154 -85.51094 171.79350 316
54.47324 -97.77585 172.00160 308
27.16906 -113.91190 172.23671 300
-49.27435 -158.99860 165.12979 288
78.02316 -90.02705 171.81274 316
57.61475 -102.96729 171.98738 308
30.78935 -119.91467 172.18839 300
80.93811 -94.46691 171.76825 316
60.92635 -108.03955 171.92950 308
-2.35363 -150.95772 163.31354 382
83.97945 -98.79974 171.75047 316
64.35535 -113.01181 171.89920 308
12.55111 -150.57005 165.73236 389
87.16828 -103.09053 171.70876 316
67.98119 -117.91556 171.86639 308
18.81072 -155.95792 166.08498 295
90.47192 -107.24725 171.70100 316
71.75117 -122.65213 171.85567 308
93.89062 -111.28832 171.65309 316
50.74202 -149.25490 164.09016 403
97.46626 -115.26762 171.61200 316
61.60140 -148.85693 166.03395 409
101.16502 -119.15101 171.59212 316
67.41800 -152.76616 166.33995 305
84.39925 -144.74820 163.53101 307
72.43420 -157.46770 166.36060 305
90.10243 -147.81535 163.95961 424
98.56471 -147.37263 165.47069 419
105.55156 -148.24133 166.46887 314
110.38926 -151.74933 166.45955 314
126.75481 -148.22186 169.65787 441
-340.09158 -1929.36682 85.21767 493
-343.46109 -1942.18628 150.38988 467
369.01151 -108.02936 167.62010 313
372.35339 -103.30048 167.64217 315
375.60257 -98.51250 167.67221 315
381.34039 -95.21642 166.87279 434
388.84042 -92.63311 165.48303 429
394.20685 -88.60273 164.77368 317
397.11252 -83.23353 164.71684 317
411.25458 -89.87930 167.77457 305
376.36548 -67.56977 171.58794 316
413.96945 -83.86866 167.84216 305
378.47968 -62.68213 171.59888 316
420.90854 -79.56209 166.76067 429
380.39526 -57.76070 171.60896 317
429.32309 -75.40782 165.27919 424
382.21909 -52.75886 171.61812 317
433.30743 -69.45103 164.89044 308
383.87842 -47.72707 171.64024 317
435.50317 -62.78012 164.87735 308
457.46158 -69.18452 167.86218 297
385.37335 -42.64964 171.66852 317
408.52905 -48.63180 171.87404 309
459.33203 -61.70878 167.97252 298
386.71796 -37.56141 171.65344 317
410.00638 -42.79326 171.91507 309
464.23914 -54.99118 167.32393 452
387.88641 -32.39073 171.69684 317
411.35715 -36.91073 171.90198 309
471.29437 -48.36658 166.28673 448
388.92230 -27.26209 171.67326 317
412.50168 -31.00363 171.90068 309
478.51434 -41.49220 165.15936 300
389.78903 -22.04905 171.69395 317
413.47913 -25.07385 171.93188 309
444.50485 -29.01361 172.20648 301
390.52863 -16.80317 171.69649 317
414.31238 -19.08721 171.94313 309
445.39410 -22.05049 172.25755 301
391.06354 -11.59123 171.70572 317
414.91330 -13.09768 171.95634 309
446.14917 -15.07457 172.23192 301
391.48618 -6.33269 171.69035 317
415.36105 -7.12613 171.93867 309
446.60370 -8.14229 172.23997 301
391.70523 -1.09749 171.71381 317
415.58261 -1.13448 171.91858 309
446.88739 -1.13051 172.25079 301
391.79639 4.17090 171.71828 317
415.66104 4.88569 171.95412 309
446.99548 5.83569 172.23546 301
391.74783 9.41191 171.69281 317
415.58481 10.92145 171.94421 309
446.83621 12.84605 172.20396 301
4873.40381 288.21973 214.48015 284
391.48871 14.67280 171.72023 317
415.29471 16.87858 171.92546 309
446.46094 19.79942 172.22224 301
4780.18506 427.16498 214.73651 489
391.08755 19.86818 171.69514 317
414.81821 22.87982 171.91458 309
445.93594 26.80104 172.23024 301
4760.28906 568.41443 214.96831 462
390.52502 25.11048 171.68248 317
414.17349 28.85297 171.90253 309
480.35986 39.24132 165.14871 443
4760.70898 714.95691 214.37210 382
389.85681 30.29124 171.67548 317
413.36581 34.78636 171.92996 309
473.02045 46.08367 166.32642 448
4765.27441 861.68634 214.96124 381
388.95239 35.45549 171.67068 317
412.34634 40.69102 171.91371 309
466.01245 52.62014 167.50029 452
4769.48975 1011.35242 214.78783 380
387.93628 40.59510 171.63467 317
411.18738 46.57131 171.87231 309
462.24884 59.66941 167.90637 297
4780.60791 1166.13843 215.66681 354
386.77124 45.73557 171.63037 317
438.56262 60.74502 164.87531 307
385.45145 50.79247 171.64966 316
436.73080 67.43318 164.87366 308
383.95218 55.82666 171.61826 316
432.52859 73.28149 165.36594 424
382.30804 60.75889 171.61212 316
424.18774 77.31728 166.90797 429
403.98871 75.86193 164.72816 317
418.39661 82.05730 167.77869 305
401.65387 81.40961 164.70245 317
416.07059 88.19848 167.71971 305
399.04834 86.85072 164.75339 317
393.24176 90.54214 165.72206 429
385.92441 93.06176 167.08446 434
381.39355 96.99789 167.63066 315
95.19388 64.65129 -30.85432 313
4700.95459 4762.50000 215.26686 471
4645.56299 5008.87256 217.08533 417
4643.61230 5335.24365 216.45187 391
3072.74414 3665.36597 -865.41870 1000
4815.49414 5911.68506 -768.78479 1000
2990.41016 5853.20312 211.84962 343
2761.76489 5839.48779 212.00380 475
2592.90186 5957.95996 213.13864 349
2587.84570 5942.26270 422.44989 477
1343.70898 3094.41064 106.51438 298
2377.97119 5953.37451 213.41505 495
1261.41394 3177.47217 105.35413 361
2143.48071 5880.14795 213.39818 385
120.42107 149.04088 167.89888 489
112.40316 150.39151 166.37895 314
107.60460 146.88023 166.36739 314
99.88248 146.98715 165.07607 419
91.30095 147.49606 163.51715 424
86.70224 143.27538 163.51894 307
74.55322 156.21623 166.25726 305
103.29322 117.85339 171.50711 316
69.62955 151.57143 166.27190 305
99.61194 113.98085 171.55252 316
62.81418 148.59631 165.62544 409
96.09922 110.02641 171.60442 316
51.86966 149.02248 163.65555 403
92.67527 105.97602 171.61432 316
73.91508 121.48920 171.76964 308
89.41992 101.82452 171.66899 316
70.22543 116.70525 171.81435 308
21.16866 154.79822 166.06172 297
86.27240 97.53212 171.66331 316
66.63171 111.83190 171.86337 308
13.59908 150.40495 165.38513 389
83.26334 93.20462 171.68887 316
63.18534 106.85680 171.88770 308
-1.38944 150.76628 162.90814 382
80.38847 88.75478 171.72200 316
59.92089 101.76176 171.91618 308
33.01566 118.86141 172.12756 300
77.64931 84.24374 171.77502 316
56.82719 96.59697 171.93645 308
29.44098 112.81532 172.13120 300
-46.81395 157.89360 165.03436 286
75.05614 79.64855 171.77518 316
53.90341 91.33181 171.94247 308
39.89486 99.02637 175.33719 319
12.55578 114.06207 177.14699 270
72.64032 75.00428 171.79379 316
60.75943 81.04715 174.49374 384
52.36245 85.30660 178.80827 325
24.18370 99.72755 179.99123 292
70.90229 69.98240 172.00937 381
64.34687 73.05608 176.05946 390
53.97612 77.94028 179.73218 300
22.93719 92.57286 180.35905 314
-27.10348 116.14972 180.42184 343
74.09760 62.89043 173.57610 386
67.69515 65.65446 177.52046 395
43.79241 76.00346 178.06857 373
33.76497 80.33252 182.79083 336
21.62139 85.58965 187.86771 331
2.97074 93.66620 193.07780 283
76.19157 56.63945 174.74568 420
71.00092 58.68267 178.86870 415
47.59433 67.94326 179.38399 389
40.22209 70.89634 184.40569 373
31.55609 74.29237 189.67848 368
20.15476 78.83091 195.25082 331
3.63908 85.39568 201.19777 311
77.51160 50.91738 175.61728 423
72.09039 52.85986 179.61504 308
51.07515 60.44833 180.56430 393
44.17131 62.94379 185.47931 388
36.76032 65.60838 190.71161 373
27.93255 68.77026 196.28119 367
18.34430 72.26458 202.42856 362
78.89162 45.41718 176.47577 427
70.48185 48.13919 179.61171 308
54.14930 53.45423 181.62164 410
47.86776 55.51744 186.45354 393
40.85542 57.77090 191.57642 388
33.29691 60.25984 197.09315 383
24.34527 63.15539 202.96835 367
80.18620 40.11797 177.22873 430
69.03555 43.36215 179.61479 308
56.32187 47.05255 182.42300 421
50.50446 48.79469 187.18861 409
44.17588 50.62648 192.27065 404
37.41513 52.55448 197.71674 399
29.79981 54.79667 203.48421 382
81.50137 35.01295 177.94739 435
63.42190 39.65437 178.63144 429
58.22635 40.98962 183.13359 424
52.80372 42.42330 187.86349 420
46.84000 43.92637 192.84325 408
40.33989 45.62610 198.14201 403
33.41805 47.39296 203.85712 397
25.23035 49.47894 209.93565 269
82.54821 30.16097 178.55394 457
65.13309 34.05325 179.32932 432
60.09847 35.18199 183.77686 428
54.83567 36.36549 188.41144 423
49.22738 37.63031 193.38539 418
43.17001 38.97364 198.60168 406
36.51916 40.46928 204.15253 401
29.17698 42.09406 210.08705 358
-183.89847 89.71201 216.51134 296
82.74945 25.58299 178.88370 459
66.57974 28.65342 179.90382 455
61.93887 29.54108 184.36308 431
56.82204 30.51735 188.97394 426
51.38760 31.56623 193.82545 421
45.65527 32.64914 198.98029 416
39.49272 33.85949 204.41641 404
32.61769 35.15888 210.25906 399
-182.93105 76.34861 216.56520 424
82.95993 21.08320 179.15729 461
66.85692 23.60200 180.19972 456
62.36064 24.34229 184.61363 452
57.64051 25.09093 189.25928 447
52.70263 25.85392 194.11150 442
47.46875 26.67192 199.22470 437
41.97663 27.55775 204.66428 432
35.73049 28.57722 210.37265 402
83.23235 16.60635 179.40572 462
67.17845 18.65275 180.44298 457
62.67921 19.20550 184.84332 453
58.04616 19.78387 189.44916 448
53.12011 20.43584 194.30644 443
47.97580 21.08031 199.38106 438
42.56255 21.78280 204.73756 433
36.79278 22.48361 210.44751 428
83.10909 12.23964 179.52675 316
67.47721 13.72286 180.64114 459
63.06219 14.13679 185.05145 454
58.41544 14.58321 189.61781 450
53.58329 15.02786 194.44142 445
48.49952 15.54920 199.47330 440
43.17743 16.03573 204.84961 435
37.50697 16.56999 210.50732 429
82.75011 7.94764 179.50211 316
67.85416 8.85507 180.82753 460
63.45085 9.16581 185.19101 456
58.89878 9.43778 189.80052 451
54.09762 9.71643 194.54758 446
49.09600 10.04349 199.58226 441
43.80101 10.39689 204.89786 436
38.18584 10.39007 210.59322 430
-181.69798 24.60955 269.59583 486
-186.85905 24.86914 283.93677 360
78.65919 3.47136 179.53818 316
67.53093 3.82079 181.74728 461
63.33570 3.98315 185.99570 456
58.94030 4.08844 190.39272 452
54.31665 4.28423 195.06879 447
49.44438 4.40952 199.95734 442
44.35441 4.57048 205.07086 437
38.92438 4.76273 210.56166 431
-182.01350 12.06113 268.98749 487
