# .PCD v.7 - Point Cloud Data file format
VERSION .7
FIELDS x y z rgb
SIZE 4 4 4 4
TYPE F F F U
COUNT 1 1 1 1
WIDTH 416
HEIGHT 1
VIEWPOINT 4337.844238 -4107.563477 137.905853 -0.006415 -0.120227 -0.000294 0.992726
POINTS 416
DATA ascii
79.69261 -0.97110 179.56287 316
68.04639 -0.95220 181.63863 462
63.78813 -0.96146 185.91760 457
59.39262 -0.94728 190.38400 453
54.77309 -0.94314 195.06024 448
49.90115 -0.94377 199.96031 443
44.72809 -0.91914 205.15085 438
39.31779 -0.92871 210.68388 432
-152.48218 -0.71794 240.85178 419
-181.85933 -0.65741 269.17847 487
-150.99141 -0.72576 277.34442 284
79.84124 -5.30656 179.52972 316
67.58501 -5.66992 181.47189 461
63.33083 -5.79066 185.78464 456
58.88790 -5.93895 190.26976 452
54.19888 -6.08928 194.97623 447
49.31487 -6.23034 199.89978 442
44.10990 -6.37073 205.10509 437
38.61704 -6.56238 210.60959 431
-152.63385 -12.28738 240.81245 416
-181.85887 -13.23850 269.15829 487
-152.35828 -12.35935 277.68542 285
80.13129 -9.61601 179.55690 316
67.21132 -10.42235 181.32663 460
62.86230 -10.66159 185.60977 455
58.35562 -10.97497 190.14832 451
53.66161 -11.23484 194.84332 446
48.69367 -11.54060 199.79878 441
43.47992 -11.86255 205.05966 436
37.95527 -12.21693 210.57332 430
-181.89854 -25.78052 269.21332 486
80.57021 -13.91546 179.56203 316
66.88549 -15.19896 181.12340 459
62.48864 -15.62855 185.47382 454
57.94725 -16.03246 189.99432 449
53.15468 -16.47080 194.71838 445
48.12809 -16.95630 199.70862 440
42.86921 -17.47262 204.98042 435
37.27548 -17.97856 210.53215 429
-181.75949 -38.40671 269.35220 486
81.10093 -18.20989 179.53539 316
66.57969 -20.03329 180.93785 457
62.13640 -20.61520 185.26256 453
57.55444 -21.17159 189.78902 448
52.72473 -21.79936 194.55486 443
47.63831 -22.44687 199.57101 438
42.24847 -23.11529 204.87408 433
36.61129 -23.81517 210.51952 428
81.80382 -22.50493 179.55389 316
66.25919 -24.94640 180.68272 456
61.80779 -25.67988 185.03259 452
57.18902 -26.38808 189.62332 447
52.30155 -27.18234 194.38647 442
47.14003 -27.96161 199.43733 437
41.44303 -28.86437 204.76408 414
35.10961 -29.87756 210.40289 402
82.09480 -26.88162 179.39598 459
65.95007 -29.95206 180.38017 435
61.11350 -30.87912 184.68973 431
56.03507 -31.82497 189.26006 426
50.68335 -32.84138 194.07063 421
45.00941 -33.94361 199.12515 416
38.81486 -35.11370 204.52831 404
31.98781 -36.39646 210.27817 364
-182.92616 -77.20107 216.49345 425
81.89920 -31.38782 179.05804 439
64.26366 -35.29665 179.72362 432
59.30701 -36.42167 184.11568 428
54.05650 -37.59955 188.72379 423
48.56417 -38.79779 193.61075 418
42.48607 -40.19781 198.75360 406
35.84777 -41.62461 204.22534 401
28.55527 -43.28138 210.11507 358
-185.82875 -90.90928 216.56244 296
80.60844 -36.29089 178.41136 434
62.61224 -40.86792 178.98982 429
57.47973 -42.18167 183.45186 424
52.05770 -43.59272 188.13187 420
46.10371 -45.08161 193.10007 408
39.67662 -46.75217 198.33264 403
32.82204 -48.48901 203.93683 397
-188.38696 -105.06351 202.75568 484
79.34444 -41.30851 177.67546 431
60.89525 -46.64066 178.23421 425
55.58206 -48.16647 182.75931 421
49.73368 -49.90586 187.50623 409
43.43378 -51.68421 192.49460 404
36.73567 -53.65479 197.85953 387
29.08158 -55.87570 203.56015 382
78.03950 -46.55850 176.93457 427
68.26199 -49.70856 179.63860 308
53.36742 -54.54821 181.93008 410
46.99921 -56.59384 186.71967 393
40.00356 -58.84776 191.76891 388
32.48790 -61.32274 197.24820 372
23.55182 -64.18541 203.02197 367
76.72103 -51.98651 176.07809 424
69.92721 -54.43640 179.64665 308
50.21598 -61.46363 180.89690 393
43.34554 -63.92896 185.75043 388
35.88670 -66.62554 190.89783 372
27.12912 -69.75934 196.46700 367
17.54686 -73.24440 202.50580 332
75.36273 -57.60688 175.21301 420
70.10883 -59.72488 179.24408 386
46.76548 -68.89598 179.72963 389
39.35713 -71.86545 184.62828 373
30.75189 -75.23637 189.86806 368
18.93193 -79.94629 195.30013 332
2.08773 -86.60240 201.23097 311
73.10347 -63.90620 173.95348 386
66.90965 -66.56606 177.93025 395
42.87149 -76.99122 178.35709 373
32.52953 -81.44811 182.97513 336
20.25086 -86.74919 188.00406 315
0.12095 -95.42301 193.01706 283
69.94069 -70.94720 172.40726 381
63.57494 -73.93063 176.48160 390
51.96563 -79.40648 179.81357 300
21.44419 -93.72991 180.44142 314
-28.63859 -117.24075 180.47530 284
70.49534 -76.50866 171.82944 316
60.07132 -81.83562 174.89285 385
51.22799 -86.32632 179.06454 325
22.30472 -101.02225 180.06732 292
73.00050 -81.15406 171.80902 316
51.87459 -92.76228 172.02335 308
38.83221 -99.87826 175.60835 319
9.66827 -115.85303 177.01184 270
75.62813 -85.72497 171.78955 316
54.85891 -98.01250 171.97842 308
27.55920 -114.09868 172.22578 300
-48.65709 -159.08049 165.09229 288
78.38919 -90.22952 171.79424 316
57.98015 -103.14147 171.97345 308
31.17620 -120.12988 172.21010 300
81.25539 -94.66658 171.77922 316
61.30543 -108.21342 171.93388 308
-1.67172 -150.92316 163.37910 382
84.29794 -99.01916 171.74045 316
64.71443 -113.20165 171.92308 308
13.18670 -150.58760 165.76149 389
87.50782 -103.22887 171.71208 316
68.33382 -118.07375 171.86476 308
19.27799 -156.10812 166.08070 295
90.80206 -107.39014 171.68175 316
44.08167 -145.98759 163.36790 300
94.22871 -111.47704 171.67216 316
51.28749 -149.25092 164.16277 403
97.77344 -115.43433 171.62683 316
62.10921 -148.84389 166.06947 409
101.43048 -119.26024 171.60561 316
67.79001 -152.90082 166.34607 306
84.69222 -144.80954 163.52846 307
90.50571 -147.75060 164.00545 424
98.94955 -147.29266 165.50449 419
105.84844 -148.30719 166.44069 314
110.62872 -151.83234 166.46866 314
126.95008 -148.21901 169.70685 441
680.21960 -981.86389 109.52015 345
369.02820 -108.21334 167.59497 313
372.33252 -103.46935 167.66180 315
375.52151 -98.67225 167.64723 315
381.16504 -95.29504 166.88228 434
388.62384 -92.68635 165.53561 429
394.01080 -88.69533 164.74138 317
396.89993 -83.28110 164.70523 317
411.12820 -89.99879 167.76828 305
376.11725 -67.63117 171.55571 316
413.75552 -83.97347 167.80103 305
378.18384 -62.76154 171.60909 316
420.70767 -79.62920 166.71031 429
380.07111 -57.82375 171.62323 316
429.16785 -75.51865 165.23544 424
381.85709 -52.78432 171.60048 317
432.96454 -69.45543 164.87469 308
383.44513 -47.77466 171.61823 317
435.10898 -62.80634 164.88501 308
457.14282 -69.22041 167.87515 297
384.87985 -42.68687 171.63992 317
408.10080 -48.67623 171.86195 309
458.95834 -61.73870 167.95940 297
386.20691 -37.55551 171.65973 317
409.54739 -42.79035 171.88429 309
464.17810 -55.03929 167.25795 452
387.33365 -32.42526 171.64693 317
410.84656 -36.92270 171.91655 309
471.21533 -48.50325 166.20793 448
388.29977 -27.23898 171.66667 317
411.92709 -30.97592 171.89311 309
478.05597 -41.48798 165.11276 300
271.42038 -7.06776 203.51009 314
412.87521 -25.02374 171.94025 309
443.91968 -29.01300 172.18745 301
271.69501 -5.55638 203.49966 314
413.62628 -19.06518 171.89474 309
444.81757 -22.02536 172.23203 301
271.91800 -4.03755 203.50084 314
414.16394 -13.09396 171.94968 309
445.43146 -15.07820 172.23294 301
272.09692 -2.50813 203.50215 314
414.56729 -7.08798 171.89964 309
445.87820 -8.09291 172.24352 301
272.22205 -0.99147 203.50360 314
414.77466 -1.09298 171.95415 309
446.07394 -1.09262 172.20625 301
272.31012 0.53529 203.50014 314
414.76556 4.95822 171.91782 309
446.10352 5.88938 172.24879 301
272.34290 2.06904 203.50737 314
414.65024 10.91385 171.92165 309
445.92490 12.90912 172.24771 301
272.33038 3.58723 203.49750 314
414.31976 16.94565 171.91187 309
445.53073 19.85421 172.21187 301
4814.32910 430.11124 215.23907 489
272.26566 5.10232 203.50317 314
413.77780 22.88848 171.91072 309
444.91608 26.83273 172.20930 301
4777.81787 571.32190 216.03926 495
389.44391 25.15254 171.66774 317
413.08478 28.87994 171.92972 309
479.26340 39.29419 165.13222 300
4766.54541 715.81305 216.38362 460
388.67712 30.32711 171.66563 317
412.19516 34.78991 171.87442 309
472.78839 46.35619 166.17572 448
4769.46729 863.42853 216.63782 458
387.74988 35.45938 171.64479 317
411.12616 40.67906 171.87936 309
465.75836 52.90104 167.26239 452
4771.61182 1012.60406 215.75542 488
386.66406 40.62011 171.66835 316
409.92249 46.56078 171.85905 309
460.95441 59.60702 167.90184 297
4774.59521 1165.36426 216.53453 486
385.43054 45.69421 171.62733 316
437.22720 60.71045 164.89757 308
459.36209 67.16737 167.83243 297
384.06335 50.73701 171.59590 316
435.34317 67.36861 164.89037 308
382.50171 55.75570 171.57991 316
431.99939 73.52809 165.19603 424
380.82404 60.73401 171.59093 316
423.56946 77.64857 166.70358 429
378.96640 65.59759 171.57118 316
416.78079 81.96689 167.77824 305
400.07901 81.29920 164.70758 317
414.43054 88.03300 167.71304 305
397.45517 86.74516 164.74821 317
392.35696 90.80984 165.44014 429
384.99435 93.39214 166.83759 434
379.58142 96.79721 167.65242 315
376.58084 101.59200 167.63644 315
4699.03857 4759.94287 215.77905 486
3591.32007 3815.22900 216.92958 407
4621.88623 5311.48193 216.49919 406
2993.53027 5867.31299 216.84814 427
2763.94897 5849.80518 217.40073 346
2567.39673 5899.49805 216.53085 351
2596.48047 5971.09082 428.65701 351
1363.48767 3154.49438 107.28703 295
1413.56030 3294.29956 217.38051 471
1264.98022 3194.74243 106.80061 363
1302.10522 3307.49170 217.49832 472
224.15720 1546.98694 115.27232 496
223.81027 1547.58362 165.97607 473
224.03265 1548.88074 216.94417 427
224.11971 1550.94604 267.53137 364
120.06232 148.75630 168.04695 489
111.76823 150.49995 166.37579 314
107.02218 146.97916 166.38828 314
99.28357 147.03943 165.09479 419
90.76857 147.54222 163.50696 424
86.15164 143.34525 163.55280 307
74.01633 156.26111 166.28769 305
102.76802 117.87016 171.52689 316
69.03102 151.62267 166.24846 305
99.13061 113.98746 171.58826 316
62.28391 148.65320 165.62408 409
95.59331 110.05924 171.59108 316
51.39520 149.03580 163.68526 403
92.25103 105.99589 171.61096 316
73.45935 121.47836 171.77975 308
88.95920 101.81252 171.64931 316
69.74804 116.70068 171.82379 308
20.71591 154.85229 166.00795 295
85.84561 97.55460 171.67276 316
66.23558 111.83970 171.86177 308
13.15740 150.44066 165.35806 389
82.86749 93.19888 171.70312 316
62.80247 106.86149 171.86375 308
-1.84348 150.79843 162.88812 382
80.01693 88.74931 171.75070 316
59.57836 101.74713 171.88155 308
32.63623 118.85457 172.13287 300
77.29601 84.25336 171.75760 316
56.45760 96.59467 171.91133 308
29.11359 112.76685 172.12523 300
-47.18555 157.92497 165.10820 286
74.71117 79.64507 171.78340 316
53.53347 91.29733 171.96033 308
40.16353 98.65861 175.48863 319
13.83960 113.16608 177.47537 270
72.27859 74.97937 171.80896 316
60.78708 80.82475 174.61067 384
52.58181 85.02894 178.91817 325
23.88424 99.66595 180.00723 292
70.89680 69.84071 172.08859 381
64.35410 72.90245 176.18970 390
53.68282 77.95760 179.73880 300
23.13474 92.31076 180.46005 314
-27.47523 116.13282 180.38736 343
74.10365 62.75553 173.66519 386
67.72121 65.51328 177.60252 395
43.78756 75.85210 178.13361 373
33.86780 80.14478 182.88751 336
21.75717 85.40625 187.94864 331
3.53306 93.27760 193.22090 283
76.11767 56.52570 174.82913 420
70.99317 58.57906 178.94759 415
47.63982 67.81982 179.45982 389
40.25233 70.75854 184.47380 373
31.63420 74.18275 189.73138 368
20.28518 78.67390 195.24396 332
3.88982 85.15997 201.24663 311
77.48532 50.81689 175.68535 423
71.84553 52.88285 179.58389 308
51.12513 60.34880 180.62186 393
44.19920 62.82124 185.50702 388
36.76411 65.49022 190.75589 373
28.01807 68.63129 196.36162 367
18.42706 72.13699 202.44824 362
78.82938 45.33840 176.51671 427
70.26984 48.12428 179.61754 308
54.11147 53.38699 181.67775 410
47.86926 55.41416 186.51895 393
40.87493 57.71429 191.60402 388
33.33279 60.16013 197.11108 383
24.41130 63.03358 202.96240 367
80.17823 40.08448 177.29178 430
68.80459 43.38655 179.64287 308
56.32368 47.00269 182.47896 421
50.47490 48.72703 187.23299 409
44.15718 50.52799 192.30501 404
37.39390 52.50977 197.71028 399
29.83746 54.67920 203.50197 382
81.47644 34.98535 178.01311 435
63.40884 39.63795 178.65536 429
58.21666 40.95550 183.14726 424
52.77565 42.34067 187.89992 420
46.84433 43.90657 192.89641 408
40.37451 45.54028 198.18326 403
33.40640 47.30356 203.85997 397
25.27326 49.42264 209.90410 269
82.49538 30.11813 178.57825 457
65.11040 34.00325 179.35915 432
60.09307 35.12147 183.78851 428
54.82192 36.33402 188.44980 423
49.21851 37.57835 193.38559 418
43.17506 38.93370 198.59229 406
36.52275 40.39543 204.12953 401
29.19353 42.06392 210.08592 358
-183.69966 89.63932 216.49254 296
82.71534 25.53740 178.89249 459
66.55421 28.65242 179.95943 455
61.90529 29.53147 184.39717 431
56.78841 30.51184 188.97386 426
51.37735 31.55149 193.84413 421
45.66693 32.62328 198.97209 416
39.49534 33.79168 204.42850 404
32.59812 35.08937 210.27269 399
-183.03984 76.24403 216.56398 424
82.95437 21.04060 179.17191 461
66.84113 23.58082 180.23694 456
62.33920 24.29586 184.67256 452
57.61335 25.04848 189.30525 447
52.69475 25.83200 194.13472 442
47.49552 26.64976 199.27284 437
41.97608 27.54994 204.69269 432
35.74189 28.51217 210.41664 402
83.19769 16.61825 179.42867 462
67.14773 18.61492 180.46217 457
62.66196 19.19162 184.88922 453
58.02908 19.78899 189.49849 448
53.13453 20.39256 194.32350 443
47.97224 21.05649 199.36694 438
42.51482 21.74082 204.74109 433
36.82947 22.46255 210.44746 428
79.69879 12.05111 179.53163 316
66.87101 13.27686 181.34796 459
62.52164 13.68956 185.63786 454
57.99994 14.11172 190.10861 449
53.27264 14.58541 194.80528 445
48.31782 15.05723 199.77499 440
43.05607 15.53573 205.01122 435
37.51168 16.06238 210.54889 429
79.46424 7.71403 179.54610 316
67.22421 8.53673 181.47121 460
62.94200 8.80362 185.76631 455
58.47021 9.08203 190.22670 451
53.80378 9.35918 194.92049 446
48.89719 9.68365 199.87422 441
43.68683 10.03058 205.07756 436
38.18584 10.39007 210.59322 430
-181.87175 24.56716 269.19055 486
-186.76689 24.87027 283.30231 360
79.35307 3.41163 179.54898 316
67.66962 3.81820 181.61288 461
63.41993 3.93710 185.89151 456
59.02264 4.10267 190.34581 452
54.34663 4.25107 195.00508 447
49.46648 4.38865 199.92763 442
44.31967 4.56951 205.13524 437
38.88208 4.73852 210.58945 431
-181.96135 11.91958 269.14975 487
