# .PCD v.7 - Point Cloud Data file format
VERSION .7
FIELDS x y z rgb
SIZE 4 4 4 4
TYPE F F F U
COUNT 1 1 1 1
WIDTH 426
HEIGHT 1
VIEWPOINT 4327.632324 -4108.915527 137.916763 -0.004345 -0.119720 -0.000484 0.992798
POINTS 426
DATA ascii
80.14525 -0.92433 179.54857 316
68.12823 -0.88502 181.55078 462
63.89495 -0.90301 185.82857 457
59.46268 -0.87492 190.33383 453
54.81066 -0.89546 195.01048 448
49.94885 -0.86052 199.92903 443
44.78289 -0.87484 205.15901 438
39.35433 -0.85071 210.64993 432
-152.50096 -0.64329 240.85965 419
-181.95622 -0.62563 269.22736 487
-150.63058 -0.63967 277.40683 284
80.26318 -5.23614 179.52625 316
67.68700 -5.60382 181.40860 461
63.40074 -5.73026 185.68939 456
58.93726 -5.89065 190.18292 452
54.27180 -6.03761 194.90981 447
49.34460 -6.17186 199.86061 442
44.16091 -6.34775 205.10080 437
38.67166 -6.52432 210.60907 431
-152.60295 -12.35648 240.87866 416
-181.84335 -13.25217 269.21777 487
-152.07286 -12.33479 277.70236 285
80.54330 -9.56519 179.52592 316
67.29364 -10.35769 181.22630 460
62.95475 -10.65559 185.53436 455
58.46236 -10.94406 190.06099 451
53.72211 -11.23422 194.80663 446
48.77010 -11.55074 199.78719 441
43.50958 -11.84142 205.01079 436
37.95845 -12.21753 210.56894 430
-181.84796 -25.82745 269.28070 486
80.95544 -13.86617 179.54863 316
66.96078 -15.17349 181.06828 459
62.55907 -15.57911 185.38931 454
57.99332 -16.01645 189.89876 449
53.21908 -16.45932 194.64352 445
48.17278 -16.96083 199.68190 440
42.90807 -17.42711 204.92863 435
37.29992 -17.96319 210.56215 429
-181.78468 -38.44106 269.47070 486
81.51549 -18.19756 179.53825 316
66.64216 -20.02376 180.83173 457
62.22021 -20.59288 185.20050 453
57.59110 -21.17957 189.73840 448
52.76694 -21.76146 194.50290 443
47.67999 -22.41349 199.56506 438
42.25374 -23.10730 204.85757 433
36.61589 -23.83064 210.49171 428
82.19176 -22.48115 179.54617 316
66.32640 -24.94721 180.57281 456
61.90821 -25.66252 184.97078 452
57.21210 -26.38451 189.53813 447
52.35250 -27.19101 194.35838 442
47.17343 -27.97149 199.39896 437
41.45083 -28.90210 204.76100 414
35.09327 -29.87507 210.41063 402
82.20361 -26.88276 179.30907 459
66.01461 -29.96514 180.31488 435
61.16900 -30.88751 184.64848 431
56.09351 -31.84515 189.19777 426
50.71869 -32.85504 194.01807 421
45.06826 -33.91868 199.10133 416
38.83060 -35.13924 204.50082 404
31.95867 -36.40281 210.28525 364
-182.98006 -77.17078 216.56435 424
81.97115 -31.43284 178.99226 439
64.35524 -35.36057 179.66602 432
59.36185 -36.44836 184.05969 428
54.13317 -37.63830 188.66241 423
48.56513 -38.86288 193.55473 418
42.51714 -40.20511 198.72113 406
35.85801 -41.67210 204.19466 401
28.52195 -43.33071 210.13223 358
-185.96078 -91.01627 216.50543 296
80.69498 -36.29332 178.32999 434
62.65440 -40.89864 178.92813 429
57.49822 -42.22681 183.38065 424
52.09446 -43.62687 188.10995 420
46.11434 -45.15801 193.04755 408
39.70537 -46.79263 198.31544 403
32.77345 -48.55912 203.92609 397
-188.38008 -105.16753 202.70003 484
79.41623 -41.35321 177.61949 431
60.92304 -46.68351 178.18832 425
55.62212 -48.22823 182.70184 421
49.75633 -49.92035 187.46080 409
43.44868 -51.73073 192.44391 404
36.69170 -53.70700 197.83086 387
29.09254 -55.93285 203.54561 382
78.07784 -46.56923 176.85867 427
68.55560 -49.67056 179.67033 308
53.37263 -54.60877 181.88814 410
47.00491 -56.63918 186.66187 393
40.01977 -58.93101 191.75006 388
32.44527 -61.34854 197.18759 372
23.55412 -64.28172 203.00505 367
76.75436 -52.00610 176.01616 424
70.16726 -54.40268 179.62376 308
50.24729 -61.53742 180.84518 393
43.38005 -64.00854 185.68300 388
35.84311 -66.69971 190.89044 372
27.10432 -69.86179 196.42758 367
17.46605 -73.35046 202.44800 332
75.41764 -57.69690 175.12822 420
70.09318 -59.77854 179.14267 386
46.80312 -69.02187 179.65488 389
39.34655 -71.94539 184.61433 373
30.69015 -75.37100 189.86238 368
18.83582 -80.05209 195.29625 332
1.92075 -86.73445 201.21574 311
73.10704 -63.97347 173.88603 386
66.92152 -66.66912 177.84686 395
42.88704 -77.05878 178.32974 373
32.42168 -81.56881 182.95050 336
20.15685 -86.84837 187.92928 315
-0.28264 -95.66280 192.95392 283
69.95358 -71.04037 172.33302 381
63.57563 -74.02459 176.39687 390
52.21148 -79.36526 179.78896 300
21.35426 -93.85329 180.41197 314
-28.44493 -117.26782 180.47060 284
70.73837 -76.46274 171.87001 316
60.05134 -81.92104 174.82788 385
51.10880 -86.46299 178.98087 325
22.52472 -101.00356 180.03662 292
73.17986 -81.14779 171.81799 316
52.05167 -92.75313 172.01126 308
38.68542 -100.07089 175.52716 319
-55.68276 -151.81395 164.73221 373
75.81538 -85.71873 171.81873 316
55.00834 -97.96996 171.97083 308
27.70595 -114.08907 172.22516 300
-48.53659 -159.11806 165.12325 288
78.56967 -90.24548 171.78406 316
58.18122 -103.17011 171.95760 308
31.35516 -120.11444 172.20506 300
81.41473 -94.68555 171.77675 316
61.43277 -108.24110 171.95740 308
-1.45905 -150.93433 163.35666 382
84.46174 -99.03322 171.72168 316
64.85828 -113.21524 171.90219 308
13.37230 -150.54124 165.81206 389
87.63317 -103.27320 171.68886 316
68.47051 -118.06976 171.86302 308
19.41207 -156.11453 166.09056 295
90.88787 -107.44395 171.69472 316
44.21083 -145.97586 163.37195 300
94.32230 -111.50166 171.63472 316
51.40533 -149.27386 164.17265 403
97.82956 -115.45718 171.64114 316
62.25011 -148.82373 166.04863 409
101.49018 -119.28495 171.61456 316
67.80834 -152.92186 166.35703 306
84.79248 -144.83922 163.54607 307
90.58775 -147.76283 163.97955 424
99.01352 -147.30095 165.56271 419
105.86906 -148.34857 166.43423 314
110.61868 -151.88499 166.47745 314
127.01201 -148.19345 169.73097 441
-277.28625 -1940.48291 85.02791 412
221.81128 -1439.59631 122.10461 384
709.02795 -962.81519 109.79414 478
712.95758 -970.31799 145.01056 429
369.06152 -108.23730 167.60832 313
372.34540 -103.48425 167.64806 315
375.54230 -98.68135 167.66762 315
381.13058 -95.29145 166.91641 434
388.58209 -92.70840 165.50653 429
393.98300 -88.70831 164.77972 317
396.87201 -83.28932 164.70515 317
411.10776 -90.03107 167.74170 305
376.04141 -67.66430 171.56218 316
413.75198 -83.97668 167.81583 305
378.08798 -62.76578 171.56538 316
420.70221 -79.61664 166.69545 429
380.01886 -57.78800 171.61479 316
429.11169 -75.50719 165.25461 424
381.75388 -52.79734 171.62946 316
432.95285 -69.44340 164.86963 308
383.36801 -47.77946 171.62257 317
435.07275 -62.84416 164.88281 308
457.16034 -69.25571 167.86618 297
384.78238 -42.67596 171.62975 317
407.99042 -48.62912 171.89709 309
458.97025 -61.76284 167.91956 297
386.05594 -37.54041 171.63963 317
409.45267 -42.79929 171.86761 309
464.16037 -55.06922 167.26965 452
387.18518 -32.41141 171.64662 317
410.74567 -36.87286 171.89984 309
471.20422 -48.46980 166.21095 448
270.93686 -8.56310 203.49368 286
411.81876 -30.95790 171.93147 309
477.97873 -41.50311 165.13383 300
271.22839 -7.04395 203.49812 314
412.74741 -25.01228 171.92403 309
443.87048 -28.94937 172.24402 301
271.48935 -5.53029 203.50935 314
413.49911 -19.01375 171.91777 309
444.69257 -21.98293 172.23621 301
271.70578 -3.99822 203.49939 314
414.02145 -13.03285 171.93845 309
445.36774 -14.99203 172.22029 301
271.86273 -2.47167 203.50601 314
414.40659 -7.05735 171.91991 309
445.77737 -8.06273 172.23219 301
271.98569 -0.94160 203.50064 314
414.61752 -1.01169 171.91556 309
445.95346 -1.00763 172.23566 301
272.04794 0.57835 203.50726 314
414.58112 5.00971 171.92513 309
445.99951 5.97002 172.24261 301
272.07193 2.11002 203.49751 314
414.43704 11.01751 171.94788 309
445.75162 12.95254 172.22984 301
272.04364 3.63754 203.50084 314
414.06403 16.99170 171.89284 309
445.31952 19.94189 172.20110 301
4832.35986 432.66736 216.57350 433
271.96918 5.16264 203.50468 314
413.54550 22.97723 171.92699 309
444.69351 26.90129 172.20689 301
4787.34863 573.72894 215.87314 498
271.85034 6.67519 203.50552 286
412.81470 28.96313 171.92293 309
479.07172 39.38536 165.09120 300
4772.95117 717.20886 216.56458 494
388.39133 30.39917 171.66537 317
411.91937 34.87917 171.91753 309
472.65515 46.43758 166.14548 448
4774.49219 865.10095 215.96481 491
387.44354 35.58720 171.64639 316
410.86285 40.80956 171.89175 309
465.63196 53.03469 167.28772 452
4776.93066 1015.22748 215.84038 489
386.38013 40.69001 171.63234 316
409.60977 46.68629 171.88588 309
460.67691 59.75750 167.92111 297
4778.45508 1166.08923 216.66240 487
385.13995 45.78280 171.64468 316
436.92426 60.81656 164.85101 308
459.09714 67.28498 167.87593 297
383.69720 50.84581 171.60735 316
435.01309 67.53478 164.85828 308
382.16589 55.87906 171.58264 316
431.69232 73.70408 165.18710 424
380.45572 60.84229 171.59067 316
423.27786 77.77020 166.64426 429
378.57822 65.75957 171.54208 316
416.42694 82.11438 167.79179 305
399.65509 81.46485 164.69997 317
414.02908 88.18227 167.75189 305
397.01880 86.88790 164.72040 317
391.93045 90.97727 165.43669 429
384.56589 93.55045 166.85419 434
379.12540 96.93998 167.64388 315
376.09949 101.73904 167.59123 315
4698.26270 4761.82666 217.42355 487
4616.59326 4980.13770 215.58939 396
4608.37744 5297.12158 215.70074 404
753.84894 1038.33362 101.58472 453
753.26801 1037.28857 140.23933 453
752.79462 1035.90894 178.33536 454
752.20721 1035.01050 216.71637 454
751.66510 1033.83923 254.45593 454
750.94012 1032.81055 292.80933 454
3000.17529 5885.28076 217.62292 422
2773.97070 5876.21143 216.23695 255
2556.38110 5874.82568 216.35455 478
1371.20337 3179.05591 105.60398 287
1415.02295 3300.64233 216.83696 470
1266.68970 3199.51416 106.35301 365
1303.10132 3312.76807 217.09689 471
223.40556 1548.67126 115.28573 472
223.41208 1548.14612 166.10017 472
223.30161 1547.94348 216.74911 496
223.57114 1547.90210 267.56949 496
223.37984 1547.98340 318.30020 496
-5823.44434 12866.01758 -2609.95703 1000
119.38409 149.43727 167.86871 273
111.47817 150.58916 166.40576 314
106.74836 147.04645 166.40540 314
99.03781 147.04062 165.12854 419
90.57513 147.51140 163.54016 424
85.89223 143.41582 163.54776 307
73.73351 156.34572 166.29973 305
102.54887 117.92096 171.53203 316
68.84226 151.69104 166.23897 305
98.87779 114.05201 171.58298 316
62.10484 148.62024 165.62813 409
95.39989 110.08974 171.59349 316
51.25392 149.05832 163.71764 403
92.03127 106.00243 171.64946 316
73.26445 121.54116 171.80045 308
88.78673 101.85106 171.66962 316
69.56116 116.78838 171.78462 308
20.51315 154.89462 166.04134 295
85.67755 97.59724 171.70137 316
66.00334 111.87416 171.82617 308
12.96740 150.44980 165.33640 389
82.69955 93.25596 171.69962 316
62.61429 106.85022 171.89067 308
-1.97288 150.78265 162.90347 382
79.85860 88.81287 171.75441 316
59.37499 101.80061 171.92715 308
32.49336 118.84172 172.14244 300
77.11950 84.25581 171.76648 316
56.31824 96.58157 171.94987 308
28.92677 112.82209 172.16859 300
-47.31947 157.93427 165.02893 286
74.59090 79.67636 171.75626 316
53.36704 91.33614 171.94862 308
40.21049 98.57855 175.50703 319
14.22112 112.92062 177.58900 270
72.13174 75.00439 171.79488 316
60.82111 80.78276 174.62524 384
52.61702 84.97638 178.97914 325
23.70528 99.71817 179.99374 292
70.87627 69.81111 172.10152 381
64.37543 72.87839 176.19211 390
53.53218 77.96173 179.72136 300
23.22694 92.27782 180.45923 314
-27.54652 116.12052 180.39618 343
74.07309 62.73016 173.68684 386
67.69353 65.48579 177.64848 395
43.81089 75.83437 178.15961 373
33.88811 80.14989 182.88589 336
21.79068 85.38439 187.95261 331
3.69367 93.19264 193.25087 283
76.10350 56.50642 174.83540 420
70.95567 58.55163 178.95065 415
47.59283 67.78675 179.48288 389
40.25876 70.70200 184.45540 373
31.62257 74.14251 189.73999 368
20.28159 78.60761 195.29419 332
3.91774 85.07279 201.23924 311
77.48427 50.81190 175.72534 423
71.71449 52.88981 179.60445 308
51.08354 60.33133 180.67137 393
44.17812 62.80048 185.56525 388
36.81125 65.47668 190.76303 373
27.98136 68.64644 196.33432 367
18.42558 72.08995 202.44717 362
78.82740 45.32482 176.55513 427
70.15369 48.17073 179.61125 308
54.10260 53.38957 181.70569 410
47.85772 55.40903 186.49988 393
40.86195 57.69893 191.60393 388
33.31097 60.10881 197.13684 383
24.42918 63.01941 202.97430 367
80.14793 40.06612 177.31244 430
61.65564 45.43587 177.90805 425
56.32776 47.00130 182.47475 421
50.44738 48.68754 187.26572 409
44.14464 50.50486 192.30066 404
37.42291 52.49876 197.74922 399
29.87042 54.66252 203.48770 382
81.45776 34.97565 178.03085 435
63.36805 39.63284 178.67181 429
58.20913 40.92464 183.15845 424
52.74964 42.36361 187.90765 420
46.80296 43.85363 192.88216 408
40.36234 45.52904 198.21233 403
33.39955 47.32760 203.86353 397
25.16396 49.44395 209.93242 269
82.47240 30.11195 178.62889 457
65.09348 33.99432 179.37323 432
60.09104 35.13326 183.81247 428
54.81828 36.30676 188.49873 423
49.20687 37.53129 193.39032 418
43.15829 38.91658 198.60214 406
36.50555 40.39254 204.13739 401
29.21115 42.01837 210.08406 358
-183.65817 89.66199 216.54852 296
82.69219 25.56667 178.92966 459
66.52782 28.64587 179.97070 455
61.89054 29.50102 184.38177 431
56.77322 30.47596 189.01393 426
51.38225 31.50481 193.86931 421
45.66405 32.61447 198.98102 416
39.50125 33.79452 204.43636 404
32.63356 35.10969 210.23500 399
-182.95267 76.20621 216.47565 424
82.91083 21.05746 179.19812 461
66.83923 23.61946 180.22241 456
62.32250 24.29320 184.67563 452
57.62497 25.06244 189.28775 447
52.67437 25.86155 194.14719 442
47.46315 26.64558 199.27798 437
41.97836 27.53759 204.65085 432
35.71490 28.51973 210.37006 402
80.35977 16.32173 179.55270 316
66.57104 18.05308 181.10551 457
62.18853 18.61746 185.43462 453
57.61496 19.22439 189.96320 448
52.82257 19.83821 194.70665 443
47.74132 20.48377 199.65726 438
42.44055 21.16070 204.97842 433
36.76769 21.86440 210.53752 428
79.99849 11.98560 179.53810 316
66.93096 13.23290 181.26929 459
62.55479 13.68859 185.60742 454
58.00988 14.09620 190.09895 449
53.25534 14.55720 194.82906 445
48.27867 15.04529 199.79910 440
43.04166 15.51901 205.01805 435
37.46729 16.04270 210.61057 429
79.74759 7.67095 179.55180 316
67.28339 8.48848 181.45076 460
62.99607 8.75591 185.70747 455
58.50508 9.05574 190.23325 451
53.81735 9.35080 194.93608 446
48.86928 9.67183 199.85875 441
43.64745 10.00862 205.10565 436
38.16254 10.32083 210.61243 430
-181.83429 24.41119 269.21530 486
-186.81000 24.77655 283.38062 496
79.65909 3.35537 179.53029 316
67.71272 3.75102 181.56143 461
63.45805 3.88377 185.84964 456
59.03009 4.04777 190.33694 452
54.38733 4.17258 195.00700 447
49.49184 4.32388 199.95769 442
44.31592 4.53167 205.12596 437
38.83559 4.68778 210.65730 431
-181.88144 11.87095 269.20816 487
