# .PCD v.7 - Point Cloud Data file format
VERSION .7
FIELDS x y z rgb
SIZE 4 4 4 4
TYPE F F F U
COUNT 1 1 1 1
WIDTH 422
HEIGHT 1
VIEWPOINT 4667.387695 -4075.831055 150.410400 -0.039700 -0.139133 0.000773 0.989477
POINTS 422
DATA ascii
84.26278 -0.85032 179.52858 316
68.94427 -0.85567 180.74925 462
64.61475 -0.82302 185.12521 457
60.07738 -0.82990 189.69374 453
55.30005 -0.83256 194.52794 448
50.30953 -0.83291 199.54507 443
45.03892 -0.84411 204.85399 438
39.45719 -0.85855 210.47862 432
-152.72656 -0.78090 241.07718 419
-181.61496 -0.79172 269.65097 487
-145.66414 -0.76025 277.25729 284
84.14288 -5.17707 179.51410 316
68.41968 -5.65726 180.64377 461
64.07510 -5.77842 185.03935 456
59.49078 -5.91459 189.62888 452
54.69621 -6.09619 194.43486 447
49.69916 -6.23955 199.49315 442
44.36512 -6.42885 204.81909 437
38.77140 -6.59831 210.47447 431
-153.04160 -12.58584 241.08633 416
-181.66464 -13.42065 269.70499 487
-150.86069 -12.53740 278.12039 285
83.99701 -9.51253 179.44824 464
67.98403 -10.51308 180.51427 460
63.57863 -10.80056 184.92130 455
58.97105 -11.06645 189.53487 451
54.11378 -11.39011 194.37157 446
49.06037 -11.69687 199.43370 441
43.73607 -12.03678 204.78491 436
38.06781 -12.38552 210.44411 430
-181.68057 -26.18237 269.69962 486
83.64136 -13.87479 179.32507 463
67.59768 -15.38898 180.37981 459
63.12523 -15.81353 184.78380 454
58.49506 -16.23896 189.41501 449
53.58726 -16.71645 194.26125 445
48.44543 -17.16493 199.35773 440
43.08874 -17.70167 204.71455 435
37.37701 -18.21970 210.41658 429
-181.56900 -38.87059 269.88434 486
83.30404 -18.26091 179.15477 462
67.21434 -20.29698 180.20183 457
62.74113 -20.85170 184.67024 453
58.02731 -21.46456 189.25955 448
53.08360 -22.06593 194.15657 443
47.89561 -22.72750 199.26154 438
42.41979 -23.43596 204.63776 433
36.66607 -24.16409 210.39278 428
83.00068 -22.70312 178.93381 461
66.89996 -25.28503 179.99794 456
62.36155 -26.00260 184.44798 452
57.59928 -26.74125 189.10266 447
52.65704 -27.54065 193.98219 442
47.38485 -28.34638 199.16919 437
41.46092 -29.29785 204.58090 414
34.95708 -30.30766 210.30560 402
82.75994 -27.18781 178.70680 459
66.38154 -30.30810 179.72861 435
61.51356 -31.25731 184.16788 431
56.32769 -32.22872 188.80237 426
50.88412 -33.28919 193.68362 421
45.10120 -34.38346 198.84421 416
38.80833 -35.59018 204.34894 404
31.82494 -36.93054 210.18671 399
-183.00491 -77.85416 216.51276 424
82.40699 -31.78724 178.44037 438
64.67182 -35.72200 179.15651 432
59.62649 -36.84399 183.62218 428
54.30507 -38.06126 188.28845 423
48.72618 -39.28254 193.24753 418
42.51457 -40.70746 198.49261 406
35.79778 -42.20652 204.08154 401
28.38515 -43.85556 210.05817 358
-187.80713 -92.09681 216.54846 296
81.06159 -36.64671 177.83389 435
62.95190 -41.31645 178.47989 429
57.75254 -42.65072 182.99997 424
52.28062 -44.06553 187.77278 420
46.17685 -45.61042 192.76932 408
39.68895 -47.30091 198.08839 402
32.70679 -49.11124 203.79503 397
-188.44333 -105.83827 202.69142 484
79.73179 -41.73556 177.15967 430
68.90927 -44.87136 179.63130 308
55.79345 -48.65690 182.33218 421
49.85706 -50.38721 187.12294 409
43.46674 -52.26320 192.19783 404
36.60952 -54.25179 197.61952 387
28.82632 -56.49904 203.43475 371
76.74130 -43.60996 179.28105 427
58.26062 -49.60724 179.59076 422
52.88254 -51.33583 183.86273 410
47.06881 -53.24184 188.41541 405
40.75756 -55.26555 193.22061 388
33.68009 -57.58261 198.35466 383
25.59963 -60.19527 203.82401 367
75.52506 -48.82186 178.41373 424
56.36364 -55.68406 178.63283 411
50.33284 -57.85191 182.88875 393
43.85546 -60.19234 187.47223 388
36.95071 -62.68175 192.36411 383
28.89667 -65.56683 197.61328 367
19.85159 -68.80076 203.28094 362
74.30507 -54.22919 177.51985 420
62.84621 -58.75445 179.71848 308
47.08913 -64.97031 181.71997 389
40.27145 -67.65820 186.44504 384
32.25708 -70.83862 191.39597 368
23.40628 -74.30809 196.77856 332
9.40605 -79.87387 202.35721 311
73.02529 -59.91647 176.52774 386
65.02337 -63.33529 179.70172 308
43.64788 -72.57631 180.44658 384
35.64782 -76.00805 185.15616 368
24.65889 -80.78452 189.91458 331
9.92700 -87.12199 195.04156 310
70.02775 -66.61538 174.97246 381
64.35700 -69.28045 178.92102 390
37.48614 -81.88181 178.54800 335
26.11633 -87.21312 182.92737 330
9.53748 -95.01059 187.29091 282
66.84793 -73.87558 173.25739 376
61.03568 -76.85631 177.36360 385
46.44071 -84.25861 179.85979 300
3.11765 -106.26056 178.05186 280
65.04607 -80.82446 171.89363 316
55.40263 -86.10163 175.11592 322
45.06921 -91.79057 178.83163 319
17.63761 -106.82019 180.10320 292
67.92179 -85.37905 171.88065 316
47.18541 -97.64847 172.05019 308
19.86563 -113.73826 172.25385 300
-57.20896 -159.18306 165.04207 288
70.92445 -89.90588 171.84102 316
50.56470 -102.80438 172.00514 308
23.74658 -119.76212 172.24440 300
74.09737 -94.31513 171.82681 316
54.07901 -107.82436 171.98412 308
-9.74899 -151.09084 163.24152 382
77.33524 -98.62142 171.79611 316
57.78683 -112.80205 171.94171 308
5.39475 -150.74992 165.65921 389
80.76758 -102.88013 171.74820 316
61.63374 -117.66386 171.93442 308
11.89338 -156.17433 166.00381 295
84.31908 -107.02024 171.75681 316
65.62045 -122.42336 171.91393 308
87.99668 -111.09496 171.73111 316
44.25663 -149.49757 163.97397 403
91.78194 -115.01798 171.66859 316
55.39089 -149.11778 165.85779 409
95.69801 -118.85267 171.62628 316
61.79887 -152.70670 166.29099 305
79.04364 -144.56822 163.52748 307
67.02656 -157.33124 166.31021 305
84.62222 -147.96692 163.79585 424
93.25161 -147.65817 165.29002 429
100.92774 -148.00111 166.45673 314
105.99677 -151.50713 166.45523 314
111.10335 -154.89360 166.44237 314
122.36874 -148.60252 169.45129 441
-748.28522 -1891.97803 76.90606 499
-751.82159 -1899.36279 146.44914 498
-202.77802 -1449.32837 67.60505 359
317.21100 -997.47003 84.46445 499
317.58682 -1001.57513 117.11438 480
318.09235 -1005.94116 149.86876 485
3414.47266 -20214.16602 -5272.40674 1000
367.34888 -107.61980 167.64645 315
370.90668 -102.91465 167.62488 315
374.36304 -98.16659 167.66751 315
381.00876 -95.30328 166.60388 434
388.60562 -92.69994 165.27444 429
393.57257 -88.34798 164.75447 317
396.67960 -82.97746 164.74068 317
410.60596 -89.55912 167.77098 305
376.20627 -67.40153 171.57063 317
413.54123 -83.58958 167.83984 306
378.48273 -62.54093 171.60429 317
421.09836 -79.42767 166.62148 429
380.63208 -57.63247 171.61523 317
429.56030 -75.33713 165.22392 424
382.63599 -52.68185 171.63953 317
433.45752 -69.27217 164.89653 308
384.49509 -47.67986 171.66673 317
435.87329 -62.66601 164.92448 308
457.60156 -69.03751 167.90210 298
386.19778 -42.64451 171.67781 317
409.18652 -48.56382 171.90875 309
459.69177 -61.56763 167.94292 298
387.75668 -37.59327 171.66641 317
410.85611 -42.79867 171.90387 309
464.43658 -54.81379 167.44318 452
389.16235 -32.49165 171.70604 317
412.44025 -36.93217 171.92256 309
471.41467 -48.26471 166.40068 448
390.39029 -27.31849 171.70851 317
413.75928 -31.08461 171.91553 309
478.79681 -41.43824 165.29297 443
391.45712 -22.15098 171.70714 317
414.94009 -25.15799 171.92392 309
480.96469 -33.58039 165.15331 300
392.41217 -16.99085 171.69879 317
415.99268 -19.22218 171.92197 309
446.82812 -22.21086 172.21655 301
393.18155 -11.77713 171.71730 317
416.79572 -13.29536 171.95299 309
447.74649 -15.30718 172.25496 301
393.77957 -6.59253 171.73026 317
417.43710 -7.33281 171.93170 309
448.47687 -8.37335 172.23558 301
394.23312 -1.36475 171.74951 317
417.90268 -1.38759 171.94525 309
448.96796 -1.40341 172.26244 301
394.50552 3.83730 171.71336 317
418.22003 4.57656 171.96025 309
449.23737 5.54334 172.28853 301
4511.09229 129.51239 73.44913 462
394.64813 9.03144 171.72066 317
418.31509 10.52118 171.97269 309
449.32336 12.44945 172.28569 301
4636.84277 273.28406 68.58875 287
394.63419 14.26135 171.75143 317
418.21573 16.45895 171.97858 309
449.19577 19.33290 172.25552 301
4565.48975 404.98096 71.59541 495
394.42233 19.42750 171.74557 317
417.97308 22.42050 171.94104 309
484.11545 30.71465 165.19310 301
4562.59082 543.45184 71.37559 302
394.11563 24.58893 171.72121 317
417.53442 28.32147 171.94814 309
481.33594 38.38348 165.59488 443
4764.50977 713.84906 63.09108 319
393.62497 29.74268 171.73280 317
416.92847 34.17939 171.96033 309
474.13275 45.07347 166.84419 448
4539.17285 818.02789 71.21499 421
392.94611 34.88177 171.70451 317
416.16788 40.03779 171.90829 309
467.34790 51.45256 167.97398 452
392.13907 39.98322 171.68294 317
415.21829 45.89973 171.92116 309
466.18683 58.91152 167.95045 297
391.16217 45.01441 171.68889 317
442.88437 59.99969 164.91246 307
390.06189 50.03496 171.66855 316
441.24063 66.65387 164.89738 307
388.80331 55.01163 171.66879 316
435.53650 71.78267 165.83902 424
387.37009 59.92356 171.65823 316
427.39005 75.79475 167.37804 429
409.32022 74.95255 164.75827 316
423.71695 81.16373 167.80721 305
407.17456 80.47911 164.75647 316
421.59409 87.23238 167.70709 305
404.88342 85.91730 164.79460 317
398.04062 88.85586 166.09351 429
391.00980 91.31336 167.50562 434
387.89490 95.89260 167.64752 315
385.26544 100.73648 167.65298 313
2920.36670 5689.00732 217.19046 477
2705.99878 5689.97656 216.29930 480
2291.43286 5688.18408 217.14610 479
1232.59180 3046.30542 111.15104 314
1134.93286 3069.03076 111.31672 353
499.51419 997.33771 80.62384 392
499.46918 996.35535 114.76912 449
499.12686 995.99268 148.88292 486
499.20654 996.17572 182.51340 499
499.29797 996.34064 216.38034 499
499.61029 997.14105 250.20784 488
499.67609 998.15356 283.95059 452
1731.87158 7802.63086 2073.06372 1000
-16074.72949 41288.63281 9077.69434 1000
124.91473 150.38651 167.35884 316
119.56440 147.73213 167.12088 441
113.01926 146.52718 166.38350 314
105.32207 146.45358 165.14238 419
96.38428 147.29503 163.43808 424
91.77328 142.91446 163.51532 311
79.71620 155.79321 166.28682 305
108.17390 117.60784 171.47392 315
74.64712 151.16714 166.30940 305
104.39468 113.75164 171.51562 315
67.49052 148.44887 165.56502 409
100.76718 109.77551 171.53764 316
56.50884 148.85670 163.63094 403
97.27179 105.72147 171.59636 316
78.47626 121.26643 171.71042 308
93.85159 101.58311 171.60695 316
74.63770 116.47134 171.77222 308
25.71717 154.49161 166.02904 297
90.61802 97.29379 171.66228 316
70.93912 111.59129 171.80139 308
17.75474 150.31667 165.34052 389
87.51878 92.97160 171.68976 316
67.41458 106.61275 171.83932 308
2.67100 150.67737 162.84929 382
84.54369 88.56319 171.68469 316
64.07137 101.53876 171.85374 308
37.13520 118.64853 172.05479 300
81.67062 84.04258 171.73114 316
60.84164 96.36362 171.88249 308
33.42123 112.60706 172.11343 300
-42.45672 157.55119 165.10278 286
78.96906 79.44188 171.75650 316
57.76706 91.10527 171.92700 308
37.56853 102.21872 173.85612 318
-52.53423 151.80168 164.19580 373
76.41168 74.76351 171.78699 316
60.55547 82.87292 173.44701 384
50.52540 87.99294 177.50815 325
27.90508 99.52670 179.98061 292
74.00455 70.06151 171.78775 316
64.22365 74.67677 175.07689 390
57.67679 77.77276 179.73833 300
21.20075 94.95066 179.32285 314
-23.37405 115.97424 180.40913 284
74.35154 64.12313 172.57814 386
67.82268 66.97134 176.62640 381
55.19739 72.40936 179.74307 300
32.81184 82.14530 181.97107 336
20.09482 87.67101 187.15518 315
-2.18681 97.27498 192.12383 266
76.72243 57.62585 173.87584 420
71.25428 59.75360 178.02342 386
47.69661 69.09454 178.64082 388
40.08779 72.10403 183.70351 373
31.23490 75.62616 189.10837 368
18.89962 80.51762 194.69696 331
1.51811 87.39868 200.79366 311
78.09068 51.75362 174.78326 423
72.94756 53.59400 178.96535 419
51.25597 61.39196 179.88286 393
44.23419 63.93075 184.88370 388
36.53786 66.69640 190.20137 373
27.58920 69.96136 195.87848 367
17.57946 73.55502 202.06567 332
79.40678 46.11059 175.65967 427
73.73999 47.95170 179.59100 308
54.45787 54.27005 180.97279 410
47.93456 56.37268 185.90480 393
40.79184 58.67397 191.11322 388
33.08024 61.21376 196.70848 372
23.93217 64.19266 202.67896 367
80.75574 40.73919 176.46960 432
72.15819 43.21682 179.57791 308
56.68866 47.71521 181.82222 421
50.70871 49.45472 186.68921 409
44.28075 51.33081 191.84654 404
37.41919 53.34253 197.36272 387
29.58612 55.61133 203.22153 382
82.02908 35.50903 177.22939 435
63.86530 40.18764 177.94659 429
58.59441 41.52043 182.52014 424
53.04706 42.95120 187.37019 419
46.98938 44.50797 192.42035 408
40.42773 46.20280 197.84895 403
33.33722 48.04406 203.58981 397
25.44040 50.03290 209.77284 355
83.17312 30.49556 177.90613 457
65.49496 34.35163 178.82632 432
60.48447 35.60770 183.23355 428
55.13504 36.77043 187.97136 423
49.44159 38.06307 192.99159 418
43.27188 39.42191 198.25542 406
36.52695 40.94123 203.91661 401
29.11770 42.61091 209.97272 361
-185.23409 90.64696 216.59163 296
83.32219 25.87006 178.23814 459
67.11691 28.97405 179.35210 455
62.30949 29.88627 183.85277 431
57.14451 30.87154 188.51013 426
51.63528 31.90856 193.44606 421
45.82231 32.99822 198.66620 416
39.51845 34.21207 204.19351 404
32.55122 35.54796 210.13794 399
-182.94402 76.72926 216.50453 424
83.55808 21.25786 178.56891 461
67.36614 23.81626 179.65260 456
62.82380 24.53871 184.15332 452
58.01864 25.30862 188.85751 447
52.99619 26.11295 193.76028 442
47.70528 26.94437 198.95921 437
42.14142 27.82068 204.48477 414
35.69022 28.85394 210.24295 402
83.78777 16.75358 178.82462 462
67.67742 18.79722 179.93079 457
63.11909 19.35550 184.38806 453
58.41741 19.96980 189.04794 448
53.41990 20.58868 193.93936 443
48.23864 21.24282 199.12631 438
42.73043 21.92503 204.58562 433
36.87749 22.69674 210.32059 428
84.04021 12.28960 179.08374 463
67.95824 13.78939 180.15996 459
63.47419 14.21000 184.62256 454
58.77604 14.68054 189.26013 449
53.88084 15.12918 194.13292 445
48.75385 15.63488 199.23831 440
43.31093 16.14546 204.66483 435
37.61485 16.67041 210.38914 429
84.31055 7.87699 179.28452 464
68.32577 8.88783 180.37936 460
63.84822 9.14241 184.82378 455
59.25964 9.42574 189.43312 451
54.40512 9.74270 194.25398 446
49.35045 10.09217 199.35789 441
43.98879 10.41625 204.73080 436
38.29926 10.75961 210.44453 430
-181.51021 24.59042 269.83798 486
-187.04221 24.99863 284.31546 360
84.64899 3.50695 179.49945 465
68.66724 3.98240 180.58862 461
64.32811 4.12748 184.96970 456
59.74371 4.28075 189.56989 452
54.93265 4.44742 194.41896 447
49.88762 4.58133 199.44554 442
44.60485 4.75799 204.80563 437
38.96237 4.94461 210.47282 431
-181.56310 11.95548 269.75610 487
