# .PCD v.7 - Point Cloud Data file format
VERSION .7
FIELDS x y z rgb
SIZE 4 4 4 4
TYPE F F F U
COUNT 1 1 1 1
WIDTH 413
HEIGHT 1
VIEWPOINT 4506.191406 -4091.666748 143.860291 -0.027839 -0.129913 -0.001457 0.991133
POINTS 413
DATA ascii
83.05173 -0.78472 179.51767 316
68.73207 -0.76494 180.97081 462
64.39677 -0.76221 185.32582 457
59.90081 -0.77648 189.87212 453
55.15747 -0.76062 194.67538 448
50.19674 -0.77832 199.68707 443
44.95504 -0.75684 204.98015 438
39.43155 -0.78058 210.55063 432
-152.69714 -0.71846 240.97456 419
-181.72858 -0.69265 269.56213 487
-147.03551 -0.71554 277.33090 284
83.00751 -5.09125 179.53938 316
68.21680 -5.55676 180.87532 461
63.85216 -5.68578 185.25560 456
59.32589 -5.85062 189.81033 452
54.57590 -6.00449 194.58827 447
49.58075 -6.16907 199.61403 442
44.33492 -6.32140 204.91451 437
38.71388 -6.47989 210.52129 431
-152.93060 -12.52015 241.00058 416
-181.70403 -13.33823 269.55154 487
-151.06418 -12.39763 277.97757 285
83.09712 -9.43466 179.51375 316
67.80199 -10.39047 180.73019 460
63.37080 -10.68777 185.13336 455
58.78654 -10.96210 189.67897 451
53.98931 -11.24113 194.50539 446
48.97787 -11.57336 199.56674 441
43.64421 -11.89191 204.85699 436
38.01601 -12.24702 210.49576 430
-181.68011 -26.00764 269.57349 486
83.30077 -13.76490 179.50928 316
67.39202 -15.25622 180.58824 459
62.96029 -15.68315 185.00519 454
58.32107 -16.10361 189.56668 449
53.43687 -16.57400 194.41151 445
48.39762 -17.02681 199.48256 440
43.02268 -17.56158 204.82936 435
37.32037 -18.10931 210.48648 429
-181.68721 -38.72400 269.73904 486
83.10768 -18.12848 179.35594 462
67.03908 -20.16190 180.42091 457
62.55684 -20.71976 184.80858 453
57.88298 -21.32407 189.43169 448
52.97799 -21.94334 194.28108 443
47.84153 -22.56564 199.37865 438
42.36688 -23.26452 204.74066 433
36.64725 -23.98023 210.43466 428
76.30353 -22.37232 179.58034 316
65.28014 -24.10367 181.75276 456
60.97969 -24.77753 185.95970 452
56.48638 -25.48554 190.40260 447
51.77560 -26.21052 195.00935 442
46.81445 -26.99040 199.90976 437
41.57061 -27.80624 205.07629 432
35.53928 -28.77236 210.53543 402
77.28559 -26.60106 179.58218 316
65.05036 -28.93707 181.44052 455
60.60068 -29.76653 185.67299 431
55.66797 -30.70878 190.04535 426
50.53658 -31.68256 194.71967 421
45.04739 -32.70760 199.59213 416
39.14726 -33.83754 204.83806 404
32.50880 -35.06904 210.35197 364
-183.03021 -75.79263 216.49477 424
78.36900 -30.81628 179.56221 316
63.67198 -34.07637 180.81480 432
58.83783 -35.17473 185.07457 428
53.82196 -36.28735 189.55991 423
48.45291 -37.45978 194.24673 418
42.65625 -38.75953 199.21237 406
36.29031 -40.17159 204.51485 401
29.19970 -41.74363 210.21242 358
-182.72186 -88.81471 216.55774 438
79.57360 -35.03271 179.55609 316
62.05204 -39.51897 180.11774 429
57.10080 -40.78080 184.43938 424
51.86004 -42.09948 188.94403 420
46.17359 -43.57207 193.75491 408
39.93189 -45.13497 198.82123 403
33.28811 -46.85186 204.23311 397
-188.54005 -103.46857 202.96915 483
78.63157 -39.87588 178.91228 431
60.38221 -45.11110 179.35570 425
55.30258 -46.62587 183.73726 421
49.66335 -48.25517 188.30988 409
43.57972 -50.01223 193.16434 404
37.12319 -51.88009 198.32069 399
29.93932 -53.93271 203.89737 382
77.40069 -44.96999 178.14355 427
58.73525 -50.98716 178.51978 422
53.15726 -52.78967 182.93719 410
47.23363 -54.71494 187.58353 405
40.50951 -56.88288 192.45662 388
33.30923 -59.24593 197.73657 383
24.79871 -61.97665 203.39981 367
76.12803 -50.27420 177.30547 424
65.30767 -54.16014 179.65916 308
50.35728 -59.47841 181.92314 393
43.73643 -61.89353 186.62323 388
36.63024 -64.44466 191.64806 383
28.21299 -67.42183 196.99594 367
18.94266 -70.74658 202.80879 362
74.85229 -55.79114 176.40387 420
67.21388 -58.79400 179.65712 308
47.03279 -66.76560 180.72444 389
40.00855 -69.55934 185.57214 373
31.68567 -72.80881 190.62802 368
21.50381 -76.84621 196.02013 332
6.31570 -82.80076 201.75403 311
73.14402 -61.73835 175.30418 386
67.31120 -64.25703 179.15569 395
43.37089 -74.54089 179.44354 373
34.50199 -78.37020 184.14412 336
22.85842 -83.41715 188.98747 331
6.91372 -90.28159 194.20763 310
70.07533 -68.59736 173.71826 381
64.06196 -71.43284 177.70732 390
36.11555 -84.52398 177.28630 335
24.40706 -90.04577 181.75684 330
2.53169 -100.25117 185.62511 282
66.78875 -75.97674 172.01305 377
60.65654 -79.12965 176.15883 385
50.52375 -84.24629 179.82539 300
-7.58934 -113.73154 175.32616 293
69.00281 -80.87092 171.84125 316
53.07775 -89.60484 173.40602 322
42.28725 -95.49392 177.26538 319
21.73261 -106.79008 180.08385 292
71.73608 -85.45789 171.83022 316
50.99618 -97.63733 172.02748 308
23.78491 -113.74358 172.26546 300
-52.81093 -158.83388 165.08746 288
74.62325 -89.94065 171.79515 316
54.27343 -102.83648 171.99446 308
27.54830 -119.73784 172.23506 300
77.66972 -94.33641 171.77254 316
57.75732 -107.85391 171.98851 308
-5.94916 -151.03946 163.22423 382
80.87410 -98.68301 171.78198 316
61.33082 -112.86313 171.93015 308
9.09599 -150.65616 165.62802 389
84.18260 -102.95737 171.73276 316
65.05047 -117.72469 171.89305 308
15.64693 -155.88605 165.99973 295
87.61064 -107.09182 171.71660 316
68.93835 -122.49078 171.87776 308
91.18782 -111.15885 171.69684 316
47.68007 -149.41321 163.97217 403
94.84003 -115.08556 171.65286 316
58.67342 -148.94376 165.90872 409
98.69218 -118.97378 171.63951 316
64.88960 -152.61011 166.34384 306
82.00961 -144.58344 163.56877 307
70.02343 -157.31610 166.34792 305
87.58321 -147.86900 163.83440 424
96.13223 -147.57353 165.37636 429
103.54666 -148.07341 166.48375 314
108.50350 -151.59631 166.47621 314
124.86078 -148.41765 169.53827 441
-26309.65820 -61155.72266 -1972.77222 1000
-22576.67969 -52555.60938 2085.80200 1000
-539.88501 -1916.22375 80.87592 480
-543.08307 -1924.54395 148.31287 428
481.37161 -1000.92706 80.39529 374
513.49225 -993.99323 80.16568 350
368.30380 -107.75522 167.62022 313
371.78918 -103.11097 167.65611 315
375.14182 -98.31062 167.63968 315
381.29706 -95.22127 166.75426 434
388.84756 -92.61495 165.39789 429
394.10129 -88.50452 164.75345 317
397.14404 -83.14608 164.71399 317
411.16364 -89.77117 167.79350 305
376.56140 -67.51909 171.58394 317
413.99527 -83.78461 167.80702 305
378.78018 -62.67178 171.57742 317
421.06573 -79.44821 166.73405 429
380.87997 -57.75581 171.61105 317
429.53918 -75.33850 165.31416 424
382.82031 -52.81598 171.61482 317
433.69067 -69.43884 164.87898 308
384.56799 -47.78461 171.66516 317
436.01276 -62.82234 164.88960 308
386.18930 -42.77514 171.64299 317
409.23108 -48.70674 171.88908 309
459.85785 -61.78900 167.96861 298
387.65347 -37.66665 171.65036 317
410.86829 -42.87170 171.92522 309
464.29913 -54.89000 167.47052 452
388.98233 -32.55273 171.67976 317
412.32745 -37.00245 171.91368 309
471.35385 -48.33661 166.40546 448
390.14963 -27.38120 171.69127 317
413.60864 -31.11825 171.93562 309
478.63644 -41.50296 165.25638 443
391.17575 -22.21370 171.68729 317
414.70258 -25.23224 171.95490 309
480.79892 -33.66062 165.12144 300
392.02487 -17.02870 171.72263 317
415.65775 -19.27670 171.91489 309
446.60443 -22.26040 172.26457 301
392.69952 -11.81264 171.70012 317
416.37311 -13.34332 171.94382 309
447.42438 -15.31471 172.22209 301
393.23083 -6.62343 171.71918 317
416.94061 -7.37695 171.93845 309
448.05505 -8.41519 172.22296 301
393.58954 -1.38881 171.70934 317
417.35141 -1.41324 171.92545 309
448.44989 -1.44568 172.27370 301
393.82599 3.83373 171.72725 317
417.56543 4.56364 171.94595 309
448.69101 5.51460 172.27490 301
393.86978 9.06617 171.70868 317
417.58661 10.55728 171.92903 309
448.69427 12.47362 172.28419 301
393.77362 14.31186 171.73973 317
417.47748 16.49681 171.94920 309
448.48550 19.39250 172.28055 301
393.52451 19.49256 171.73518 317
417.13803 22.48455 171.94504 309
448.06848 26.34952 172.21425 301
393.07993 24.72486 171.71532 317
416.61218 28.42551 171.93153 309
481.11615 38.59710 165.46907 443
392.50192 29.85516 171.69421 317
415.95053 34.33030 171.93639 309
473.88400 45.34263 166.68675 448
391.81546 35.03615 171.67599 317
415.05389 40.20086 171.90010 309
466.98553 51.78808 167.81081 452
390.90616 40.15454 171.70946 317
414.00485 46.05411 171.88635 309
465.08560 59.11846 167.92485 297
389.85590 45.23032 171.68001 317
441.60580 60.19305 164.87769 307
388.65228 50.26230 171.67152 316
439.89011 66.86745 164.90851 307
387.33337 55.24426 171.63585 316
434.64758 72.27097 165.68411 424
385.80640 60.19526 171.62346 316
426.43881 76.23483 167.24042 429
407.62845 75.26563 164.74022 316
422.08713 81.48768 167.79736 305
405.43039 80.75172 164.74529 317
419.88864 87.53629 167.70303 305
403.05334 86.22501 164.75305 317
396.48904 89.39352 165.98836 429
389.29135 91.90553 167.39175 434
385.78818 96.31320 167.63966 315
383.03180 101.18579 167.63141 313
4690.47510 4741.20947 215.12273 490
3204.58691 5821.31641 216.06430 425
2947.30444 5757.63379 217.02960 439
2728.33325 5753.37402 217.07498 478
637.35559 1009.30817 109.58697 425
636.90875 1008.64142 145.32765 472
637.00684 1008.55182 180.97475 496
637.06403 1008.84186 216.47975 496
637.37518 1009.71027 252.07121 496
637.96027 1010.70044 287.89322 471
1366.55103 3143.12817 106.97685 280
2306.07959 5739.02441 216.68024 421
1230.52722 3064.08667 110.27059 363
1190.20435 3286.79224 104.19357 311
122.28365 150.35243 167.35991 316
116.77869 147.97885 167.07812 441
110.41920 146.56786 166.37730 314
102.60640 146.71321 165.06953 419
93.82137 147.42255 163.41812 425
89.39735 142.97667 163.53981 307
77.23450 155.88310 166.29486 305
105.80355 117.57610 171.50082 315
72.20997 151.28200 166.26021 305
102.10699 113.74812 171.55568 316
65.15742 148.53958 165.53625 409
98.49225 109.80078 171.56673 316
54.16800 148.94727 163.65741 403
95.04773 105.74589 171.62398 316
76.26674 121.31461 171.76419 308
91.71976 101.60693 171.63472 316
72.46431 116.53085 171.76382 308
23.50969 154.53368 166.02350 297
88.50587 97.34739 171.63974 316
68.81713 111.66362 171.81017 308
15.61293 150.38200 165.29562 389
85.39412 93.01250 171.70807 316
65.33331 106.65865 171.83122 308
0.61915 150.73674 162.88307 382
82.47356 88.56600 171.71715 316
62.01816 101.58316 171.89290 308
35.09756 118.66026 172.09949 300
79.70474 84.05301 171.74118 316
58.85355 96.41641 171.92169 308
31.43007 112.67431 172.14091 300
-44.64952 157.70062 165.12843 286
77.01611 79.50018 171.76056 316
55.82225 91.13132 171.91374 308
38.83671 100.50739 174.61893 318
-54.34253 151.76965 164.21149 373
74.51318 74.82693 171.78270 316
60.69704 81.87109 173.98457 384
51.57338 86.52105 178.20671 325
26.02856 99.55350 179.95569 292
72.16630 70.11961 171.81007 316
64.30847 73.78800 175.57770 390
55.81665 77.77177 179.73354 300
22.20421 93.61236 179.87027 314
-25.30089 116.03324 180.41879 343
74.25906 63.41379 173.08014 386
67.79448 66.25993 177.08403 381
53.39281 72.48682 179.76079 300
33.35295 81.13026 182.36942 336
21.01541 86.50324 187.56018 315
0.70430 95.32628 192.66277 283
76.45448 57.03728 174.33208 420
71.20651 59.12995 178.45282 386
47.67982 68.46664 179.03723 388
40.21117 71.45085 184.09735 373
31.46259 74.89217 189.40805 368
19.59997 79.58292 194.99492 331
2.71518 86.31078 201.00580 311
77.81932 51.28425 175.24838 423
-94.25369 33.98275 -23.32823 419
51.18855 60.84517 180.23642 393
44.25529 63.35792 185.17314 388
36.70963 66.07942 190.45056 373
27.80985 69.32057 196.09207 367
18.09851 72.79790 202.26888 362
79.14799 45.70881 176.10971 427
72.07498 48.00497 179.58150 308
54.30642 53.82116 181.32617 410
47.91291 55.88363 186.18808 393
40.83721 58.21135 191.31934 388
33.23860 60.65347 196.90567 383
24.19037 63.60302 202.83585 367
80.49109 40.35337 176.88623 432
70.53549 43.24894 179.62395 308
56.50087 47.33023 182.13661 421
50.63424 49.03832 186.93254 409
44.23304 50.94249 192.09106 404
37.40805 52.88962 197.54367 399
29.70083 55.12176 203.35585 382
81.77303 35.22918 177.63158 435
63.63583 39.88316 178.31058 429
58.43247 41.23690 182.84344 424
52.96040 42.63433 187.62386 419
46.95385 44.16656 192.65875 408
40.40489 45.85284 197.99138 403
33.42735 47.68112 203.72452 397
25.52303 49.67509 209.82318 355
82.82278 30.28059 178.24559 457
65.37285 34.21034 179.03130 432
60.31470 35.32386 183.48695 428
54.97253 36.54428 188.23584 423
49.33693 37.78244 193.18864 418
43.26351 39.16360 198.42458 406
36.52588 40.68069 204.02509 401
29.21126 42.31520 210.05020 361
-184.60591 90.11818 216.53677 296
83.02318 25.68014 178.59225 459
66.82700 28.75238 179.65939 455
62.10669 29.68418 184.09590 431
56.94158 30.64371 188.73772 426
51.50711 31.71036 193.63074 421
45.74675 32.78451 198.82445 416
39.51093 34.01859 204.33957 404
32.57731 35.29885 210.17172 399
-182.89951 76.55170 216.60233 424
83.24957 21.14727 178.86096 461
67.12378 23.68222 179.96733 456
62.54979 24.42348 184.39268 452
57.84874 25.18550 189.04926 447
52.85879 25.96257 193.95799 442
47.58505 26.79695 199.11877 437
42.06496 27.65874 204.55006 432
35.72640 28.68401 210.33568 402
83.47252 16.66327 179.12660 462
67.39098 18.68673 180.21913 457
62.88417 19.25945 184.62631 453
58.20388 19.85081 189.29024 448
53.28853 20.49318 194.15239 443
48.10193 21.11919 199.26154 438
42.61542 21.82903 204.65340 433
36.87899 22.57681 210.38744 428
83.76228 12.22245 179.39755 463
67.71844 13.74265 180.43535 459
63.23488 14.18242 184.84839 454
58.59143 14.62958 189.44055 450
53.70475 15.07608 194.29106 445
48.61002 15.57030 199.37418 440
43.24774 16.04653 204.73991 435
37.55887 16.61292 210.45319 429
83.77048 7.85626 179.51489 316
68.06909 8.84901 180.66335 460
63.65140 9.12177 185.04401 456
59.03973 9.42080 189.62550 451
54.23954 9.74100 194.42195 446
49.20461 10.05736 199.50105 441
43.85575 10.40322 204.83649 436
38.21447 10.75394 210.50453 430
-181.64355 24.63953 269.66583 486
-186.97234 24.98577 284.07227 360
83.42024 3.53208 179.51292 316
68.44185 4.00042 180.82135 461
64.07668 4.15652 185.19397 456
59.56807 4.27974 189.78745 452
54.79692 4.43736 194.56886 447
49.79582 4.58162 199.57596 442
44.48433 4.78225 204.92226 437
38.93584 4.94512 210.52191 431
-181.72810 11.94214 269.65695 487
