# .PCD v.7 - Point Cloud Data file format
VERSION .7
FIELDS x y z rgb
SIZE 4 4 4 4
TYPE F F F U
COUNT 1 1 1 1
WIDTH 409
HEIGHT 1
VIEWPOINT 4479.711914 -4094.234619 142.825134 -0.025218 -0.128482 -0.001692 0.991390
POINTS 409
DATA ascii
82.87928 -0.74918 179.51785 316
68.66293 -0.75302 181.02258 462
64.37301 -0.76209 185.38763 457
59.84010 -0.75658 189.92128 453
55.14487 -0.73761 194.69212 448
50.20460 -0.73763 199.71309 443
44.96687 -0.75317 204.98997 438
39.44318 -0.77451 210.59175 432
-152.68068 -0.69480 241.04736 419
-181.72565 -0.75229 269.56039 487
-147.20641 -0.78598 277.33322 284
82.82744 -5.09952 179.51096 316
68.18766 -5.53809 180.89726 461
63.84650 -5.70119 185.28381 456
59.30558 -5.82680 189.81319 452
54.56928 -5.96004 194.60771 447
49.57526 -6.11359 199.65988 442
44.31339 -6.28432 204.93671 437
38.74476 -6.48253 210.53633 431
-152.84804 -12.51715 241.03551 416
-181.72311 -13.40239 269.50592 487
-151.10054 -12.40887 277.93665 285
82.92394 -9.42704 179.50478 316
67.74376 -10.36249 180.77094 460
63.37075 -10.64720 185.15657 455
58.77874 -10.92886 189.71083 451
53.99242 -11.25424 194.50511 446
48.96863 -11.55847 199.55612 441
43.66175 -11.87337 204.88916 436
38.04918 -12.21918 210.51465 430
-181.65607 -26.08485 269.58356 486
83.16083 -13.73735 179.52109 316
67.39385 -15.23435 180.61217 459
62.94740 -15.65808 185.01643 454
58.32878 -16.08139 189.57828 449
53.46704 -16.55345 194.38603 445
48.38381 -17.02667 199.48845 440
43.00865 -17.54351 204.80461 435
37.33195 -18.05193 210.49164 429
-181.60297 -38.72677 269.73090 486
76.17590 -18.01175 179.58176 316
65.65697 -19.30883 181.89908 457
61.36878 -19.83750 186.10928 453
56.89672 -20.40472 190.51198 448
52.20507 -20.98259 195.15860 443
47.28103 -21.59693 200.03169 438
42.07210 -22.26259 205.15428 433
36.58747 -22.94250 210.62230 428
76.95974 -22.27357 179.57628 316
65.39895 -24.12003 181.62480 456
61.05916 -24.79587 185.86354 452
56.54073 -25.47954 190.32556 447
51.81847 -26.23124 194.98158 442
46.79801 -27.01645 199.88913 437
41.52662 -27.83121 205.05930 432
35.47561 -28.77830 210.56523 402
77.92914 -26.54000 179.56816 316
65.15350 -28.95146 181.34732 455
60.66434 -29.83586 185.59584 431
55.72548 -30.73097 190.01297 426
50.55194 -31.75079 194.67578 421
45.05874 -32.78168 199.56969 416
39.07510 -33.88164 204.85327 404
32.38105 -35.15012 210.42142 364
-182.91376 -75.92687 216.55554 424
78.97227 -30.80077 179.54700 316
63.73389 -34.17494 180.72981 432
58.90319 -35.23005 184.99435 428
53.82490 -36.39117 189.44861 423
48.49885 -37.56745 194.18765 418
42.61057 -38.83828 199.23764 406
36.19580 -40.27705 204.54666 401
29.05292 -41.86499 210.25410 358
-182.62334 -88.89263 216.62244 438
79.95330 -35.06145 179.49857 434
62.12178 -39.58715 180.01065 429
57.16056 -40.86270 184.33109 424
51.88065 -42.21913 188.92114 420
46.16649 -43.69606 193.67661 408
39.90293 -45.26117 198.81383 402
33.23664 -46.98302 204.24229 397
-188.56699 -103.60900 203.01640 483
78.71826 -39.97053 178.76086 431
60.45746 -45.28297 179.24255 425
55.30572 -46.76320 183.64828 421
49.66259 -48.38707 188.22954 409
43.57788 -50.12473 193.09792 404
37.03582 -52.02113 198.33336 399
29.82940 -54.10706 203.87941 382
77.50374 -45.09735 177.99342 427
58.77295 -51.14691 178.39114 422
53.18417 -52.94218 182.84471 410
47.22190 -54.90576 187.48279 393
40.46367 -57.09564 192.43451 388
33.19660 -59.42290 197.72087 383
24.60575 -62.19394 203.39178 367
76.21338 -50.42100 177.16115 424
65.78088 -54.15138 179.66617 308
50.33742 -59.67660 181.83643 393
43.66131 -62.09046 186.54355 388
36.54802 -64.63477 191.57841 383
28.07166 -67.68462 197.00589 367
18.77545 -71.02875 202.85962 362
74.93538 -55.96613 176.27765 420
67.68285 -58.81898 179.67792 308
46.96665 -67.00260 180.64273 389
39.86774 -69.80125 185.45830 373
31.50342 -73.09392 190.56682 368
21.17633 -77.17284 196.00607 332
5.73396 -83.24052 201.74478 311
73.11615 -61.96667 175.15993 386
67.24633 -64.48887 179.01636 395
43.32293 -74.84603 179.33931 373
34.20705 -78.72284 184.03310 336
22.52642 -83.76578 188.94849 331
6.34958 -90.76088 194.12758 310
70.01165 -68.87807 173.57883 381
64.00690 -71.68301 177.57001 390
35.84772 -84.87187 177.12958 335
24.04685 -90.42731 181.65515 330
1.30453 -101.09798 185.42676 282
66.80322 -76.25842 171.89917 316
60.56763 -79.44096 176.04160 385
50.85695 -84.36724 179.81245 300
-6.18189 -113.34111 175.54884 293
69.40769 -80.94523 171.87675 316
52.64339 -90.11202 173.21370 322
41.77240 -96.04457 177.12090 319
21.91211 -106.94326 180.05986 292
72.12611 -85.51079 171.85179 316
51.34824 -97.78729 172.04059 308
24.00669 -113.89801 172.24992 300
-52.72593 -159.19217 165.09940 288
75.02272 -90.05164 171.79176 316
54.61763 -102.91999 171.99440 308
27.77486 -119.92467 172.22481 300
78.06839 -94.46985 171.79648 316
58.02739 -108.00550 171.96988 308
-5.37835 -151.02748 163.29091 382
81.19984 -98.82252 171.76718 316
61.62141 -112.98229 171.91905 308
9.67457 -150.63184 165.75850 389
84.51043 -103.04764 171.74135 316
65.36597 -117.91196 171.88672 308
15.89797 -156.13744 166.04942 295
87.93918 -107.21375 171.69566 316
69.22300 -122.65539 171.85982 308
91.48878 -111.26893 171.66539 316
48.19137 -149.39897 164.07530 403
95.16277 -115.26500 171.64203 316
59.16638 -148.95915 166.00453 409
98.98105 -119.13501 171.60901 316
65.15627 -152.84003 166.31839 305
82.28310 -144.74913 163.51906 307
70.25515 -157.54408 166.35010 305
88.06285 -147.86745 163.90245 424
96.53012 -147.52066 165.45329 429
103.77363 -148.28125 166.48470 314
108.69979 -151.76785 166.46046 314
125.23947 -148.36842 169.63712 441
-7.23975 -1440.85547 72.73385 443
513.59760 -994.70721 80.39793 440
515.92133 -1002.25995 113.85605 380
368.81836 -108.00909 167.62787 313
372.29373 -103.28500 167.65828 315
375.60910 -98.51421 167.68713 315
381.43280 -95.19003 166.86893 434
388.95822 -92.58237 165.48927 429
394.47961 -88.62675 164.77371 317
397.47705 -83.24836 164.71191 317
411.63120 -89.90827 167.75922 305
376.88052 -67.57740 171.57999 317
414.37207 -83.90141 167.78650 305
379.04666 -62.70329 171.59367 317
421.13004 -79.45908 166.81827 429
381.12424 -57.80692 171.59300 317
429.58890 -75.32937 165.36217 424
382.99356 -52.83894 171.63850 317
434.01489 -69.44296 164.89618 308
3439.36914 -1049.93762 104.19322 467
384.75183 -47.81395 171.63504 317
436.25256 -62.81785 164.87434 308
386.36682 -42.76400 171.66743 317
409.39075 -48.69006 171.86772 309
460.17786 -61.79588 167.95628 298
387.78445 -37.66001 171.67947 317
410.99094 -42.86603 171.90593 309
464.38336 -54.89068 167.49989 452
389.07767 -32.54636 171.70334 317
412.46039 -37.02019 171.93915 309
471.34634 -48.34887 166.43643 448
390.17828 -27.37044 171.67987 317
413.69437 -31.09711 171.94568 309
478.68463 -41.45303 165.31075 443
391.16611 -22.17163 171.68007 317
414.74844 -25.16179 171.90639 309
480.93695 -33.59858 165.13963 300
391.96036 -16.99072 171.72150 317
415.66766 -19.23244 171.96596 309
446.70834 -22.21288 172.25310 301
392.63580 -11.78080 171.70239 317
416.37790 -13.26652 171.95187 309
447.49139 -15.29876 172.24904 301
393.11493 -6.52090 171.70584 317
416.91965 -7.32648 171.96680 309
448.04865 -8.28260 172.24844 301
393.49329 -1.29769 171.73151 317
417.26901 -1.33487 171.93628 309
448.45084 -1.37571 172.27347 301
393.65106 3.95769 171.73622 317
417.45081 4.68302 171.97284 309
448.59320 5.64057 172.22870 301
393.65652 9.17813 171.70795 317
417.44870 10.65136 171.93062 309
448.54965 12.54414 172.26003 301
393.55603 14.38665 171.71222 317
417.22989 16.59438 171.96248 309
448.31369 19.49745 172.22993 301
4738.21777 420.82651 214.12149 288
393.24487 19.58089 171.69978 317
416.86057 22.59286 171.96170 309
447.86945 26.42897 172.23988 301
392.81195 24.77456 171.68697 317
416.32413 28.48299 171.94899 309
480.95386 38.64918 165.45183 443
392.19058 29.98303 171.67805 317
415.59280 34.39073 171.91559 309
473.76334 45.47675 166.65598 448
391.41345 35.08916 171.71201 317
414.74374 40.31387 171.93478 309
466.80725 51.90826 167.82443 452
390.49255 40.24389 171.68857 317
413.64386 46.15565 171.89810 309
464.69693 59.20584 167.90962 297
389.42899 45.29970 171.69411 317
441.17990 60.31366 164.87314 307
388.20877 50.33388 171.65706 316
439.43948 66.91509 164.88106 307
386.78207 55.33935 171.63742 316
434.28461 72.41309 165.66133 424
385.25992 60.26326 171.60970 316
426.07086 76.39085 167.15862 429
407.04141 75.29884 164.75459 317
421.47748 81.54182 167.76984 305
404.84677 80.83864 164.77272 317
419.22903 87.62608 167.72705 305
402.40842 86.28339 164.76671 317
396.01596 89.58948 165.91199 429
388.80911 92.05601 167.31279 434
385.03561 96.33428 167.64691 315
382.28629 101.22731 167.61671 313
4700.03613 4753.62109 215.78850 490
3206.25122 5830.02246 215.81876 325
2953.87793 5774.02930 216.68149 438
2731.26514 5766.81299 216.80856 478
2570.85181 5887.93799 422.31543 436
1354.89917 3113.78076 107.78794 300
2309.21997 5748.64014 214.64926 478
1237.40906 3089.40576 109.61171 365
1205.09155 3345.08716 101.38012 278
131.15782 1547.28772 216.64690 340
130.97078 1546.57471 267.35181 407
121.73238 150.36865 167.39026 316
116.25033 148.01701 167.11301 441
109.93308 146.61497 166.39507 314
102.07079 146.78288 165.10211 419
93.33376 147.42426 163.43430 424
88.88847 143.01628 163.54033 307
76.78732 155.91866 166.27591 305
105.31742 117.63934 171.51340 316
71.76637 151.31236 166.24870 305
101.62009 113.77818 171.53633 316
64.71033 148.53999 165.54716 409
98.05364 109.84263 171.55875 316
53.73811 148.97479 163.63232 403
94.59530 105.79637 171.58665 316
75.86375 121.31722 171.75018 308
91.24960 101.60986 171.64795 316
72.06114 116.55458 171.76801 308
23.07908 154.55209 166.03961 297
88.05256 97.38172 171.64403 316
68.42940 111.67982 171.81332 308
15.19074 150.38492 165.28719 389
84.98651 93.05621 171.67828 316
64.93055 106.67217 171.85623 308
0.21331 150.71800 162.87216 382
82.06913 88.63554 171.69566 316
61.63438 101.60241 171.88536 308
34.75216 118.72212 172.09917 300
79.31313 84.12025 171.71573 316
58.49177 96.40812 171.90123 308
31.10341 112.65009 172.16603 300
-44.96273 157.72993 165.06145 286
76.64229 79.49953 171.74231 316
55.45170 91.20033 171.95119 308
39.05182 100.23668 174.77127 319
-54.65165 151.78990 164.18961 373
74.13580 74.86818 171.76624 316
60.73626 81.72347 174.07088 384
51.72660 86.30640 178.31549 325
25.67750 99.55360 179.99992 292
71.77149 70.11137 171.81372 316
64.33615 73.62757 175.66344 390
55.46079 77.79617 179.74153 300
22.33065 93.45179 179.94957 314
-25.68788 116.03648 180.33669 343
74.21440 63.30806 173.17767 386
67.76594 66.11217 177.13824 381
53.06330 72.51567 179.74702 300
33.45227 80.99329 182.46643 336
21.20321 86.28422 187.61519 331
1.17207 94.96771 192.71219 283
76.37123 56.95572 174.40625 420
71.18668 59.05473 178.56718 386
47.65513 68.33829 179.08253 388
40.19339 71.29960 184.12065 373
31.48694 74.75123 189.42892 368
19.70095 79.42887 194.99435 331
2.88611 86.08644 201.01125 311
77.74598 51.18641 175.30978 423
72.71429 53.00653 179.41753 419
51.18736 60.77200 180.32645 393
44.21742 63.31314 185.24496 388
36.71732 65.98265 190.53247 373
27.84631 69.20041 196.12958 367
18.13721 72.68150 202.25943 362
79.10666 45.67885 176.17438 427
71.74876 48.03180 179.59718 308
54.27110 53.71120 181.38351 410
47.91344 55.81553 186.25031 393
40.84275 58.11022 191.40184 388
33.21759 60.56851 196.92387 383
24.25300 63.53963 202.84544 367
80.40852 40.33143 176.94063 432
70.23767 43.29186 179.62665 308
56.50262 47.28202 182.18240 421
50.56205 48.98380 187.02286 409
44.20963 50.87012 192.13475 404
37.44024 52.85507 197.57629 399
29.75755 55.07971 203.36595 382
81.69196 35.19638 177.70433 435
63.61732 39.82926 178.35068 429
58.40048 41.17213 182.91663 424
52.93196 42.59009 187.68668 420
46.89148 44.14567 192.72350 408
40.39551 45.79196 198.02377 403
33.39849 47.61795 203.74361 397
25.53528 49.65887 209.85773 355
82.76905 30.27336 178.28435 457
65.33105 34.15929 179.07512 432
60.26444 35.31571 183.53444 428
54.92635 36.51003 188.25293 423
49.33244 37.75131 193.20050 418
43.24621 39.11069 198.46924 406
36.53204 40.59832 204.07504 401
29.21854 42.26625 210.01730 361
-184.38690 90.08890 216.57909 296
82.95975 25.67393 178.63980 459
66.78660 28.73287 179.71231 455
62.09475 29.63638 184.14476 431
56.91896 30.62383 188.78629 426
51.47295 31.66160 193.70230 421
45.74224 32.76133 198.83914 416
39.51181 33.97348 204.31972 404
32.57814 35.28224 210.20393 399
-182.92377 76.44216 216.50967 424
83.20020 21.13077 178.95180 461
67.07050 23.66352 179.98907 456
62.52567 24.40821 184.44914 452
57.78647 25.13713 189.09294 447
52.80393 25.96289 194.00497 442
47.58657 26.74671 199.14436 437
42.05781 27.65541 204.59238 432
35.70900 28.66247 210.35367 402
83.41811 16.63813 179.19037 462
67.36299 18.70124 180.25774 457
62.85485 19.23697 184.69672 453
58.15360 19.84536 189.33684 448
53.23781 20.45336 194.17761 443
48.06264 21.09859 199.28479 438
42.59909 21.83107 204.67526 433
36.86715 22.54015 210.38570 428
83.70580 12.23977 179.43134 463
67.64732 13.75187 180.49878 459
63.20207 14.18058 184.90804 454
58.55058 14.60160 189.51210 450
53.70766 15.08526 194.32193 445
48.59946 15.53677 199.41624 440
43.23243 16.05764 204.79776 435
37.54344 16.58467 210.44731 429
83.52805 7.88699 179.52672 316
67.99274 8.87849 180.67955 460
63.58703 9.16062 185.06273 456
59.03718 9.43854 189.66495 451
54.20237 9.74893 194.45726 446
49.18983 10.07137 199.50674 441
43.84768 10.40054 204.85019 436
38.20469 10.72486 210.48206 430
-181.66235 24.61757 269.73004 486
-186.95329 24.91801 284.06824 360
83.21252 3.56758 179.53378 316
68.38309 4.02351 180.87383 461
64.04946 4.13930 185.21678 456
59.51004 4.29802 189.78291 452
54.75789 4.45152 194.58394 447
49.74631 4.60705 199.61458 442
44.48148 4.77758 204.93977 437
38.92984 4.95958 210.55585 431
-181.66348 11.90180 269.54181 487
