# .PCD v.7 - Point Cloud Data file format
VERSION .7
FIELDS x y z rgb
SIZE 4 4 4 4
TYPE F F F U
COUNT 1 1 1 1
WIDTH 418
HEIGHT 1
VIEWPOINT 4597.373047 -4082.676514 148.044113 -0.035494 -0.135813 -0.000343 0.990098
POINTS 418
DATA ascii
83.65897 -0.81865 179.51256 316
68.83256 -0.81478 180.85437 462
64.50396 -0.80191 185.22644 457
59.97309 -0.82985 189.79402 453
55.21619 -0.82720 194.58379 448
50.25397 -0.79902 199.62827 443
44.98727 -0.82288 204.94553 438
39.41860 -0.82709 210.55084 432
-152.69377 -0.82045 241.09515 419
-181.65096 -0.75284 269.70135 487
-146.07246 -0.82174 277.23419 284
83.59913 -5.13880 179.50156 316
68.33138 -5.61659 180.75194 461
63.94012 -5.74422 185.12656 456
59.39100 -5.91880 189.70586 452
54.63359 -6.02803 194.52498 447
49.63031 -6.19337 199.54535 442
44.35027 -6.39021 204.87315 437
38.76052 -6.54187 210.53023 431
-152.96468 -12.49813 241.12509 416
-181.67827 -13.48491 269.70578 487
-150.88426 -12.42876 278.07962 285
83.63716 -9.45510 179.52728 316
67.90929 -10.47041 180.62531 460
63.47985 -10.75457 185.01851 455
58.88882 -11.00526 189.64073 451
54.08295 -11.32884 194.43654 446
49.00903 -11.63047 199.47446 441
43.67742 -11.99304 204.83861 436
38.05859 -12.34555 210.51300 430
-181.65575 -26.12837 269.73828 486
83.54076 -13.81956 179.43628 463
67.49966 -15.33730 180.49269 459
63.05452 -15.75651 184.87959 454
58.40199 -16.20458 189.49779 449
53.52417 -16.64954 194.34547 445
48.40026 -17.10465 199.41159 440
43.02879 -17.61781 204.79277 435
37.35957 -18.15203 210.45418 429
-181.60527 -38.84864 269.84933 486
83.22354 -18.21151 179.27673 462
67.13198 -20.24909 180.32359 457
62.66122 -20.77748 184.74278 453
57.96275 -21.36724 189.37531 448
53.02880 -21.98742 194.21571 443
47.86940 -22.68896 199.29115 438
42.38809 -23.34733 204.72383 433
36.63621 -24.09695 210.40952 428
82.93337 -22.62417 179.03789 461
66.80225 -25.19110 180.09169 456
62.26822 -25.91490 184.56033 452
57.54958 -26.64823 189.17076 447
52.57611 -27.43795 194.04366 442
47.37542 -28.24512 199.18048 437
41.44310 -29.20781 204.59042 414
34.96882 -30.23449 210.35133 402
82.66854 -27.11445 178.82393 459
66.34212 -30.21287 179.83145 435
61.44934 -31.15088 184.21640 431
56.30388 -32.14801 188.86304 426
50.84359 -33.20497 193.75252 421
45.09911 -34.28431 198.89697 416
38.80029 -35.49641 204.36783 404
31.87753 -36.79899 210.23332 364
-182.96652 -77.75378 216.47699 424
82.35165 -31.68781 178.51660 438
64.62323 -35.63743 179.21658 432
59.58704 -36.77711 183.66809 428
54.28806 -37.95973 188.37177 423
48.67907 -39.20433 193.32289 418
42.49146 -40.58811 198.53525 406
35.82837 -42.06013 204.08760 401
28.38506 -43.75968 210.08842 358
-187.56708 -91.95924 216.51067 296
77.01218 -34.88034 179.56067 316
61.76967 -38.76785 180.71138 429
56.91837 -40.02719 184.91692 424
51.77330 -41.32148 189.37939 420
46.15987 -42.73665 194.10785 408
40.04635 -44.33244 199.09114 402
33.50140 -45.97193 204.42162 397
-188.63144 -102.69249 203.17401 483
78.28370 -39.10135 179.54628 430
60.17408 -44.31837 179.90440 425
55.12105 -45.77536 184.23897 421
49.61823 -47.36173 188.72411 409
43.64105 -49.09900 193.53734 404
37.26557 -50.92883 198.60741 399
30.36654 -52.94797 204.08051 382
77.09814 -44.13004 178.75433 427
58.52631 -50.10068 179.10951 422
53.05975 -51.88908 183.42676 410
47.21141 -53.75075 188.02753 405
40.76851 -55.86299 192.83784 388
33.61512 -58.16384 198.03354 383
25.38013 -60.86380 203.62149 367
75.87958 -49.35897 177.93248 424
56.52106 -56.28239 178.13377 398
50.45380 -58.43912 182.44542 393
43.90699 -60.77393 187.09274 388
36.92630 -63.30667 192.01613 383
28.73386 -66.25494 197.31447 367
19.62069 -69.50378 203.06889 362
74.59794 -54.81259 177.02217 420
64.90469 -58.62327 179.68420 308
47.15740 -65.60967 181.28937 389
40.23438 -68.32148 186.02545 384
32.14207 -71.57779 191.04176 368
22.76217 -75.22921 196.43228 332
8.36631 -80.94012 202.11191 311
73.14900 -60.57229 175.98270 386
67.04295 -63.20830 179.65416 308
43.68335 -73.28978 180.01392 373
35.50882 -76.79642 184.70859 336
24.09203 -81.74966 189.49335 331
8.93632 -88.26036 194.67395 310
70.12360 -67.37640 174.42337 381
64.35696 -70.10352 178.39043 390
37.11576 -82.84959 177.99614 335
25.56528 -88.28019 182.40704 330
7.04946 -96.93488 186.62259 282
66.93121 -74.67847 172.73767 376
60.92377 -77.71664 176.84349 385
48.35718 -84.12695 179.83524 300
-13.58995 -115.55640 174.63809 350
66.83179 -80.71500 171.89528 316
54.62691 -87.41508 174.41835 322
44.05214 -93.18924 178.20699 319
19.53271 -106.60656 180.05212 292
69.68095 -85.27395 171.86098 316
48.91361 -97.51598 172.01273 308
21.60453 -113.61031 172.24644 300
-55.26704 -158.92070 165.06784 288
72.64198 -89.76468 171.85092 316
52.24945 -102.63220 171.98325 308
25.45967 -119.62182 172.20813 300
75.71843 -94.21138 171.80731 316
55.76900 -107.73844 171.98590 308
-8.28993 -151.08109 163.14536 382
78.93430 -98.50181 171.78380 316
59.40442 -112.67485 171.96962 308
6.91030 -150.76271 165.62944 389
82.30659 -102.76608 171.77234 316
63.18399 -117.57257 171.92664 308
13.58368 -155.94589 165.96814 295
85.82896 -106.91640 171.72676 316
67.17294 -122.30083 171.86710 308
89.43017 -110.95653 171.70578 316
45.62920 -149.44673 163.91060 403
93.16821 -114.90437 171.65663 316
56.76619 -149.06712 165.85814 409
97.07127 -118.78683 171.63263 316
63.19336 -152.55467 166.30322 305
80.37754 -144.46021 163.56226 307
68.36931 -157.18127 166.30490 305
85.89745 -147.93347 163.75870 424
94.48596 -147.64978 165.29497 429
102.11681 -147.90884 166.47644 314
107.10542 -151.43056 166.44249 314
112.22652 -154.80219 166.47539 314
123.45103 -148.55254 169.47821 441
-11034.19141 -18988.28906 3864.29175 1000
-676.95520 -1899.98376 78.77794 398
-150.81160 -1441.03503 69.64644 433
382.34244 -1000.30908 83.05885 464
383.00452 -1005.86774 116.08707 414
5651.97119 -4507.87988 206.20457 1000
367.55325 -107.52677 167.62817 315
371.12042 -102.88511 167.62479 315
374.52008 -98.11663 167.68494 315
381.15067 -95.29247 166.59831 434
388.70068 -92.64310 165.27823 429
393.65201 -88.33082 164.72523 317
396.73038 -83.00305 164.70709 317
410.67044 -89.54626 167.78494 306
376.26620 -67.41169 171.57391 317
413.50659 -83.59348 167.82677 306
378.51898 -62.58095 171.56712 317
421.08719 -79.48199 166.62115 429
380.65958 -57.67648 171.60039 317
429.51566 -75.32063 165.17664 424
3315.25098 -1118.07410 104.78745 482
382.65552 -52.72908 171.60823 317
433.40692 -69.25996 164.88904 308
384.48721 -47.75135 171.64189 317
435.75958 -62.68615 164.88313 308
457.45242 -69.00617 167.87558 298
386.19269 -42.72201 171.66499 317
409.06949 -48.62355 171.88876 309
459.54016 -61.63300 167.95190 298
387.71619 -37.64399 171.66811 317
410.80179 -42.84998 171.87875 309
464.38019 -54.86380 167.39529 452
389.06448 -32.55820 171.67242 317
412.30963 -37.01817 171.91811 309
471.34375 -48.34904 166.37314 448
390.31491 -27.38257 171.71204 317
413.68503 -31.12063 171.93034 309
478.67102 -41.48995 165.22345 443
391.37387 -22.23925 171.69643 317
414.85962 -25.24811 171.93456 309
480.75458 -33.64876 165.14825 300
392.28735 -17.07191 171.72514 317
415.80481 -19.32943 171.91872 309
446.62723 -22.29405 172.23404 301
393.01877 -11.85186 171.71326 317
416.66550 -13.39991 171.95018 309
447.57773 -15.33032 172.26320 301
393.64694 -6.67062 171.71161 317
417.28613 -7.41905 171.94331 309
448.27780 -8.42102 172.25438 301
394.08176 -1.43605 171.73759 317
417.72195 -1.46532 171.96588 309
448.70300 -1.50238 172.23683 301
394.35742 3.78645 171.74481 317
418.01376 4.48171 171.94702 309
449.03928 5.41322 172.27255 301
4586.27002 131.41547 69.75873 423
394.43637 8.99377 171.70505 317
418.12711 10.45439 171.94073 309
449.10489 12.38312 172.27943 301
4550.91162 266.01770 71.66396 495
394.43723 14.17029 171.71837 317
418.01172 16.37815 171.95663 309
448.90884 19.28717 172.24574 301
4542.67090 402.51147 71.12093 495
394.22260 19.40611 171.74190 317
417.73611 22.31367 171.93352 309
448.62250 26.21961 172.26007 301
4550.08984 540.67914 70.68094 491
393.84369 24.55174 171.71143 317
417.29620 28.27870 171.93611 309
481.33667 38.37592 165.51416 443
4559.95068 680.95520 70.39111 489
393.37103 29.69977 171.69673 317
416.67902 34.14022 171.91580 309
474.12866 45.06258 166.76419 448
4570.93213 823.31824 68.50326 489
392.69855 34.83514 171.70293 317
415.88623 39.99820 171.93889 309
467.28552 51.49974 167.94310 452
4596.88721 970.68750 67.00670 456
391.88022 39.97911 171.67368 317
414.93170 45.86118 171.94066 309
465.88065 58.92523 167.91113 298
390.89651 45.02579 171.68472 317
442.52423 60.01032 164.89853 308
389.75644 50.06212 171.67416 317
440.89786 66.64716 164.88335 308
27949.26758 8983.42969 -3634.43701 1000
388.44748 55.05711 171.68195 316
435.36780 71.91781 165.83958 424
387.00012 59.95280 171.62863 316
427.23666 75.89134 167.36172 429
408.91861 75.00335 164.78052 316
423.36499 81.24731 167.75493 305
406.77896 80.54811 164.74274 317
421.21265 87.28026 167.70712 305
404.44214 85.98484 164.74878 317
397.66092 88.97399 166.10301 429
390.57025 91.46939 167.50029 434
387.43121 96.01962 167.67838 315
384.76730 100.92393 167.64256 313
2928.77612 5711.59766 217.29388 473
2713.46265 5713.50244 216.69604 479
2391.17432 5973.38428 216.37775 482
567.38898 1002.93555 182.01274 379
566.66864 1001.47632 216.41292 439
566.70532 1001.17749 251.12480 480
566.62463 1001.03888 285.67297 498
1159.04028 3158.23462 108.53947 336
124.85811 149.04736 167.76776 489
118.51022 147.84904 167.13821 441
112.08839 146.51933 166.38240 314
104.30103 146.51921 165.12917 419
95.44621 147.35371 163.46971 424
90.89097 142.95226 163.54895 311
78.77698 155.81909 166.31566 305
107.30167 117.60285 171.51659 315
73.74574 151.20757 166.25391 305
103.53325 113.75772 171.53429 316
66.66039 148.46938 165.58066 409
99.89049 109.79987 171.56032 316
55.62130 148.91998 163.68109 403
96.41640 105.76573 171.60207 316
77.63892 121.31722 171.75142 308
93.05054 101.61108 171.63216 316
73.81406 116.54817 171.77875 308
24.89323 154.52315 166.06390 297
89.77531 97.36897 171.63603 316
70.14970 111.67391 171.83502 308
16.94834 150.31592 165.30382 389
86.66019 92.99184 171.69043 316
66.61427 106.66386 171.86507 308
1.87956 150.70747 162.85172 382
83.68959 88.57162 171.70851 316
63.23093 101.58163 171.87865 308
36.31555 118.70311 172.10596 300
80.87473 84.05505 171.72569 316
60.02734 96.41991 171.89946 308
32.62768 112.63435 172.14476 300
-43.39180 157.66527 165.13300 286
78.20049 79.50316 171.77090 316
57.00812 91.17404 171.94070 308
38.01757 101.59022 174.17525 318
-53.16179 151.80516 164.22151 373
75.62676 74.83237 171.79466 316
60.61920 82.48423 173.65840 384
50.89622 87.47449 177.76213 325
27.15210 99.60217 179.98639 292
73.23428 70.08707 171.80930 316
64.25423 74.35829 175.27391 390
56.89046 77.82384 179.72975 300
21.51885 94.44347 179.51530 314
-24.24134 116.06326 180.41864 284
74.29913 63.87511 172.78070 386
67.76162 66.71944 176.79501 381
54.46198 72.45516 179.74353 300
32.98066 81.76021 182.13722 335
20.35488 87.22207 187.27806 315
-1.07311 96.51405 192.35747 283
76.59556 57.40914 174.04846 420
71.20803 59.53993 178.22224 386
47.66201 68.89523 178.81035 388
40.10323 71.88248 183.87408 373
31.29670 75.35866 189.24182 368
19.14094 80.18193 194.79939 331
1.87686 87.03947 200.86432 311
77.94154 51.56169 174.96915 423
72.88481 53.42352 179.12920 419
51.18414 61.23272 180.01689 393
44.20662 63.76799 185.00023 388
36.58677 66.49433 190.33752 373
27.65008 69.72018 196.00026 367
17.78044 73.28899 202.16243 332
79.28536 45.95615 175.86807 427
73.02277 48.01211 179.58627 308
54.39152 54.07396 181.12590 410
47.88033 56.21626 186.00523 393
40.76008 58.49718 191.20763 388
33.09119 61.02434 196.80835 372
24.01608 63.94894 202.76996 367
80.62195 40.59214 176.66663 432
71.47678 43.24325 179.59592 308
56.61591 47.58309 181.94157 421
50.65376 49.32617 186.78935 409
44.25764 51.18032 191.93114 404
37.39394 53.16031 197.43198 399
29.57838 55.42322 203.27670 382
81.92027 35.38950 177.39421 435
63.76327 40.07479 178.12671 429
58.52907 41.42238 182.67221 424
52.98761 42.85654 187.45775 419
46.97326 44.39128 192.54323 408
40.36240 46.07623 197.91574 403
33.33613 47.92761 203.67769 397
25.44117 49.90750 209.83966 355
83.00312 30.43218 178.03598 457
65.49496 34.35163 178.82632 432
60.40152 35.49820 183.36055 428
55.04212 36.72188 188.09760 423
49.37356 37.95485 193.05632 418
43.22283 39.35382 198.32716 406
36.50912 40.87427 203.95049 401
29.13822 42.52504 210.02400 361
-185.25601 90.55767 216.62099 296
83.18459 25.78619 178.40083 459
67.01120 28.86889 179.48885 455
62.23565 29.81673 183.97070 431
57.04188 30.77874 188.64288 426
51.55548 31.86103 193.53168 421
45.77162 32.93239 198.76418 416
39.50381 34.15648 204.27982 404
32.52300 35.50066 210.17339 399
-182.90511 76.72065 216.61401 424
83.43093 21.23244 178.71039 461
67.26462 23.79926 179.78046 456
62.69987 24.51936 184.28275 452
57.95147 25.26029 188.92963 447
52.95441 26.06351 193.88560 442
47.64687 26.90765 199.05780 437
42.10387 27.78466 204.52017 432
35.70363 28.78947 210.30188 402
83.65095 16.70051 178.98708 462
67.55063 18.76029 180.06873 457
63.02894 19.33365 184.51506 453
58.31535 19.92234 189.17299 448
53.35551 20.55001 194.06569 443
48.16399 21.20412 199.18950 438
42.64027 21.88069 204.61328 433
36.85465 22.63647 210.37651 428
83.89467 12.25557 179.20142 463
67.87000 13.78293 180.28261 459
63.37701 14.22927 184.71014 454
58.72324 14.63610 189.34546 449
53.80865 15.13758 194.21516 445
48.69825 15.62350 199.33775 440
43.28046 16.11489 204.71181 435
37.54818 16.65737 210.42723 429
84.18612 7.84450 179.43578 464
68.21036 8.86814 180.51959 460
63.75374 9.17047 184.90158 455
59.15820 9.43167 189.49789 451
54.34229 9.75709 194.36818 446
49.24493 10.04862 199.43071 441
43.91088 10.40409 204.79955 436
38.27493 10.74535 210.47392 430
-181.59036 24.60210 269.83792 486
-187.01826 24.95828 284.31311 360
84.12767 3.53872 179.51663 316
68.59016 4.00628 180.68813 461
64.19318 4.13635 185.06985 456
59.66265 4.27359 189.66490 452
54.86172 4.44651 194.48447 447
49.83469 4.58228 199.54060 442
44.53333 4.78389 204.88232 437
38.95855 4.95310 210.52444 431
-181.58035 11.94376 269.77615 487
