# .PCD v.7 - Point Cloud Data file format
VERSION .7
FIELDS x y z rgb
SIZE 4 4 4 4
TYPE F F F U
COUNT 1 1 1 1
WIDTH 409
HEIGHT 1
VIEWPOINT 5173.563965 -4037.718994 154.771790 -0.041864 -0.142951 -0.008883 0.988804
POINTS 409
DATA ascii
85.45882 -0.61134 179.02275 467
69.54721 -0.58866 180.16197 462
65.12709 -0.60062 184.62054 457
60.54449 -0.59359 189.27277 453
55.71550 -0.62114 194.15555 448
50.63435 -0.60897 199.28467 443
45.27440 -0.61194 204.64774 438
39.62102 -0.57864 210.41292 432
-181.53381 -0.61924 270.00876 487
-142.69876 -0.58324 277.22336 284
85.17133 -5.01609 178.80574 465
69.12917 -5.52060 179.94458 461
64.66609 -5.65673 184.40535 456
60.05030 -5.83049 189.09436 452
55.17336 -5.96785 193.99940 447
50.04316 -6.11355 199.16061 442
44.63046 -6.29653 204.57484 437
38.92884 -6.46006 210.34123 431
-181.49358 -13.40875 270.04874 487
-148.21187 -12.33985 278.25586 285
84.88937 -9.48434 178.54759 464
68.80023 -10.51097 179.71243 460
64.30110 -10.79939 184.19778 455
59.58730 -11.06915 188.89705 451
54.65219 -11.38171 193.85982 446
49.49074 -11.69979 199.03479 441
44.02676 -12.03662 204.51221 436
38.24511 -12.41563 210.28796 430
-181.36726 -26.19508 270.28299 486
84.67617 -14.01081 178.27287 463
68.51868 -15.57550 179.44780 459
63.93982 -15.96912 183.98499 454
59.18689 -16.44233 188.68253 449
54.13829 -16.92055 193.68126 445
48.87866 -17.42296 198.86708 440
43.39792 -17.92250 204.39720 435
37.52275 -18.48489 210.21794 429
84.47502 -18.62151 177.97874 462
68.25847 -20.64878 179.14642 457
63.62422 -21.27199 183.72322 453
58.81833 -21.85208 188.48276 448
53.73936 -22.48146 193.46432 443
48.38016 -23.14967 198.74762 438
42.76232 -23.85777 204.28766 433
36.82172 -24.64056 210.18564 428
84.29386 -23.29516 177.61754 461
68.03159 -25.88542 178.82634 456
63.32443 -26.58898 183.42982 452
58.47072 -27.37653 188.20132 447
53.30855 -28.17792 193.24023 442
47.74937 -29.07248 198.51222 419
41.57649 -30.05680 204.13651 414
34.85089 -31.12664 210.07063 402
84.13745 -28.02578 177.23938 459
67.42350 -31.24867 178.34686 435
62.34267 -32.21426 182.90674 431
56.99000 -33.20442 187.73009 426
51.32553 -34.29971 192.78519 421
45.34594 -35.44555 198.12949 416
38.79077 -36.69895 203.83206 404
31.60972 -38.03082 209.89986 399
-183.05333 -78.98859 216.49962 424
83.67825 -32.95103 176.71722 438
74.09698 -35.10104 179.61568 308
60.47327 -38.14252 182.24689 428
54.97462 -39.35746 187.09354 423
49.10761 -40.69691 192.26118 418
42.63108 -42.12580 197.68625 406
35.67208 -43.66389 203.49715 401
28.12060 -45.37745 209.75479 361
-191.33351 -94.48828 216.44873 296
82.39429 -38.22656 175.96901 435
75.68120 -39.92829 179.58438 308
58.56507 -44.34142 181.51691 424
52.84889 -45.79248 186.44675 419
46.45066 -47.40810 191.64522 408
39.68122 -49.15088 197.19498 402
32.35744 -51.03788 203.16396 397
23.88686 -53.24002 209.49521 341
81.09447 -43.66181 175.12881 432
76.14064 -45.06821 179.27921 426
56.54162 -50.77486 180.66060 414
50.30187 -52.57599 185.69749 409
43.65282 -54.54535 191.02362 392
36.09752 -56.73167 196.63039 387
27.69797 -59.13279 202.65544 371
79.75293 -49.30450 174.21280 429
74.65936 -50.95975 178.45584 423
53.94401 -57.70999 179.71133 397
46.97433 -59.94818 184.73094 393
39.61002 -62.37664 190.13200 388
31.21741 -65.06313 195.90453 372
21.74710 -68.15768 202.13312 367
78.42837 -55.22693 173.21953 425
73.09401 -57.13287 177.55922 419
50.41745 -65.30863 178.48126 393
43.13861 -67.94850 183.65475 388
34.84496 -70.90461 189.11107 372
25.45804 -74.29046 195.00410 367
11.96683 -79.15494 201.21489 316
76.86140 -61.45641 172.16570 391
70.41357 -64.00711 176.27379 386
58.98491 -68.50365 179.71613 300
38.46283 -76.65200 182.31807 373
27.07688 -81.17917 187.62975 336
12.63091 -86.86892 193.32713 316
-18.58285 -99.23486 198.88922 267
78.03107 -66.80743 171.77580 316
66.79335 -71.64007 174.74097 381
60.71663 -74.28155 179.54095 391
28.65556 -88.18965 180.00000 335
12.84733 -95.01161 185.14505 288
80.56753 -71.55866 171.75551 316
62.92817 -79.88683 172.99373 377
56.11472 -83.07135 177.88083 330
31.67391 -94.58919 179.94603 292
-16.31743 -117.19058 180.38643 284
83.26182 -76.30875 171.75519 316
61.83991 -87.24552 171.91948 308
44.08057 -96.25653 174.53242 324
29.42355 -103.75159 178.90071 277
86.08826 -80.98724 171.71474 316
64.95642 -92.59987 171.87843 308
37.21496 -107.85407 172.10451 300
-42.93962 -151.86147 164.57199 363
89.09824 -85.53953 171.68459 316
68.34212 -97.82953 171.88402 308
41.03341 -113.98071 172.12570 300
-33.52090 -158.08740 165.31029 286
92.20068 -90.08156 171.65837 316
71.78703 -102.98887 171.85762 308
45.00718 -120.03206 172.04654 300
95.45557 -94.45861 171.64912 316
75.47356 -108.08012 171.82797 308
12.93379 -150.61836 163.29593 382
98.82022 -98.83070 171.62027 316
79.27655 -113.06087 171.77596 308
28.20654 -150.09753 165.75270 386
102.36965 -103.06239 171.58473 316
83.23044 -117.92204 171.75980 308
35.03245 -155.30882 166.14246 297
90.84978 -107.69722 171.70509 316
43.80703 -146.62132 163.34567 300
94.62949 -111.78336 171.65961 316
52.15319 -149.19733 164.34975 404
98.52516 -115.76714 171.63112 315
63.39142 -148.80733 166.29712 409
102.60703 -119.62202 171.60864 315
68.72875 -153.49820 166.32352 305
86.15060 -145.34970 163.52271 307
92.82464 -147.67188 164.20204 425
101.84600 -147.02667 165.78970 420
108.48467 -148.74651 166.45999 314
115.85508 -149.27643 167.45421 316
-176.40562 -1020.52570 109.56116 373
107.23027 -778.90698 268.81070 1000
402.51392 -92.62604 167.75549 313
405.57315 -87.58520 167.78387 313
411.60977 -84.05227 166.89856 442
418.45386 -80.74079 165.75046 438
2726.81885 -1166.89905 36.68616 469
424.29495 -76.60610 164.87450 316
427.00626 -71.05711 164.86191 316
441.66675 -76.88083 167.85378 305
392.47110 -57.16783 171.72604 316
435.26529 -72.54810 166.94379 424
393.92218 -52.20053 171.71907 316
443.24866 -68.22369 165.49181 433
395.17221 -47.15323 171.73981 316
447.15588 -62.22620 164.94646 307
396.27463 -42.08099 171.73810 316
448.75983 -55.53967 164.93263 307
397.26825 -36.96220 171.74911 316
420.62839 -42.16460 171.98663 309
472.38721 -53.73065 167.99025 297
398.08310 -31.82542 171.75830 316
421.58130 -36.28868 172.00763 309
473.58072 -46.23913 168.03697 448
398.71893 -26.67904 171.78113 316
422.33932 -30.38093 172.02383 309
480.69916 -39.62309 166.80389 443
399.23633 -21.47353 171.80356 316
422.96201 -24.48274 172.00783 309
486.80817 -32.52964 165.76814 458
399.53455 -16.26982 171.77603 317
423.38333 -18.51603 172.01855 309
454.59229 -21.46453 172.31998 301
399.73740 -11.02436 171.78139 317
423.60654 -12.51867 172.03195 309
454.89645 -14.49054 172.29785 301
399.77002 -5.80418 171.76378 317
423.63791 -6.57425 172.00060 309
450.79022 -7.40804 173.15292 485
399.60516 -0.56086 171.76463 317
423.51480 -0.56746 172.03078 309
450.80038 -0.58367 173.11696 485
399.35211 4.67651 171.77589 317
423.21185 5.42582 172.01811 309
450.73544 6.26382 173.09444 485
4027.35645 118.95571 -31.81101 484
398.89685 9.91417 171.75970 317
422.71820 11.42993 172.02763 309
453.99216 13.35987 172.32899 301
4006.92407 236.87965 -31.78543 491
398.27725 15.12338 171.76324 317
422.03818 17.36569 172.01714 309
453.27032 20.33977 172.32663 301
4001.09106 355.85812 -31.51769 488
397.49716 20.34477 171.75470 317
421.20749 23.31268 171.96227 309
486.99084 31.64237 165.34756 458
4010.11523 477.06537 -33.37346 460
396.54623 25.53166 171.74550 317
420.18912 29.24270 171.96519 309
480.81534 38.83298 166.28819 443
4020.22876 599.19641 -35.35611 458
395.49149 30.67125 171.71254 317
419.00174 35.19303 171.94870 309
473.59161 45.59116 167.42915 448
4031.06665 724.00934 -37.30159 457
394.25037 35.85184 171.71907 316
417.59317 41.04893 171.93121 309
469.09229 52.56525 168.01514 297
392.86710 40.93863 171.69772 316
416.01767 46.88031 171.95258 309
467.41382 60.07307 167.92767 297
391.28134 46.03287 171.66890 316
443.14456 61.10569 164.92865 307
389.61224 51.03691 171.66719 316
440.92737 67.73397 164.87883 307
387.73236 56.05247 171.66664 316
433.84879 72.61921 166.05972 424
385.74094 60.96964 171.61267 316
425.50992 76.72475 167.44870 429
407.02740 75.99799 164.73332 317
421.53513 82.28709 167.78525 305
404.36197 81.55637 164.75835 317
418.81738 88.34439 167.70120 305
401.42145 86.97303 164.76715 317
41867.01953 21218.10352 208.48886 1000
394.40512 90.12086 165.99104 429
386.94537 92.73519 167.29143 434
382.67841 96.94363 167.62398 315
379.39993 101.80136 167.59961 313
4247.04980 4560.47998 16.45143 298
4181.98389 4780.74854 11.60553 373
2796.41162 4677.41895 39.85783 454
2678.55811 5669.36572 12.28294 436
2454.04932 5629.97412 16.20776 472
2248.49365 5621.67725 20.40548 486
2271.06494 5686.62012 215.56856 417
2053.12256 5627.46826 21.05770 488
1858.14624 5628.00830 22.98285 488
830.49139 3181.27710 109.61015 423
781.63562 3529.25000 98.53475 496
621.96362 3157.52075 112.05943 317
-17.14350 997.49762 81.35014 495
-17.50210 998.79639 115.20348 471
-17.62914 1000.32617 148.94093 471
-18.13892 1002.15240 182.31839 425
-18.53869 1004.68604 216.00218 361
122.25755 148.38315 170.23650 453
105.90323 154.35464 166.39482 314
101.53220 150.97491 166.36823 314
97.26536 147.43282 166.36852 314
89.97697 147.54980 165.07375 429
82.09373 147.83728 163.50453 424
77.83109 143.75401 163.46057 307
65.68523 156.70763 166.25636 305
95.15720 118.08054 171.60338 316
61.20832 151.99876 166.25502 306
92.02767 114.19997 171.63287 316
55.04753 148.87982 165.61038 409
89.00951 110.22300 171.63351 316
44.61547 149.29819 163.68359 403
86.09548 106.14745 171.65776 316
67.40173 121.63776 171.84846 308
83.32568 101.93607 171.70493 316
64.13709 116.83330 171.88359 308
14.71343 155.19893 165.97752 295
80.70434 97.69563 171.72604 316
61.08544 111.94096 171.90370 308
7.95016 150.57800 165.36810 389
78.21861 93.32204 171.75089 316
58.17908 106.92658 171.93547 308
-6.53361 150.94450 162.88036 382
75.83289 88.89894 171.75798 316
55.40471 101.83540 171.95303 308
28.56993 118.88287 172.16647 300
73.61429 84.32949 171.76256 316
52.84669 96.62641 171.97804 308
25.47175 112.82055 172.18692 300
-50.89957 157.96468 165.08899 288
71.52569 79.73833 171.81326 316
53.26674 89.79906 172.76021 322
42.25539 95.84019 176.67426 319
23.91007 105.90908 180.01141 292
69.59155 75.07075 171.83240 316
60.97502 79.46516 175.36946 385
53.52617 83.29218 179.77216 300
-3.96252 112.52251 175.36884 293
70.81516 68.93974 172.73480 381
64.46622 71.89063 176.75351 390
51.50621 78.00329 179.78290 300
24.25687 90.83530 181.05493 330
0.12002 102.21139 184.70023 264
73.99604 62.13823 174.14374 386
67.76379 64.85469 178.04964 395
43.87423 75.14948 178.54669 373
34.38565 79.28162 183.29318 336
22.44226 84.44612 188.30171 331
5.80457 91.62563 193.64062 310
75.96045 56.20619 175.12411 420
70.81285 58.24591 179.20741 415
47.60692 67.41801 179.70076 389
40.29859 70.29784 184.65182 373
31.74843 73.70074 189.89053 368
20.75800 78.04143 195.41402 332
4.69525 84.38611 201.35237 311
77.35677 50.70040 175.89603 424
71.09711 52.95394 179.59543 308
51.04710 60.14740 180.77463 393
44.19839 62.63380 185.66206 388
36.82591 65.28996 190.85690 373
28.10349 68.42477 196.39061 368
18.52005 71.88496 202.47896 362
78.78364 45.35532 176.56587 427
70.03241 48.20623 179.63435 308
54.09580 53.36846 181.71655 410
47.82379 55.40770 186.50594 393
40.81776 57.69730 191.63255 388
33.31711 60.13358 197.08406 383
24.44014 63.02173 202.96866 367
80.16941 40.22744 177.24164 430
69.04013 43.46286 179.61978 308
56.34018 47.12764 182.38669 421
50.45227 48.83454 187.20100 409
44.14219 50.70444 192.23944 404
37.40964 52.62506 197.67043 399
29.82217 54.82835 203.44136 382
81.56025 35.22837 177.83467 435
63.45814 39.85544 178.46657 429
58.27139 41.19588 183.01855 424
52.82068 42.58606 187.73738 420
46.83525 44.12146 192.78424 408
40.33795 45.80807 198.06197 403
33.39245 47.57180 203.77907 397
25.53762 49.60468 209.88495 355
82.74998 30.39998 178.31717 457
65.24327 34.30527 179.07068 432
60.21515 35.44450 183.55803 428
54.91278 36.63330 188.26216 423
49.29805 37.87312 193.20656 418
43.17717 39.26549 198.45166 406
36.47156 40.74318 204.01915 401
29.17906 42.39581 210.01964 361
-184.06677 90.03317 216.49110 296
83.04456 25.88243 178.52513 459
66.87425 28.96143 179.59084 455
62.10787 29.89260 184.04808 431
56.94802 30.85394 188.70273 426
51.50350 31.89208 193.57967 421
45.71820 32.97646 198.76724 416
39.46909 34.18555 204.25826 405
32.54359 35.53567 210.13513 399
-183.08913 76.62048 216.44160 424
83.40597 21.38410 178.70172 461
67.24733 23.92739 179.79266 456
62.67545 24.67455 184.23781 452
57.94058 25.40923 188.93855 447
52.94271 26.20121 193.84314 442
47.68731 27.02538 199.03607 437
42.07698 27.91928 204.49142 414
35.67413 28.96666 210.26804 402
83.76900 16.91429 178.82304 462
67.66573 18.97909 179.93488 457
63.13483 19.52966 184.39633 453
58.39985 20.13743 189.06258 448
53.44294 20.78417 193.93073 443
48.24128 21.43753 199.07967 438
42.71966 22.13432 204.55626 433
36.89587 22.83679 210.28949 428
84.16890 12.50653 178.95953 463
68.06796 14.03863 180.04460 459
63.56598 14.44494 184.48758 454
58.89447 14.90353 189.15106 450
53.95819 15.36744 194.01950 445
48.80766 15.85676 199.17279 440
43.37648 16.34459 204.58450 435
37.63424 16.88628 210.31567 429
84.58262 8.10495 179.01146 464
68.52370 9.08969 180.14749 460
64.05057 9.38648 184.58633 455
59.42213 9.69601 189.24428 451
54.57210 9.99507 194.09410 446
49.46982 10.32252 199.21263 441
44.05170 10.63831 204.61800 436
38.33855 11.00495 210.35568 430
-181.59480 24.91251 269.86905 486
-187.46094 25.20985 284.48929 360
85.00479 3.72087 179.05692 465
69.01308 4.20875 180.19107 461
64.59814 4.37083 184.64690 457
59.99611 4.50484 189.28337 452
55.17121 4.63569 194.15878 447
50.08314 4.81596 199.27419 442
44.74313 4.99745 204.62955 437
39.06261 5.14182 210.36729 431
-181.51537 12.11249 269.83209 487
