# .PCD v.7 - Point Cloud Data file format
VERSION .7
FIELDS x y z rgb
SIZE 4 4 4 4
TYPE F F F U
COUNT 1 1 1 1
WIDTH 412
HEIGHT 1
VIEWPOINT 5129.674316 -4040.848145 154.621933 -0.042252 -0.143063 -0.007305 0.988784
POINTS 412
DATA ascii
85.56004 -0.62389 178.90080 467
69.66502 -0.64588 180.05583 462
65.22898 -0.64329 184.53299 457
60.61828 -0.60061 189.15701 453
55.75714 -0.64238 194.07713 448
50.68388 -0.60796 199.20633 443
45.32051 -0.63349 204.62340 438
39.65920 -0.62806 210.34479 432
-181.49149 -0.62881 270.05136 487
-142.31490 -0.60564 277.17664 284
85.29305 -5.05697 178.68912 465
69.26237 -5.56219 179.81129 461
64.79522 -5.69278 184.32909 456
60.11459 -5.86164 189.00179 452
55.23234 -6.00629 193.91409 447
50.09491 -6.16024 199.06328 442
44.70799 -6.30498 204.53316 437
38.96601 -6.48290 210.28418 431
-181.42851 -13.35962 270.19031 487
-148.61330 -12.38581 278.40048 266
85.04023 -9.53926 178.41882 464
68.93826 -10.56486 179.57503 460
64.37089 -10.85018 184.11743 455
59.63883 -11.12764 188.80774 451
54.72430 -11.41769 193.77571 446
49.53053 -11.73819 198.97392 441
44.06526 -12.11790 204.41920 436
38.27991 -12.46108 210.24998 430
-181.40440 -26.30538 270.29532 486
84.77813 -14.08558 178.16055 463
68.63446 -15.61218 179.31731 459
64.06793 -16.04534 183.87030 454
59.23886 -16.49898 188.58467 449
54.21061 -16.96918 193.59058 445
48.97955 -17.44600 198.82837 440
43.44460 -17.98783 204.35651 435
37.55009 -18.55398 210.20514 429
84.55919 -18.68413 177.83963 462
68.38226 -20.74861 179.03403 457
63.71510 -21.31000 183.59099 453
58.89404 -21.91037 188.36552 448
53.79935 -22.57014 193.39827 443
48.45497 -23.24925 198.64861 438
42.83594 -23.97496 204.21938 433
36.83939 -24.70956 210.11305 428
84.38677 -23.35563 177.47134 461
68.14100 -25.92672 178.71954 456
63.42662 -26.67477 183.28978 452
58.53602 -27.47792 188.12669 447
53.41441 -28.24826 193.17682 442
47.77090 -29.17451 198.47705 419
41.61359 -30.14565 204.04634 414
34.86452 -31.18044 209.99039 402
84.24779 -28.13911 177.10889 459
67.53271 -31.29582 178.23987 435
62.40354 -32.28051 182.83220 431
57.07011 -33.29282 187.64166 426
51.40492 -34.40014 192.70657 421
45.43456 -35.53617 198.05363 416
38.81083 -36.76689 203.75003 404
31.59407 -38.16077 209.83466 399
-183.02547 -79.17246 216.48892 424
83.75481 -33.04693 176.58371 438
74.67593 -35.07122 179.61319 308
60.52356 -38.25688 182.13693 428
54.98455 -39.48809 186.99348 423
49.16089 -40.80551 192.16020 418
42.66325 -42.23820 197.60861 406
35.69064 -43.82131 203.43907 401
28.15893 -45.48425 209.64969 361
-191.62231 -94.60370 216.45273 296
82.48705 -38.33381 175.80206 435
76.24655 -39.92233 179.57733 308
58.62518 -44.41243 181.36043 424
52.92882 -45.89968 186.36624 419
46.52233 -47.56755 191.59030 408
39.66284 -49.29367 197.14862 402
32.40051 -51.19028 203.06378 397
23.86200 -53.36737 209.44975 341
81.17043 -43.76009 174.96709 432
76.20681 -45.21350 179.16440 426
56.65094 -50.89415 180.59120 414
50.34585 -52.72508 185.59000 409
43.62452 -54.69216 190.89302 392
36.11921 -56.85035 196.54663 387
27.70398 -59.29274 202.61316 371
79.84133 -49.43656 174.05623 429
74.71122 -51.09581 178.33087 423
53.96866 -57.84150 179.58348 397
47.01674 -60.12524 184.63008 393
39.58300 -62.55349 190.03069 388
31.20495 -65.25706 195.82790 372
21.66319 -68.33373 202.02534 367
78.47560 -55.38403 173.11705 425
73.18749 -57.25954 177.40771 419
50.49709 -65.46447 178.32510 393
43.17348 -68.09206 183.51524 388
34.79974 -71.09230 189.01720 372
25.40686 -74.46324 194.93468 367
11.70897 -79.40788 201.17075 316
76.90191 -61.63329 172.00620 391
70.44440 -64.18697 176.15189 386
59.58522 -68.45657 179.72337 300
38.50011 -76.82015 182.18710 373
26.95017 -81.38795 187.52251 336
12.36422 -87.17169 193.22342 316
-19.93373 -99.98158 198.67796 267
78.60638 -66.75554 171.79645 316
66.81725 -71.85622 174.59955 381
60.71781 -74.50633 179.37662 391
28.50066 -88.45561 179.91162 335
12.29614 -95.40788 184.95430 288
81.13056 -71.54945 171.77521 316
62.96541 -80.10570 172.84422 377
55.93884 -83.36777 177.69724 330
32.23511 -94.52048 179.95383 292
-15.65254 -117.13758 180.38033 284
83.83674 -76.25751 171.72414 316
62.38971 -87.19344 171.91562 308
43.86225 -96.60104 174.30879 324
28.39437 -104.53945 178.59177 277
86.63315 -80.92472 171.70105 316
65.52365 -92.55099 171.89204 308
37.81774 -107.81190 172.14047 300
-42.43585 -151.89299 164.56903 363
89.61850 -85.52409 171.70439 316
68.84495 -97.76142 171.88658 308
41.61752 -113.88036 172.12988 300
-32.87251 -157.91768 165.36064 286
92.70638 -90.01471 171.66374 316
72.34263 -102.91201 171.84802 308
45.54677 -119.92198 172.07861 300
95.98865 -94.44947 171.62048 316
76.01937 -107.99794 171.82181 308
13.34612 -150.56487 163.27052 382
99.36034 -98.77639 171.59602 316
79.78355 -112.98007 171.79845 308
28.68624 -150.07951 165.76532 386
88.11911 -103.10667 171.72353 316
68.81116 -118.12406 171.85886 308
19.33656 -156.52478 166.09578 295
91.74582 -107.31559 171.69501 315
44.79493 -146.19162 163.36790 300
95.51871 -111.38209 171.65489 315
52.67670 -149.22511 164.25209 404
99.42552 -115.34733 171.61430 315
63.83271 -148.78499 166.12885 409
103.47227 -119.24463 171.59714 315
69.65526 -153.04720 166.31685 305
87.07230 -144.87671 163.55731 307
93.33316 -147.65865 164.05702 425
102.33901 -146.98232 165.63066 420
109.29281 -148.34018 166.44194 314
116.58638 -148.82375 167.44106 316
124.08624 -148.67039 168.57944 489
-683.44952 -1433.00806 107.22784 495
-689.70154 -1442.36060 162.48424 439
-133.60127 -1005.99927 76.85129 473
-136.20944 -1013.50708 111.59191 472
-138.96066 -1021.16760 146.52985 428
402.65195 -92.50777 167.72639 313
405.74121 -87.50557 167.79425 313
411.74557 -84.01663 166.87805 442
418.61423 -80.67935 165.72397 438
424.40329 -76.54431 164.86740 316
389.70050 -61.56337 171.70450 316
428.10962 -76.74471 167.84428 305
391.29001 -56.62756 171.71906 316
435.32751 -72.48476 166.57376 424
392.68304 -51.68018 171.70244 316
443.33673 -68.14905 165.07829 433
393.97336 -46.68917 171.73470 316
445.72189 -61.76707 164.92007 307
395.06421 -41.67910 171.73248 316
447.29465 -55.10015 164.95908 307
469.39441 -60.74762 167.95020 297
396.04926 -36.58650 171.77654 316
419.23499 -41.79862 171.97433 309
470.63327 -53.28941 167.98109 297
396.85974 -31.46798 171.74779 317
420.18213 -35.95555 171.99117 309
473.68964 -46.12224 167.66606 448
397.48935 -26.35515 171.75940 317
420.95291 -30.05670 171.99286 309
480.78458 -39.57154 166.43695 443
397.98712 -21.18036 171.74913 317
421.53534 -24.19076 172.01459 309
486.92444 -32.44405 165.41135 458
398.33121 -16.00885 171.77443 317
421.94461 -18.26001 171.99640 309
452.94592 -21.16465 172.29832 301
398.52057 -10.82374 171.77132 317
422.19046 -12.33666 172.00253 309
453.23590 -14.30105 172.27701 301
398.52417 -5.63760 171.77271 317
422.28143 -6.37662 172.02089 309
450.64032 -7.27755 172.85971 495
398.40164 -0.42940 171.74911 317
422.16461 -0.44771 172.01079 309
450.64221 -0.41195 172.83144 495
398.11154 4.77443 171.78253 317
421.85907 5.49602 171.97429 309
450.66302 6.44817 172.76567 495
4070.04395 121.05742 -36.69947 484
397.69409 9.95121 171.74295 317
421.37750 11.45063 172.01218 309
452.39120 13.39623 172.28624 301
4051.20825 240.63115 -35.93738 491
397.08954 15.13360 171.76180 317
420.72055 17.37859 171.95641 309
451.66965 20.32696 172.26067 301
4046.76416 360.01697 -35.76252 483
396.34457 20.34130 171.73308 317
419.85019 23.29112 171.99628 309
486.01102 31.71288 165.16660 301
395.42511 25.48239 171.72377 317
418.86710 29.20697 171.95885 309
480.61975 38.97976 166.01686 443
4124.29248 616.89417 85.87978 408
394.33182 30.64287 171.71461 317
417.67624 35.07605 171.95192 309
473.47205 45.70175 167.13159 448
393.13907 35.72746 171.69785 317
416.33810 40.92013 171.91728 309
467.47757 52.39681 167.97452 298
391.76437 40.84186 171.70645 317
414.76382 46.72558 171.92065 309
465.79080 59.87140 167.93829 297
390.22617 45.85160 171.65581 317
441.86298 60.84766 164.92674 308
388.54086 50.86067 171.64240 317
439.64688 67.45988 164.90955 307
386.70682 55.85322 171.63261 317
433.63651 72.72940 165.74907 424
384.72635 60.76872 171.60374 316
425.27695 76.78995 167.20149 429
406.01318 75.78748 164.71100 317
420.29712 81.97176 167.78500 305
403.31537 81.24504 164.74208 317
417.59070 88.01585 167.75612 305
400.40662 86.66572 164.77760 317
394.13568 90.23203 165.77220 429
386.70343 92.80759 167.07240 434
381.72693 96.63561 167.65088 315
378.50024 101.43992 167.60040 313
4316.73584 4354.56201 16.87175 444
4231.69385 4542.44678 15.21379 454
4227.51758 4838.02637 7.97226 396
2680.76099 5675.14502 11.12986 333
2450.76147 5621.78955 15.92786 455
2460.45605 5648.77588 213.98573 466
2248.60083 5623.95410 18.65258 465
2262.58887 5664.37646 214.31329 418
2051.61670 5627.97314 20.52528 467
1861.03711 5634.58057 23.11306 439
1226.59424 4489.08057 65.01529 430
806.46844 3058.11987 113.45217 365
702.98132 3029.44165 115.29346 343
14.28883 1004.52173 248.58513 299
14.44449 1003.17908 282.00632 372
-457.08698 1538.50647 104.72179 487
-456.73370 1536.85999 159.57762 487
-455.90018 1535.32544 214.60385 488
-455.07330 1534.06482 269.45734 488
122.81998 148.30025 170.10846 445
106.72279 153.98709 166.37004 314
102.36375 150.63315 166.40021 314
98.05235 147.18098 166.38223 425
90.55155 147.52769 164.97197 429
82.65168 147.82166 163.44490 424
78.61195 143.48965 163.50203 307
66.53629 156.36893 166.21507 305
95.91499 117.91763 171.57545 316
62.06752 151.72986 166.25464 306
92.75343 114.04243 171.63754 316
55.63388 148.90207 165.55252 409
89.73492 110.11119 171.63678 316
45.26887 149.30977 163.62856 403
86.78456 106.02844 171.69266 316
68.16438 121.50957 171.83168 308
84.01340 101.89380 171.69797 316
64.89059 116.69788 171.87505 308
15.59312 154.97844 165.94786 295
81.36905 97.65066 171.70552 316
61.81081 111.85668 171.89322 308
8.52333 150.52457 165.32874 389
78.83266 93.32104 171.75232 316
58.90499 106.89838 171.88211 308
-5.91932 150.90182 162.81602 382
76.48631 88.88346 171.77415 316
56.08535 101.82103 171.93321 308
29.30873 118.81026 172.11812 300
74.22347 84.34247 171.78677 316
53.48923 96.62306 171.94519 308
26.17350 112.73527 172.15378 300
-49.99307 157.80942 165.08362 288
72.11869 79.79572 171.77907 316
52.89714 90.32980 172.46442 322
41.78516 96.46601 176.42700 319
22.40394 107.12139 179.55139 270
70.18909 75.09535 171.82103 316
60.94275 79.83498 175.21283 385
53.63892 83.54530 179.63651 325
-2.39907 112.09764 175.48718 293
70.77052 69.23855 172.57336 381
64.40883 72.27203 176.62904 390
52.10846 78.04408 179.77892 300
23.91785 91.30088 180.85234 315
-2.37596 103.64881 184.23611 264
73.97462 62.46241 173.96237 386
67.68202 65.17119 177.91673 395
43.79021 75.46794 178.38834 373
34.14409 79.69170 183.10533 336
22.12335 84.86133 188.16409 331
5.03683 92.24673 193.45580 283
75.96423 56.44251 174.99800 420
70.83268 58.49578 179.08218 415
47.53854 67.68083 179.57825 389
40.21807 70.61752 184.56686 373
31.63262 74.00419 189.81480 368
20.40734 78.47331 195.35509 332
4.16953 84.88151 201.23491 311
77.41951 50.93591 175.76395 424
71.59631 53.01858 179.61961 308
51.01084 60.44719 180.66379 393
44.14332 62.92434 185.54539 388
36.73458 65.57105 190.74727 373
27.94348 68.74882 196.30800 368
18.36793 72.18667 202.36641 362
78.81067 45.58396 176.45625 427
70.46852 48.30552 179.60074 308
54.09916 53.61128 181.60956 410
47.78871 55.66919 186.44467 393
40.75470 57.97823 191.57028 388
33.25203 60.40493 197.05406 383
24.26843 63.33318 202.90962 367
80.22554 40.39326 177.10320 431
69.48245 43.50819 179.64153 308
56.32363 47.35694 182.32248 421
50.47651 49.05030 187.12706 409
44.09488 50.89742 192.17949 404
37.33943 52.89011 197.60121 399
29.69424 55.13379 203.41428 382
81.59061 35.39227 177.71336 435
63.50300 40.03088 178.37895 429
58.31497 41.40879 182.90622 424
52.82214 42.77575 187.66493 420
46.78677 44.33973 192.69797 408
40.31242 46.01358 198.01263 403
33.30185 47.83540 203.69897 397
25.43648 49.81606 209.81688 355
82.83099 30.57736 178.22719 458
65.29460 34.46803 179.00703 432
60.22529 35.60284 183.45560 428
54.90734 36.79398 188.16664 423
49.27019 38.05387 193.17140 418
43.13910 39.43610 198.39259 406
36.41322 40.96478 203.98595 401
29.08615 42.57746 209.99113 361
-184.58397 90.31226 216.42166 296
83.11372 26.00547 178.43892 459
66.94500 29.11389 179.50322 455
62.12782 30.01363 183.95697 431
56.92627 31.00640 188.61577 426
51.45073 32.06937 193.52663 421
45.67511 33.18514 198.72318 416
39.37851 34.36142 204.25299 405
32.44854 35.70397 210.12114 399
-183.08664 76.80808 216.44687 424
83.46281 21.52745 178.61815 461
67.29279 24.05738 179.69716 456
62.74635 24.80781 184.17711 452
57.96691 25.53847 188.88475 447
52.95002 26.37547 193.80115 442
47.69572 27.19131 198.97896 437
42.04344 28.07644 204.43594 414
35.55482 29.14394 210.24477 402
83.80928 17.04531 178.74326 462
67.68596 19.08195 179.87091 457
63.15962 19.64516 184.32632 453
58.42728 20.28344 189.02359 448
53.46719 20.91596 193.92195 443
48.22441 21.57438 199.06477 438
42.72140 22.27206 204.52611 433
36.88761 23.00989 210.33624 428
84.20528 12.59801 178.87581 463
68.11150 14.12158 179.98584 459
63.63664 14.54216 184.46086 454
58.91498 15.02105 189.11813 450
53.98978 15.47781 193.97905 445
48.80644 15.96388 199.14000 440
43.34808 16.49763 204.60849 435
37.57912 17.01897 210.36546 429
84.62663 8.19914 178.94093 464
68.56247 9.18083 180.07149 460
64.09677 9.48914 184.51707 455
59.46076 9.80103 189.19133 451
54.56860 10.06906 194.08798 446
49.44136 10.39547 199.22063 441
44.01325 10.75200 204.61353 436
38.29882 11.14252 210.34549 430
-181.49072 24.93832 270.04205 486
-187.69981 25.37234 284.59296 360
85.07005 3.78088 179.01718 465
69.05984 4.30715 180.12999 461
64.66164 4.40877 184.61456 457
60.03189 4.55559 189.22984 452
55.19550 4.72891 194.13901 447
50.07460 4.88227 199.25162 442
44.73207 5.06540 204.63898 437
39.01310 5.23711 210.39098 431
-181.50394 12.21174 270.00662 487
