# .PCD v.7 - Point Cloud Data file format
VERSION .7
FIELDS x y z rgb
SIZE 4 4 4 4
TYPE F F F U
COUNT 1 1 1 1
WIDTH 404
HEIGHT 1
VIEWPOINT 4956.305664 -4052.048340 152.317932 -0.044501 -0.140587 -0.000282 0.989068
POINTS 404
DATA ascii
85.87150 -0.78036 178.57654 467
69.89335 -0.78759 179.76649 462
65.47071 -0.80999 184.25467 457
60.80058 -0.79251 188.98538 453
55.95110 -0.81065 193.88521 448
50.80533 -0.77686 199.06349 443
45.39461 -0.76708 204.51567 438
39.67647 -0.79371 210.29491 432
-181.43768 -0.76631 270.16000 487
-136.43329 -0.78058 276.42194 495
85.58169 -5.26518 178.36111 465
69.52074 -5.74331 179.56761 460
64.99763 -5.91250 184.08458 456
60.30682 -6.04316 188.80231 452
55.38326 -6.19068 193.74429 447
50.22192 -6.36784 198.95862 442
44.75282 -6.53974 204.41774 437
38.98009 -6.70306 210.21445 431
-181.40019 -13.65261 270.22012 487
-152.18484 -12.77655 279.09592 266
85.29229 -9.77368 178.09149 464
69.17718 -10.78791 179.32745 460
64.60995 -11.06901 183.87103 455
59.83575 -11.37153 188.59319 451
54.89062 -11.66631 193.57098 446
49.63173 -11.98949 198.82574 441
44.15185 -12.36189 204.34167 436
38.31545 -12.74639 210.20161 430
85.09009 -14.36105 177.82326 463
68.90456 -15.86555 179.04501 459
64.27257 -16.30628 183.61099 454
59.46392 -16.75533 188.39384 449
54.37381 -17.26483 193.39494 445
49.07668 -17.73339 198.67039 440
43.47942 -18.28135 204.20378 435
37.59354 -18.83577 210.12364 429
84.88083 -18.97412 177.50636 462
68.61462 -21.03346 178.74286 457
63.95844 -21.61130 183.33113 453
59.08311 -22.25839 188.15617 448
53.95639 -22.91053 193.18939 443
48.57769 -23.58975 198.47270 438
42.86420 -24.30600 204.11569 433
36.86728 -25.07240 210.05911 428
84.68273 -23.70694 177.17606 461
68.36380 -26.26425 178.41637 456
63.64502 -27.04449 183.05339 452
58.74496 -27.81747 187.89136 447
53.56027 -28.60717 192.95897 442
47.76034 -29.51737 198.30392 419
41.55891 -30.53528 203.94431 414
34.74307 -31.60566 209.94920 402
84.52879 -28.47596 176.77495 459
74.69705 -30.36844 179.60913 308
62.51868 -32.67387 182.55176 431
57.11436 -33.72321 187.38924 426
51.44609 -34.78273 192.48666 421
45.38969 -35.95433 197.89793 416
38.72746 -37.22190 203.62668 404
31.43135 -38.60138 209.79189 399
-183.13477 -79.57579 216.41643 424
83.97060 -33.47182 176.24921 438
76.10726 -35.21442 179.58582 308
60.65023 -38.65405 181.82889 428
55.05329 -39.92236 186.74896 423
49.16376 -41.25470 191.95738 418
42.63478 -42.71395 197.46121 406
35.58102 -44.30691 203.28568 401
27.99895 -45.98828 209.60112 395
-192.37546 -95.18810 216.36707 296
82.67030 -38.75955 175.46973 435
77.65984 -40.05121 179.57127 308
58.74560 -44.89590 181.07294 424
52.92615 -46.37506 186.11623 412
46.47458 -48.07096 191.36272 408
39.59656 -49.81462 196.94577 402
32.28710 -51.71025 202.96227 397
23.60269 -53.91322 209.36830 341
81.32829 -44.24813 174.63580 432
76.38067 -45.70009 178.85048 426
56.66661 -51.42154 180.25148 414
50.39650 -53.28477 185.31998 409
43.52596 -55.22986 190.64532 392
35.94362 -57.46485 196.35323 387
27.35409 -59.95555 202.45293 371
79.98947 -49.96621 173.72124 429
74.85240 -51.63670 177.96252 423
53.94797 -58.43594 179.26643 397
46.93622 -60.73995 184.32475 393
39.46423 -63.16439 189.76297 388
30.94552 -65.90118 195.58676 372
21.32212 -69.04934 201.88933 367
78.64883 -55.93178 172.75742 425
73.29984 -57.85756 177.09628 419
50.43094 -66.09626 178.02446 393
43.07238 -68.73598 183.20065 388
34.56319 -71.82447 188.77596 372
24.90532 -75.31931 194.66922 337
10.64967 -80.37943 200.90503 316
77.62199 -62.03077 171.80350 316
70.39783 -64.85625 175.77161 386
61.04717 -68.59613 179.72610 300
38.12471 -77.64841 181.87814 341
26.33437 -82.32877 187.18054 336
11.39241 -88.22296 192.94427 316
79.99979 -66.85838 171.75766 316
66.70721 -72.61658 174.17204 381
60.51994 -75.25502 179.03253 391
27.89322 -89.37141 179.49954 336
10.15843 -97.06546 184.40034 288
82.49621 -71.63111 171.74777 316
62.84822 -80.89546 172.47467 377
55.15258 -84.52761 177.18388 330
33.75676 -94.62978 179.96275 292
-14.06626 -117.08904 180.36160 284
85.19165 -76.38134 171.71658 316
63.75356 -87.27655 171.92094 308
42.90928 -97.87425 173.80885 324
24.52499 -107.28655 177.56541 277
88.01627 -81.00668 171.72063 316
66.91050 -92.59457 171.86989 308
39.19348 -107.82370 172.12125 300
-40.87229 -151.88454 164.55603 363
76.49929 -85.84116 171.81525 316
55.66942 -98.14696 171.96194 308
28.30517 -114.33538 172.20358 300
-47.92543 -159.42404 165.10641 288
79.62688 -90.33646 171.75613 316
59.17748 -103.29328 171.97301 308
32.30516 -120.34399 172.17973 300
82.86080 -94.76434 171.74873 316
62.84571 -108.38358 171.93648 308
0.29016 -150.89217 163.43553 382
86.26190 -99.13194 171.71138 316
66.63132 -113.36012 171.90538 308
15.50661 -150.53879 165.87617 389
89.74730 -103.34337 171.71797 316
70.61241 -118.21273 171.88223 308
21.65542 -156.17937 166.07181 297
93.40318 -107.50833 171.68863 316
46.82623 -146.10643 163.39034 300
97.21805 -111.56480 171.62444 316
54.58458 -149.10292 164.19223 404
101.08825 -115.54198 171.61270 316
65.76117 -148.68164 166.11597 409
105.12976 -119.36018 171.55545 316
71.58030 -152.89070 166.34981 306
88.87582 -144.79707 163.58592 307
95.12960 -147.62512 164.03839 425
104.21384 -146.81187 165.68706 419
111.03346 -148.28397 166.48094 314
118.30354 -148.79875 167.44766 316
-1046.66370 -1873.73511 67.84154 496
-1051.33667 -1880.70483 142.02861 497
-506.98422 -1443.47351 110.31248 401
40.02262 -1005.43799 81.69977 401
19853.09375 -26991.00977 -8724.60059 1000
403.27667 -92.66351 167.74261 313
396.67014 -89.91267 166.66234 429
404.16125 -87.34362 165.16167 423
407.81741 -82.53806 164.84010 316
410.15829 -77.04161 164.78423 316
424.59845 -83.31535 167.78331 305
2929.73242 -1167.19116 23.43112 496
388.36310 -62.05296 171.68909 316
426.67307 -77.17909 167.83717 305
389.96454 -57.12849 171.68292 316
434.23672 -73.08814 166.53479 424
391.42886 -52.19107 171.70369 316
442.39578 -68.69874 165.02934 433
392.74527 -47.18083 171.74655 316
444.47232 -62.18977 164.92871 307
393.89450 -42.12686 171.74059 317
446.09967 -55.52399 164.95091 307
468.17963 -61.17885 167.94768 297
394.88638 -37.08102 171.73067 317
418.12137 -42.24351 171.94858 309
469.42914 -53.72559 168.03877 297
395.74649 -31.94975 171.73698 317
419.09055 -36.42659 171.99454 309
473.08270 -46.69481 167.56636 448
396.43814 -26.79250 171.73750 317
419.91776 -30.54317 172.00864 309
480.24377 -40.07647 166.36841 443
396.96255 -21.65850 171.77116 317
420.55807 -24.64189 171.96693 309
486.54504 -32.90903 165.26869 458
397.33087 -16.44280 171.74551 317
421.02307 -18.66821 171.98808 309
452.02942 -21.63452 172.32367 301
397.52914 -11.25594 171.76711 317
421.27380 -12.70777 172.01172 309
452.37155 -14.70651 172.31622 301
397.56937 -6.04924 171.74390 317
421.36716 -6.78466 172.00844 309
450.63312 -7.66744 172.66983 495
397.51120 -0.78400 171.74649 317
421.28506 -0.79114 171.98613 309
450.64850 -0.81267 172.66177 495
397.24124 4.39339 171.77016 317
420.99960 5.17709 171.97987 309
450.64084 6.07340 172.60693 495
396.81750 9.64093 171.75099 317
420.55496 11.15583 172.00781 309
451.72778 13.07473 172.30995 301
4269.88574 254.21875 83.36568 496
396.23834 14.87376 171.73624 317
419.92764 17.08684 171.99834 309
451.06839 20.06143 172.28638 301
395.48904 20.05930 171.75613 317
419.12918 23.02884 171.96487 309
485.49030 31.42115 165.14670 301
4258.08496 508.83676 83.28273 494
394.61044 25.22322 171.71384 317
418.14563 28.96203 171.96152 309
480.77594 38.89656 165.87012 443
393.55447 30.39096 171.72490 317
417.00311 34.87121 171.95375 309
473.51349 45.67282 167.04379 448
4375.62744 790.90936 77.79259 490
392.35803 35.53334 171.70270 316
415.64078 40.75257 171.93759 309
466.95874 52.21757 167.99675 297
390.98752 40.64293 171.70488 316
414.14279 46.56877 171.92665 309
465.27621 59.74069 167.91953 297
389.49777 45.71025 171.68553 316
441.25919 60.75843 164.88295 307
387.79611 50.77317 171.63252 316
439.09549 67.43709 164.86153 307
385.97113 55.75788 171.65147 316
433.44394 72.81727 165.66431 424
384.01611 60.65783 171.60568 316
425.01086 76.92363 167.14981 430
405.39334 75.72002 164.72565 317
419.75006 81.99040 167.77782 305
402.66977 81.24181 164.75655 317
417.08765 88.03770 167.71509 305
399.77829 86.67643 164.74379 317
393.67960 90.34451 165.69420 429
386.20261 92.97335 167.04839 434
381.07620 96.67506 167.62338 315
377.84320 101.52545 167.60307 313
2673.45142 5660.47070 215.87794 481
2466.02979 5664.67188 215.89122 484
2150.27222 5928.56055 216.45187 369
1013.72040 3082.10571 112.08372 324
889.14288 2982.73975 116.01410 358
220.86705 995.26984 85.36673 497
220.91040 995.55981 118.44582 498
220.91951 995.87225 151.21355 481
220.84897 996.12000 183.93332 482
220.92413 996.47925 216.43744 482
220.82097 996.91437 249.11464 481
220.92094 997.26892 281.88535 481
220.84947 997.69824 314.90579 440
124.72566 148.19051 170.29575 453
108.23830 154.38783 166.40532 314
103.85020 150.98848 166.36839 314
99.56242 147.43825 166.40475 314
92.32290 147.46791 165.07204 429
84.45060 147.74557 163.58958 424
80.06676 143.81233 163.46526 307
67.93391 156.72108 166.25661 305
97.39360 118.12056 171.57529 316
63.42904 152.04543 166.21812 305
94.21805 114.21929 171.62665 316
57.39411 148.83998 165.63911 409
91.17960 110.23045 171.62585 316
46.98271 149.20259 163.70207 403
88.30167 106.17974 171.63734 316
69.52051 121.66980 171.79984 308
85.52892 101.97569 171.69318 316
66.30116 116.88220 171.85068 308
16.88825 155.20399 165.98445 295
82.87302 97.70204 171.69734 316
63.21213 111.95069 171.87325 308
10.15381 150.47559 165.39484 389
80.34309 93.32015 171.70815 316
60.30190 106.94682 171.88049 308
-4.27556 150.88371 162.93726 382
77.98804 88.90801 171.77048 316
57.55569 101.86641 171.91908 308
30.62797 118.95415 172.10524 300
75.73994 84.35670 171.78848 316
54.92654 96.69640 171.95966 308
27.57722 112.89075 172.18752 300
-48.90789 158.02124 165.06631 288
73.67866 79.77058 171.78235 316
52.49418 91.38180 171.97513 308
40.73401 97.85086 175.83952 319
16.98058 110.90307 178.32133 270
71.73179 75.05399 171.80708 316
60.80871 80.60497 174.74686 385
52.80781 84.69140 179.11232 325
1.21848 111.01104 175.93968 293
70.86491 69.90497 172.09956 381
64.33741 72.93831 176.20064 390
53.59732 77.97623 179.74521 300
23.08889 92.35585 180.43935 314
-27.45930 116.15334 180.41234 343
74.04372 62.98202 173.52455 386
67.68505 65.77094 177.46669 395
43.74168 76.12462 178.03726 373
33.69941 80.45482 182.77359 336
21.49870 85.73913 187.87059 331
2.74230 93.87545 193.07903 283
76.24026 56.86534 174.56148 420
71.02647 58.93763 178.71312 415
47.60600 68.23236 179.25482 389
40.14947 71.19235 184.24902 373
31.47424 74.62431 189.59361 368
19.83060 79.20829 195.12384 332
3.17344 85.79240 201.09511 311
77.66735 51.28259 175.36880 423
72.64604 53.12550 179.43001 419
51.10591 60.84022 180.33009 393
44.12850 63.34035 185.25529 388
36.61121 66.09321 190.55664 373
27.76542 69.26778 196.15955 368
18.11435 72.76529 202.26305 362
79.12016 45.90981 176.08171 427
72.08900 48.19143 179.59454 308
54.24645 53.98586 181.27379 410
47.84221 56.05474 186.15921 393
40.72771 58.36479 191.33058 388
33.12394 60.82054 196.89792 372
24.09898 63.74652 202.79895 367
80.50864 40.68795 176.72308 432
71.15145 43.40768 179.59312 308
56.50542 47.66605 181.99170 421
50.59049 49.37543 186.85805 409
44.21297 51.21970 191.97401 404
37.36736 53.22695 197.44655 399
29.59772 55.49418 203.26404 382
81.91577 35.60162 177.31902 435
63.77179 40.28368 178.02824 429
58.48859 41.61611 182.61246 424
52.95350 43.03288 187.44447 420
46.92026 44.59904 192.50526 408
40.34060 46.30745 197.83862 403
33.29420 48.10839 203.62723 397
25.40923 50.10919 209.80675 355
83.17686 30.73722 177.84792 457
65.57574 34.63955 178.64340 432
60.45959 35.80334 183.15204 428
55.08070 36.99511 187.91853 423
49.38025 38.25274 192.93460 418
43.23255 39.67231 198.22789 406
36.44798 41.17239 203.89752 401
29.06382 42.78875 209.91458 361
-185.32202 90.71530 216.45952 296
83.48584 26.13273 178.05063 459
67.26783 29.21616 179.18671 455
62.36630 30.15528 183.65887 431
57.13923 31.13642 188.38597 426
51.63847 32.20404 193.33504 421
45.78318 33.30099 198.57983 416
39.46427 34.51805 204.10590 404
32.44144 35.85551 210.03789 399
-183.07048 76.98079 216.53053 424
83.83572 21.58786 178.23070 461
67.64649 24.15750 179.35875 456
63.02909 24.86151 183.86919 452
58.20918 25.65264 188.62643 447
53.18396 26.42250 193.60678 442
47.87589 27.29745 198.79593 437
42.12467 28.19112 204.31355 414
35.63070 29.20204 210.18939 402
84.20078 17.07390 178.38399 462
68.02000 19.09802 179.53331 457
63.45732 19.68931 184.03903 453
58.70944 20.30499 188.76624 448
53.68745 20.91898 193.68726 443
48.41197 21.57596 198.90738 438
42.81409 22.30338 204.39560 433
36.93886 23.06084 210.23018 428
84.58862 12.60343 178.50397 463
68.47359 14.12302 179.63933 459
63.91307 14.56066 184.16246 454
59.16489 15.00779 188.85144 450
54.21575 15.46888 193.78380 445
49.01089 15.96394 198.96922 440
43.48199 16.48922 204.47235 435
37.67303 17.00322 210.27515 429
85.02445 8.14271 178.58775 464
68.93837 9.12517 179.75107 460
64.39686 9.42582 184.23903 455
59.72113 9.74617 188.90433 451
54.78806 10.05066 193.82198 446
49.63581 10.36854 199.01628 441
44.17284 10.73047 204.46744 436
38.39261 11.06271 210.29413 430
-181.35876 24.87351 270.15247 486
-187.57719 25.29824 284.84885 360
85.45493 3.71302 178.63284 465
69.40915 4.19582 179.81308 461
64.96935 4.32457 184.26912 456
60.31361 4.48572 188.99284 452
55.40789 4.64917 193.87865 447
50.27935 4.79610 199.05556 442
44.86103 4.97915 204.49615 437
39.13260 5.15872 210.26233 431
-181.41200 12.11514 270.19437 487
