# .PCD v.7 - Point Cloud Data file format
VERSION .7
FIELDS x y z rgb
SIZE 4 4 4 4
TYPE F F F U
COUNT 1 1 1 1
WIDTH 404
HEIGHT 1
VIEWPOINT 4913.527344 -4055.578125 152.286499 -0.044696 -0.140388 -0.000345 0.989087
POINTS 404
DATA ascii
85.91872 -0.80643 178.51508 467
69.95338 -0.83762 179.73206 462
65.49063 -0.83903 184.21227 457
60.81476 -0.82059 188.91817 453
55.95991 -0.80210 193.87975 448
50.82727 -0.83203 199.03473 443
45.40326 -0.79962 204.51147 438
39.71729 -0.81189 210.27267 432
-181.39835 -0.76229 270.29202 487
-136.38132 -0.84829 276.46802 495
85.61224 -5.27913 178.31012 465
69.55204 -5.78137 179.51765 460
65.05215 -5.92191 184.01544 456
60.33200 -6.07437 188.74586 452
55.43140 -6.22161 193.70700 447
50.24572 -6.41608 198.94685 442
44.78409 -6.58791 204.44377 437
39.01791 -6.78790 210.23016 431
-152.74652 -12.82462 279.29810 266
85.36150 -9.82082 178.06027 464
69.22545 -10.84143 179.28151 460
64.64151 -11.13754 183.79591 455
59.86470 -11.41493 188.55655 451
54.88251 -11.71388 193.57605 446
49.64195 -12.08174 198.79189 441
44.11697 -12.38898 204.31218 436
38.30808 -12.76970 210.21414 430
85.11787 -14.41782 177.77786 463
68.93624 -15.91849 179.01875 459
64.28174 -16.36807 183.59105 454
59.45522 -16.84377 188.37373 449
54.39677 -17.29782 193.36922 445
49.10362 -17.81333 198.63138 440
43.50988 -18.32313 204.20407 435
37.55996 -18.90503 210.15648 429
84.88895 -19.07079 177.45020 462
68.65575 -21.12379 178.72221 457
64.00150 -21.68537 183.29033 453
59.10725 -22.31891 188.12160 448
53.95712 -22.95475 193.19521 443
48.57471 -23.66381 198.51302 438
42.88504 -24.37120 204.08649 433
36.88910 -25.12741 210.08757 428
84.70550 -23.76374 177.10474 461
68.40206 -26.34678 178.37030 456
63.69355 -27.09530 182.99263 452
58.76246 -27.88511 187.88307 447
53.56003 -28.69917 192.94652 442
47.74876 -29.64907 198.27267 419
41.55230 -30.58716 203.92485 414
34.72029 -31.69176 209.93927 402
84.52699 -28.58831 176.76448 459
74.84635 -30.41337 179.61182 308
62.52874 -32.75532 182.49399 431
57.12193 -33.81478 187.37086 426
51.38898 -34.88382 192.45160 421
45.35107 -36.03451 197.87500 416
38.68285 -37.30801 203.64618 404
31.38622 -38.70740 209.77026 399
-183.06747 -79.65967 216.39793 424
83.97247 -33.57796 176.21805 438
76.26998 -35.28304 179.57327 308
60.62244 -38.76260 181.78297 428
55.03253 -40.04627 186.74763 423
49.14326 -41.36546 191.97485 418
42.58257 -42.80955 197.44890 406
35.48577 -44.41501 203.28499 401
27.93648 -46.10084 209.61424 395
-192.80916 -95.40497 216.43738 296
82.66811 -38.88302 175.42595 435
77.83279 -40.12473 179.56415 308
58.69530 -45.01699 181.05879 424
52.91547 -46.49910 186.05249 412
46.43576 -48.15497 191.34261 408
39.59777 -49.91541 196.96461 402
32.21305 -51.81358 202.93005 397
23.45830 -54.05140 209.40199 341
81.34135 -44.38639 174.55740 432
76.34526 -45.81983 178.78265 426
56.66425 -51.54700 180.21573 414
50.35141 -53.40308 185.27075 409
43.44121 -55.35722 190.66382 392
35.85254 -57.60831 196.32407 387
27.27323 -60.08485 202.43965 371
79.99359 -50.09468 173.69545 429
74.83636 -51.77945 177.95782 423
53.86084 -58.60535 179.23148 397
46.90665 -60.84974 184.33441 393
39.36945 -63.30003 189.76915 388
30.83296 -66.07407 195.56523 372
21.21488 -69.17468 201.86424 367
78.62551 -56.05885 172.69753 425
73.26199 -58.00469 177.06105 419
50.34069 -66.23888 177.97163 393
42.99020 -68.92715 183.21669 388
34.47380 -71.99329 188.75206 372
24.65186 -75.48377 194.65993 337
10.35641 -80.62825 200.92557 316
77.72381 -62.11900 171.80774 316
70.32338 -65.01743 175.74002 386
61.09520 -68.68368 179.73849 300
37.94102 -77.87614 181.82721 341
26.10986 -82.53170 187.15552 336
11.03687 -88.46742 192.93579 316
80.07846 -66.96345 171.76176 316
66.67378 -72.75500 174.12593 381
60.47343 -75.47386 179.01482 391
27.69516 -89.60300 179.45866 336
9.56102 -97.49689 184.30418 288
82.59462 -71.74583 171.73586 316
62.73237 -81.10405 172.41185 377
54.89106 -84.78339 177.14433 330
33.72247 -94.73862 179.92760 292
-14.11904 -117.31013 180.38594 284
85.26687 -76.49123 171.74081 316
63.80281 -87.40482 171.91971 308
42.65353 -98.19675 173.70900 324
23.51340 -107.91992 177.44283 277
74.02529 -81.17774 171.83377 316
52.94661 -92.82925 172.02428 308
37.92462 -101.04533 175.15245 319
-54.50785 -151.86974 164.76006 373
77.01205 -85.78754 171.77667 316
56.24201 -98.08727 171.95642 308
28.95205 -114.19785 172.18109 300
-47.04204 -159.13448 165.13022 286
80.09750 -90.30006 171.77443 316
59.69350 -103.21278 171.96834 308
32.89662 -120.22321 172.15276 300
83.34795 -94.71291 171.76456 316
63.33937 -108.30770 171.89671 308
0.66810 -150.87961 163.41867 382
86.69084 -99.06115 171.71848 316
67.13730 -113.27506 171.90230 308
15.90622 -150.54944 165.80933 389
90.21261 -103.32692 171.69958 316
71.09656 -118.16698 171.84563 308
22.21321 -156.02104 166.12044 297
93.85402 -107.46374 171.65179 316
47.35272 -145.95946 163.40833 300
97.62017 -111.52505 171.63431 316
54.96889 -149.07765 164.16400 403
101.48048 -115.48064 171.58894 316
66.11195 -148.67699 166.09267 409
105.52287 -119.33159 171.54597 316
72.01536 -152.82784 166.32875 306
89.26099 -144.76855 163.53383 307
95.45261 -147.57387 164.04146 424
104.54499 -146.74025 165.69981 419
111.32962 -148.25708 166.45949 314
118.57631 -148.78476 167.41525 316
-6584.80078 -11517.91699 1090.87878 1000
74.30664 -998.29089 83.24828 486
73.57077 -1002.71655 116.21769 499
73.03577 -1006.74341 149.33594 449
26839.52539 -41913.87891 -1410.72119 1000
390.60245 -93.37853 167.71307 315
396.21219 -90.05094 166.80136 429
403.73337 -87.43978 165.31071 424
407.87860 -82.85674 164.81258 316
410.18863 -77.36579 164.82664 316
424.78665 -83.67826 167.78996 305
2978.44653 -1189.33386 20.38369 277
412.36441 -71.82443 164.77101 316
426.85718 -77.58182 167.86101 305
390.06488 -57.42114 171.71107 316
433.90262 -73.21642 166.65865 424
391.51422 -52.42830 171.69327 316
442.13467 -68.90406 165.11090 433
392.81927 -47.43980 171.73480 316
444.66098 -62.49782 164.95413 307
393.96909 -42.36016 171.73961 316
446.23486 -55.80483 164.92503 307
468.49722 -61.50887 167.94670 297
394.96448 -37.24892 171.75508 316
418.26801 -42.47238 171.98544 309
469.74768 -53.99165 168.00790 297
395.79297 -32.13126 171.75706 317
419.22522 -36.58278 171.98129 309
472.94589 -46.82014 167.62502 448
396.48517 -26.96604 171.76115 317
420.06689 -30.69625 171.98518 309
480.06635 -40.21157 166.40242 443
396.97400 -21.79364 171.76254 317
420.69702 -24.74825 172.01164 309
486.40558 -33.10196 165.31738 458
397.38980 -16.58976 171.77873 317
421.12949 -18.80846 171.97269 309
452.26968 -21.73899 172.27313 301
397.56891 -11.36464 171.74460 317
421.37799 -12.82119 171.98849 309
452.64484 -14.83973 172.30035 301
397.63336 -6.12336 171.74684 317
421.48639 -6.87578 171.97186 309
450.63101 -7.78951 172.72160 495
397.53329 -0.87616 171.77116 317
421.40976 -0.90020 172.00461 309
450.63416 -0.90440 172.72855 495
4329.76758 -0.56526 81.74838 392
397.24225 4.34101 171.77534 317
421.11307 5.11746 171.98392 309
450.63208 6.04706 172.65033 495
396.84879 9.58806 171.74469 317
420.68329 11.07257 171.99207 309
451.90671 13.07185 172.29921 301
4311.81299 255.78307 82.64111 496
396.26260 14.82157 171.73885 317
420.01550 17.09191 171.98553 309
451.23718 19.99529 172.29295 301
4336.96436 387.66174 82.03770 296
395.50476 20.05564 171.74062 317
419.22571 23.04521 171.95764 309
485.67065 31.43261 165.14738 301
4301.54541 513.71375 82.35803 493
394.62851 25.22810 171.72168 317
418.23831 28.96257 171.94595 309
480.75140 38.89857 165.89830 443
393.55637 30.40564 171.69414 316
417.04819 34.91551 171.96030 309
473.48273 45.65469 167.03900 448
392.33920 35.54654 171.69798 316
415.69308 40.75816 171.94257 309
467.09003 52.24902 167.98779 297
390.98801 40.66647 171.69836 316
414.17969 46.64204 171.88863 309
465.43417 59.79331 167.93861 297
389.45413 45.77935 171.67018 316
441.32690 60.84514 164.87952 307
387.77655 50.78111 171.64691 316
439.11093 67.46449 164.85591 307
385.93027 55.81697 171.65504 316
433.36084 72.85706 165.67900 424
383.94431 60.73144 171.60550 316
424.94611 77.00575 167.14749 429
405.32977 75.79940 164.74034 316
419.72714 82.06364 167.78766 305
402.60019 81.33626 164.71950 316
417.02817 88.10155 167.75183 305
399.72955 86.74638 164.73515 317
393.58182 90.41193 165.70352 429
386.05966 93.01638 167.07811 434
380.96622 96.80350 167.61652 315
377.70050 101.62482 167.64436 313
2673.84180 5659.77979 216.98178 481
2466.41577 5664.89258 216.67905 484
2084.22217 5729.23779 216.55750 451
990.88770 2991.39771 115.57573 337
909.07709 3074.46533 113.49024 339
-238.08072 1541.54956 111.59945 466
-237.94948 1540.57532 164.24443 418
-237.78290 1539.75244 216.94183 418
-237.57018 1539.05310 269.14066 418
-237.36456 1538.20032 321.98764 418
-1164.30054 3178.34961 -124.50059 1000
-693.19958 2089.67261 141.83862 448
-693.23395 2089.73535 216.51854 321
125.17133 148.18044 170.35747 453
108.59409 154.47928 166.36813 314
104.19544 151.09088 166.39282 314
99.91753 147.51929 166.41010 314
92.75645 147.47229 165.12955 429
84.85258 147.78127 163.58922 424
80.43032 143.82681 163.46201 307
68.26718 156.81615 166.27663 305
97.71277 118.12772 171.57849 316
63.78885 152.03223 166.26129 305
94.53719 114.24505 171.58063 316
57.79016 148.82228 165.66504 409
91.53635 110.29261 171.62436 316
47.35270 149.22098 163.76120 403
88.59739 106.20328 171.64047 316
69.87216 121.72057 171.81693 308
85.83546 101.98217 171.67354 316
66.63299 116.88224 171.83029 308
17.28815 155.14998 166.00113 295
83.17809 97.72580 171.72337 316
63.54080 111.96387 171.84140 308
10.54087 150.47966 165.36949 389
80.69205 93.34665 171.73598 316
60.60439 106.95965 171.89174 308
-3.91417 150.83775 162.91646 382
78.31330 88.89130 171.74153 316
57.85268 101.85936 171.89499 308
30.97593 118.91746 172.14157 300
76.05084 84.33212 171.78380 316
55.23749 96.66675 171.93394 308
27.83742 112.83398 172.18584 300
-48.50580 157.99789 165.04192 288
73.98215 79.74548 171.77660 316
52.81877 91.37534 171.95360 308
40.52200 98.10567 175.72211 319
15.95584 111.65708 178.05721 270
72.02463 75.07246 171.78261 316
60.75988 80.78600 174.68985 385
52.62443 84.95506 178.99271 325
1.98698 110.78109 175.99347 293
70.85665 70.02190 172.01625 381
64.30471 73.08163 176.12282 390
53.87761 77.99742 179.73911 300
22.95393 92.55665 180.33459 314
-27.15796 116.08891 180.36786 343
74.11088 63.08469 173.44234 386
67.68532 65.89220 177.38707 395
43.75281 76.20591 177.98410 373
33.62477 80.60723 182.71327 336
21.39267 85.91408 187.80675 331
2.32986 94.17036 192.95183 283
76.27885 56.96239 174.51300 420
71.08042 59.04157 178.62762 386
47.60246 68.31644 179.18102 389
40.13831 71.28339 184.19974 373
31.44717 74.73456 189.51628 368
19.77073 79.32671 195.07700 332
3.04655 85.96901 201.04968 311
77.73563 51.36729 175.28630 423
72.65881 53.17508 179.37556 419
51.11759 60.92135 180.27969 393
44.13009 63.43417 185.19746 388
36.59529 66.17299 190.47041 373
27.74966 69.35481 196.13774 368
18.03272 72.82325 202.25795 362
79.16254 45.92762 175.99339 427
72.38986 48.15806 179.60977 308
54.29919 54.03257 181.23096 410
-24.77579 8.04961 -4.30228 393
40.74249 58.43657 191.28636 388
33.13774 60.89356 196.82228 372
24.03986 63.85973 202.80528 367
80.57117 40.69911 176.64029 432
71.41672 43.38187 179.62244 308
56.57586 47.67315 181.94298 421
50.59668 49.43281 186.78511 409
44.21140 51.29471 191.91960 404
37.36141 53.27423 197.42354 399
29.57120 55.50579 203.26926 382
81.97712 35.61811 177.25082 435
63.78727 40.32372 177.95859 429
58.53605 41.63641 182.56552 424
52.99349 43.05719 187.36829 420
46.91356 44.61811 192.46928 408
40.34594 46.30698 197.82561 403
33.31273 48.12074 203.57806 397
25.40144 50.14228 209.76909 355
83.24894 30.73762 177.77946 457
65.60360 34.66594 178.60139 432
60.48574 35.82807 183.11147 428
55.08965 37.01214 187.88863 423
49.45084 38.29819 192.92519 418
43.24723 39.67764 198.19955 406
36.44433 41.20748 203.87579 401
29.06375 42.82602 209.90901 361
-185.30898 90.79031 216.41100 296
83.55151 26.12161 177.97667 459
67.30094 29.24952 179.11316 455
62.39292 30.16719 183.63126 431
57.20032 31.13863 188.32487 426
51.67627 32.20810 193.30182 421
45.80888 33.31262 198.55971 416
39.43715 34.53926 204.09541 405
32.44486 35.89330 210.07298 399
-182.99670 76.99027 216.41743 424
83.87318 21.57417 178.17928 461
67.67086 24.13966 179.30017 456
63.06896 24.86865 183.84967 452
58.27343 25.65615 188.60332 447
53.21254 26.43126 193.53473 442
47.86554 27.28523 198.81400 437
42.11251 28.20880 204.34589 414
35.58384 29.22676 210.16747 402
84.24818 17.04241 178.31569 462
68.07068 19.11267 179.48151 457
63.53326 19.66359 183.98854 453
58.70551 20.29570 188.69197 448
53.72677 20.91860 193.68628 443
48.39817 21.56761 198.88460 438
42.84499 22.27003 204.41220 433
36.94958 23.02866 210.25726 428
84.64423 12.58111 178.45117 463
68.51711 14.08079 179.58342 459
63.96064 14.54223 184.09291 454
59.22773 14.95136 188.80659 450
54.24008 15.44294 193.72649 445
49.00898 15.91852 198.94852 440
43.53151 16.47223 204.43929 435
37.68076 17.00316 210.27811 429
85.05874 8.09649 178.52361 464
68.96093 9.13201 179.66728 460
64.43404 9.40824 184.16895 455
59.72410 9.71522 188.87598 451
54.83975 9.98508 193.84190 446
49.63202 10.32227 199.02374 441
44.19003 10.69520 204.47324 436
38.42325 11.01851 210.26335 430
-181.43367 24.90904 270.20908 486
-187.46190 25.25869 284.90396 360
85.52272 3.64904 178.57138 466
69.47589 4.14553 179.74802 461
65.01968 4.31314 184.23029 457
60.32578 4.45978 188.93448 452
55.43256 4.61759 193.86169 447
50.29496 4.75711 199.05878 442
44.89249 4.90127 204.51648 437
39.16050 5.10137 210.28867 431
-181.41541 12.01509 270.15521 487
