# .PCD v.7 - Point Cloud Data file format
VERSION .7
FIELDS x y z rgb
SIZE 4 4 4 4
TYPE F F F U
COUNT 1 1 1 1
WIDTH 402
HEIGHT 1
VIEWPOINT 4299.440918 -4099.060059 135.827866 -0.000884 -0.110627 -0.001659 0.993860
POINTS 402
DATA ascii
70.99986 -0.84601 178.63385 466
66.83200 -0.82449 182.85805 462
62.48355 -0.84764 187.24397 457
57.96022 -0.83959 191.84123 453
53.20190 -0.84346 196.62914 448
48.22813 -0.83089 201.67834 443
42.98359 -0.82197 206.96552 438
-181.08501 -0.80124 218.65642 416
-156.04349 -0.77710 230.92844 413
-133.37520 -0.81482 276.94772 284
70.51692 -5.51188 178.55257 465
66.32266 -5.66430 182.74611 461
61.95464 -5.77942 187.16615 456
57.37337 -5.93701 191.74242 452
52.61205 -6.09089 196.57913 447
47.57632 -6.25564 201.63815 442
42.26566 -6.43502 206.99271 437
-181.06555 -13.44569 218.69496 415
-156.37665 -12.62692 230.93314 360
70.15598 -10.27320 178.43327 464
65.88729 -10.55042 182.65891 460
61.43198 -10.80718 187.07613 456
56.82665 -11.11814 191.65630 451
52.03194 -11.40712 196.50902 446
46.93095 -11.74163 201.59044 441
41.57618 -12.04788 206.95950 436
-180.95518 -26.03946 218.67159 415
69.77354 -15.04712 178.25142 463
65.49217 -15.47226 182.52498 459
61.00178 -15.87311 186.93846 454
56.33487 -16.33358 191.57489 449
51.40649 -16.76818 196.40967 445
46.28515 -17.24586 201.51842 440
40.88724 -17.77993 206.90797 435
-180.97720 -38.75538 218.68353 415
69.44040 -19.85180 178.08492 462
65.11223 -20.43248 182.33655 457
60.57574 -20.98676 186.78607 453
55.86808 -21.60734 191.43372 448
50.93935 -22.19250 196.29932 443
45.70941 -22.88743 201.43503 438
40.24494 -23.55503 206.85851 433
-180.84497 -51.52291 218.71419 420
75.53117 -23.73747 179.60316 316
64.74377 -25.44374 182.14597 456
60.19761 -26.18801 186.58702 452
55.44666 -26.91398 191.28410 447
50.43446 -27.73151 196.18259 442
45.06925 -28.55162 201.35735 419
39.11204 -29.52213 206.79022 414
-180.74251 -64.36324 218.80409 420
76.16338 -28.31058 179.57022 316
64.15063 -30.56702 181.80632 435
59.22265 -31.50858 186.24333 431
54.01604 -32.52753 190.91791 426
48.53546 -33.55732 195.81857 421
42.72561 -34.67252 201.05367 416
36.23915 -35.88943 206.57538 404
-180.69514 -77.27727 218.79822 424
76.95566 -32.85035 179.56334 316
62.42127 -36.10236 181.18398 432
57.33979 -37.22523 185.69847 428
51.97538 -38.42617 190.42491 423
46.27013 -39.69091 195.44627 411
39.93898 -41.12779 200.67491 406
33.14205 -42.62382 206.32487 401
-197.50885 -94.19559 218.83455 296
77.84353 -37.36260 179.58717 316
60.62599 -41.80022 180.55576 429
55.40259 -43.12983 185.10626 424
49.77252 -44.57288 189.89703 412
43.61129 -46.16166 194.93417 408
37.02701 -47.85521 200.31653 402
29.97466 -49.65629 206.06117 397
-187.79964 -105.60397 205.13460 484
78.69881 -41.75891 178.11511 430
60.11878 -47.15387 178.79022 425
54.68079 -48.69777 183.36687 413
48.71300 -50.45804 188.19336 409
42.27457 -52.29220 193.31003 404
35.33344 -54.30123 198.77072 387
27.36804 -56.59998 204.58978 371
77.34441 -47.07854 177.38092 427
58.28698 -53.25952 177.95174 414
52.39516 -55.18306 182.55707 410
45.76971 -57.27914 187.39774 392
38.70192 -59.60116 192.58138 388
30.81637 -62.14207 198.09750 372
21.70661 -65.11909 204.05698 366
76.00962 -52.58161 176.53082 423
67.03983 -55.79071 179.64314 308
49.08224 -62.27410 181.46100 393
42.09661 -64.74626 186.40785 388
34.31352 -67.57018 191.69482 372
25.40238 -70.76215 197.33032 367
14.92990 -74.55994 203.39879 332
74.64201 -58.30747 175.62489 420
68.84823 -60.58340 179.64687 308
45.60505 -69.79753 180.30571 388
37.85561 -72.87198 185.28203 372
28.63853 -76.50083 190.57249 336
16.00846 -81.48552 196.08868 315
-1.67309 -88.52030 202.07164 310
72.08286 -64.79810 174.31812 386
65.96362 -67.42035 178.40240 395
41.33096 -78.06610 178.86969 340
30.31214 -82.82682 183.49120 335
17.02560 -88.55341 188.57651 315
-11.69507 -100.99052 192.87947 265
68.82021 -71.91302 172.76268 381
62.58369 -74.83840 176.98158 390
48.27776 -81.54535 179.82431 300
17.91455 -95.82895 180.74632 286
-35.58952 -121.02760 180.50885 284
68.27332 -78.13322 171.88828 316
58.98352 -82.84837 175.39607 328
49.00563 -87.88513 179.39160 325
17.45282 -103.98431 180.06105 292
70.73944 -82.86616 171.85988 316
49.00767 -94.80645 172.05585 308
36.34954 -101.74283 175.87474 318
-59.32022 -154.39824 165.09464 288
73.39208 -87.52434 171.84079 316
52.02299 -100.16060 171.98920 308
23.83753 -116.81547 172.23891 300
76.15538 -92.10990 171.80937 316
55.19294 -105.46146 172.00690 308
27.53664 -122.98533 172.23296 300
79.08960 -96.63461 171.76942 316
58.48930 -110.60374 171.95038 308
-0.75912 -150.89378 164.49011 383
82.17414 -101.05966 171.75951 316
61.99808 -115.68845 171.94125 308
10.15995 -153.39156 165.99086 295
85.33923 -105.34461 171.72038 316
65.64275 -120.63707 171.88075 308
88.65337 -109.56400 171.70245 315
40.81334 -149.14011 163.22789 300
92.11911 -113.70785 171.67836 315
51.80713 -149.19890 165.16006 404
95.69017 -117.71242 171.64412 315
60.18003 -151.07417 166.29053 305
78.16254 -142.85667 163.58284 307
65.06894 -155.89197 166.31392 304
82.30539 -147.66025 163.41194 307
90.66888 -147.75218 164.90968 425
99.05917 -147.29330 166.44431 419
103.83546 -150.85098 166.46637 314
108.69209 -154.41487 166.44554 314
126.62607 -148.39471 170.46867 449
6278.69727 -31782.75977 -7316.68506 1000
7412.46436 -24754.83789 3616.50781 1000
740.91113 -947.38318 110.45539 450
746.51636 -957.39160 145.23523 324
360.92090 -109.24187 167.58498 315
364.31653 -104.81625 167.62550 315
367.57971 -100.25616 167.64079 315
373.95233 -97.74715 166.59848 439
381.04007 -95.33399 165.34955 434
386.07629 -91.42329 164.70448 317
389.04184 -86.29929 164.70451 317
402.48953 -93.14374 167.76414 305
368.86160 -70.24024 171.48677 317
405.25452 -87.36824 167.78529 305
370.98465 -65.58082 171.51889 317
412.58981 -83.58245 166.63519 434
262.37918 -16.99706 203.49902 314
420.59161 -79.71122 165.26529 429
263.00333 -15.73717 203.50616 314
424.78174 -74.06778 164.87866 308
263.59766 -14.45277 203.50723 314
427.18814 -67.64555 164.83554 308
448.27136 -74.53568 167.82664 297
264.13852 -13.14134 203.50972 314
400.74115 -52.86844 171.78508 309
450.38571 -67.32233 167.92686 298
264.65085 -11.81401 203.49962 314
402.35205 -47.23107 171.80722 309
455.46118 -60.86596 167.27208 424
265.10910 -10.47040 203.50897 314
403.86081 -41.53308 171.83437 309
464.15677 -55.05313 165.90714 452
265.52979 -9.09931 203.50098 314
405.15833 -35.75927 171.81757 309
470.13153 -48.17406 165.04118 300
265.91776 -7.72221 203.50743 314
406.23575 -30.00018 171.85414 309
436.61874 -34.81431 172.12428 301
262.78030 -5.87743 204.45117 314
407.18439 -24.14387 171.84473 309
437.73373 -28.04202 172.17192 301
263.06052 -4.57047 204.44699 314
407.97583 -18.29535 171.89078 309
438.61841 -21.23866 172.13290 301
263.31183 -3.25230 204.44901 314
408.59341 -12.41498 171.87759 309
439.34875 -14.39163 172.16827 301
263.50595 -1.92063 204.44795 314
408.99744 -6.50902 171.84789 309
439.79822 -7.51049 172.15678 301
507.85684 -9.63855 168.30634 288
263.67273 -0.58467 204.44420 314
409.23282 -0.63631 171.86652 309
440.13803 -0.61298 172.15613 301
507.93576 -0.60933 168.35454 288
263.79013 0.76694 204.45027 314
409.30777 5.28748 171.85216 309
440.16586 6.28809 172.17456 301
508.29279 8.40687 168.27081 288
263.86160 2.12446 204.44357 314
409.22311 11.25776 171.85831 309
440.10641 13.16036 172.15674 301
68026.21094 4268.88037 13672.98340 1000
263.89493 3.49244 204.44041 314
408.92331 17.16793 171.85301 309
439.77216 20.07447 172.13428 301
5018.60840 452.50122 370.04675 448
267.36295 5.29721 203.50708 314
408.48361 23.12450 171.86665 309
439.21219 26.98064 172.18048 301
267.28998 6.78111 203.50763 314
407.84879 29.03722 171.83267 309
473.46664 39.42830 165.08667 300
267.17361 8.26914 203.50803 314
407.01572 34.89162 171.83028 309
471.79865 47.30235 165.18936 448
4934.25537 897.88214 369.61038 497
267.00922 9.75965 203.50189 314
405.97650 40.79268 171.83960 309
464.70697 53.88693 166.36771 452
266.79276 11.24547 203.50694 314
404.82730 46.63871 171.79372 309
456.18942 59.82777 167.77647 424
266.53513 12.72482 203.50467 314
403.44940 52.46749 171.78120 309
453.78204 67.06459 167.84641 298
266.23270 14.21303 203.49825 314
430.20914 67.48313 164.82346 308
377.73193 55.95078 171.57509 317
428.07440 74.03864 164.82373 308
376.08731 60.92517 171.53954 317
421.20337 78.79829 166.01326 429
374.27942 65.83823 171.50926 317
413.17609 82.68242 167.43214 435
395.29294 81.54779 164.66292 317
409.43118 88.23193 167.75580 305
392.66199 87.05714 164.67558 317
389.02133 91.96249 164.98557 429
381.57413 94.59152 166.42821 434
374.87497 97.27076 167.59177 315
371.89081 102.20164 167.60406 315
368.77911 107.07458 167.59581 313
750.84167 1040.35498 332.12527 327
2978.04053 5857.27441 216.45514 418
2741.34302 5822.71582 216.32201 472
2818.41309 6002.44629 431.21298 348
2525.07593 5818.40283 217.24213 480
2599.79810 6007.12793 427.78555 490
1409.11572 3302.78125 217.04938 469
1297.06641 3312.52710 217.41873 471
126.00795 148.03085 170.13528 441
108.43304 153.35057 166.38896 314
103.55017 149.89250 166.36243 314
98.03792 147.14105 166.08586 419
89.60478 147.57739 164.56258 424
81.86826 146.73108 163.38676 307
77.60570 142.00232 163.53104 307
64.44957 155.16579 166.24721 305
94.99744 116.96211 171.57814 316
59.41421 150.32841 166.24983 305
91.31799 112.98065 171.63599 316
50.33672 149.10815 164.91843 403
87.74995 108.90865 171.63718 316
39.97372 148.43233 163.18562 300
84.34500 104.70972 171.68282 316
64.57999 120.04298 171.84612 308
14.11385 159.16196 165.91812 294
81.01346 100.39449 171.72415 316
60.79317 115.10439 171.85745 308
8.83345 152.83745 165.90208 295
77.85281 96.03264 171.76851 316
57.20757 110.05762 171.94125 308
-2.77512 150.81042 164.26131 382
74.86677 91.53799 171.79758 316
53.77863 104.91525 171.92943 308
26.02030 122.52953 172.18176 300
71.94578 86.93282 171.77979 316
50.47955 99.66429 172.00127 308
22.20949 116.33903 172.23901 300
69.22857 82.23478 171.84396 316
49.61468 93.01376 172.61169 322
38.25546 99.28905 176.68587 319
9.37136 115.16086 178.29202 270
66.59547 77.51141 171.86330 316
59.42712 81.14742 175.96336 385
48.82614 86.57143 179.79219 300
0.41971 111.24886 177.32391 293
69.13948 70.30261 173.32680 381
62.97679 73.20761 177.54958 390
33.27349 87.19639 176.97406 335
20.15982 93.38342 181.61906 314
-38.23403 120.82202 180.54184 284
72.34341 63.19935 174.96095 386
66.31975 65.81821 179.03966 395
41.87126 76.36478 179.48199 373
31.44489 80.88650 184.15909 336
18.87988 86.33100 189.24864 315
-1.73002 95.24454 194.33316 283
74.56329 56.85373 176.19977 420
66.61372 60.02501 179.63660 308
45.82327 68.26278 180.86966 389
38.27044 71.23579 185.88362 373
29.55344 74.71412 191.16905 368
17.63407 79.42542 196.73915 332
0.43264 86.24036 202.66899 311
75.87896 51.13576 177.10350 423
64.70541 55.18696 179.66531 308
49.29540 60.70437 182.09499 393
42.35045 63.25928 186.99614 388
34.71201 65.96516 192.27626 373
25.85841 69.15553 197.88277 367
16.14749 72.69895 203.97882 362
77.23799 45.65939 177.95781 427
58.27428 51.79139 178.52220 415
52.40489 53.70203 183.15178 410
45.99093 55.82125 188.00151 393
38.90975 58.10700 193.17062 388
31.20046 60.63109 198.66158 372
22.15772 63.54514 204.60580 367
78.53802 40.34849 178.73393 430
60.00650 45.73320 179.39456 425
54.65377 47.26756 184.00731 421
48.65145 49.02262 188.79494 409
42.31671 50.88054 193.89960 404
35.49141 52.87477 199.34776 399
27.72169 55.09873 205.13599 371
79.83418 35.21159 179.46661 434
61.75880 39.84781 180.15511 429
56.54141 41.21793 184.72523 424
51.04202 42.60522 189.49437 420
44.98497 44.19387 194.52060 408
38.44186 45.84373 199.85796 403
31.44503 47.66218 205.55887 397
-187.94568 104.03489 204.56332 484
78.87435 30.74523 179.54376 316
63.46997 34.21672 180.89771 432
58.40081 35.34212 185.37939 428
53.07610 36.50905 190.07410 423
47.43578 37.80262 195.05685 418
41.26546 39.18210 200.27711 406
34.50116 40.69482 205.89764 401
-191.37581 91.17560 218.45305 296
77.83649 26.30617 179.55324 316
64.96010 28.79204 181.55994 455
60.21674 29.69507 185.99742 431
55.01269 30.67692 190.62782 426
49.60865 31.71184 195.51910 421
43.79753 32.80946 200.72702 416
37.46007 34.05127 206.19273 404
-181.08478 75.72010 218.49971 424
76.90983 21.84263 179.58139 316
65.18858 23.68872 181.83733 456
60.68456 24.44013 186.29076 452
55.92931 25.16080 190.96423 447
50.94812 25.98092 195.87778 442
45.69312 26.78207 201.03043 437
40.14458 27.68248 206.49783 414
-181.04126 62.78176 218.43591 420
76.16911 17.34557 179.58731 316
65.51365 18.71155 182.13158 457
60.99290 19.28330 186.53145 453
56.28778 19.88213 191.17575 448
51.33648 20.47841 196.05420 443
46.13817 21.15352 201.18925 438
40.67204 21.86013 206.59470 433
-181.16478 49.88993 218.55904 420
70.08829 13.33305 178.12018 463
65.78974 13.75013 182.35817 459
61.35263 14.15665 186.78464 454
56.68877 14.60385 191.39400 450
51.80130 15.06665 196.21877 445
46.69287 15.56196 201.32530 440
41.29902 16.07247 206.71606 435
-181.18501 37.10162 218.59981 415
70.40431 8.56251 178.32567 464
66.13775 8.82515 182.55663 460
61.72417 9.10517 186.97337 456
57.13419 9.40452 191.56003 451
52.32595 9.72362 196.38358 446
47.22435 10.01912 201.49040 441
41.90159 10.38096 206.81606 436
-181.10684 24.39815 218.55643 415
-186.97801 24.74921 272.28522 359
-186.80544 24.80006 285.93463 496
70.72437 3.84308 178.51370 465
66.54668 3.95386 182.72827 461
62.18090 4.12546 187.11891 456
57.63333 4.24576 191.73546 452
52.82348 4.42438 196.56023 447
47.81117 4.58466 201.57733 442
42.49546 4.74331 206.92944 437
-181.03761 11.73096 218.61418 416
