# .PCD v.7 - Point Cloud Data file format
VERSION .7
FIELDS x y z rgb
SIZE 4 4 4 4
TYPE F F F U
COUNT 1 1 1 1
WIDTH 416
HEIGHT 1
VIEWPOINT 5303.732422 -4025.019531 154.037155 -0.043562 -0.142270 -0.009103 0.988827
POINTS 416
DATA ascii
85.14222 -0.75504 179.28584 467
69.26078 -0.71658 180.39540 462
64.87893 -0.74450 184.82344 457
60.32108 -0.75612 189.46547 453
55.54333 -0.73263 194.30315 448
50.50353 -0.71425 199.39630 443
45.18768 -0.75406 204.73221 438
39.54585 -0.71331 210.45552 432
-152.82053 -0.64246 241.14064 419
-181.56207 -0.74178 269.89078 487
-144.29929 -0.68949 277.29178 284
84.89367 -5.10641 179.08665 465
68.87292 -5.61231 180.20151 461
64.47910 -5.75883 184.64363 456
59.86449 -5.89757 189.26863 452
55.02581 -6.05812 194.17407 447
49.93003 -6.20854 199.25714 442
44.57445 -6.38551 204.64850 437
38.85653 -6.57398 210.35866 431
-153.10724 -12.58827 241.22552 416
-181.58710 -13.42558 269.92377 487
-149.60028 -12.40941 278.20255 285
84.61149 -9.53871 178.80505 464
68.58405 -10.56165 179.95267 460
64.05213 -10.82424 184.40575 455
59.39776 -11.11679 189.07939 451
54.48090 -11.41503 193.96274 446
49.34902 -11.75207 199.14899 441
43.93235 -12.07838 204.54407 436
38.20121 -12.47950 210.34082 430
-181.54106 -26.19881 269.98279 486
84.40665 -14.02572 178.54117 463
68.27510 -15.54416 179.67683 459
63.75836 -15.99176 184.17520 454
59.02054 -16.43182 188.89015 449
54.01194 -16.90118 193.79369 445
48.82647 -17.37719 198.95422 440
43.32380 -17.89837 204.46242 435
37.50519 -18.48728 210.24071 429
-181.47499 -39.16310 270.22791 486
84.19635 -18.58470 178.21423 462
68.01269 -20.61513 179.37419 457
63.45195 -21.22688 183.91789 453
58.64188 -21.79740 188.63988 448
53.62385 -22.45064 193.58298 443
48.29128 -23.11428 198.80058 438
42.70979 -23.81736 204.34897 433
36.78798 -24.57988 210.16142 428
84.03695 -23.22137 177.86975 461
67.79997 -25.76235 179.04959 456
63.15703 -26.53576 183.61403 452
58.33025 -27.28657 188.38329 447
53.20383 -28.09116 193.36526 442
47.69300 -28.96055 198.61098 419
41.62310 -29.92418 204.16295 414
34.89577 -31.00880 210.07506 402
83.87525 -27.90925 177.49341 459
67.24314 -31.11434 178.61555 435
62.21613 -32.07662 183.14240 431
56.89701 -33.04751 187.89523 426
51.26888 -34.12186 192.90771 421
45.37678 -35.27272 198.21457 416
38.80822 -36.48935 203.86061 404
31.67674 -37.84258 209.91394 399
-183.10977 -78.79476 216.42360 424
83.47004 -32.77292 176.98366 439
73.00071 -35.11664 179.63098 308
60.34207 -37.94670 182.44359 428
54.85558 -39.13856 187.30043 423
49.06200 -40.47616 192.39464 418
42.67866 -41.90833 197.77634 406
35.74043 -43.43570 203.52298 401
28.28168 -45.09685 209.68895 361
-190.35220 -93.96833 216.31372 296
82.20741 -37.97020 176.21405 435
74.61365 -39.92487 179.59373 308
58.45066 -44.04891 181.70715 424
52.82578 -45.51659 186.59845 420
46.47302 -47.11629 191.76080 408
39.71089 -48.84742 197.27782 402
32.51669 -50.73643 203.19287 397
24.21637 -52.89126 209.50311 341
80.92310 -43.37244 175.37180 432
75.99914 -44.80746 179.49992 426
56.53146 -50.45453 180.86591 414
50.28127 -52.24586 185.82077 409
43.70235 -54.16956 191.14345 404
36.23772 -56.33954 196.69942 387
27.94340 -58.75758 202.69380 371
79.62440 -48.99821 174.47363 429
74.53720 -50.61429 178.68890 423
53.95081 -57.32721 179.89383 397
47.05803 -59.56921 184.92110 393
39.71020 -61.93972 190.25288 388
31.51644 -64.62116 195.94749 372
22.03197 -67.67307 202.11978 367
78.27939 -54.80687 173.50644 423
73.03084 -56.70378 177.79153 419
50.49367 -64.81396 178.68550 393
43.27911 -67.42905 183.81497 388
35.03785 -70.38255 189.23773 372
25.79195 -73.74793 195.10223 367
12.90178 -78.33638 201.29005 316
76.87484 -60.97104 172.44371 391
70.48840 -63.46667 176.52333 386
58.11773 -68.36834 179.76086 300
38.72930 -76.06185 182.53731 373
27.66044 -80.42809 187.80818 336
13.57499 -85.96843 193.49597 316
-13.47981 -96.73950 199.23453 267
77.03379 -66.68693 171.77000 316
66.92113 -71.04916 175.01147 381
60.69775 -73.73974 179.71895 300
29.27666 -87.34631 180.25192 336
14.46957 -93.70003 185.46611 315
79.56480 -71.44820 171.79579 316
63.10461 -79.20158 173.32498 377
56.93507 -82.11772 178.25128 330
9.54077 -104.41344 176.07005 286
-16.84682 -116.79424 180.37372 284
82.28008 -76.16107 171.73039 316
60.90031 -87.05939 171.91284 308
45.07523 -95.06455 174.88972 324
33.29522 -101.11868 179.73923 275
85.12278 -80.78245 171.71710 316
64.07350 -92.33051 171.93179 308
36.36847 -107.57314 172.13516 300
-44.41576 -151.89417 164.44806 363
88.09892 -85.30921 171.70892 316
67.40066 -97.54483 171.90269 308
40.20915 -113.67816 172.13322 300
-34.23472 -157.64717 165.32773 286
91.19657 -89.78073 171.68221 316
70.88921 -102.71142 171.83861 308
44.15935 -119.61703 172.07062 300
94.45406 -94.18677 171.63214 316
74.54455 -107.70478 171.81499 308
11.41217 -150.64104 163.19974 382
97.86087 -98.49769 171.61249 316
78.38455 -112.66167 171.77298 308
26.75443 -150.14116 165.60844 386
101.38300 -102.72530 171.57603 316
82.33833 -117.47610 171.76961 308
34.19357 -154.84589 166.13808 297
105.06121 -106.82459 171.57600 316
59.15384 -144.82808 163.44585 300
108.80149 -110.85670 171.52023 316
65.85256 -148.69881 163.98862 404
112.72385 -114.75495 171.50540 316
77.00332 -148.29895 165.86714 409
101.58143 -119.63839 171.61520 316
67.85369 -153.34911 166.30724 306
85.20245 -145.22229 163.54036 307
91.70531 -147.74991 164.13823 424
100.60825 -147.13478 165.71152 419
107.47898 -148.58739 166.43434 314
114.81802 -149.05524 167.46669 316
-330.43802 -1008.54510 103.36631 393
396.57651 -96.93276 167.69528 313
399.77994 -91.98315 167.74332 313
403.68265 -87.47231 167.51869 429
410.71249 -84.49639 166.33577 442
417.66711 -81.12203 165.13205 438
421.44055 -76.10538 164.83447 316
424.13049 -70.59666 164.86185 316
438.53528 -76.30844 167.84773 305
426.69318 -65.00428 164.83170 316
440.97968 -70.15752 167.87604 305
404.13290 -51.25758 171.84398 316
447.80566 -65.45569 166.84579 433
405.98297 -46.28612 171.87401 316
455.66116 -60.75706 165.44896 428
395.97424 -42.31043 171.74788 316
448.34097 -55.78823 164.92593 307
396.96689 -37.19315 171.77794 316
420.24661 -42.44058 172.01279 309
471.84067 -53.97823 168.01009 297
34767.71484 -7747.09229 1385.37817 1000
397.83792 -32.07355 171.76964 316
421.22534 -36.55929 172.00557 309
473.27710 -46.55899 167.97757 448
398.47702 -26.94641 171.75838 316
422.01105 -30.69580 171.99445 309
480.31717 -39.97017 166.79947 443
399.02612 -21.76151 171.76405 316
422.62067 -24.77477 172.03275 309
486.50662 -32.90318 165.74400 458
399.38208 -16.60443 171.79646 316
423.07959 -18.82022 172.00240 309
454.17676 -21.78898 172.31416 301
399.58658 -11.37050 171.79968 316
423.37656 -12.87334 172.01894 309
454.49185 -14.84838 172.31596 301
399.63675 -6.16868 171.79594 316
423.43793 -6.91009 172.01035 309
450.81226 -7.80343 173.05539 384
399.50452 -0.92315 171.79764 316
423.35086 -0.94739 172.00885 309
450.76437 -0.96160 173.09129 485
399.24380 4.29697 171.78033 316
423.04907 5.00140 172.02049 309
450.73096 5.83828 173.00713 485
3893.92944 111.67607 -23.26462 483
398.83267 9.49170 171.76616 316
422.61682 10.96542 171.98557 309
453.79080 12.92498 172.30876 301
3874.96680 225.88301 -21.93653 490
398.22861 14.69901 171.76569 316
421.97482 16.94335 171.97981 309
453.06433 19.84232 172.28860 301
3869.52734 340.98563 -22.42949 487
397.50897 19.88964 171.73753 316
421.18008 22.88705 171.98961 309
487.39755 31.23180 165.25069 458
3878.61914 457.39398 -23.98336 458
396.58459 25.07245 171.75040 316
420.14777 28.80279 171.98651 309
481.21585 38.47724 166.20374 443
3888.05371 576.13513 -25.43431 457
395.52579 30.26632 171.72168 316
418.96552 34.72475 171.94447 309
474.04999 45.15092 167.31471 448
3898.15112 696.55951 -27.67707 455
394.30209 35.38738 171.72342 316
417.62555 40.55885 171.94098 309
469.05072 52.05574 167.95758 297
392.95804 40.46957 171.72084 316
416.12454 46.42455 171.95326 308
467.41135 59.55561 167.91838 297
391.42035 45.57909 171.70921 316
443.28366 60.58173 164.90610 307
389.72729 50.59626 171.67004 316
441.03809 67.20830 164.89581 307
387.90576 55.58103 171.65094 316
434.51440 72.33538 165.92943 424
385.91245 60.49166 171.63272 316
426.10861 76.41148 167.39014 429
407.29584 75.56094 164.75970 316
421.77487 81.77361 167.79051 305
404.62811 81.08860 164.76660 316
419.03204 87.85111 167.72832 305
401.74969 86.52368 164.76483 317
395.07211 89.87465 165.86537 429
387.60199 92.49870 167.22539 434
2954.68188 1608.76123 8.96145 461
382.97751 96.50404 167.65038 315
379.73599 101.34650 167.60432 313
4229.63721 4536.28857 18.12023 491
4052.63696 4618.21729 20.80993 422
4074.80884 4956.25635 10.84816 387
2457.71606 5635.01514 17.28717 457
2247.91235 5615.10547 21.16916 484
2270.41479 5678.12695 215.92404 416
2050.83569 5615.65771 22.55270 489
2070.69897 5676.34424 217.13046 418
1858.84338 5618.12354 24.67512 489
1683.38293 5677.05713 23.88150 306
731.55688 3202.47192 110.62699 319
671.30890 3538.91577 99.84927 484
526.06458 3194.10767 110.93147 491
-152.28131 999.07190 76.76963 335
-151.82510 998.01660 112.06391 404
-151.81094 998.24109 146.85983 457
-152.10190 998.54803 181.87683 457
-152.41814 999.07166 216.42384 490
-152.74680 1000.16266 251.46773 490
-152.99602 1001.06781 286.38162 498
-636.57727 1539.71033 101.06061 301
121.08804 148.54439 170.33484 453
104.55092 154.85912 166.38524 314
100.11909 151.39816 166.40004 314
95.86481 147.84378 166.37453 314
88.81541 147.59138 165.16673 430
80.88734 147.92027 163.64244 424
76.33343 144.13556 163.44037 307
64.16699 157.14915 166.22478 305
93.73508 118.32913 171.60481 316
59.70739 152.39114 166.22314 306
90.60057 114.42491 171.63362 316
53.85379 148.97963 165.74155 409
87.58108 110.40433 171.65298 316
43.41822 149.32951 163.77069 403
84.67323 106.32203 171.71059 316
65.87138 121.84429 171.82202 308
81.91450 102.08624 171.73346 316
62.66961 117.01626 171.84428 308
12.99897 155.59335 165.90958 295
79.24879 97.81380 171.75264 316
59.61724 112.12092 171.91377 308
6.69896 150.61050 165.47348 389
76.74165 93.42539 171.74586 316
56.72037 107.10397 171.93285 308
-7.77776 150.93613 162.96500 382
74.39299 88.98493 171.75983 316
53.92627 101.94193 171.93529 308
27.09007 119.04391 172.19466 300
72.19140 84.40876 171.81372 316
51.33797 96.76096 171.98856 308
23.96846 112.96200 172.21123 300
-52.56311 158.24301 165.06258 288
70.08138 79.80441 171.79536 316
53.97192 88.67538 173.34705 322
43.07690 94.65099 177.22926 319
22.34839 106.09527 179.99286 292
68.15794 75.12859 171.82570 316
61.10834 78.73179 175.77481 384
51.99911 83.35439 179.77040 300
-7.07087 113.50986 175.05907 293
70.78368 68.26214 173.16264 381
64.51801 71.22749 177.17816 390
49.99092 78.04229 179.77139 300
24.71529 89.98738 181.42586 330
2.47434 100.46511 185.27910 281
73.92352 61.56102 174.56923 386
67.78005 64.20422 178.42755 395
43.91729 74.53656 178.87025 373
34.81976 78.51729 183.61594 336
22.91909 83.66433 188.62428 331
6.69097 90.68201 193.90996 310
75.74042 55.67146 175.48367 420
70.66473 57.72133 179.54514 415
47.61815 66.85847 180.04581 389
40.43466 69.72308 184.97044 373
31.90159 73.07133 190.16689 368
21.30329 77.25899 195.67210 332
5.57503 83.53297 201.54675 311
77.16926 50.21373 176.22351 423
69.69314 52.89944 179.62276 308
51.07048 59.63568 181.09424 393
44.21549 62.10981 185.92987 388
36.91360 64.72884 191.10228 383
28.29462 67.87089 196.59923 367
18.77933 71.27596 202.59633 362
78.58508 44.91759 176.92552 427
68.60935 48.19639 179.60846 308
54.00023 52.94460 182.01654 410
47.86608 54.93734 186.80095 393
40.88557 57.17598 191.88579 388
33.42680 59.64317 197.31125 383
24.67256 62.49585 203.14299 367
79.97626 39.80620 177.55894 430
61.51815 45.17628 178.15248 425
56.20834 46.72190 182.68484 421
50.41540 48.42663 187.45082 409
44.14406 50.22057 192.48271 404
37.43511 52.18783 197.82745 399
29.93688 54.35371 203.58533 382
81.35134 34.83023 178.16959 435
63.32921 39.48912 178.78568 429
58.17403 40.80452 183.28233 424
52.72059 42.20906 188.01532 420
46.82779 43.72433 192.96333 408
40.37965 45.36697 198.22234 403
33.44317 47.19075 203.88452 397
25.18288 49.29961 209.91191 269
82.49309 30.08172 178.64668 457
65.09599 33.97939 179.40706 432
60.09197 35.08656 183.81770 428
54.82729 36.30101 188.46780 423
49.23700 37.52992 193.40707 418
43.19400 38.87799 198.61624 406
36.53366 40.40152 204.16426 401
29.24287 42.00889 210.08470 358
-183.48610 89.70784 216.44234 296
82.76261 25.56743 178.82913 459
66.62286 28.65482 179.86943 455
61.98798 29.56710 184.33492 431
56.83317 30.54716 188.93108 426
51.41912 31.59792 193.80595 421
45.70130 32.68147 198.93628 416
39.48475 33.87632 204.38846 404
32.60243 35.18661 210.19490 399
-183.05904 76.41132 216.48988 424
83.11937 21.11359 179.01462 461
67.01145 23.69516 180.03621 456
62.48040 24.42418 184.49567 452
57.76738 25.17563 189.13142 447
52.81443 25.95535 194.02515 442
47.55056 26.76966 199.14107 437
42.04313 27.66989 204.59627 432
35.74731 28.68306 210.30273 402
83.46243 16.69589 179.15491 462
67.39919 18.73961 180.21112 457
62.90121 19.31016 184.61829 453
58.19576 19.91144 189.24567 448
53.30564 20.55973 194.12923 443
48.09499 21.17852 199.21628 438
42.66226 21.86967 204.61305 433
36.90204 22.60657 210.34358 428
83.86840 12.31696 179.24858 463
67.84000 13.81739 180.33321 459
63.35877 14.26368 184.73201 454
58.69232 14.70861 189.35460 450
53.82299 15.16691 194.21915 445
48.70674 15.64541 199.31856 440
43.32318 16.15308 204.66855 435
37.57590 16.69238 210.38887 429
84.28051 7.94436 179.31026 464
68.29168 8.95633 180.40721 460
63.82878 9.22958 184.83189 455
59.22836 9.53194 189.41109 451
54.39955 9.86372 194.27263 446
49.34885 10.14764 199.36816 441
43.96339 10.48678 204.69597 436
38.31472 10.84485 210.39554 430
-181.58804 24.75804 269.70462 486
-187.32460 25.19871 284.21417 360
84.74018 3.60553 179.36061 465
68.77537 4.12040 180.44350 461
64.38116 4.24114 184.87047 457
59.84280 4.37965 189.49966 452
55.04324 4.55504 194.29929 447
49.96510 4.70191 199.40057 442
44.66020 4.87988 204.74242 437
39.03726 5.03204 210.39333 431
-181.60857 12.02189 269.73071 487
