# .PCD v.7 - Point Cloud Data file format
VERSION .7
FIELDS x y z rgb
SIZE 4 4 4 4
TYPE F F F U
COUNT 1 1 1 1
WIDTH 409
HEIGHT 1
VIEWPOINT 5217.267578 -4033.808838 154.808548 -0.041965 -0.142753 -0.009235 0.988825
POINTS 409
DATA ascii
85.40216 -0.67554 179.05769 467
69.50225 -0.68809 180.18814 462
65.08766 -0.68023 184.67189 457
60.47132 -0.66587 189.27896 453
55.69695 -0.66863 194.14232 448
50.60554 -0.64668 199.24507 443
45.27111 -0.66387 204.66171 438
39.62548 -0.63542 210.34573 432
-152.81000 -0.60790 241.13617 419
-181.54851 -0.60475 269.95444 487
-143.61069 -0.63793 277.28140 284
85.11142 -5.08650 178.84331 465
69.07747 -5.55766 179.98058 461
64.65565 -5.72190 184.47531 456
60.00050 -5.84160 189.10364 452
55.13974 -6.02242 194.02644 447
50.05627 -6.14274 199.13513 442
44.66857 -6.35249 204.55534 437
38.95323 -6.50412 210.31366 431
-153.05110 -12.51346 241.19850 416
-181.48286 -13.40042 270.02383 487
-149.08046 -12.40881 278.23901 285
84.83987 -9.53082 178.59853 464
68.75493 -10.52786 179.76900 460
64.24223 -10.83909 184.25249 455
59.55800 -11.09182 188.91380 451
54.65716 -11.39833 193.85052 446
49.46385 -11.73851 199.00269 441
44.04000 -12.08920 204.47716 436
38.25365 -12.44226 210.27281 430
-181.44591 -26.31307 270.05933 486
84.63200 -14.04687 178.33870 463
68.50711 -15.56504 179.50195 459
63.94305 -15.98002 183.97986 454
59.17392 -16.45228 188.69231 449
54.16828 -16.92719 193.65489 445
48.92931 -17.40900 198.84175 440
43.41867 -17.92457 204.36295 435
37.57015 -18.46982 210.18951 429
-181.39825 -39.16338 270.30728 486
84.42921 -18.62444 178.01488 462
68.24355 -20.64099 179.17459 457
63.61586 -21.25755 183.73683 453
58.78133 -21.86965 188.46443 448
53.73173 -22.49265 193.46394 443
48.43922 -23.17014 198.71413 438
42.78785 -23.85581 204.25888 433
36.84250 -24.63104 210.13835 428
84.24077 -23.26774 177.67111 461
67.97073 -25.84181 178.83931 456
63.30729 -26.59209 183.43912 452
58.47756 -27.33183 188.21205 447
53.34708 -28.17910 193.21896 442
47.75832 -29.01815 198.52625 419
41.62955 -30.00466 204.08870 414
34.91321 -31.04918 209.99730 402
84.08630 -28.01383 177.26927 459
67.39286 -31.16473 178.39949 435
62.35399 -32.15530 182.93231 431
57.02095 -33.15782 187.73259 426
51.35147 -34.25947 192.78500 421
45.40992 -35.38964 198.13612 416
38.83943 -36.62749 203.77055 404
31.69119 -38.01406 209.82973 399
-183.11778 -78.91692 216.39491 424
83.64140 -32.88680 176.79242 438
73.96311 -35.04881 179.58354 308
60.47447 -38.06748 182.23792 428
54.95647 -39.29107 187.13544 423
49.16246 -40.59842 192.28159 418
42.67587 -42.04688 197.67513 406
35.75424 -43.58734 203.46948 401
28.25375 -45.24129 209.66125 395
-190.72934 -94.17741 216.31032 296
82.36247 -38.12870 176.00827 435
75.57641 -39.85526 179.58890 308
58.60044 -44.21151 181.48816 424
52.88939 -45.70863 186.47392 420
46.55824 -47.30684 191.65073 408
39.73746 -49.08995 197.18370 402
32.47528 -50.91096 203.10738 397
24.09088 -53.07639 209.44267 341
81.07412 -43.55006 175.16118 432
76.15826 -44.97410 179.29442 426
56.60118 -50.64843 180.68683 414
50.34923 -52.45902 185.68773 409
43.73457 -54.37777 190.95937 392
36.22908 -56.59706 196.62199 387
27.84938 -58.98476 202.62241 371
79.77317 -49.21965 174.24893 429
74.67136 -50.84105 178.45386 423
53.98867 -57.58709 179.72771 397
47.10952 -59.82567 184.72159 393
39.69821 -62.22985 190.13750 388
31.40410 -64.88928 195.87570 372
21.89878 -67.95939 202.03262 367
78.44068 -55.10072 173.27928 425
73.13237 -56.99471 177.57938 419
50.55048 -65.10926 178.45163 393
43.26321 -67.74015 183.62631 388
34.99096 -70.71553 189.09352 372
25.68812 -74.04762 194.99657 367
12.37534 -78.88380 201.22066 316
76.95076 -61.26911 172.19371 391
70.51252 -63.80831 176.30704 386
58.99837 -68.35724 179.75038 300
38.62577 -76.42472 182.31505 373
27.36735 -80.91083 187.60490 336
13.07159 -86.52232 193.36801 316
-16.46441 -98.27364 198.94684 267
77.94511 -66.66857 171.80705 316
66.92575 -71.42101 174.76292 381
60.86205 -74.03165 179.56715 391
28.93325 -87.86826 180.08426 336
13.72426 -94.44477 185.23012 288
80.49657 -71.41103 171.76181 316
63.06088 -79.63202 173.03406 377
56.50383 -82.74987 177.98259 330
31.75654 -94.33691 179.99687 292
-16.03569 -116.85305 180.34378 284
83.20403 -76.15295 171.72569 316
61.76725 -87.04208 171.93370 308
44.54140 -95.85877 174.59430 324
30.90060 -102.78680 179.14952 277
86.03474 -80.78468 171.73738 316
64.92382 -92.38417 171.90286 308
37.25343 -107.60840 172.14333 300
-43.37884 -151.96301 164.41301 363
88.98377 -85.33775 171.69005 316
68.27114 -97.57605 171.88551 308
41.03607 -113.66161 172.11246 300
-33.35262 -157.72110 165.31609 286
92.13849 -89.81880 171.67978 316
71.77794 -102.72561 171.84860 308
45.02517 -119.69967 172.09756 300
95.38375 -94.24713 171.64749 316
75.45535 -107.77871 171.80510 308
12.46237 -150.59673 163.15704 382
98.74758 -98.55192 171.61902 316
79.22292 -112.72892 171.81047 308
27.78027 -150.14664 165.68138 386
102.26589 -102.75636 171.58722 316
83.19460 -117.56785 171.75351 308
35.08165 -154.91116 166.14935 297
105.91685 -106.92554 171.55437 316
60.02457 -144.88364 163.44887 300
94.75029 -111.55071 171.67615 316
51.98120 -149.23589 164.16713 404
98.63692 -115.48875 171.60651 316
63.18396 -148.79581 166.11131 409
102.66471 -119.31525 171.60211 316
69.01905 -152.98558 166.36020 306
86.34219 -144.86058 163.56252 307
92.61079 -147.68593 163.99229 425
101.52073 -147.03064 165.62108 419
108.58597 -148.26715 166.46837 314
115.86514 -148.79469 167.44408 316
-760.30206 -1448.80371 102.15211 432
-767.45105 -1459.00024 158.88408 311
398.26022 -97.18612 167.71909 313
401.49985 -92.24607 167.76532 313
404.57260 -87.24100 167.78271 315
411.38467 -84.16092 166.66548 442
418.30563 -80.80302 165.49100 438
2693.08740 -1151.17297 39.22796 431
423.21500 -76.30126 164.86473 316
425.97009 -70.80427 164.85301 316
440.49832 -76.55214 167.81476 305
428.51660 -65.21040 164.82584 316
442.96472 -70.37130 167.87355 305
393.42236 -52.09116 171.72717 316
443.13620 -68.27862 165.32651 433
394.73019 -47.08193 171.74089 316
446.53040 -62.18444 164.96783 307
395.84723 -42.04150 171.75452 316
448.13229 -55.50492 164.92175 307
470.36871 -61.17892 167.94185 297
396.83575 -36.99024 171.77882 316
420.07544 -42.16686 172.00740 309
471.59659 -53.67884 168.00241 297
397.65646 -31.83340 171.76755 316
421.03326 -36.29518 171.98849 309
473.47144 -46.31059 167.88873 448
398.32257 -26.70057 171.77065 316
421.83514 -30.45846 172.00514 309
480.59167 -39.73261 166.72430 443
398.85269 -21.56310 171.76700 317
422.45938 -24.52034 172.01245 309
486.76312 -32.69059 165.65631 458
399.20731 -16.35624 171.79791 317
422.87927 -18.61729 172.00775 309
453.96976 -21.51555 172.32321 301
399.40778 -11.13107 171.78227 317
423.17654 -12.63147 172.03116 309
454.32397 -14.59758 172.32805 301
399.42303 -5.93598 171.76735 317
423.21005 -6.66536 172.00032 309
450.73752 -7.53158 173.02725 485
399.29480 -0.72608 171.78494 317
423.13773 -0.71927 171.98398 309
450.73474 -0.68715 173.03624 485
399.01306 4.49542 171.76402 317
422.83630 5.27590 172.02052 309
450.70337 6.11549 172.96843 485
3984.09351 116.86198 -29.15374 484
398.59875 9.75537 171.78584 317
422.40186 11.22566 171.97374 309
453.53455 13.16814 172.28377 301
3962.97729 233.04712 -28.26381 491
398.01089 14.95139 171.75494 317
421.74396 17.20783 171.98749 309
452.83868 20.12814 172.28142 301
3957.25439 351.37546 -28.45352 488
397.24677 20.15876 171.76208 316
420.92087 23.14653 171.95998 309
487.15558 31.49792 165.22824 458
3964.95288 470.36548 -30.39746 460
396.35098 25.32623 171.75818 316
419.89749 29.07452 171.98645 309
480.95874 38.71150 166.23145 443
3972.95044 591.74323 -31.28032 338
395.27194 30.48273 171.71487 316
418.71939 34.93708 171.95268 309
473.72321 45.44102 167.31863 448
3981.83618 713.97009 -33.69887 338
394.08731 35.63206 171.69765 316
417.38541 40.80595 171.92859 309
468.82715 52.33115 167.97696 297
3992.71265 839.23737 -35.72530 337
392.69180 40.73992 171.70775 316
415.84415 46.65121 171.90892 309
467.14981 59.79078 167.92191 297
391.14902 45.77496 171.68556 316
443.00110 60.84438 164.89211 307
389.46057 50.82200 171.66418 316
440.75067 67.45476 164.91168 307
387.65683 55.78367 171.65753 316
434.10217 72.53370 165.96205 424
385.65302 60.74537 171.61166 316
425.71902 76.61327 167.39062 429
406.99234 75.79649 164.74924 316
421.44775 82.05676 167.79889 305
404.31677 81.27909 164.74805 316
418.73480 88.07913 167.72153 305
401.42645 86.70110 164.76669 317
394.64331 90.04822 165.89917 429
387.17456 92.61475 167.22392 434
382.68521 96.73779 167.67230 315
379.43314 101.56546 167.63457 313
4252.61670 4564.49170 16.95785 430
4134.12891 4720.89795 15.68384 390
2992.29175 3565.12598 67.99751 436
2685.42480 5684.38477 13.38230 436
2454.49561 5632.52881 18.55507 374
2248.57568 5619.00635 21.22346 484
2052.09521 5625.68115 22.01749 488
2093.73218 5752.12451 216.82050 470
1859.92456 5627.44775 23.97641 488
1696.89746 5733.27783 21.86363 448
728.54285 3189.77441 110.67239 478
627.39111 3197.94092 110.44140 489
121.72392 148.51424 170.35150 453
105.16855 154.80035 166.36461 314
100.80059 151.36691 166.36661 314
96.52419 147.80956 166.38303 314
89.48015 147.59209 165.18138 430
81.55560 147.90930 163.61414 424
76.95626 144.14362 163.48334 307
64.79475 157.09448 166.21242 305
94.38971 118.31658 171.59598 316
60.34738 152.36081 166.23624 305
91.25506 114.41563 171.64294 316
54.50840 148.94356 165.72990 409
88.23527 110.41436 171.66356 316
44.09143 149.31645 163.77243 403
85.33086 106.31992 171.69341 316
66.54088 121.85123 171.82002 308
82.58271 102.09993 171.69290 316
63.34245 117.06058 171.85603 308
13.66352 155.61678 165.91969 295
79.95970 97.82339 171.70518 316
60.26753 112.09560 171.88101 308
7.37252 150.53816 165.46394 389
77.45103 93.46719 171.77518 316
57.35150 107.11102 171.93707 308
-7.10162 150.90381 162.99908 382
75.08012 88.99519 171.75661 316
54.60311 101.99502 171.96370 308
27.69600 119.09373 172.13873 300
72.90288 84.44636 171.78394 316
52.04970 96.75111 171.97612 308
24.58823 112.99622 172.21477 300
-51.97931 158.28340 165.06287 288
70.81312 79.84541 171.80173 316
53.53577 89.32632 173.04292 322
42.55079 95.37707 176.93266 319
22.97171 106.12190 180.00096 292
68.87733 75.15558 171.83374 316
60.98891 79.16777 175.57709 385
52.68413 83.38885 179.74947 300
-5.41793 112.97583 175.27324 293
70.76378 68.64690 172.93361 381
64.46767 71.60545 176.97496 390
50.68206 78.09624 179.75142 300
24.38017 90.45466 181.23790 330
1.24231 101.37938 185.00082 282
73.93807 61.88669 174.33566 386
67.76929 64.57238 178.26607 395
43.87248 74.92500 178.69336 373
34.50856 78.97692 183.44078 336
22.54807 84.09505 188.46640 331
6.11369 91.21665 193.80768 310
75.84586 55.99209 175.30991 420
70.71349 58.02128 179.35692 415
47.58313 67.16111 179.89407 389
40.33066 70.05524 184.81935 373
31.79724 73.42760 190.06528 368
20.93355 77.72468 195.58875 332
4.99461 84.02539 201.47963 311
77.25084 50.45948 176.04561 423
70.40456 52.96762 179.59750 308
51.02424 59.94814 180.95027 393
44.18936 62.41546 185.79962 388
36.85328 65.02654 190.98402 383
28.11628 68.16758 196.55872 368
18.60399 71.61849 202.58374 362
78.67642 45.18282 176.73459 427
69.30901 48.21840 179.63190 308
54.01640 53.18169 181.84491 410
47.82873 55.18762 186.69090 393
40.83390 57.45110 191.78990 388
33.31821 59.88029 197.25966 383
24.47847 62.80118 203.08960 367
80.06722 40.01700 177.38509 430
61.59919 45.39411 178.00447 425
56.24328 46.92982 182.55647 421
50.43254 48.63304 187.31375 409
44.12926 50.46168 192.37077 404
37.35912 52.45446 197.76506 399
29.82181 54.61922 203.53673 382
81.46955 35.03855 177.98399 435
63.38012 39.70243 178.64015 429
58.20636 41.01252 183.13875 424
52.74319 42.40310 187.89871 420
46.82285 43.92443 192.86388 408
40.34485 45.62031 198.16351 403
33.36205 47.41829 203.85924 397
24.93018 49.57473 209.89629 269
82.62638 30.24788 178.48099 457
65.16405 34.17817 179.25745 432
60.16106 35.29661 183.70354 428
54.84721 36.44868 188.36308 423
49.24945 37.70757 193.32825 418
43.16907 39.07695 198.54222 406
36.45617 40.56967 204.10432 401
29.12167 42.23168 210.09987 358
-183.97748 89.85275 216.56546 296
82.91810 25.74221 178.65118 459
66.73615 28.80660 179.74197 455
62.01603 29.71465 184.19218 431
56.89013 30.71642 188.80928 426
51.44487 31.72754 193.67793 421
45.68480 32.82317 198.86020 416
39.45379 34.02082 204.37457 405
32.52177 35.34795 210.19681 399
-183.04630 76.52572 216.54440 424
83.28537 21.26574 178.83334 461
67.11449 23.80586 179.90411 456
62.57033 24.52593 184.37721 452
57.83089 25.27947 189.04616 447
52.86595 26.09763 193.96594 442
47.60531 26.90888 199.11243 437
42.05219 27.81244 204.55942 432
35.62978 28.82382 210.31633 402
83.63639 16.83100 178.95776 462
67.50687 18.84116 180.07823 457
63.01551 19.40732 184.50677 453
58.28722 20.01404 189.15468 448
53.36099 20.65862 194.05334 443
48.15843 21.33085 199.19975 438
42.66179 21.99158 204.60300 433
36.87549 22.72153 210.37874 428
84.00797 12.40099 179.07014 463
67.97366 13.91845 180.16788 459
63.45861 14.35283 184.63333 454
58.77394 14.81330 189.24564 450
53.86499 15.27568 194.13139 445
48.72557 15.76507 199.26404 440
43.30433 16.27427 204.66415 435
37.56160 16.80671 210.38451 429
84.44267 8.03282 179.15213 464
68.38978 9.01221 180.24570 460
63.93167 9.31299 184.68906 455
59.31715 9.62377 189.33777 451
54.49052 9.88401 194.19005 446
49.36222 10.20707 199.28712 441
43.98307 10.54768 204.69312 436
38.27473 10.94608 210.41061 430
-181.52242 24.74629 269.94003 486
-187.31079 25.12482 284.44785 360
84.87539 3.66200 179.20987 465
68.92372 4.14127 180.32921 461
64.48797 4.28536 184.76952 457
59.91237 4.41519 189.39644 452
55.09639 4.57590 194.23660 447
50.03312 4.75611 199.35835 442
44.65469 4.90665 204.69534 437
38.99314 5.10679 210.41452 431
-181.61488 11.98616 269.87930 487
