# .PCD v.7 - Point Cloud Data file format
VERSION .7
FIELDS x y z rgb
SIZE 4 4 4 4
TYPE F F F U
COUNT 1 1 1 1
WIDTH 403
HEIGHT 1
VIEWPOINT 5509.320312 -3997.799805 152.358994 -0.056710 -0.140330 -0.006820 0.988456
POINTS 403
DATA ascii
83.52827 -0.98307 179.49962 316
68.80238 -0.99675 180.86389 462
64.46208 -0.99171 185.25296 457
59.94243 -0.97244 189.82756 453
55.21213 -0.95595 194.62648 448
50.21317 -0.98622 199.65193 443
44.98059 -0.98095 204.92006 438
39.41026 -0.95284 210.54428 432
-152.64099 -0.78789 241.03748 419
-181.66426 -0.75540 269.57227 487
-146.60532 -0.84803 277.28421 284
84.04307 -5.33912 179.52031 316
68.39787 -5.79484 180.65941 461
64.03630 -5.95893 185.04419 457
59.47446 -6.08520 189.64217 452
54.66832 -6.21301 194.46681 447
49.68359 -6.37306 199.52831 442
44.37449 -6.57113 204.84360 437
38.76205 -6.72618 210.51433 431
-152.97697 -12.61243 241.06754 416
-181.63007 -13.51098 269.67899 487
-151.24837 -12.51186 278.11255 285
84.08968 -9.69404 179.34151 464
68.07103 -10.66934 180.41461 460
63.65298 -10.98660 184.83812 455
59.01057 -11.27460 189.43243 451
54.15856 -11.55950 194.28804 446
49.12154 -11.89054 199.38071 441
43.75768 -12.23435 204.73543 436
38.09286 -12.55536 210.41914 430
-181.67729 -26.19717 269.70874 486
83.88101 -14.14050 179.08678 463
67.78654 -15.61477 180.16837 459
63.31271 -16.03209 184.60864 454
58.60507 -16.50796 189.22066 450
53.71916 -16.95244 194.10423 445
48.56952 -17.44401 199.21306 440
43.12720 -17.96724 204.61899 435
37.40785 -18.47887 210.35455 429
-181.57834 -39.05544 269.85443 486
83.67815 -18.62965 178.78354 462
67.56554 -20.63302 179.85995 457
63.01669 -21.20652 184.34274 453
58.29211 -21.81491 189.01335 448
53.31581 -22.42536 193.89877 443
48.08245 -23.07691 199.08205 438
42.54160 -23.78567 204.52705 433
36.69382 -24.55115 210.28328 428
83.46510 -23.17285 178.43974 461
67.29449 -25.74375 179.53316 456
62.72311 -26.45073 184.04262 452
57.95726 -27.21557 188.73396 447
52.90113 -28.01180 193.70757 442
47.47015 -28.86258 198.85913 420
41.47714 -29.81341 204.36588 414
34.86691 -30.83933 210.16895 402
83.31354 -27.81959 178.04903 459
66.79550 -30.95676 179.09380 435
61.80003 -31.90188 183.57861 431
56.55384 -32.93008 188.25705 426
51.03925 -33.98801 193.25957 421
45.17069 -35.09830 198.50047 416
38.69042 -36.32553 204.04497 404
31.64504 -37.66968 210.04025 399
-183.07895 -78.42461 216.36633 424
82.93946 -32.61354 177.58897 439
65.09825 -36.57354 178.35037 432
59.98134 -37.74926 182.89931 428
54.54858 -38.92965 187.67482 423
48.85492 -40.19314 192.74826 418
42.48500 -41.61649 198.05148 406
35.68242 -43.14690 203.71829 401
28.25100 -44.83800 209.82472 361
-189.17140 -93.20132 216.33029 296
81.68617 -37.72214 176.81537 435
72.05125 -40.19351 179.60905 308
58.10765 -43.77806 182.16519 424
52.50094 -45.22263 187.05319 420
46.28938 -46.79627 192.14595 408
39.61218 -48.51543 197.56059 403
32.45477 -50.31581 203.37201 397
24.31579 -52.41661 209.64061 341
80.43111 -43.07110 175.99626 432
73.74844 -44.97193 179.59250 308
56.19324 -50.10033 181.38493 414
50.02717 -51.85681 186.29402 409
43.55205 -53.73653 191.48099 404
36.25980 -55.84978 197.01700 387
28.12063 -58.25055 202.92192 371
79.14066 -48.58949 175.08376 427
74.10727 -50.20845 179.24286 423
53.68389 -56.84881 180.41106 398
46.90562 -59.03865 185.34651 393
39.66103 -61.35605 190.64922 388
31.57072 -64.00070 196.25626 372
22.31219 -67.03300 202.37968 367
77.80244 -54.36196 174.13939 424
72.61115 -56.20866 178.32982 419
50.30403 -64.25369 179.20306 393
43.13483 -66.78024 184.29164 388
35.10086 -69.66345 189.65430 372
25.98776 -73.00563 195.40213 367
13.92707 -77.32977 201.54507 316
76.43967 -60.36234 173.11472 420
70.21199 -62.80645 177.20114 386
55.41211 -68.66796 179.74686 300
38.72467 -75.27485 183.00798 373
28.18459 -79.44454 188.25108 336
14.59406 -84.80322 193.90871 316
-7.16066 -93.42659 199.86873 267
74.31678 -66.95265 171.83084 316
66.68522 -70.27590 175.65773 382
58.01857 -74.00520 179.74492 300
29.76503 -86.20857 180.86462 336
15.46440 -92.36067 186.02538 315
76.85227 -71.71508 171.78944 316
63.04224 -78.20699 174.03363 390
57.04940 -81.06400 178.89561 386
12.05067 -102.18452 177.05482 286
-19.54937 -116.99119 180.42445 284
79.52233 -76.43049 171.75557 316
58.15387 -87.34881 171.96329 308
46.13047 -93.44697 175.79056 325
31.56274 -100.83704 179.96550 292
82.31693 -81.09409 171.77132 316
-28.20180 -15.48466 -7.50856 308
33.59281 -107.84510 172.16061 300
-46.83212 -152.00433 164.49637 363
85.28133 -85.64340 171.71529 316
64.58984 -97.87343 171.90305 308
37.38602 -113.94997 172.11652 300
-37.36072 -158.07634 165.30009 286
88.37258 -90.14011 171.68399 316
68.06021 -103.02824 171.84891 308
41.34269 -119.94245 172.10126 300
91.58084 -94.52049 171.65628 316
71.66212 -108.06208 171.85992 308
8.87728 -150.70638 163.28387 382
94.94975 -98.82875 171.63445 316
75.48013 -112.97608 171.81841 308
24.12889 -150.24597 165.72655 386
98.43948 -103.07008 171.64517 316
79.36480 -117.82053 171.80104 308
31.09224 -155.26047 166.16470 297
102.07240 -107.17245 171.59422 316
56.00395 -145.25885 163.42043 300
105.84600 -111.21506 171.57465 316
63.15247 -148.80283 164.07166 403
109.67820 -115.14231 171.53459 316
74.27098 -148.37527 165.98991 409
113.69370 -118.97400 171.48550 316
80.57397 -152.05922 166.40311 306
97.60489 -144.19653 163.56390 311
85.92031 -156.63226 166.40184 305
-1091.46973 -1409.52039 153.02567 491
103.90150 -146.80565 164.10265 414
112.99903 -145.90266 165.75797 419
119.58691 -147.52304 166.45854 314
-532.12427 -987.64117 93.28611 497
-535.02417 -991.69177 133.87785 381
110.84484 -151.98349 166.48404 315
120.23204 -149.17918 168.44843 489
127.59218 -148.67886 169.58667 486
393.21378 -97.83353 167.72928 313
396.39902 -92.92791 167.77129 313
400.59082 -88.56255 167.44287 429
408.10184 -85.77621 166.08846 442
415.04205 -82.37449 164.88150 438
418.08643 -76.99470 164.81659 316
420.77255 -71.50249 164.83913 316
435.15903 -77.18434 167.85530 305
398.83377 -57.04884 171.79680 316
438.04626 -71.21492 167.78035 424
400.80920 -52.11601 171.79811 316
445.72739 -66.75124 166.52608 433
402.58649 -47.13889 171.83141 316
453.62302 -61.96582 165.14630 428
21674.68359 -6231.22510 -1982.34607 1000
404.25595 -42.12986 171.82780 316
456.40030 -55.51545 165.00601 307
405.78607 -37.09641 171.82542 316
458.29422 -48.85258 164.97827 308
407.12463 -32.02829 171.84276 317
430.21231 -36.41807 172.08902 309
481.84644 -46.27793 168.03395 297
408.32895 -26.91604 171.89207 317
431.50992 -30.58394 172.10341 309
483.19305 -38.81347 168.11354 297
409.36819 -21.82634 171.90004 317
432.67065 -24.76871 172.11516 309
487.50421 -31.71846 167.49901 458
399.63870 -17.65512 171.77556 316
423.32373 -19.91969 171.99812 309
489.89441 -26.32701 165.28119 301
399.88184 -12.40974 171.79855 316
423.67914 -13.94442 172.02309 309
454.89319 -15.95160 172.34486 301
399.99097 -7.19958 171.77628 316
423.81921 -7.98770 172.01802 309
455.08405 -9.01436 172.33174 301
399.93228 -1.93292 171.76410 316
423.77914 -1.96678 172.03084 308
450.78467 -2.02387 173.15125 485
399.71506 3.30960 171.76822 316
423.57535 3.99608 172.00235 308
450.76721 4.83190 173.15530 485
399.29254 8.54540 171.75224 316
423.18536 10.00456 172.00829 308
454.47598 11.89813 172.29608 300
398.75613 13.75925 171.78485 316
422.58966 15.99233 171.98068 308
453.82861 18.88027 172.27550 300
398.06055 19.00048 171.76447 316
421.83057 21.95588 171.96291 308
488.11884 30.23924 165.23921 458
3708.55957 432.41281 104.25573 358
397.22055 24.19597 171.72826 316
420.85580 27.90748 172.00316 308
482.15085 37.57792 166.20183 443
396.16196 29.38732 171.75145 316
419.74966 33.88235 171.96158 308
474.94675 44.30947 167.39003 448
395.00302 34.54967 171.74770 316
418.41943 39.79969 171.95554 308
470.14590 51.25288 168.00996 297
393.67181 39.72774 171.72116 316
416.94806 45.62197 171.93901 308
468.54697 58.85057 167.92809 297
392.18216 44.82971 171.71144 316
444.27588 59.86797 164.91293 307
390.49579 49.86390 171.68297 316
442.07657 66.56134 164.91122 307
388.70392 54.87505 171.68491 316
435.69476 71.72382 165.90724 424
386.74347 59.87564 171.64203 316
427.26630 75.82716 167.37154 429
408.27054 74.99111 164.74997 316
422.82800 81.25716 167.78973 305
405.60916 80.53282 164.74535 316
420.18018 87.34606 167.73242 305
402.70947 85.98023 164.78017 316
396.21524 89.47400 165.83827 429
388.72885 92.11178 167.15294 434
384.00696 96.09895 167.66235 315
380.75726 100.99883 167.64169 313
4011.04761 4283.80420 34.47372 454
3954.97388 4497.18408 29.89249 390
3994.17212 4846.08057 21.67727 373
2577.15845 4605.37354 51.31747 318
2241.42896 5586.82275 221.07321 489
2048.31519 5599.67822 220.53470 492
1509.70874 5730.86328 220.40338 269
643.93127 3307.23804 109.45304 281
513.35114 3050.49072 117.22794 394
410.75204 2952.80225 120.99455 423
-18238.07617 56836.84766 -13710.57520 1000
119.67328 148.99840 170.49123 316
-1230.36145 2121.43774 304.27457 381
98.20998 152.25485 166.36238 314
93.87241 148.67334 166.37749 313
87.39088 147.64804 165.38690 430
79.45692 147.98943 163.87473 425
74.11626 144.89407 163.42383 307
91.74255 118.74038 171.62817 315
57.35586 153.21249 166.18326 304
88.55592 114.80652 171.66441 315
52.22314 149.04079 165.97099 409
85.50147 110.74792 171.67068 315
41.76460 149.44440 164.00687 404
82.58971 106.61092 171.70345 316
63.67357 122.26353 171.88268 308
79.81340 102.37144 171.75308 316
60.44097 117.43975 171.90439 308
10.09453 156.54796 165.86157 295
77.15050 98.03369 171.73257 316
57.33673 112.46149 171.90698 308
4.92036 150.64359 165.69113 389
74.63059 93.61182 171.79260 316
54.41422 107.35294 171.95561 308
-9.61644 150.98206 163.19807 383
72.25352 89.10637 171.81529 316
51.63447 102.18629 171.95566 308
24.52300 119.42188 172.16705 300
70.01234 84.49614 171.83154 316
49.04940 96.91994 171.97563 308
21.46282 113.25409 172.23814 300
-55.87716 159.12794 165.04303 288
67.91858 79.83965 171.82529 316
55.11049 86.90084 174.26733 321
44.39333 92.82779 178.07533 318
19.65590 106.42718 180.02547 292
67.45522 74.36386 172.28667 376
61.24866 77.55906 176.47391 384
49.59839 83.48246 179.76736 300
-12.22234 115.09145 174.65024 293
70.77267 67.21990 173.81969 381
64.69904 70.11198 177.83400 390
37.27852 83.01111 177.51410 334
25.53998 88.53603 182.07877 330
5.86653 97.81695 186.20940 281
73.90186 60.54255 175.19994 386
67.92149 63.13996 179.05838 395
44.05294 73.47816 179.44052 373
35.53482 77.18671 184.22899 335
23.78849 82.26723 189.15390 331
8.12569 89.04090 194.43462 310
75.48926 54.83536 176.07982 420
68.60414 57.54134 179.62718 308
47.64401 65.88897 180.60260 388
40.52285 68.71249 185.45509 384
32.16594 72.02364 190.59613 368
22.21379 75.96307 196.12706 331
7.14025 81.92615 201.94861 311
76.88771 49.39388 176.83180 423
67.35207 52.83512 179.62993 308
51.04377 58.74263 181.65753 393
44.29342 61.17263 186.41679 388
37.10077 63.76871 191.54700 383
28.58216 66.81186 197.01714 367
19.24879 70.17921 202.91441 362
78.28536 44.17771 177.49167 427
59.47510 50.28122 178.00755 421
53.87730 52.12387 182.51086 410
47.83760 54.07447 187.24216 405
41.03889 56.25439 192.26553 388
33.65367 58.64148 197.67303 383
25.03475 61.45538 203.45451 367
79.68139 39.09411 178.13008 430
61.28650 44.45441 178.70714 425
56.06894 45.95834 183.18138 421
50.34780 47.61971 187.86911 409
44.12675 49.43591 192.86069 404
37.48161 51.35405 198.16658 399
30.24911 53.44340 203.88351 382
81.02142 34.16388 178.75087 434
63.07622 38.80688 179.32504 429
57.97785 40.08075 183.74574 424
52.61192 41.47734 188.43524 419
46.78994 42.95267 193.35939 408
40.38186 44.61338 198.55338 403
33.57805 46.33646 204.16037 397
-188.56813 103.55081 202.86572 483
82.02744 29.49134 179.15704 457
64.84120 33.35522 179.90578 432
59.88142 34.43103 184.30614 428
54.66003 35.60664 188.90205 423
49.14907 36.85262 193.78622 418
43.20220 38.16224 198.94460 406
36.64038 39.61340 204.41513 401
29.31988 41.25092 210.28624 358
-182.72372 88.74323 216.57874 438
82.32919 25.03061 179.35487 459
66.18672 28.11045 180.36154 455
61.68868 28.97455 184.79553 450
56.66901 29.94518 189.36726 426
51.29783 30.93682 194.15080 421
45.64148 32.01178 199.25912 416
39.55654 33.19350 204.62759 404
32.70041 34.50817 210.37920 364
-182.89603 75.79224 216.58020 424
82.59387 20.64567 179.52171 316
66.57359 23.15855 180.54564 456
62.09171 23.88102 184.92479 452
57.40211 24.63880 189.55014 447
52.51918 25.40173 194.37001 442
47.34105 26.21160 199.46031 437
41.87934 27.08652 204.81856 432
35.82599 28.01863 210.49030 402
82.42138 16.32029 179.51361 316
66.95095 18.26810 180.68510 457
62.51178 18.85006 185.06592 453
57.87302 19.43096 189.66333 448
52.98882 20.03172 194.43794 443
47.85859 20.66717 199.50000 438
42.45523 21.37069 204.87413 433
36.76448 22.06919 210.53314 428
82.42929 12.00255 179.52592 316
67.37470 13.41877 180.79735 459
62.97896 13.81457 185.19691 454
58.35586 14.27517 189.74632 450
53.52501 14.73569 194.55855 445
48.46220 15.20581 199.57710 440
43.13982 15.67866 204.90108 435
37.48432 16.23598 210.56413 429
82.52701 7.67268 179.52310 316
67.83767 8.60528 180.90553 460
63.45692 8.85650 185.25400 456
58.87046 9.13977 189.80775 451
54.12200 9.42501 194.60048 446
49.10416 9.75506 199.61542 441
43.78596 10.08043 204.92751 436
38.22134 10.45302 210.57451 430
-181.68639 24.34208 269.53293 486
-186.79305 24.62701 283.86157 496
82.75900 3.33929 179.50215 316
68.33688 3.79824 180.95131 461
64.00114 3.90970 185.31606 457
59.49334 4.06315 189.86858 452
54.73098 4.19413 194.67111 447
49.73082 4.33945 199.66888 442
44.48344 4.49376 204.94838 437
38.92294 4.71024 210.55052 431
-181.68819 11.69321 269.54730 487
