# .PCD v.7 - Point Cloud Data file format
VERSION .7
FIELDS x y z rgb
SIZE 4 4 4 4
TYPE F F F U
COUNT 1 1 1 1
WIDTH 1365
HEIGHT 1
VIEWPOINT 6854.686523 -3680.992920 143.031189 -0.550473 -0.138799 -0.019839 0.822995
POINTS 1365
DATA ascii
38.29599 -32.14590 206.38797 409
34.90310 -32.54160 209.40891 406
-179.19760 -57.72026 222.88768 383
84.35709 -27.58076 177.06430 462
82.34924 -27.81382 179.04443 460
68.13443 -29.56395 178.29959 457
65.78718 -29.88114 180.50958 439
63.32082 -30.16754 182.80705 437
60.80540 -30.46849 185.15884 434
58.18296 -30.82864 187.56772 432
55.54244 -31.12784 190.00508 430
52.78931 -31.48432 192.52780 427
49.96180 -31.82033 195.13066 425
47.12152 -32.17696 197.82626 422
44.10402 -32.55781 200.56331 420
41.07758 -32.94260 203.39806 417
37.74448 -33.33094 206.33255 408
34.29412 -33.77490 209.37512 405
-179.45543 -60.22987 222.87856 362
84.28710 -28.44180 177.01495 462
82.29140 -28.71253 179.01700 460
67.87091 -30.56514 178.21452 441
65.43981 -30.87654 180.45198 438
62.97031 -31.23885 182.74432 436
60.40432 -31.56670 185.08948 434
57.80147 -31.88114 187.45784 432
55.14093 -32.23236 189.92767 429
52.38449 -32.59757 192.47337 427
49.58152 -32.98863 195.11278 424
46.66742 -33.36047 197.79401 422
43.67810 -33.73178 200.56017 419
40.53380 -34.15961 203.35701 410
37.18154 -34.60347 206.33971 407
33.67978 -35.04953 209.34335 405
-180.10995 -62.89888 222.86494 362
84.24858 -29.30642 176.97670 461
82.21603 -29.60590 178.96489 459
67.52707 -31.61035 178.11496 440
65.08300 -31.91779 180.34070 438
62.57129 -32.26556 182.65274 436
60.04269 -32.62636 184.98595 433
57.43216 -32.95330 187.40459 431
54.73481 -33.36032 189.87675 429
51.97282 -33.72900 192.42982 426
49.13173 -34.11275 195.02388 424
46.18742 -34.51777 197.72372 421
43.18663 -34.93470 200.47440 419
39.92353 -35.35539 203.31749 409
36.55125 -35.84606 206.28479 407
33.04623 -36.30046 209.34952 404
-180.72766 -65.47390 222.92534 362
84.17062 -30.18775 176.94252 461
82.14968 -30.46824 178.94110 459
74.11237 -31.63489 179.59543 308
64.75911 -32.98658 180.23138 437
62.21847 -33.32086 182.52051 435
59.67659 -33.69864 184.89941 433
57.00656 -34.06620 187.30577 430
54.33484 -34.48346 189.81194 428
51.53405 -34.88038 192.35611 426
48.70848 -35.26691 194.96201 423
45.76962 -35.70101 197.67973 421
42.68167 -36.14254 200.43558 412
39.38958 -36.59282 203.30548 409
35.99915 -37.08631 206.23767 406
32.43001 -37.60079 209.31213 403
-181.33397 -68.12069 222.93367 362
84.10007 -31.08816 176.88358 461
82.07850 -31.39497 178.87862 443
74.22189 -32.56852 179.58238 308
64.38527 -34.04654 180.15321 437
61.87796 -34.41268 182.45328 434
59.29501 -34.79226 184.80173 432
56.63663 -35.17828 187.21188 430
53.92468 -35.58873 189.74391 427
51.12877 -36.01292 192.26883 425
48.23375 -36.43610 194.89539 423
45.28229 -36.86778 197.61874 420
42.11641 -37.34631 200.39265 411
38.83182 -37.85614 203.25139 408
35.38057 -38.36514 206.24019 406
31.84974 -38.90137 209.28427 403
-182.00926 -70.74874 222.94827 361
83.94424 -31.97167 176.82539 444
81.81360 -32.33108 178.81331 442
74.33173 -33.49010 179.61359 308
64.05614 -35.05150 180.05247 436
61.53035 -35.47364 182.36630 434
58.89684 -35.86294 184.69968 432
56.25904 -36.30355 187.15517 429
53.50682 -36.73341 189.62617 427
50.71362 -37.16958 192.22415 424
47.78870 -37.59497 194.84061 422
44.80137 -38.09449 197.56923 413
41.55295 -38.57257 200.32164 410
38.24019 -39.07492 203.21477 408
34.78479 -39.63323 206.18886 405
31.21812 -40.20256 209.23903 402
-183.29698 -73.47563 216.24332 426
-183.99878 -73.68840 222.95770 324
83.70406 -32.91936 176.71887 444
81.53400 -33.25732 178.70872 442
74.42514 -34.40631 179.61298 308
63.67529 -36.13354 179.94199 436
61.14119 -36.53288 182.23460 433
58.54248 -36.99179 184.63412 431
55.86075 -37.41562 187.07733 429
53.11998 -37.85967 189.55783 426
50.28412 -38.32038 192.14807 424
47.38697 -38.78915 194.76515 421
44.26839 -39.26156 197.46495 412
41.03399 -39.80658 200.25696 410
37.64522 -40.34308 203.18773 407
34.19820 -40.91499 206.12772 404
30.58806 -41.51623 209.21899 402
-183.30981 -76.17260 216.17119 426
-186.44167 -76.59888 223.07431 324
83.45322 -33.81821 176.61818 443
81.25497 -34.19488 178.60699 441
74.55125 -35.33257 179.58958 308
63.36780 -37.21720 179.84448 435
60.78728 -37.64676 182.15613 433
58.14065 -38.08985 184.54385 430
55.46233 -38.54753 186.95822 428
52.69038 -39.00003 189.49905 426
49.83017 -39.45975 192.03244 423
46.90523 -39.97148 194.68849 414
43.73415 -40.50048 197.42073 412
40.46123 -41.07064 200.22211 409
37.11404 -41.63321 203.11819 406
33.59328 -42.23401 206.12386 404
29.95129 -42.82965 209.19894 401
-183.31755 -78.66231 216.26701 425
-188.97809 -79.66640 223.11118 323
83.16685 -34.76397 176.52060 443
80.98601 -35.15301 178.50899 441
74.66440 -36.24550 179.60181 308
62.96561 -38.26777 179.74191 434
60.43250 -38.71346 182.02859 432
57.76078 -39.20131 184.41943 430
55.04839 -39.66011 186.87663 427
52.28476 -40.14132 189.38669 425
49.42669 -40.63617 191.98660 423
46.40767 -41.17348 194.62132 413
43.22404 -41.74699 197.34239 411
39.90257 -42.34550 200.17386 408
36.47018 -42.90548 203.05286 406
32.98549 -43.51393 206.05034 403
29.29907 -44.17811 209.19296 400
-183.25586 -81.25554 216.19449 425
-192.50630 -82.87280 223.15814 297
82.92358 -35.68236 176.38809 442
80.68163 -36.08698 178.40500 438
74.80575 -37.15289 179.59645 308
62.64281 -39.34766 179.60776 434
60.05797 -39.82286 181.92171 431
57.39059 -40.32005 184.34966 429
54.67369 -40.79941 186.80034 427
51.86177 -41.31332 189.32303 424
49.01395 -41.82140 191.91757 415
45.89581 -42.38597 194.55571 413
42.63716 -42.96720 197.28098 410
39.36562 -43.57776 200.12691 408
35.90630 -44.23314 203.02708 405
32.34372 -44.85709 206.04083 402
28.64967 -45.51509 209.14914 400
-183.20168 -83.85571 216.19235 440
82.66263 -36.63364 176.30573 442
80.43961 -37.04963 178.28651 438
74.94585 -38.07048 179.60672 308
62.27745 -40.42462 179.50090 433
59.68098 -40.90456 181.86192 431
57.00148 -41.43941 184.25803 429
54.24749 -41.93167 186.69290 426
51.43847 -42.46143 189.24826 424
48.49981 -43.03566 191.79114 415
45.36676 -43.59286 194.47359 412
42.10032 -44.23757 197.18408 410
38.78753 -44.82939 200.06548 407
35.34214 -45.52295 202.99091 404
31.76703 -46.17334 205.98297 402
28.01385 -46.85516 209.16068 399
-183.12444 -86.43809 216.15366 440
82.39394 -37.57948 176.19598 441
80.13725 -37.99004 178.21465 437
75.08001 -39.01196 179.59111 308
61.91714 -41.56062 179.39859 432
59.32614 -42.04627 181.74724 430
56.61442 -42.57951 184.13774 428
53.86156 -43.12046 186.61800 426
51.03205 -43.67312 189.14537 423
47.98124 -44.25671 191.71986 414
44.80532 -44.86880 194.40236 411
41.57194 -45.47169 197.14621 409
38.18743 -46.11901 199.98442 406
34.72147 -46.80748 202.93204 404
31.11527 -47.54880 205.98471 401
27.39454 -48.26610 209.14381 398
-183.01573 -89.05171 216.24745 439
82.10877 -38.52383 176.06726 440
79.87498 -38.95546 178.06903 437
75.22948 -39.91872 179.57825 308
61.55169 -42.66097 179.26857 432
58.90335 -43.15181 181.62425 430
56.23749 -43.70127 184.03941 427
53.45496 -44.25655 186.49680 425
50.57169 -44.86411 189.04950 416
47.47588 -45.45922 191.63113 413
44.30730 -46.06907 194.31593 411
41.01543 -46.76142 197.05562 408
37.62927 -47.40615 199.92014 406
34.11268 -48.16377 202.85371 403
30.45469 -48.85659 205.93065 400
26.68886 -49.62295 209.09123 398
-188.31940 -92.68426 209.29839 485
-187.64284 -92.50398 216.21439 299
81.87819 -39.47739 175.96187 440
79.58860 -39.96961 177.97621 436
75.41301 -40.82370 179.59097 308
61.19724 -43.75266 179.17632 431
58.57559 -44.30168 181.52089 429
55.84522 -44.87846 183.94380 427
53.06163 -45.42032 186.41899 424
50.09155 -46.05742 188.95154 415
46.95983 -46.68708 191.52496 413
43.78969 -47.34832 194.19969 410
40.45903 -48.02207 196.98541 408
37.05620 -48.74136 199.87088 405
33.52533 -49.46141 202.83865 402
29.87788 -50.23000 205.88158 400
26.06193 -51.03201 209.04912 397
-187.91016 -95.20536 209.29042 485
-194.07663 -96.49413 216.23628 297
81.62004 -40.44285 175.83952 439
79.31723 -40.90179 177.85954 435
75.56143 -41.72684 179.58339 308
60.84696 -44.85355 179.04173 431
58.18106 -45.40811 181.38100 428
55.45210 -46.00796 183.84239 426
52.62027 -46.63522 186.29683 417
49.55548 -47.25300 188.81281 414
46.46665 -47.94370 191.46660 412
43.23110 -48.59111 194.12798 409
39.90806 -49.31792 196.93155 407
36.47202 -50.05725 199.77299 404
32.88056 -50.81903 202.73918 402
29.21938 -51.64057 205.85759 399
25.22913 -52.44432 209.04152 376
-187.40483 -97.81731 209.27438 485
81.33191 -41.38897 175.71822 439
79.05004 -41.92403 177.76591 435
75.70853 -42.63283 179.58180 308
60.47955 -45.97952 178.89912 430
57.82382 -46.55723 181.29530 428
55.04921 -47.19642 183.72733 425
52.12033 -47.83712 186.20641 416
49.08019 -48.51180 188.70209 414
45.91685 -49.20246 191.36838 411
42.66515 -49.90493 194.06470 409
39.34665 -50.64595 196.83000 406
35.88631 -51.39976 199.70490 404
32.25373 -52.17441 202.70262 401
28.45366 -53.05512 205.79004 388
24.17280 -53.99456 208.96565 375
-186.92947 -100.31358 209.31702 485
81.08010 -42.35057 175.59972 438
78.73624 -42.90003 177.64470 434
75.88602 -43.54495 179.59688 308
60.11588 -47.11327 178.78532 429
57.43099 -47.72928 181.15916 427
54.64491 -48.33897 183.58780 418
51.66528 -49.00636 186.07361 416
48.60950 -49.71261 188.60460 413
45.40031 -50.46403 191.27274 411
42.15472 -51.16000 193.95264 408
38.79484 -51.95971 196.76579 405
35.29282 -52.72720 199.68559 403
31.54849 -53.60693 202.65767 390
27.58057 -54.50065 205.72269 377
23.07617 -55.52050 208.96165 344
-186.81099 -102.99884 209.30368 486
80.82906 -43.34945 175.47740 437
78.47593 -43.89357 177.51157 434
76.06351 -44.43566 179.57455 431
59.77067 -48.26722 178.68523 429
57.04846 -48.87712 181.04747 426
54.19477 -49.52130 183.47400 417
51.17156 -50.25965 185.95375 415
48.09696 -50.94161 188.49873 412
44.89217 -51.70041 191.13416 410
41.60762 -52.49915 193.87709 407
38.19931 -53.27376 196.67345 405
34.56570 -54.13269 199.55386 391
30.67932 -55.03107 202.56387 389
26.57329 -55.99768 205.66614 376
21.91580 -57.06056 208.91805 343
80.54447 -44.31092 175.36494 437
78.22041 -44.90385 177.38821 433
75.77449 -45.50342 179.48201 431
59.40002 -49.41780 178.55037 428
56.66781 -50.05318 180.91986 426
53.72279 -50.75289 183.32777 417
50.72013 -51.46818 185.83162 414
47.59665 -52.23135 188.39182 412
44.34606 -52.99984 191.02731 409
41.03846 -53.77757 193.79044 407
37.43989 -54.65277 196.56221 393
33.73910 -55.53468 199.47516 391
29.86921 -56.46387 202.49011 388
25.46870 -57.52166 205.63756 375
20.72829 -58.62733 208.89716 342
80.26525 -45.31408 175.24689 436
77.92621 -45.90136 177.27966 432
75.50713 -46.51067 179.37102 430
59.05391 -50.55638 178.40674 427
56.20906 -51.25975 180.78391 418
53.25963 -51.97478 183.22389 416
50.23356 -52.71837 185.70322 413
47.06399 -53.50132 188.29550 411
43.82970 -54.29530 190.92256 408
40.33583 -55.16358 193.68076 395
36.67174 -56.06531 196.45860 392
32.90370 -56.99738 199.41971 390
28.88090 -57.99091 202.40073 377
24.42936 -59.08552 205.57784 374
19.50529 -60.29616 208.79597 339
79.98741 -46.32207 175.11803 436
77.63177 -46.94474 177.13712 432
75.18208 -47.52699 179.22559 430
58.65037 -51.72000 178.26411 427
55.75272 -52.43374 180.63669 417
52.78675 -53.19894 183.07605 415
49.75227 -53.97366 185.59587 413
46.56246 -54.77810 188.16138 399
43.14175 -55.65106 190.84134 397
39.55674 -56.54565 193.53134 394
35.88778 -57.48794 196.36594 392
32.08458 -58.39960 199.29242 389
27.86326 -59.50396 202.35078 376
23.33731 -60.61044 205.48952 373
18.25865 -61.88927 208.78108 338
79.74657 -47.34623 174.99409 435
77.36010 -47.92496 177.03418 431
74.90536 -48.57848 179.10016 429
58.23335 -52.90026 178.12228 419
55.30724 -53.65443 180.52156 417
52.33016 -54.41595 182.94768 414
49.17604 -55.22398 185.46045 401
45.84744 -56.12651 188.01495 398
42.38363 -56.99145 190.68716 396
38.79007 -57.91539 193.43169 393
35.08767 -58.90281 196.26456 391
31.17875 -59.90593 199.21335 378
26.77278 -61.03715 202.26265 375
22.23649 -62.20491 205.45047 372
16.07265 -63.83905 208.67657 263
79.48900 -48.32333 174.88142 434
77.07377 -48.99439 176.89539 430
74.61327 -49.63921 178.98181 428
65.43932 -52.05540 179.66078 304
54.85456 -54.88684 180.39049 416
51.78628 -55.68663 182.81294 402
48.53539 -56.56751 185.31555 400
45.13361 -57.43714 187.89325 397
41.65382 -58.38039 190.54028 395
38.03307 -59.32527 193.34221 393
34.30291 -60.36361 196.15620 390
30.18955 -61.43056 199.12587 377
25.76174 -62.60045 202.16942 374
21.14781 -63.85555 205.33832 372
79.20162 -49.36147 174.74500 434
76.78589 -50.00260 176.78079 430
74.31608 -50.69997 178.86569 428
65.67977 -53.04903 179.69489 304
54.39396 -56.10980 180.19644 404
51.14807 -56.97683 182.63716 401
47.86283 -57.91785 185.17130 399
44.44934 -58.80794 187.73244 397
40.93423 -59.74782 190.43327 394
37.27460 -60.75657 193.21118 392
33.45630 -61.81689 196.03079 379
29.13839 -62.98818 199.02937 376
24.66331 -64.23140 202.06879 373
20.00285 -65.49614 205.31148 371
78.95321 -50.38905 174.60007 431
76.52425 -51.04486 176.62473 429
74.00270 -51.77309 178.72569 427
65.91094 -53.99899 179.65623 304
53.77227 -57.39917 180.04926 403
50.48748 -58.29388 182.47816 401
47.18941 -59.21187 184.98605 398
43.73809 -60.22380 187.61189 396
40.18133 -61.17621 190.29739 393
36.47929 -62.24428 193.05119 391
32.48899 -63.30696 195.91615 378
28.13458 -64.55557 198.89946 375
23.61095 -65.79426 202.00409 372
18.83912 -67.13493 205.21118 370
78.68777 -51.40480 174.44305 431
76.20852 -52.10020 176.51862 429
73.70487 -52.84404 178.62244 426
66.17551 -54.99879 179.68582 304
53.12106 -58.69516 179.87253 402
49.85841 -59.66137 182.28706 400
46.48231 -60.62120 184.80052 397
43.01311 -61.57703 187.41202 395
39.40778 -62.65427 190.12714 392
35.69830 -63.71104 192.91280 390
31.46436 -64.90260 195.80688 377
27.08850 -66.16481 198.79692 374
22.51516 -67.46958 201.88246 372
17.67900 -68.84128 205.13185 369
78.39397 -52.45690 174.32681 430
75.94196 -53.15354 176.37184 428
73.41489 -53.90546 178.50114 426
66.45209 -55.95660 179.66112 304
52.49121 -60.04457 179.67712 401
49.19741 -60.97025 182.11884 399
45.80254 -61.99858 184.63878 397
42.28556 -63.01627 187.29572 394
38.64265 -64.06350 189.98439 392
34.76559 -65.22663 192.79721 379
30.46272 -66.45564 195.64877 376
26.02579 -67.74218 198.66982 373
21.38378 -69.09592 201.82222 371
16.51366 -70.55228 205.09691 368
78.12054 -53.50530 174.16945 429
75.64502 -54.21125 176.25168 427
73.10709 -54.97544 178.37007 425
66.66766 -56.90018 179.68408 304
51.86214 -61.32367 179.48039 400
48.54148 -62.34555 181.93097 398
45.10203 -63.39207 184.47429 396
41.54095 -64.41595 187.09915 393
37.86213 -65.53013 189.83754 391
33.80416 -66.74493 192.63635 378
29.45551 -68.06570 195.54828 375
24.95840 -69.40794 198.53136 372
20.25683 -70.81856 201.67169 370
15.29263 -72.28382 205.01994 367
77.84313 -54.56189 174.02704 429
75.36573 -55.29971 176.11957 427
72.82439 -56.07246 178.21355 424
66.92728 -57.88299 179.68564 304
51.21642 -62.70856 179.28616 400
47.86900 -63.69226 181.74965 397
44.40513 -64.78382 184.33122 395
40.80660 -65.87203 186.97830 392
37.03499 -67.03543 189.67502 379
32.83727 -68.33655 192.46111 377
28.44466 -69.64525 195.40630 374
23.86279 -71.08128 198.42250 372
19.12647 -72.53267 201.62364 369
13.34916 -74.29542 204.86642 322
77.57310 -55.59744 173.89775 428
75.07709 -56.38616 175.93968 426
72.50212 -57.19749 178.09451 424
67.19413 -58.87059 179.66823 304
50.57624 -64.02790 179.06914 399
47.17437 -65.12727 181.57687 396
43.66628 -66.21394 184.11620 394
40.05534 -67.33891 186.77161 392
36.07101 -68.58572 189.48976 378
31.80691 -69.89323 192.32845 376
27.40900 -71.28656 195.27353 373
22.73234 -72.73351 198.30914 371
17.51057 -74.38544 201.45459 339
10.52726 -76.58575 204.69321 321
77.33540 -56.66553 173.72890 427
74.80421 -57.47876 175.79382 425
72.24306 -58.30570 177.94092 423
67.47965 -59.78844 179.68753 304
49.90658 -65.40750 178.89511 398
46.50479 -66.51793 181.39372 396
42.97408 -67.63914 183.95987 393
39.25535 -68.82381 186.61613 380
35.11673 -70.15427 189.31372 378
30.82699 -71.49976 192.15321 375
26.31614 -72.96745 195.08429 372
21.41441 -74.51635 198.16269 341
15.40146 -76.42579 201.31557 338
7.62062 -78.95248 204.52742 320
77.01060 -57.73367 173.59589 427
74.51690 -58.54772 175.65231 424
71.89550 -59.40212 177.78893 422
67.75479 -60.77279 179.66208 304
49.23893 -66.81270 178.66397 397
45.77269 -67.91006 181.16051 395
42.22542 -69.11582 183.79915 392
38.36594 -70.38556 186.43121 379
34.14640 -71.72607 189.18242 377
29.78833 -73.16818 192.02774 374
25.23631 -74.62356 194.94415 371
19.44991 -76.53922 197.96576 340
12.63931 -78.72814 201.11768 322
4.60504 -81.40643 204.37920 319
76.75228 -58.82093 173.43810 426
74.23205 -59.67834 175.49625 424
71.28839 -60.63776 177.59824 394
68.03651 -61.71316 179.64911 304
48.57673 -68.18438 178.47855 396
45.08226 -69.37025 180.98419 394
41.49161 -70.58508 183.60649 391
37.43580 -71.94469 186.23431 378
33.17522 -73.31617 188.98341 376
28.79834 -74.80656 191.83194 373
23.33571 -76.60592 194.71132 341
17.33834 -78.60853 197.77737 339
9.79156 -81.15310 200.85435 320
1.45994 -83.89989 204.22485 318
76.46928 -59.91739 173.27271 425
73.72681 -60.86072 175.33070 395
70.68165 -61.87048 177.34023 393
67.78590 -62.85976 179.54239 405
47.91531 -69.59966 178.25664 395
44.37807 -70.80442 180.78044 393
40.59831 -72.10194 183.38425 380
36.48385 -73.48701 186.01437 377
32.18214 -74.96848 188.79234 375
27.12388 -76.69537 191.61147 342
21.38204 -78.63335 194.46840 340
14.81073 -80.90738 197.53850 322
6.79703 -83.59913 200.66019 319
-1.78224 -86.52383 204.03995 317
76.10040 -61.04882 173.05730 397
73.14946 -62.09082 175.09384 395
70.03113 -63.16796 177.12935 392
67.20774 -64.15556 179.31210 404
47.20972 -71.07670 178.04385 394
43.69589 -72.28438 180.56421 392
39.73162 -73.67922 183.14752 379
35.56076 -75.13990 185.81511 376
30.87597 -76.76267 188.53612 344
25.25755 -78.71511 191.31049 341
19.33603 -80.77110 194.24126 339
11.99276 -83.32468 197.25838 321
3.73206 -86.12640 200.38826 318
-5.10154 -89.24468 203.81364 316
75.52530 -62.27815 172.83800 396
72.51952 -63.31543 174.84424 394
69.40021 -64.40825 176.88409 391
66.57820 -65.42366 179.14389 403
55.81395 -69.21928 179.76323 300
42.87682 -73.79379 180.33398 380
38.83080 -75.24485 182.94574 378
34.47080 -76.79088 185.59256 345
29.01123 -78.73389 188.26521 343
23.32150 -80.75381 191.03813 340
16.95580 -82.99307 193.95259 322
9.05718 -85.75599 196.97243 320
0.59253 -88.80936 200.19536 317
-16.83092 -94.91792 203.19930 262
74.92847 -63.48649 172.60248 395
71.91488 -64.56135 174.57797 393
68.74780 -65.72712 176.65749 390
65.93343 -66.72274 178.92653 402
56.16117 -70.28904 179.77213 300
41.99890 -75.40351 180.13187 380
37.84946 -76.85068 182.72089 377
32.70376 -78.75019 185.27194 344
27.18218 -80.75183 187.95872 342
21.33347 -82.83997 190.73836 339
14.16186 -85.43654 193.64012 321
6.06655 -88.37860 196.64795 318
-3.94312 -91.94122 199.84546 290
74.37657 -64.71581 172.32687 394
71.30788 -65.86969 174.34027 392
68.12444 -67.00893 176.42201 390
65.33915 -68.06734 178.69243 402
56.50641 -71.29466 179.77585 300
41.09337 -76.97089 179.89426 379
36.28105 -78.73180 182.38353 345
30.91928 -80.73348 184.91029 343
25.26072 -82.78410 187.58664 340
19.09596 -85.09459 190.44742 322
11.31205 -87.92718 193.27744 320
2.94768 -90.99237 196.36481 317
-15.65867 -97.83533 198.97141 272
73.75819 -65.96930 172.05151 393
70.67783 -67.16058 174.08482 391
67.46108 -68.34444 176.19188 389
64.70769 -69.37865 178.45973 401
56.84432 -72.34864 179.73341 300
39.77503 -78.75198 179.54341 347
34.57460 -80.69054 181.97302 344
29.09044 -82.73206 184.59576 342
23.32317 -84.92576 187.25749 339
16.39821 -87.47307 190.02769 321
8.36971 -90.53465 192.91180 319
-2.83232 -94.73888 195.78780 290
73.26156 -67.23660 171.81102 316
70.05624 -68.43305 173.83426 390
66.77763 -69.68521 175.90736 388
64.06161 -70.72498 178.23317 400
57.16312 -73.35543 179.74107 300
38.15381 -80.61606 179.16757 346
32.83825 -82.65652 181.62991 343
27.21739 -84.78976 184.19672 341
21.29645 -87.09110 186.94719 323
13.57700 -90.00248 189.63730 320
4.34368 -93.57120 192.46709 291
-14.76402 -100.88697 194.75525 271
73.53712 -68.14283 171.81061 316
69.39860 -69.76634 173.59654 389
66.15193 -71.06213 175.69954 387
63.39171 -72.09229 178.01103 399
57.52800 -74.39235 179.73012 300
36.46923 -82.61467 178.75970 344
31.03120 -84.69323 181.23419 342
25.28139 -86.96252 183.83598 340
18.60892 -89.50809 186.50655 322
10.67528 -92.63074 189.25468 319
-1.70694 -97.40988 191.78055 290
73.88916 -69.09557 171.83694 316
68.76408 -71.12424 173.29138 388
65.45312 -72.40305 175.39838 386
62.73278 -73.50382 177.77997 398
57.89305 -75.40635 179.75079 300
34.72377 -84.58215 178.31531 343
29.20963 -86.78589 180.84099 341
23.35231 -89.08102 183.43736 339
15.82674 -92.09406 186.06232 320
5.52190 -96.20769 188.57973 291
-13.78749 -103.82444 190.50360 271
74.26152 -70.00532 171.81680 316
68.12766 -72.48396 173.03894 387
64.79689 -73.78498 175.15771 399
62.10008 -74.90733 177.54068 397
58.30249 -76.43393 179.74680 300
32.97899 -86.65284 177.91565 342
27.32760 -88.92643 180.41106 340
20.85526 -91.55956 183.00171 322
12.41239 -94.97362 185.48804 292
-0.59486 -100.16517 187.76637 273
74.58161 -70.93853 171.79984 316
67.45756 -73.86850 172.76186 386
64.16315 -75.20718 174.88625 398
61.42131 -76.33247 177.29855 396
58.56953 -77.46751 179.69588 394
31.17542 -88.75030 177.45145 341
25.39017 -91.14352 179.97765 339
18.11738 -94.09425 182.50648 321
6.74512 -98.75011 184.63286 291
74.93507 -71.83635 171.79665 316
66.79454 -75.25333 172.47232 385
63.54133 -76.59264 174.66258 397
60.70075 -77.79100 177.04092 395
57.81852 -78.97959 179.46703 393
43.97074 -84.78122 179.85226 296
23.10908 -93.49058 179.46980 322
13.62593 -97.44684 181.66887 292
0.57882 -102.92568 183.70918 272
75.29230 -72.72643 171.82057 316
66.13087 -76.65981 172.21310 385
62.84427 -78.01324 174.37164 396
60.01294 -79.25182 176.76309 394
57.13020 -80.48812 179.24123 392
44.38766 -85.86826 179.87724 296
20.16814 -96.18077 178.87817 293
8.04006 -101.35746 180.71107 291
-26.95860 -116.22682 179.73103 335
75.68011 -73.66623 171.79207 316
65.47990 -78.08339 171.90367 384
62.18734 -79.50109 174.11757 395
59.34324 -80.71573 176.52913 393
56.26069 -82.07394 178.96878 336
44.86199 -86.98055 179.83438 296
14.94618 -99.88160 177.86563 292
1.85426 -105.59603 179.64662 272
-22.18876 -115.93764 180.28976 336
75.99819 -74.56669 171.80966 316
65.79520 -79.07765 171.86304 312
61.52105 -80.94718 173.83417 394
58.62253 -82.24961 176.25842 392
54.37956 -84.10039 178.48021 335
45.25241 -88.07905 179.86255 296
9.45903 -103.84740 176.75746 291
-17.62172 -115.73634 176.44278 337
-20.82577 -117.12383 180.44025 284
76.40125 -75.46693 171.81471 316
66.22321 -80.04098 171.89125 312
60.84418 -82.42753 173.55246 393
57.04058 -84.12041 175.79845 336
52.41059 -86.19149 177.96051 334
45.76717 -89.20439 179.85857 296
3.30525 -108.16985 175.58029 272
-12.67467 -115.26758 177.12401 281
-20.19206 -118.67614 180.42624 284
76.76854 -76.39269 171.79349 316
66.59469 -81.03254 171.88461 312
59.73547 -84.14896 173.17058 337
55.16743 -86.21278 175.25252 335
50.42258 -88.34069 177.40401 333
45.60765 -90.56084 179.74586 332
28.50091 -98.34646 180.00154 292
-1.19640 -111.79957 178.83688 282
-19.54569 -120.21083 180.42151 284
77.14590 -77.27657 171.79347 316
67.03427 -81.98878 171.86584 312
57.88556 -86.18969 172.56366 335
53.27565 -88.34862 174.67642 333
48.37207 -90.56833 176.86972 332
43.42872 -92.84994 179.22122 330
28.94202 -99.54955 179.99316 292
7.54805 -109.47023 180.17424 288
77.54388 -78.17960 171.81322 316
67.45736 -82.92982 171.87772 312
56.03592 -88.30061 171.98085 334
51.27399 -90.53216 174.11818 332
46.27723 -92.89391 176.30357 331
41.22604 -95.27074 178.63597 329
29.50977 -100.73415 179.97101 292
8.13119 -110.80518 180.16194 288
77.97847 -79.09057 171.78629 316
67.85432 -83.87422 171.86427 312
56.42550 -89.35068 171.96478 308
49.23560 -92.80234 173.46910 331
44.08013 -95.23949 175.71727 330
38.89399 -97.74143 178.08028 328
30.01300 -101.99815 179.97653 292
8.71530 -112.16143 180.13077 288
78.34182 -79.96448 171.78424 316
68.27345 -84.84148 171.88957 312
56.85916 -90.38273 171.96053 308
47.13700 -95.14552 172.88234 330
41.85851 -97.70450 175.11060 329
36.47845 -100.26596 177.52739 327
26.81291 -104.99333 179.32806 281
9.33181 -113.47327 180.12672 288
78.74975 -80.85382 171.77582 316
68.71789 -85.79166 171.84818 312
57.33437 -91.42883 171.98265 308
44.96236 -97.52862 172.24529 328
39.59352 -100.17638 174.48151 327
32.31255 -103.73060 176.53893 279
18.64036 -110.45601 177.69543 279
-83.19628 -160.64737 164.92383 284
79.18570 -81.78501 171.77844 316
69.19923 -86.76209 171.83815 312
57.80616 -92.44714 171.95827 308
44.80289 -98.95873 172.07158 304
37.17535 -102.77020 173.82306 326
24.19720 -109.26446 174.81784 278
9.77337 -116.50105 176.00081 278
79.57324 -82.66189 171.79323 316
69.61970 -87.69580 171.84413 312
58.26982 -93.46748 171.93185 308
45.30824 -100.06582 172.05525 304
30.52600 -107.55946 172.28275 279
15.37953 -115.30022 172.86792 277
-56.60389 -151.78099 163.64824 366
80.02112 -83.53412 171.77190 316
70.06622 -88.64290 171.84885 312
58.81059 -94.48869 171.94383 308
45.83892 -101.19624 172.07066 304
30.83865 -108.91934 172.19594 300
13.22377 -118.01031 172.30133 296
-52.62390 -151.90970 164.23352 367
80.42561 -84.41100 171.79243 316
70.55450 -89.59876 171.84311 312
59.27534 -95.51351 171.95360 308
46.40171 -102.26603 172.05696 304
31.40868 -110.09738 172.17290 300
13.85379 -119.26536 172.36130 296
-48.63949 -152.02805 164.80394 368
80.87585 -85.30511 171.74170 316
71.01298 -90.52656 171.83319 312
59.81710 -96.53267 171.95410 308
46.90545 -103.35342 172.04292 304
31.97770 -111.27232 172.15717 300
14.53439 -120.58530 172.33714 296
-45.68369 -152.59938 165.21751 286
81.33988 -86.16771 171.74892 316
71.46243 -91.51399 171.82770 312
60.29345 -97.51918 171.91441 308
47.47906 -104.45829 172.07347 304
32.60355 -112.47546 172.16026 300
15.16710 -121.87294 172.29378 296
-44.79226 -154.22601 165.25064 286
81.78035 -87.05701 171.75308 316
71.97103 -92.42156 171.86346 312
60.82488 -98.52477 171.93385 308
47.99389 -105.54279 172.05786 304
33.19574 -113.65338 172.20029 300
15.82122 -123.13394 172.31555 296
-43.96247 -155.88135 165.16968 286
82.22350 -87.92543 171.75359 316
72.45412 -93.35822 171.84872 312
61.32830 -99.51393 171.91774 308
48.60806 -106.63773 172.03102 304
33.83797 -114.83070 172.14201 300
16.46507 -124.47031 172.32378 296
-43.04680 -157.53371 165.24194 286
82.67294 -88.80959 171.76897 316
72.92119 -94.31108 171.84653 312
61.87791 -100.54173 171.91548 308
49.14095 -107.72247 172.02722 304
34.44397 -116.01006 172.14703 300
-28.71234 -151.61913 162.84035 365
-42.17875 -159.13640 165.22844 286
83.14137 -89.64574 171.76849 316
73.40520 -95.20997 171.82434 312
62.36573 -101.54434 171.94453 308
49.70873 -108.81046 172.00739 304
35.07739 -117.19312 172.16913 300
-24.93067 -151.47470 163.42946 367
-41.29172 -160.79121 165.22687 286
83.59215 -90.51913 171.73016 316
73.93964 -96.11655 171.80350 312
62.91548 -102.51968 171.91418 308
50.29214 -109.85934 172.02681 304
35.65520 -118.31821 172.17323 300
-20.91804 -151.36086 164.13326 368
84.10821 -91.39652 171.74496 316
74.41081 -97.06200 171.84525 312
63.46862 -103.54269 171.92052 308
50.89306 -110.95029 172.04556 304
36.29612 -119.51312 172.17064 300
-17.75620 -151.33235 164.52147 369
84.57197 -92.24821 171.72263 316
74.93154 -97.97928 171.81581 312
64.01785 -104.49709 171.91896 308
51.47831 -112.00710 172.03082 304
36.92489 -120.65560 172.13422 300
-14.22649 -151.22940 165.06891 371
85.04862 -93.09509 171.71440 316
75.48151 -98.89963 171.79506 312
64.57182 -105.50561 171.88760 308
52.07274 -113.06036 171.99350 304
37.58946 -121.81654 172.13049 300
-10.86643 -151.12033 165.66919 372
85.53463 -93.95362 171.74829 316
75.99469 -99.81705 171.80695 312
65.11783 -106.48750 171.89973 308
52.70863 -114.11097 172.00865 304
38.25654 -123.00174 172.13097 300
-9.64480 -152.40204 165.69772 291
86.05686 -94.79999 171.71539 316
76.50108 -100.72521 171.81157 312
65.70822 -107.46538 171.89420 308
53.30086 -115.20171 172.01030 304
38.94324 -124.14832 172.13179 300
-8.78934 -153.78270 165.67303 291
86.53873 -95.63149 171.71184 316
77.07548 -101.63401 171.81128 312
66.27714 -108.40746 171.87305 308
53.91092 -116.20314 171.97044 304
0.32659 -150.06126 162.89833 285
-7.84846 -155.16766 165.72908 291
87.06913 -96.49334 171.71608 316
77.61364 -102.51951 171.80327 312
66.86327 -109.39408 171.87395 308
54.58337 -117.27541 171.98698 304
2.05965 -150.87917 163.18149 377
-6.88577 -156.61087 165.75656 290
87.55061 -97.31941 171.70787 316
78.12669 -103.42017 171.77721 312
67.44402 -110.39309 171.88994 308
55.20526 -118.32686 171.98868 304
5.12752 -150.78497 163.67650 378
-5.98378 -158.03029 165.73917 290
88.06568 -98.19871 171.72269 316
78.68725 -104.31353 171.79430 312
68.04966 -111.35786 171.87375 308
55.82955 -119.34383 171.96794 304
8.13717 -150.68202 164.18413 379
-5.08140 -159.39471 165.73975 290
88.58780 -98.98620 171.68611 316
79.25315 -105.23728 171.79823 312
68.63509 -112.32250 171.89270 308
56.48024 -120.37940 172.00075 304
11.08322 -150.62509 164.63373 381
89.12425 -99.83193 171.70035 316
79.83103 -106.08920 171.77640 312
69.25741 -113.23614 171.88599 308
57.12660 -121.44852 171.96526 304
13.95339 -150.54620 165.12300 382
89.66946 -100.65302 171.70847 316
80.37754 -106.98733 171.76749 312
69.88681 -114.19043 171.88087 308
57.77643 -122.44770 171.95435 304
16.82068 -150.53221 165.65150 383
90.20957 -101.48584 171.66701 316
80.94805 -107.86913 171.76318 312
70.49825 -115.17313 171.85805 308
58.44993 -123.48850 171.98141 304
19.61061 -150.39586 166.06876 384
90.75414 -102.32026 171.67668 316
81.55710 -108.77952 171.76758 312
71.10718 -116.09526 171.87984 308
25.97450 -147.76720 163.25218 296
20.58954 -151.60320 166.14743 295
91.28317 -103.13662 171.67528 316
82.14773 -109.66344 171.75098 312
71.74020 -117.01840 171.82803 308
26.61485 -149.11043 163.19653 296
21.42054 -152.81664 166.09906 296
91.86887 -103.94181 171.67270 316
82.71525 -110.53674 171.73822 312
72.37099 -117.98702 171.83922 308
27.77076 -150.15533 163.30318 385
22.32973 -154.05542 166.14871 296
92.40062 -104.77913 171.68924 316
83.35423 -111.38280 171.75943 312
73.03563 -118.91692 171.84912 308
30.40466 -150.00871 163.76321 386
23.19094 -155.33745 166.07399 296
92.97876 -105.56683 171.68669 316
83.95287 -112.24043 171.74445 312
73.66389 -119.83549 171.84390 308
33.02781 -149.94769 164.20128 387
24.12992 -156.54802 166.09962 296
93.53993 -106.34109 171.64468 316
84.55792 -113.09454 171.74704 312
74.32116 -120.75941 171.82726 308
35.56976 -149.85155 164.68706 389
24.99020 -157.73183 166.12984 296
94.08795 -107.14990 171.63788 316
85.14192 -113.98278 171.72585 312
74.98515 -121.71394 171.84445 308
38.01453 -149.78503 165.11472 390
25.86007 -158.94267 166.09836 296
94.67059 -107.96014 171.66600 316
85.77406 -114.83063 171.73068 312
47.01739 -144.63943 163.42595 300
40.44082 -149.63846 165.51659 391
95.28329 -108.75033 171.67165 316
86.38087 -115.68475 171.70081 312
47.68589 -145.85738 163.40262 300
42.85217 -149.55405 165.93340 392
95.87444 -109.52709 171.66640 316
87.03001 -116.51813 171.74118 312
48.41745 -147.02513 163.34467 300
44.71758 -149.89575 166.22141 301
96.44386 -110.32249 171.66246 316
87.65611 -117.34914 171.70238 312
49.09419 -148.20479 163.29938 300
45.60017 -150.97264 166.25389 301
97.05096 -111.10616 171.61899 316
88.27754 -118.19234 171.70880 312
49.88280 -149.30486 163.30348 395
46.46193 -152.05878 166.20830 301
97.63981 -111.89586 171.61203 316
88.93939 -119.04791 171.68538 312
52.09906 -149.23683 163.71921 397
47.35966 -153.14105 166.25058 301
98.27655 -112.68957 171.60344 316
89.62601 -119.86840 171.68860 312
54.30902 -149.12025 164.14546 398
48.25048 -154.19022 166.22780 301
98.90745 -113.44949 171.59685 316
90.27111 -120.69967 171.69156 312
56.51382 -149.06750 164.52945 399
49.11509 -155.27403 166.22557 301
99.49205 -114.22712 171.62941 316
66.08384 -142.62643 163.58873 304
58.67380 -148.97017 164.90306 400
50.00967 -156.31042 166.22156 301
100.12653 -114.98104 171.58720 316
66.81084 -143.69357 163.55356 304
60.78324 -148.89407 165.29930 401
50.89355 -157.36774 166.25514 301
100.76663 -115.75608 171.58473 316
67.55143 -144.69815 163.52061 304
62.86723 -148.78711 165.64955 403
101.40147 -116.49345 171.59103 315
68.24280 -145.79269 163.42899 304
64.88280 -148.74026 166.01512 404
102.00753 -117.23744 171.57272 315
68.98222 -146.84454 163.41594 304
66.67311 -148.89478 166.30254 305
102.69322 -118.00877 171.61256 315
69.71419 -147.87236 163.39294 304
67.53635 -149.87416 166.34694 305
103.30124 -118.72987 171.57840 315
70.87098 -148.48221 163.50081 407
68.38686 -150.79498 166.31902 305
103.95697 -119.49241 171.58214 315
72.82755 -148.45781 163.85095 408
69.28345 -151.69102 166.35008 305
83.11413 -140.43768 163.67403 307
74.68839 -148.37546 164.23579 409
70.14226 -152.68567 166.35895 305
83.84531 -141.35286 163.69612 307
76.56391 -148.30615 164.59221 410
71.02110 -153.55547 166.35011 305
84.56494 -142.32506 163.62962 307
78.45776 -148.23413 164.91183 411
71.96370 -154.46017 166.34908 305
85.30246 -143.25140 163.62390 307
80.28133 -148.16187 165.23882 412
72.87259 -155.38698 166.34921 305
-48468.67578 -47559.61719 10379.02051 1000
86.03793 -144.13695 163.56723 307
82.03114 -148.07829 165.55511 413
73.72309 -156.30989 166.35094 305
86.79827 -145.04933 163.56200 307
83.81543 -148.01863 165.88130 414
74.64077 -157.18567 166.33870 305
87.57070 -145.96445 163.52980 307
85.59171 -147.97548 166.20880 416
88.32166 -146.85765 163.50217 307
86.92718 -148.25516 166.39096 309
89.09016 -147.76181 163.44711 307
87.81622 -149.05910 166.41592 309
90.70196 -147.74881 163.75279 418
88.67493 -149.91542 166.40276 309
92.36233 -147.68851 164.06143 419
89.58843 -150.70370 166.40221 309
93.98936 -147.62573 164.40764 420
90.44529 -151.51277 166.45100 309
95.63017 -147.56506 164.66748 421
91.32201 -152.26425 166.45087 309
97.29841 -147.46198 164.98265 412
92.21822 -153.09489 166.43959 309
98.95133 -147.31712 165.32819 413
93.14299 -153.86893 166.41898 309
100.61063 -147.15669 165.63640 414
93.98675 -154.65489 166.43852 309
102.27866 -146.99031 165.96016 415
94.92115 -155.37843 166.44199 309
103.86727 -146.82674 166.30263 416
95.82890 -156.14940 166.44493 309
105.08067 -147.08348 166.45010 314
-39343.92578 -46562.67188 5275.14014 1000
105.93140 -147.81396 166.48090 314
106.80368 -148.48367 166.43927 314
107.66748 -149.19273 166.44868 314
108.51715 -149.92870 166.44843 314
109.39033 -150.60429 166.47040 314
110.25010 -151.29990 166.44012 314
111.13456 -151.94568 166.48416 314
114.32302 -149.66324 167.49532 316
115.15963 -150.30884 167.46338 316
116.04493 -150.99268 167.47455 316
116.88834 -151.65207 167.44670 316
120.11951 -149.09366 168.53136 490
120.93970 -149.77988 168.48955 490
124.20426 -148.80818 169.22971 490
125.78952 -148.33621 169.57501 435
127.13409 -148.19136 169.76382 487
127.72224 -149.14845 169.68622 402
-554.75720 -1330.96729 -89.00504 293
-539.49597 -1323.44824 -86.45762 474
-544.10431 -1331.32068 -62.23466 429
-530.26984 -1326.40137 -85.73370 497
-533.61945 -1332.28601 -61.34973 496
-537.14844 -1338.84631 -36.62755 475
-540.99188 -1345.43945 -12.41196 425
-523.51263 -1333.62976 -86.36941 469
-526.67902 -1338.68274 -61.76931 468
-529.92816 -1344.86340 -36.87260 468
-532.52753 -1349.75354 -11.91573 473
-176.12628 -8241.85840 -1993.96338 1000
-1271.38452 -35425.10938 -9283.90625 1000
4418.63965 -12273.66211 1707.40662 1000
15677.16406 -36801.74219 -7725.63428 1000
1185.73132 -1982.15039 -73.70518 395
1189.79309 -1959.38367 -107.86327 343
1191.38477 -1962.31726 -71.79201 397
1195.38403 -1940.76038 -105.49889 381
1199.45654 -1947.99707 -70.57458 393
1201.78955 -1922.99585 -103.61255 437
1208.02771 -1935.44690 -69.43626 393
1232.52393 -1952.89270 -146.70476 403
1208.28040 -1907.25647 -102.03315 438
1217.15295 -1923.39685 -68.93607 385
1238.12390 -1935.47314 -144.26051 376
1215.40894 -1891.93494 -100.23387 462
1226.03882 -1911.90417 -67.59856 385
1239.94043 -1910.24463 -140.93755 378
1223.73816 -1879.11511 -99.20158 463
1235.56763 -1901.46692 -67.46944 313
1247.90027 -1896.02502 -139.27943 455
1231.85034 -1866.24719 -98.51810 464
1246.78223 -1894.05371 -66.82546 308
1255.92200 -1883.29553 -138.09154 456
1239.93384 -1853.87109 -97.01502 465
1254.20312 -1879.97668 -65.93413 402
1263.70032 -1869.74133 -136.83585 456
1247.85571 -1841.39331 -95.97878 466
1262.90137 -1868.32263 -64.78815 425
1271.35706 -1856.28748 -135.70555 475
1256.92358 -1830.30774 -95.65508 483
1342.88440 -1982.89990 -83.56525 372
1280.51660 -1845.70630 -134.51782 476
1265.73999 -1820.55078 -94.85464 483
1358.15076 -1980.67615 -83.85375 372
2583.89258 -4258.50244 -924.97528 1000
1246.20056 -1856.04663 -136.46750 476
1232.11401 -1830.78235 -96.51128 484
1326.12036 -1999.60583 -86.88834 379
1255.65466 -1845.68445 -135.55304 477
1241.03845 -1820.49805 -96.04448 484
1339.83423 -1994.44958 -87.61085 379
1264.63574 -1834.91174 -134.76718 475
1250.34717 -1810.26001 -95.38844 485
1353.35840 -1989.66394 -87.52384 379
1273.98962 -1824.91956 -134.21869 476
1259.97424 -1800.85779 -94.39777 490
1366.81506 -1984.82153 -88.24432 378
1283.54370 -1815.26648 -133.58899 479
1269.02039 -1791.17480 -94.07285 490
1381.00061 -1979.89978 -88.45722 320
1293.20264 -1805.98120 -133.13873 479
1278.95691 -1782.15906 -93.72090 491
1394.04126 -1974.62402 -88.55428 324
1302.68811 -1796.12537 -132.42622 479
1288.36792 -1773.10669 -93.16432 491
1407.04736 -1968.46362 -89.29731 324
1312.11499 -1787.04016 -132.34576 480
1297.94971 -1763.81104 -92.91552 491
1338.07715 -1829.14722 -68.56568 499
1321.49573 -1777.52771 -131.51562 478
1307.13708 -1754.12488 -92.29501 492
1349.26868 -1821.42273 -68.12798 499
1351.08228 -1824.14441 -33.30101 499
1331.19128 -1768.41626 -130.94917 478
1316.80225 -1745.17932 -91.93969 495
1360.38757 -1813.97937 -68.54765 499
1361.51343 -1816.69556 -33.20349 499
1341.10474 -1760.07849 -131.09904 482
1326.23438 -1737.06274 -91.82675 495
1370.92236 -1806.62244 -68.65437 499
1370.12720 -1804.46838 -32.33973 499
1351.27490 -1751.95154 -130.46344 482
1336.33545 -1728.46777 -91.33264 495
1381.94873 -1798.99792 -68.60645 499
1392.30334 -1814.07324 -34.81111 454
1361.67334 -1743.52246 -130.65234 483
1346.00574 -1719.94922 -91.38802 496
1393.17957 -1791.33130 -68.24191 499
1355.96558 -1712.10132 -90.81986 497
1495.32605 -1920.38110 -89.80704 382
1365.62549 -1704.00281 -91.04417 497
1507.23169 -1912.35278 -90.27589 383
1375.95325 -1696.14014 -90.92297 497
1518.78711 -1904.38660 -90.40343 383
1385.95264 -1688.38696 -90.57848 497
1438.89075 -1764.25342 -68.98456 499
1396.51331 -1680.54651 -90.45675 497
1449.46887 -1756.47229 -68.90753 499
1406.44397 -1673.00195 -90.89739 497
1456.49219 -1742.69763 -67.91618 499
1491.27222 -1791.12073 69.78580 427
1417.20825 -1665.87012 -90.71920 497
1468.47607 -1736.91589 -68.12547 499
1469.96436 -1739.01550 -32.94295 499
1507.53381 -1790.22412 -3.75144 378
1510.45386 -1794.14832 32.12774 378
1498.03394 -1777.45154 70.27161 490
1427.65674 -1658.49890 -91.02159 497
1503.98376 -1762.81714 -73.49639 372
1509.55554 -1770.34070 70.06822 488
1438.03601 -1651.50867 -90.61455 497
1585.02905 -1849.90735 -89.42296 470
1527.56604 -1771.75391 69.46766 306
1448.34473 -1644.17542 -90.80244 497
1466.24719 -1667.50085 -60.70338 300
1532.50403 -1754.87952 69.77582 499
1561.86609 -1794.11255 139.94788 499
1459.51135 -1637.19165 -91.05547 497
1472.57471 -1654.35571 -59.62811 443
1469.85376 -1629.55286 -91.41548 496
1482.27246 -1646.25354 -59.84032 394
1480.50610 -1622.82593 -91.11366 496
1492.00537 -1637.89905 -59.70342 394
1491.12500 -1615.47778 -91.33798 496
1501.48242 -1628.93469 -59.47311 394
1584.46021 -1733.07544 -40.42272 499
1501.16089 -1607.84961 -91.83546 496
1511.50378 -1620.43567 -59.44950 394
1536.50916 -1652.12915 -29.82440 499
1511.80017 -1601.10913 -91.84258 496
1520.64575 -1611.78625 -59.25449 394
1547.30591 -1644.47778 -29.89142 499
1522.73938 -1594.31116 -92.01720 433
1530.45752 -1602.97693 -58.90093 394
1533.74060 -1587.57642 -92.46980 433
1540.05896 -1594.56531 -59.37816 395
1545.19043 -1580.75439 -92.81176 432
1550.09778 -1586.11536 -58.94031 468
1556.16626 -1574.33643 -92.74663 432
1559.94067 -1578.64294 -58.98661 468
1567.38721 -1567.62927 -93.41171 432
1570.57043 -1570.59070 -59.23277 467
1713.33630 -1736.34924 -50.57010 388
1707.67749 -1728.84375 -11.70365 498
1709.81323 -1731.48804 25.73139 343
1689.06482 -1707.60742 65.60361 493
1578.69006 -1560.61108 -93.76132 432
1580.43188 -1562.85229 -59.68802 467
1633.83325 -1623.55225 1.55876 498
1636.13916 -1625.83838 36.55239 341
1590.15247 -1554.43591 -93.90426 432
1590.32275 -1554.66443 -59.56440 467
1601.73914 -1547.60083 -94.55353 327
1600.52051 -1546.98279 -59.77169 467
1614.76941 -1542.83105 -95.15637 327
1610.64941 -1539.01196 -59.68630 467
1627.74219 -1537.75415 -96.23307 327
1621.00854 -1530.93359 -59.86908 467
1641.02368 -1533.30542 -97.01413 327
1630.93079 -1522.66968 -59.94545 467
1654.42285 -1528.42029 -97.41067 327
1641.76440 -1515.06946 -60.44249 495
1667.56641 -1523.61267 -98.39565 326
1652.00562 -1506.99683 -60.43653 495
1838.70703 -1703.08325 -57.03579 439
1680.95081 -1518.74670 -99.48396 454
1662.70947 -1499.22656 -60.71708 494
1850.91675 -1693.81812 -57.58708 417
1692.60901 -1511.77478 -99.96276 454
1673.15198 -1492.00769 -61.18211 494
1860.61584 -1683.46326 -57.18066 326
1684.05542 -1484.37439 -61.19777 494
1869.82422 -1671.61548 -57.29184 326
1694.31274 -1476.26453 -61.27872 494
1879.27942 -1660.73560 -57.01903 381
1704.84741 -1469.14966 -61.49691 494
1889.76746 -1650.33313 -57.26611 381
1715.54077 -1461.09717 -61.92043 493
1900.22412 -1640.36023 -57.20843 381
1823.91187 -1566.35571 -7.78012 413
1726.22046 -1453.31189 -62.42244 492
1910.60254 -1630.07947 -57.07370 381
1737.49719 -1445.95557 -62.90403 492
1765.49280 -1472.18335 -32.41363 377
1820.62183 -1524.63196 -4.30946 413
1748.60864 -1438.45935 -63.14983 492
1765.40503 -1454.43689 -31.24364 440
1759.21082 -1430.71167 -63.68718 491
1780.04297 -1449.65515 -32.01194 299
1770.12939 -1422.97253 -64.15871 491
1786.79053 -1437.72949 -31.58616 391
1782.42090 -1416.13257 -64.32127 464
1797.60950 -1412.00134 -65.89217 404
1814.32666 -1409.65796 -67.35598 404
360.12561 -111.36202 167.58426 315
360.85706 -110.46139 167.61739 315
361.56134 -109.58012 167.59703 315
362.24207 -108.66459 167.58255 315
362.91168 -107.76186 167.61052 315
363.58176 -106.86470 167.61160 315
364.25870 -105.93752 167.59351 315
364.91635 -104.98395 167.60474 315
365.58688 -104.10783 167.59995 315
366.24921 -103.15070 167.64868 315
366.89685 -102.21843 167.62930 315
367.53506 -101.27518 167.63431 315
368.17996 -100.35268 167.61282 315
368.94852 -99.51641 167.57465 439
370.32523 -99.04060 167.35098 438
371.72037 -98.54679 167.14813 437
380.65363 -104.08108 167.67015 309
373.08734 -98.04935 166.88348 436
381.30411 -103.05448 167.67375 309
374.49316 -97.56888 166.64197 435
381.91635 -102.05179 167.66792 309
375.94449 -97.05973 166.37440 434
382.57327 -100.97531 167.65924 309
377.40872 -96.55720 166.13286 433
383.17084 -99.94221 167.71196 309
378.85617 -96.04813 165.84673 432
383.76099 -98.92641 167.71442 309
380.30783 -95.58970 165.61473 431
384.42337 -97.88512 167.71228 311
381.83142 -95.05617 165.32361 430
385.01486 -96.85204 167.67644 311
383.30908 -94.51235 165.06715 429
385.63223 -95.80661 167.70392 311
384.84769 -94.01714 164.77579 428
386.19955 -94.73942 167.69209 311
385.57288 -93.01895 164.74535 317
386.82776 -93.70354 167.68753 311
386.19351 -92.02401 164.74767 317
387.94272 -92.90251 167.57298 427
386.80249 -90.97390 164.74303 317
389.47934 -92.37758 167.30028 426
387.39294 -89.92600 164.70517 317
391.12854 -91.84765 167.01683 425
387.97116 -88.89032 164.68713 317
392.70432 -91.28546 166.70659 424
401.87857 -95.92010 167.73022 306
388.56357 -87.82411 164.70573 317
394.33942 -90.67790 166.41727 423
402.46677 -94.76616 167.74300 306
389.12857 -86.79003 164.67894 317
396.00543 -90.15539 166.15495 422
403.00369 -93.59340 167.74286 306
389.70828 -85.76385 164.72446 317
397.62808 -89.60356 165.83868 420
403.58466 -92.46681 167.73192 306
390.28986 -84.67673 164.72014 317
399.30725 -88.97514 165.53296 419
404.14142 -91.29437 167.78268 306
390.86145 -83.62778 164.71919 317
401.03860 -88.40370 165.18834 418
404.66980 -90.09274 167.75587 306
391.40768 -82.60024 164.66531 317
402.75137 -87.81509 164.91028 417
405.23810 -88.90989 167.78366 306
368.90302 -71.07529 171.48340 318
403.57755 -86.79500 164.77966 313
405.74576 -87.73855 167.76315 306
369.33191 -70.16978 171.51839 317
404.17542 -85.64643 164.83069 313
406.28772 -86.59108 167.81274 307
369.80045 -69.21534 171.51831 317
404.72565 -84.52893 164.80133 313
407.90625 -85.84194 167.53838 435
370.24603 -68.25672 171.51674 317
405.26620 -83.32968 164.79274 313
409.45163 -85.13665 167.25975 434
370.65854 -67.35960 171.52710 317
405.80035 -82.18285 164.80022 313
410.99142 -84.35766 167.05443 433
371.08319 -66.41766 171.50731 317
406.34561 -81.01851 164.77550 313
412.53903 -83.59986 166.74901 432
371.48743 -65.44083 171.50101 317
406.88321 -79.86301 164.78024 313
414.17517 -82.84727 166.48643 431
371.92621 -64.50897 171.54337 317
407.42053 -78.68964 164.81941 312
415.72818 -82.06184 166.20444 430
424.75958 -85.68294 167.81299 302
372.33707 -63.53900 171.54958 317
407.92041 -77.57442 164.77774 312
417.38275 -81.28416 165.93452 429
425.24634 -84.37012 167.77892 302
372.72260 -62.59010 171.53175 317
408.45615 -76.37247 164.77495 312
419.01459 -80.46828 165.65408 428
425.72601 -83.05543 167.81441 302
373.10071 -61.61922 171.54353 317
408.90958 -75.20374 164.79730 312
420.64026 -79.64469 165.41200 427
426.27084 -81.77791 167.84648 302
373.54660 -60.68154 171.54471 317
409.45844 -74.03063 164.78694 312
422.35654 -78.86216 165.11887 426
426.74197 -80.44517 167.82582 302
373.92502 -59.71838 171.52301 317
384.34567 -63.52936 171.64703 313
423.71329 -77.91769 164.87495 308
427.22922 -79.17262 167.83430 302
374.27869 -58.76461 171.56926 317
384.74609 -62.51596 171.66489 313
424.23141 -76.68249 164.87704 308
427.66046 -77.84166 167.82646 302
374.66190 -57.77785 171.56874 317
385.12781 -61.44714 171.64406 313
424.71790 -75.37389 164.85344 308
428.14761 -76.56159 167.86867 302
375.04898 -56.81806 171.56647 317
385.53891 -60.44693 171.66629 313
425.23489 -74.14712 164.85439 308
429.21216 -75.47270 167.70915 422
375.36575 -55.85618 171.57536 317
385.89124 -59.38010 171.65845 313
425.75876 -72.87173 164.84698 308
430.97400 -74.60750 167.42799 421
375.76147 -54.86958 171.55791 317
386.29071 -58.38032 171.66742 313
