# .PCD v.7 - Point Cloud Data file format
VERSION .7
FIELDS x y z rgb
SIZE 4 4 4 4
TYPE F F F U
COUNT 1 1 1 1
WIDTH 1381
HEIGHT 1
VIEWPOINT 6572.191406 -2581.807129 144.615952 -0.835651 -0.070403 -0.109370 0.533638
POINTS 1381
DATA ascii
38.54037 -9.60308 210.34305 431
-179.39436 -18.40278 223.06778 384
-156.67557 -17.55825 235.35226 397
85.35754 -8.56280 178.23376 465
80.68613 -8.77831 179.53693 312
69.22339 -9.33040 179.40829 460
66.96833 -9.43093 181.65602 458
64.68262 -9.54188 183.95357 456
62.29762 -9.63319 186.32945 454
59.92970 -9.76978 188.72502 452
57.44981 -9.86662 191.17548 449
54.98381 -9.99646 193.70836 447
52.39738 -10.13199 196.29515 444
49.75712 -10.27004 198.94582 442
47.04980 -10.38984 201.66530 439
44.22878 -10.49531 204.48373 436
41.36765 -10.64911 207.34985 434
38.41792 -10.78575 210.31868 431
-179.41772 -20.93303 223.06870 384
85.27489 -9.45097 178.17137 465
80.68590 -9.68451 179.54771 312
69.15553 -10.29186 179.40736 460
66.91156 -10.41674 181.65074 458
64.59515 -10.54315 183.92824 456
62.23613 -10.66938 186.29599 453
59.79723 -10.80545 188.70589 451
57.35693 -10.93690 191.16649 449
54.83447 -11.07216 193.67728 447
52.27755 -11.22982 196.26878 444
49.60368 -11.36362 198.92346 442
46.90233 -11.50844 201.62675 439
44.10576 -11.64361 204.44666 436
41.23339 -11.77576 207.35507 434
38.28946 -11.97861 210.29922 431
-179.41109 -23.34720 223.09668 384
85.19157 -10.32533 178.15936 464
80.76074 -10.58002 179.56104 312
69.08717 -11.27759 179.38847 460
66.78237 -11.41450 181.60840 458
64.48681 -11.53786 183.89488 455
62.11866 -11.69858 186.24567 453
59.69572 -11.85788 188.67494 451
57.26956 -11.99660 191.13599 449
54.71374 -12.13791 193.68375 446
52.17006 -12.30389 196.24962 444
49.50605 -12.44208 198.90578 441
46.77885 -12.60915 201.62842 439
43.98785 -12.77317 204.42471 436
41.09988 -12.95495 207.34584 433
38.14331 -13.11375 210.28615 431
-179.40851 -25.93535 223.08167 384
85.13510 -11.23204 178.13840 464
80.78895 -11.50377 179.55466 312
68.96867 -12.26432 179.32968 460
66.72849 -12.41407 181.57355 457
64.42426 -12.55978 183.86928 455
62.02282 -12.71086 186.23924 453
59.61145 -12.87175 188.67036 451
57.13956 -13.05784 191.12180 449
54.62159 -13.21775 193.61873 446
52.05127 -13.37045 196.22670 444
49.40368 -13.54482 198.87808 441
46.63737 -13.71606 201.64247 439
43.82685 -13.92508 204.43732 436
40.94843 -14.09460 207.33958 433
37.97970 -14.31112 210.29445 430
-179.44991 -28.43392 222.99936 384
85.04328 -12.08407 178.09399 464
80.83936 -12.38631 179.54843 312
68.93645 -13.24752 179.31555 459
66.62425 -13.41695 181.54663 457
64.30012 -13.58286 183.86543 455
61.96619 -13.76823 186.20671 453
59.50958 -13.92863 188.63547 450
57.05310 -14.12505 191.07761 448
54.50283 -14.26535 193.62233 446
51.92857 -14.48248 196.18954 443
49.24035 -14.65315 198.84937 441
46.52639 -14.83683 201.58650 438
43.71350 -15.04286 204.42026 436
40.82824 -15.26094 207.32050 433
37.86085 -15.47722 210.27243 430
-179.42978 -30.88802 223.09831 384
85.01061 -12.96646 178.07887 464
80.86118 -13.29230 179.55125 312
68.82967 -14.21291 179.28253 459
66.54319 -14.39888 181.52736 457
64.25409 -14.57366 183.82747 455
61.88205 -14.76586 186.17358 453
59.44624 -14.95351 188.60768 450
56.93277 -15.15860 191.05562 448
54.40525 -15.36411 193.61302 446
51.78871 -15.56326 196.17805 443
49.14311 -15.76009 198.82407 441
46.39535 -16.00767 201.59563 438
43.59631 -16.20735 204.38300 435
40.72274 -16.43657 207.31470 433
37.74253 -16.67816 210.25084 430
-179.45628 -33.46867 223.03606 384
84.92224 -13.85626 178.05267 464
80.89771 -14.19492 179.55722 312
68.75119 -15.21466 179.22939 459
66.47627 -15.39498 181.49158 457
64.16061 -15.61611 183.79031 455
61.78368 -15.78315 186.14082 452
59.36793 -16.00291 188.55147 450
56.86565 -16.21320 191.05516 448
54.30791 -16.43371 193.57935 445
51.69263 -16.67882 196.16193 443
49.01793 -16.85910 198.84195 440
46.25032 -17.13264 201.54448 438
43.45431 -17.36039 204.40414 435
40.55967 -17.58555 207.30693 433
37.57211 -17.87099 210.27231 430
-179.43024 -35.92617 223.10020 384
-186.73331 -36.63401 271.20865 399
-186.85385 -36.68007 278.11096 496
-186.78389 -36.62929 285.03751 496
-186.75949 -36.68414 292.16129 495
84.84293 -14.73376 177.99998 463
80.97468 -15.10170 179.55171 312
68.67197 -16.18859 179.19484 459
66.39026 -16.39465 181.49168 457
64.05888 -16.61000 183.77425 454
61.69910 -16.83905 186.15332 452
59.24402 -17.04586 188.54767 450
56.76867 -17.26973 190.99768 447
54.19637 -17.48951 193.55937 445
51.57960 -17.73130 196.12769 442
48.87726 -18.00340 198.79350 440
46.15936 -18.22481 201.54535 438
43.34868 -18.51306 204.37109 435
40.44987 -18.75321 207.29128 432
37.41591 -19.02325 210.28366 430
-179.38618 -38.49414 223.02933 384
84.80869 -15.63643 177.97678 463
81.03320 -15.98580 179.55606 312
68.61171 -17.21081 179.16527 459
66.31024 -17.42192 181.45497 456
63.98392 -17.62335 183.73314 454
61.61205 -17.86929 186.09727 452
59.15482 -18.09679 188.53558 450
56.66446 -18.35865 190.96756 447
54.11657 -18.58676 193.51540 445
51.49708 -18.84091 196.11754 442
48.79259 -19.13022 198.77757 440
46.04205 -19.38567 201.52278 437
43.23067 -19.65485 204.36859 435
40.28259 -19.90795 207.24527 432
37.31874 -20.24273 210.24911 429
-179.43301 -41.05180 223.00903 384
84.73188 -16.54185 177.92795 463
81.10011 -16.88038 179.52277 312
68.52791 -18.15595 179.13625 458
66.23249 -18.42296 181.41127 456
63.90971 -18.63175 183.70441 454
61.54623 -18.91873 186.08055 452
59.05567 -19.16536 188.46300 449
56.55918 -19.42633 190.95676 447
54.02613 -19.66217 193.48567 444
51.38577 -19.95995 196.11627 442
48.65911 -20.21781 198.78815 439
45.91390 -20.49870 201.48981 437
43.05840 -20.82006 204.34544 435
40.17259 -21.13181 207.25452 432
37.15002 -21.42567 210.22762 429
-179.38176 -43.50028 223.05536 384
84.66550 -17.42257 177.87843 463
81.17870 -17.77744 179.53119 312
68.47083 -19.17111 179.12047 458
66.17870 -19.44511 181.38284 456
63.84921 -19.69003 183.66869 454
61.43377 -19.92913 186.01801 451
58.97085 -20.21181 188.43347 449
56.50846 -20.46916 190.91959 447
53.93029 -20.78778 193.45027 444
51.27439 -21.04701 196.06615 442
48.58706 -21.34883 198.75438 439
45.79522 -21.68256 201.50655 437
42.93625 -21.94590 204.31009 434
40.04974 -22.27370 207.21422 432
37.03281 -22.62020 210.25360 429
-179.45844 -46.08644 223.09303 384
84.59348 -18.32601 177.86543 463
81.26637 -18.68457 179.52544 312
68.41550 -20.16887 179.07693 458
66.11490 -20.45145 181.35205 456
63.75996 -20.69705 183.64928 454
-160.76408 -18.35237 -29.57615 451
58.89201 -21.25532 188.44318 449
56.40079 -21.55893 190.92268 446
53.83843 -21.87457 193.46629 444
51.19793 -22.17932 196.05545 441
48.46357 -22.48377 198.73578 439
45.67333 -22.76946 201.48711 436
42.81229 -23.12566 204.27896 434
39.89343 -23.44673 207.22243 431
36.86674 -23.79305 210.19591 429
-179.35176 -48.56462 223.08276 384
84.54564 -19.20404 177.81244 462
81.35906 -19.59747 179.54956 312
68.34608 -21.15030 179.01497 458
66.05124 -21.44450 181.30681 456
63.70921 -21.72517 183.60283 453
61.30677 -22.02804 185.98259 451
58.83051 -22.32490 188.38275 449
56.32456 -22.65684 190.86772 446
53.73523 -22.92088 193.41788 444
51.09858 -23.25912 196.01320 441
48.37003 -23.60717 198.72450 439
45.57844 -23.96678 201.43875 436
42.70484 -24.27351 204.28055 433
39.74903 -24.64632 207.18756 431
36.71904 -25.03866 210.23315 428
-179.39384 -51.08781 223.10999 383
84.49797 -20.09275 177.77197 462
81.44303 -20.50442 179.55539 312
68.27457 -22.17540 178.96832 457
65.96307 -22.47709 181.26114 455
63.59561 -22.76889 183.58902 453
61.19904 -23.05035 185.93881 451
58.75958 -23.37485 188.36670 448
56.21243 -23.71232 190.86572 446
53.62204 -24.03549 193.36816 444
50.99980 -24.40618 195.99826 441
48.26208 -24.73668 198.65669 438
45.46161 -25.06845 201.43114 436
42.60550 -25.44957 204.25418 433
39.61726 -25.84286 207.17178 430
36.59357 -26.20345 210.20491 428
-179.39325 -53.65936 223.11148 383
84.40692 -20.99016 177.74091 462
81.55733 -21.39946 179.53352 312
68.17352 -23.18080 178.93658 457
65.90569 -23.48594 181.19002 455
63.53876 -23.78680 183.53288 453
61.11671 -24.12277 185.91328 450
58.67780 -24.43708 188.34178 448
56.12953 -24.77476 190.82251 446
53.53108 -25.14830 193.34938 443
50.91911 -25.48174 195.98318 441
48.13973 -25.86394 198.67963 438
45.37180 -26.23241 201.41423 436
42.47508 -26.61819 204.23561 433
39.50734 -27.03254 207.15796 430
36.44921 -27.41867 210.20436 427
-179.43233 -56.21649 223.02335 383
84.36361 -21.88143 177.70312 462
81.66531 -22.27678 179.54396 312
68.12375 -24.15581 178.91551 457
65.81333 -24.50806 181.16025 455
63.44390 -24.83700 183.49080 453
61.04684 -25.14578 185.86632 450
58.59772 -25.49925 188.30373 448
56.06299 -25.84360 190.77846 445
53.45919 -26.20873 193.35010 443
50.78741 -26.59418 195.94667 440
48.05610 -26.96326 198.65224 438
45.26995 -27.39491 201.37090 435
42.37188 -27.80981 204.22198 433
39.27921 -28.23223 207.15677 414
35.96677 -28.68971 210.14391 404
-179.47618 -58.73767 223.04265 362
84.30546 -22.79496 177.63812 461
81.77166 -23.16576 179.52092 312
68.05524 -25.17260 178.87451 457
65.74644 -25.48547 181.12135 455
63.40294 -25.84368 183.42703 452
60.95457 -26.19658 185.82536 450
58.49844 -26.60043 188.23628 448
55.95402 -26.94601 190.75130 445
53.35865 -27.34891 193.27200 443
50.72396 -27.72624 195.90811 440
47.96330 -28.12067 198.59598 438
45.04243 -28.54755 201.33955 418
41.95418 -29.00142 204.17917 416
38.77912 -29.50392 207.12030 413
35.31958 -29.97925 210.13521 404
-180.03221 -61.40830 223.09914 361
84.21755 -23.71621 177.59445 461
81.86285 -24.06864 179.52582 312
67.99827 -26.18752 178.79552 456
65.68785 -26.51521 181.06526 454
63.32668 -26.90345 183.42700 452
60.90630 -27.25680 185.78352 450
58.42237 -27.65561 188.22849 447
55.89258 -28.03174 190.71983 445
53.27455 -28.43883 193.25261 442
50.54807 -28.86633 195.88855 423
47.60580 -29.32353 198.55580 420
44.59231 -29.77207 201.30606 418
41.47133 -30.23091 204.14470 415
38.25048 -30.75872 207.06157 406
34.69742 -31.28524 210.09601 403
-180.60654 -64.04396 223.12831 362
84.17905 -24.60286 177.54494 461
81.98009 -24.94825 179.54282 312
67.92687 -27.16812 178.75862 456
65.60449 -27.54914 181.04910 454
63.25969 -27.93963 183.38448 452
60.81929 -28.32062 185.74416 449
58.35315 -28.71395 188.16934 447
55.74025 -29.13039 190.67281 427
52.98873 -29.56376 193.18053 425
50.06620 -30.04197 195.80478 422
47.12042 -30.51084 198.50363 420
44.11352 -30.97839 201.25130 417
41.00671 -31.48407 204.09583 414
37.62313 -31.99730 207.05128 405
34.10944 -32.56239 210.09483 402
-181.29274 -66.65993 223.09103 361
84.12226 -25.52536 177.52052 461
82.07646 -25.84941 179.53012 458
67.86704 -28.20063 178.69904 456
65.53719 -28.56205 180.99626 454
63.18064 -28.98734 183.33035 451
60.71843 -29.38075 185.69270 431
58.05120 -29.83632 188.11693 429
55.34519 -30.27408 190.57050 426
52.54659 -30.76216 193.09842 424
49.66866 -31.23106 195.76140 422
46.67063 -31.70912 198.42174 419
43.61298 -32.23025 201.21413 416
40.50214 -32.73708 204.07285 407
37.05370 -33.32341 207.00879 404
33.48913 -33.90237 210.06870 402
-181.94705 -69.32784 223.13728 361
84.07944 -26.42386 177.43880 460
82.01851 -26.77899 179.46848 458
67.79799 -29.19951 178.65056 456
65.47765 -29.59128 180.93784 453
62.95332 -30.05077 183.26285 433
60.31643 -30.49172 185.58766 431
57.64214 -30.95986 187.99213 428
54.90709 -31.43714 190.47348 426
52.11511 -31.89771 193.05463 423
49.23220 -32.42241 195.67998 421
46.22706 -32.94622 198.34261 418
43.17666 -33.43836 201.16151 416
39.91474 -34.04534 204.03018 406
36.43861 -34.60326 206.97678 404
32.88911 -35.21186 210.01585 401
-183.27737 -72.13989 216.28510 425
-183.01550 -72.12347 223.09682 324
84.01057 -27.32867 177.41345 460
81.98228 -27.69294 179.42772 458
67.59631 -30.26534 178.57161 437
65.12246 -30.67388 180.84390 434
62.54909 -31.15051 183.15950 432
59.97489 -31.60728 185.48198 430
57.28460 -32.08146 187.90379 428
54.50322 -32.58923 190.38849 425
51.67038 -33.09167 192.96132 423
48.75724 -33.63052 195.58795 420
45.76901 -34.15812 198.30432 418
42.66082 -34.68731 201.11017 415
39.31305 -35.27940 203.93675 406
35.83749 -35.90024 206.92963 403
32.25584 -36.56225 210.01190 400
-183.16748 -74.76615 216.25227 425
-185.62422 -75.20255 223.19131 323
83.98973 -28.24728 177.37088 460
81.93378 -28.61945 179.36406 458
67.28477 -31.33355 178.44914 436
64.78650 -31.79631 180.73911 434
62.22169 -32.26097 183.03430 432
-33.36444 -6.11509 -6.20232 429
56.85363 -33.25202 187.80870 427
54.11395 -33.75622 190.33653 425
51.28584 -34.26941 192.88231 422
48.31493 -34.80585 195.52090 420
45.31108 -35.36945 198.25752 417
42.14509 -35.94810 201.05104 408
38.72383 -36.58813 203.88606 405
35.23802 -37.26561 206.89301 402
31.57825 -37.92928 209.94928 400
-183.17949 -77.36533 216.32820 425
-188.13019 -78.32717 223.23080 322
83.92049 -29.16508 177.31561 459
81.86773 -29.58749 179.33922 457
66.91871 -32.38460 178.35934 435
64.39294 -32.88154 180.62001 433
61.81993 -33.35970 182.93806 431
59.20866 -33.86404 185.27353 429
56.47079 -34.39460 187.71284 426
53.69658 -34.92227 190.22653 424
50.84035 -35.49080 192.80302 422
47.87315 -36.02239 195.42374 419
44.84486 -36.60699 198.16917 417
41.55271 -37.23114 200.94643 407
38.15902 -37.91790 203.86176 405
34.62422 -38.55858 206.82117 402
30.96006 -39.25472 209.94736 399
-183.25064 -79.97378 216.32881 424
-190.77348 -81.42986 223.22672 324
83.86819 -30.10661 177.25079 459
81.82785 -30.51646 179.26082 457
66.59611 -33.46305 178.20398 435
64.05600 -33.97755 180.46880 433
61.46561 -34.49687 182.79460 430
58.82908 -35.02840 185.20212 428
56.08705 -35.56241 187.60298 426
53.28347 -36.13618 190.12192 423
50.36922 -36.67325 192.72350 421
47.41616 -37.26008 195.36301 418
44.33931 -37.88475 198.08115 409
41.01971 -38.52485 200.90962 406
37.56595 -39.20003 203.78946 404
34.01810 -39.90488 206.77893 401
30.31167 -40.67963 209.89690 398
-183.17441 -82.56078 216.34100 439
83.83793 -31.03593 177.18211 459
81.71408 -31.45187 179.20674 438
66.26005 -34.57935 178.09453 434
63.68302 -35.09875 180.34383 432
61.08720 -35.64298 182.68245 430
58.41143 -36.15467 185.09846 427
55.68416 -36.71305 187.52151 425
52.85818 -37.29034 190.04016 423
49.97475 -37.88433 192.61163 420
46.96245 -38.47024 195.30133 418
43.77241 -39.12535 198.00015 408
40.43441 -39.81748 200.82343 406
36.95131 -40.53995 203.71175 403
33.37779 -41.30394 206.77388 400
29.65272 -42.01506 209.84778 398
-183.10692 -85.17627 216.29149 439
83.68522 -31.95798 177.11523 440
81.44775 -32.40909 179.11887 438
65.89268 -35.66027 177.97997 434
63.32490 -36.21632 180.25578 431
60.70824 -36.75622 182.58229 429
58.02847 -37.34032 184.97752 427
55.27900 -37.90755 187.40665 424
52.42119 -38.47213 189.94014 422
49.52125 -39.14001 192.52229 420
46.48376 -39.77081 195.22330 410
43.24251 -40.43745 197.95256 408
39.82953 -41.16482 200.75592 405
36.33765 -41.86618 203.65308 402
32.71951 -42.64438 206.70901 400
28.95645 -43.45235 209.81375 363
-183.01666 -87.79205 216.29175 438
83.41522 -32.93852 176.97011 439
81.16642 -33.42616 178.98659 436
72.94979 -35.18659 179.61093 308
62.99908 -37.33774 180.10254 431
60.32944 -37.91048 182.44228 428
57.66184 -38.47855 184.86649 426
54.88101 -39.10954 187.32959 424
52.01354 -39.69645 189.86836 421
49.09325 -40.36388 192.45934 419
45.93239 -41.01223 195.10968 410
42.65240 -41.71122 197.83487 407
39.27786 -42.45414 200.69635 404
35.72764 -43.25281 203.63966 402
32.08170 -44.02470 206.64413 399
28.23564 -44.86835 209.78049 362
-188.55557 -91.52672 209.36781 485
-184.99960 -90.88470 216.31644 297
83.14673 -33.90857 176.85695 439
80.90894 -34.39542 178.84843 435
73.15827 -36.12196 179.62476 308
62.64020 -38.45411 179.97447 430
59.95782 -39.03330 182.31760 428
57.26349 -39.67842 184.72806 426
54.45452 -40.30740 187.19150 423
51.60055 -40.91473 189.73729 421
48.60047 -41.59237 192.35486 411
45.44185 -42.29531 195.03201 409
42.10387 -43.05518 197.77173 406
38.65529 -43.81201 200.62607 404
35.14904 -44.61720 203.54298 401
31.45701 -45.43080 206.61995 398
27.52795 -46.28928 209.79861 359
-188.11235 -94.13693 209.26688 485
-191.68016 -94.94243 216.26167 297
82.89767 -34.91581 176.75237 438
80.60442 -35.41536 178.73718 434
73.32903 -37.08406 179.60944 308
62.26178 -39.61978 179.86926 429
59.61186 -40.20024 182.23041 427
56.84463 -40.81470 184.61578 425
54.04973 -41.48845 187.09352 423
51.15604 -42.14011 189.66815 420
48.11641 -42.86934 192.27600 411
44.89171 -43.58573 194.95250 408
41.55273 -44.37107 197.68509 406
38.08822 -45.17935 200.53125 403
34.53072 -45.99614 203.51927 400
30.81997 -46.81443 206.58372 398
26.81126 -47.74797 209.72832 358
-187.63744 -96.64050 209.36710 485
82.63224 -35.89750 176.62465 438
80.32725 -36.43809 178.64694 434
73.51655 -37.99836 179.62515 308
61.91683 -40.74237 179.72162 429
59.20216 -41.38827 182.11331 427
56.46355 -42.01850 184.52284 424
53.64251 -42.72371 186.97098 422
50.71604 -43.37446 189.54106 420
47.60138 -44.14921 192.13484 410
44.34267 -44.88321 194.85745 408
40.97524 -45.69469 197.63118 405
37.47005 -46.51855 200.49539 402
33.88510 -47.33799 203.44025 400
30.16011 -48.25751 206.50075 397
26.11570 -49.21199 209.69955 357
-187.18340 -99.27828 209.31274 484
82.37176 -36.89683 176.47171 437
80.06674 -37.45211 178.50717 433
73.70268 -38.96512 179.62444 308
61.51201 -41.89650 179.59409 428
58.83486 -42.57859 181.96600 426
56.07713 -43.21581 184.41225 424
53.23415 -43.95044 186.88240 421
50.23863 -44.62796 189.44167 412
47.03938 -45.43148 192.04353 409
43.77302 -46.20874 194.73810 407
40.38325 -47.02884 197.49467 404
36.87719 -47.85899 200.38466 402
33.25592 -48.77258 203.36162 399
29.50441 -49.68958 206.49226 396
25.39259 -50.67637 209.65523 357
-186.79564 -101.85501 209.30188 485
82.11143 -37.87111 176.37717 436
79.78331 -38.44525 178.37871 433
73.90353 -39.90503 179.58411 308
61.15044 -43.08344 179.48959 428
58.46171 -43.73886 181.83267 425
55.69085 -44.43283 184.25288 423
52.80315 -45.14475 186.74794 421
49.72752 -45.90170 189.29289 411
46.54598 -46.71681 191.92863 409
43.26133 -47.51878 194.65501 406
39.84484 -48.38253 197.45584 404
36.30960 -49.26096 200.32961 401
32.66247 -50.15677 203.30029 398
28.81686 -51.11028 206.44574 396
24.46765 -52.20876 209.61848 342
-189.34700 -105.16300 209.18488 296
81.84547 -38.87448 176.21873 436
79.49969 -39.48618 178.27194 432
74.14050 -40.82650 179.58098 308
60.80874 -44.24472 179.33348 427
58.04638 -44.93949 181.72804 425
55.25359 -45.66270 184.13438 422
52.33715 -46.39644 186.62532 413
49.25289 -47.19210 189.19206 410
46.01286 -48.02319 191.83141 408
42.68908 -48.84578 194.53627 405
39.24101 -49.72837 197.36436 403
35.67196 -50.66811 200.23325 400
31.99145 -51.60670 203.23557 398
28.09585 -52.59159 206.36229 384
23.12259 -53.84702 209.56029 263
81.55955 -39.91399 176.10985 435
79.21165 -40.49995 178.10703 431
74.35355 -41.78743 179.59239 308
60.41679 -45.42870 179.18381 426
57.66690 -46.15013 181.57977 424
54.85751 -46.89298 184.02319 422
51.85065 -47.64587 186.51756 412
48.71878 -48.46976 189.07796 410
45.46445 -49.34988 191.73698 407
42.11433 -50.19338 194.42636 405
38.63029 -51.13177 197.27222 402
35.05042 -52.07290 200.14612 400
31.32594 -53.03843 203.15671 386
27.23121 -54.12599 206.27783 373
-188.05566 -110.26859 202.23662 495
81.30878 -40.90514 175.94894 434
78.90508 -41.55332 177.99231 431
74.59921 -42.71260 179.58139 308
60.04744 -46.61790 179.06758 425
57.28536 -47.34611 181.44675 423
54.44653 -48.10252 183.89812 414
51.38119 -48.94714 186.40529 411
48.21840 -49.80288 188.95886 409
44.94899 -50.67580 191.59146 407
41.54428 -51.54781 194.32372 404
38.08100 -52.51069 197.15706 401
34.37236 -53.47958 200.05997 388
30.45040 -54.56091 203.08725 385
26.11447 -55.69118 206.24651 372
-187.49728 -112.84669 202.15392 495
81.02947 -41.95342 175.83324 434
-39.95044 -10.93764 -10.41632 430
74.80590 -43.65940 179.61584 308
59.68307 -47.79317 178.92444 425
56.91256 -48.55302 181.28972 423
53.98169 -49.35741 183.74326 413
50.87637 -50.25093 186.27167 411
47.64616 -51.11363 188.83704 408
44.38243 -52.01101 191.49161 406
40.98522 -52.94461 194.23743 403
37.37436 -53.94218 197.07306 389
33.54055 -55.01144 199.97705 387
29.54753 -56.10070 202.99109 384
25.02014 -57.37745 206.16278 371
80.73995 -42.97720 175.69766 433
78.36091 -43.63984 177.72057 429
75.02739 -44.57078 179.58287 308
59.31361 -48.99693 178.76514 424
56.50407 -49.80013 181.18571 422
53.51043 -50.63220 183.62395 412
50.35938 -51.50846 186.11827 410
47.14499 -52.41864 188.68246 408
43.84907 -53.36595 191.35356 405
40.33771 -54.35170 194.14101 391
36.60459 -55.39175 196.95668 388
32.69302 -56.53041 199.88499 386
28.53152 -57.70180 202.89587 373
23.88967 -58.96186 206.09041 370
80.50409 -44.03559 175.54161 432
78.07024 -44.73396 177.60619 429
75.28960 -45.54245 179.58691 308
58.91859 -50.21935 178.64812 423
56.05424 -51.02408 181.03735 414
53.03954 -51.92861 183.45624 412
49.85549 -52.83012 185.97867 409
46.61049 -53.77005 188.56804 407
43.22856 -54.76910 191.24297 393
39.56691 -55.83643 193.98602 390
35.76239 -56.89103 196.84683 388
31.84443 -58.01589 199.79306 385
27.43018 -59.30205 202.81007 372
22.73438 -60.66666 206.00609 369
80.22068 -45.06181 175.39833 432
77.77973 -45.76826 177.43515 428
75.30605 -46.51620 179.55566 426
58.57015 -51.42435 178.46022 423
55.62750 -52.31443 180.85695 413
52.50792 -53.23215 183.32635 411
49.36342 -54.14143 185.83609 409
46.06200 -55.12454 188.46222 394
42.46721 -56.16762 191.07944 392
38.78727 -57.28135 193.83914 389
34.96489 -58.39668 196.70802 387
30.86689 -59.57840 199.65517 374
26.36455 -60.93425 202.72263 371
21.57159 -62.34965 205.94063 368
79.95030 -46.14103 175.24722 431
77.48090 -46.87344 177.28871 427
74.99539 -47.60286 179.40976 425
58.15901 -52.66253 178.30887 415
55.15085 -53.60945 180.68463 413
52.05764 -54.55698 183.17883 410
48.78218 -55.48034 185.70413 396
45.30750 -56.56260 188.27156 393
41.69812 -57.65897 190.96570 391
37.98048 -58.76275 193.73952 388
34.10234 -59.94045 196.57800 386
29.83885 -61.20695 199.57214 373
25.20050 -62.62714 202.61497 370
20.41552 -64.07822 205.81320 367
79.66019 -47.19930 175.10454 431
77.22546 -47.95038 177.15253 427
74.71591 -48.71391 179.24730 424
57.69054 -53.91539 178.14128 414
54.68933 -54.90360 180.55312 412
51.47569 -55.88449 182.99704 397
48.08566 -56.90601 185.49060 395
44.59411 -57.97699 188.13289 393
40.92340 -59.10154 190.76839 390
37.17145 -60.25579 193.58818 388
33.21442 -61.48536 196.43605 374
28.73901 -62.86354 199.44617 372
24.11545 -64.32407 202.50046 369
19.25152 -65.79636 205.74641 366
79.40815 -48.27073 174.94939 430
76.92784 -49.01662 177.01590 426
74.36639 -49.83207 179.11313 424
64.74602 -52.84534 179.70213 304
54.12689 -56.17400 180.37988 399
50.78587 -57.25697 182.81029 397
47.39860 -58.35377 185.33623 394
43.83794 -59.46178 187.96599 392
40.16147 -60.60255 190.66119 389
36.34178 -61.81964 193.41484 387
32.18232 -63.08010 196.29796 373
27.70201 -64.54366 199.29178 371
22.93684 -65.99003 202.39246 368
18.03245 -67.56522 205.66351 365
79.13566 -49.34572 174.80847 429
76.66931 -50.13645 176.88080 425
74.07304 -50.95789 178.99823 423
65.03951 -53.84853 179.67497 304
53.47376 -57.55685 180.17444 398
50.15156 -58.64917 182.61865 396
46.66320 -59.76986 185.13188 393
43.06695 -60.92854 187.75699 391
39.34067 -62.11261 190.49220 388
35.48178 -63.36510 193.29219 386
31.16660 -64.75831 196.14441 373
26.56128 -66.24799 199.18277 370
21.79884 -67.75365 202.31645 367
16.80492 -69.39280 205.59154 365
78.88759 -50.41663 174.63284 427
76.35159 -51.21977 176.73445 425
73.79681 -52.06990 178.85402 422
65.33691 -54.88211 179.67174 304
52.85001 -58.97075 179.95912 397
49.44276 -60.04131 182.42772 395
45.93835 -61.22984 184.95000 392
42.35478 -62.40097 187.60188 390
38.55217 -63.63969 190.29436 388
34.50829 -64.97541 193.14413 374
30.09811 -66.39700 196.02441 372
25.47741 -67.94847 199.01021 369
20.62641 -69.55943 202.22011 366
15.55901 -71.21062 205.49020 364
78.57441 -51.50776 174.48474 426
76.05952 -52.35851 176.56120 424
73.47684 -53.19950 178.67557 422
65.64850 -55.84735 179.67888 304
52.17552 -60.35338 179.74828 396
48.78220 -61.49633 182.20540 394
45.20627 -62.66457 184.76579 392
41.54674 -63.91534 187.43967 389
37.76529 -65.19860 190.16415 387
33.52428 -66.57328 192.95726 373
29.02225 -68.11990 195.86530 371
24.29915 -69.70547 198.90523 368
19.42404 -71.34528 202.07153 365
14.04080 -73.11319 205.37047 334
78.31441 -52.60717 174.33380 426
75.76548 -53.47854 176.40080 423
73.15626 -54.36826 178.55096 421
65.93420 -56.83149 179.67958 304
51.50052 -61.78420 179.55421 396
48.06533 -62.93992 182.00443 393
44.47548 -64.18851 184.56018 391
40.78746 -65.41491 187.24438 388
36.85828 -66.79246 189.97876 375
32.51796 -68.27086 192.76604 372
27.91768 -69.81757 195.68768 370
23.15037 -71.47552 198.79631 367
18.23086 -73.14822 201.95410 365
11.18667 -75.58396 205.19283 317
78.03355 -53.73281 174.16844 425
75.51334 -54.60192 176.25163 423
72.85747 -55.50366 178.38608 420
66.26511 -57.81333 179.68779 304
50.82011 -63.20639 179.31377 395
47.34900 -64.43166 181.79701 392
43.76544 -65.67476 184.41132 390
39.98909 -66.98009 187.08391 387
35.89294 -68.44975 189.78677 374
31.47847 -69.95896 192.59435 372
26.84857 -71.55529 195.55157 369
22.03541 -73.23231 198.65204 366
16.03161 -75.34094 201.77557 334
8.01730 -78.12576 205.04005 316
77.76386 -54.82050 174.02391 424
75.19563 -55.72640 176.11349 422
72.56310 -56.71184 178.20952 420
66.53764 -58.82995 179.67648 304
50.15784 -64.63157 179.07753 394
46.61730 -65.87948 181.58319 391
43.00941 -67.21249 184.18704 389
39.18335 -68.53712 186.84122 376
34.87010 -70.05543 189.60342 373
30.38375 -71.67473 192.40152 371
25.75068 -73.32212 195.37543 368
20.27127 -75.29218 198.43675 335
13.40515 -77.72311 201.53700 317
4.69596 -80.81055 204.85506 315
77.49416 -55.98288 173.82312 423
74.92189 -56.87843 175.93398 421
72.24757 -57.84592 178.07742 419
66.87032 -59.79518 179.65367 304
49.48424 -66.11231 178.86363 393
45.91034 -67.38393 181.37985 391
42.22472 -68.74664 184.00215 388
38.21558 -70.18777 186.63503 375
33.86368 -71.76262 189.41177 372
29.32153 -73.42609 192.25250 370
24.32028 -75.22532 195.18060 337
18.07541 -77.48862 198.21329 334
10.25159 -80.31860 201.32225 316
1.35624 -83.58315 204.59056 314
77.19344 -57.06694 173.69032 423
74.60088 -58.04045 175.74414 420
71.94201 -59.01984 177.89310 418
67.22572 -60.78988 179.65350 304
48.76637 -67.58553 178.64348 392
45.17103 -68.89156 181.15823 390
41.45212 -70.29036 183.75894 387
37.24212 -71.83588 186.45154 374
32.84144 -73.49377 189.17026 371
28.25778 -75.17790 192.06142 369
22.19763 -77.40994 194.94650 336
15.58393 -79.84551 197.94958 318
7.05880 -82.98207 201.07028 315
-2.16125 -86.37670 204.42892 312
76.94221 -58.24437 173.50806 422
74.34002 -59.21644 175.57938 420
71.40057 -60.32331 177.71667 389
67.56720 -61.77998 179.65031 304
48.10136 -69.08722 178.42506 391
44.45330 -70.44414 180.95074 389
40.55054 -71.90596 183.54100 375
36.28980 -73.54637 186.23445 373
31.78838 -75.19907 188.95137 370
26.25604 -77.31644 191.75673 337
20.10741 -79.63442 194.62740 335
12.55440 -82.46323 197.60555 316
3.75519 -85.77106 200.78288 314
-5.88265 -89.41383 204.18930 286
76.64958 -59.38181 173.33601 421
73.93435 -60.44207 175.39502 390
70.75642 -61.63314 177.44795 388
67.76703 -62.77953 179.64850 400
47.35933 -70.58219 178.17377 390
43.71304 -72.00427 180.71446 388
39.63102 -73.60497 183.30922 375
35.26184 -75.23243 185.97586 372
30.16136 -77.21491 188.67978 339
24.17550 -79.50594 191.44037 336
17.79899 -81.96203 194.35954 318
9.36488 -85.17441 197.32289 315
0.28682 -88.66974 200.47479 313
76.37711 -60.56523 173.13087 421
73.31344 -61.74500 175.13329 389
70.08875 -62.97924 177.18066 387
67.13176 -64.13446 179.38141 399
46.64927 -72.13204 177.95229 389
42.89096 -73.62243 180.46281 376
38.68389 -75.25658 183.05508 374
33.97601 -77.09753 185.71132 340
28.20099 -79.33224 188.34247 337
22.07460 -81.73343 191.10674 335
14.75976 -84.58743 193.97319 317
6.12967 -87.95645 196.94020 314
-5.25712 -92.40702 200.06190 268
75.79048 -61.85170 172.86047 391
72.65978 -63.08197 174.84599 388
69.41482 -64.37515 176.92712 386
66.48811 -65.53986 179.16350 398
55.57800 -69.85313 179.78569 300
41.94990 -75.28744 180.20511 375
37.67859 -76.99757 182.82948 373
32.12814 -79.19823 185.35413 339
26.21894 -81.54681 187.98860 336
19.92726 -84.05878 190.79613 334
11.68799 -87.33627 193.62392 316
2.75580 -90.85149 196.60345 313
-21.17430 -100.38657 198.84428 267
75.18052 -63.13955 172.59320 390
72.03747 -64.42156 174.61343 388
68.76559 -65.74786 176.68802 385
65.81496 -66.93875 178.90779 397
55.95766 -70.93221 179.77257 300
41.04235 -76.98717 179.94638 374
35.92888 -79.01689 182.39392 340
30.16215 -81.36811 184.91457 338
24.15605 -83.79485 187.60490 335
17.05215 -86.66101 190.38364 317
8.48897 -90.10225 193.18239 314
-4.54705 -95.35539 195.92421 268
74.54919 -64.46357 172.29044 389
71.37337 -65.80100 174.34442 387
68.07111 -67.14351 176.41057 384
65.17324 -68.32666 178.65230 396
56.34756 -71.98880 179.76089 300
39.61384 -78.85178 179.54947 341
34.03363 -81.12281 181.99625 339
28.20340 -83.56298 184.56522 337
22.00395 -86.15196 187.26180 334
14.02668 -89.36985 189.91292 316
4.22864 -93.39197 192.65674 287
73.94529 -65.79372 172.01848 388
70.72456 -67.18291 174.06316 386
67.37633 -68.59346 176.13542 383
64.50802 -69.77175 178.41902 395
56.75063 -73.00217 179.76360 300
37.81747 -80.96702 179.15411 340
32.13556 -83.29260 181.54489 338
26.15408 -85.85741 184.14415 335
19.33960 -88.69034 186.80336 317
10.88902 -92.23366 189.49867 315
-3.74770 -98.36652 191.73358 268
73.63702 -67.03297 171.81374 316
70.06381 -68.57433 173.73474 385
66.68108 -70.01821 175.84746 382
63.82342 -71.24593 178.16313 394
57.14067 -74.07175 179.76767 300
36.03606 -83.06865 178.69153 339
30.21755 -85.54420 181.11261 337
24.08481 -88.16802 183.70943 334
16.36553 -91.42875 186.31699 316
5.38794 -96.15257 188.69392 287
73.98420 -67.99882 171.81329 316
69.38824 -69.96900 173.48045 384
65.93731 -71.48022 175.59048 381
63.11409 -72.70190 177.91969 393
57.58242 -75.07990 179.76955 300
34.16221 -85.24516 178.19067 338
28.21358 -87.83135 180.66730 336
21.60679 -90.69946 183.25630 317
13.04182 -94.39688 185.72496 288
-2.73076 -101.24255 187.61781 268
74.37185 -68.92241 171.79437 316
68.69660 -71.39619 173.15607 383
65.24734 -72.92725 175.27632 381
62.42368 -74.17255 177.66562 392
58.00176 -76.16609 179.76805 300
32.25499 -87.47308 177.75374 337
26.16732 -90.14816 180.23372 335
18.76063 -93.43431 182.65387 316
6.56412 -98.76898 184.72713 287
74.78657 -69.85624 171.82669 316
68.03452 -72.86539 172.89220 382
64.56901 -74.42738 174.99358 393
61.69918 -75.67985 177.38068 391
58.42154 -77.20143 179.74567 300
43.41545 -83.90815 179.85060 296
23.94413 -92.62160 179.72430 318
14.25579 -96.99277 181.86128 288
-1.68658 -104.12392 183.41664 268
75.13699 -70.77560 171.79556 316
67.31135 -74.35270 172.57751 381
63.91774 -75.92348 174.71429 392
60.99344 -77.26115 177.07452 390
58.01777 -78.62148 179.54498 388
43.88450 -85.02770 179.85008 296
21.11541 -95.43199 179.07097 317
7.89663 -101.45750 180.73517 286
-24.28079 -116.04071 180.00476 341
75.53153 -71.70316 171.81703 316
66.66288 -75.83775 172.25458 380
63.21616 -77.46397 174.41646 391
60.26557 -78.80417 176.80399 389
57.25613 -80.17600 179.27925 387
44.38606 -86.16367 179.87524 296
15.56072 -99.46129 177.94554 288
-0.42544 -106.87546 179.26649 268
-20.97711 -116.39127 180.39761 284
75.92282 -72.66163 171.80699 316
65.92937 -77.38246 171.91547 379
62.47648 -78.98153 174.11482 390
59.54393 -80.36995 176.52301 388
56.47157 -81.79428 179.02966 386
44.87671 -87.29139 179.84859 296
9.23248 -104.04475 176.69952 286
-15.39196 -115.61559 176.67593 343
-20.32527 -117.96535 180.44318 284
76.34432 -73.59299 171.77621 316
66.21106 -78.39916 171.89069 312
61.78988 -80.54068 173.82854 389
58.77629 -81.96610 176.23587 387
54.42112 -84.03603 178.44991 329
45.35717 -88.38439 179.84924 296
-8.03578 -113.91109 173.43338 287
-8.03523 -113.87088 177.75771 287
-19.69270 -119.50690 180.40042 284
76.78357 -74.51780 171.80464 316
66.64320 -79.39392 171.86079 312
61.08525 -82.09196 173.49915 388
57.25470 -83.96686 175.77499 330
52.30503 -86.40697 177.88918 328
45.84885 -89.49847 179.86302 296
28.31765 -98.04618 179.99052 292
1.58107 -110.97097 179.28691 289
-19.01532 -121.03173 180.39244 284
77.17841 -75.43920 171.80060 316
67.10681 -80.36498 171.87541 312
60.06441 -83.86263 173.11253 331
55.22855 -86.28568 175.14000 329
50.11678 -88.77496 177.27261 327
44.84925 -91.34349 179.51428 326
28.84443 -99.24010 179.97931 292
7.70045 -109.67145 180.20319 288
77.61457 -76.34776 171.79828 316
67.55756 -81.39161 171.89792 312
58.09359 -86.07859 172.47795 329
53.10453 -88.65039 174.48419 327
47.83879 -91.27016 176.66914 326
42.44988 -93.92768 178.90971 324
29.40272 -100.44876 179.99504 292
8.35816 -111.03678 180.14864 288
78.03120 -77.27280 171.77963 316
68.04150 -82.35307 171.85561 312
56.66844 -88.10875 171.97375 308
50.90184 -91.06523 173.84682 326
45.47229 -93.80707 176.02000 325
39.95343 -96.62896 178.29939 323
29.96460 -101.68667 179.96886 292
8.99890 -112.37130 180.16901 288
78.46239 -78.14391 171.75891 316
68.48312 -83.30702 171.85497 312
57.13181 -89.15162 171.96471 308
48.61452 -93.56763 173.17839 325
43.10291 -96.44515 175.36134 324
37.38304 -99.37698 177.68744 322
27.75588 -104.30695 179.45683 276
9.60214 -113.69898 180.14903 288
78.91776 -79.09840 171.78351 316
68.94672 -84.32180 171.84645 312
57.62380 -90.21073 171.97197 308
46.31846 -96.16053 172.46547 324
40.59858 -99.11295 174.67627 323
34.25752 -102.45274 176.88286 274
17.76473 -111.12585 177.46231 274
79.33774 -79.99056 171.76030 316
69.43150 -85.28381 171.84813 312
58.16342 -91.28801 171.94298 308
45.25337 -98.10276 172.04843 304
38.02724 -101.94502 173.91667 322
24.40808 -109.19971 174.75945 273
-55.77356 -151.87288 163.50389 370
79.79536 -80.89930 171.75470 316
69.89813 -86.25218 171.83368 312
58.68967 -92.27818 171.97447 308
45.82800 -99.23634 172.03378 304
31.84191 -106.74559 172.39000 274
13.49698 -116.68882 172.36629 296
-51.87301 -151.96364 164.09224 371
80.23963 -81.80564 171.77339 316
70.38966 -87.16886 171.82915 312
59.21493 -93.36065 171.92145 308
46.40612 -100.33959 172.04945 304
31.55117 -108.46562 172.20969 300
14.18215 -117.96744 172.34825 296
-48.02489 -152.03250 164.64735 372
80.74236 -82.68885 171.76607 316
70.90967 -88.15930 171.84479 312
59.69953 -94.36253 171.94572 308
46.95290 -101.48570 172.06104 304
32.15511 -109.63154 172.17354 300
14.83495 -119.28898 172.32542 296
-43.90188 -151.91205 165.23605 364
81.21451 -83.59570 171.78328 316
71.38872 -89.10408 171.85033 312
60.26181 -95.38343 171.91771 308
47.53811 -102.58304 172.01871 304
32.78419 -110.88793 172.14568 300
15.54583 -120.60998 172.28726 296
-42.89147 -153.53635 165.22932 286
81.64402 -84.48882 171.76866 316
71.88331 -90.03964 171.83716 312
60.79649 -96.39586 171.91986 308
48.13211 -103.66396 172.01994 304
33.44236 -112.09150 172.17749 300
16.22602 -121.90690 172.30493 296
-42.06686 -155.24197 165.23474 286
82.13102 -85.37573 171.77620 316
72.39017 -90.99444 171.85242 312
61.36588 -97.46220 171.94293 308
48.68572 -104.77010 172.01851 304
34.07050 -113.24665 172.18953 300
16.92046 -123.20188 172.32661 296
-41.11965 -156.82277 165.21367 286
82.60491 -86.27446 171.74710 316
72.94828 -91.97060 171.82021 312
61.91775 -98.46690 171.93100 308
49.32166 -105.88866 172.00531 304
34.70512 -114.43885 172.15350 300
17.60243 -124.48015 172.26930 296
-40.18613 -158.46936 165.20789 286
83.11102 -87.13381 171.75494 316
73.42197 -92.93324 171.80325 312
62.46314 -99.44379 171.93300 308
49.91888 -106.95497 172.01218 304
35.35688 -115.59606 172.15617 300
-24.68946 -151.46120 163.10637 370
-39.23837 -160.17776 165.24022 286
83.61630 -88.01757 171.74573 316
73.99316 -93.86268 171.83203 312
63.05850 -100.47517 171.90437 308
50.55095 -108.03223 172.05231 304
36.03847 -116.79768 172.15118 300
-21.14282 -151.43216 163.72969 372
84.13062 -88.90902 171.72351 316
74.51302 -94.78138 171.83954 312
63.61762 -101.49219 171.89941 308
51.15917 -109.13667 172.00909 304
36.67393 -117.99885 172.12117 300
-17.62501 -151.33650 164.21152 373
84.60099 -89.79673 171.71080 316
75.03309 -95.71766 171.80025 312
64.19633 -102.46117 171.93335 308
51.73240 -110.21365 172.00978 304
37.36808 -119.17154 172.12883 300
-14.21324 -151.22945 164.79781 374
85.10892 -90.64034 171.72575 316
75.59255 -96.68246 171.81136 312
64.73962 -103.49738 171.91426 308
52.41085 -111.30077 172.02258 304
38.07170 -120.33346 172.11308 300
-10.82673 -151.14792 165.30229 376
85.62683 -91.54097 171.70311 316
76.10984 -97.59598 171.80443 312
65.33373 -104.48363 171.88055 308
53.00980 -112.37680 171.97522 304
38.74682 -121.47999 172.13289 300
-8.06391 -151.42804 165.75151 291
86.15170 -92.40633 171.74100 316
76.68056 -98.51837 171.82097 312
65.95270 -105.49649 171.91982 308
53.67745 -113.42596 172.01035 304
39.45622 -122.66273 172.13806 300
-7.14227 -152.85745 165.74431 291
86.69168 -93.25243 171.73686 316
77.26749 -99.42221 171.80145 312
66.55256 -106.48308 171.90378 308
54.28647 -114.48899 171.99307 304
40.12392 -123.82795 172.11322 300
-6.24269 -154.22917 165.75018 291
87.22638 -94.11083 171.71289 316
77.80562 -100.37832 171.78638 312
67.17763 -107.42648 171.86160 308
54.95713 -115.58922 171.98784 304
2.69128 -150.35623 162.92296 285
-5.27950 -155.61258 165.77858 291
87.74349 -94.98122 171.72690 316
78.39226 -101.26609 171.79187 312
67.76828 -108.44324 171.87939 308
55.58805 -116.64182 171.95840 304
4.94505 -150.80717 163.30664 382
-4.33154 -157.01942 165.75436 290
88.30879 -95.83231 171.70076 316
78.96944 -102.18355 171.79999 312
68.39113 -109.43537 171.86847 308
56.31193 -117.67262 171.98491 304
7.94540 -150.69637 163.78049 383
-3.37294 -158.40398 165.72655 290
88.85913 -96.66720 171.72234 316
79.54552 -103.08073 171.76877 312
69.00011 -110.40257 171.88809 308
56.98580 -118.73653 171.95111 304
10.88512 -150.60110 164.30431 384
-2.41856 -159.85797 165.73189 290
-40762.20703 -28377.34570 5899.43213 1000
89.40498 -97.51389 171.69937 316
80.14100 -104.02420 171.78574 312
69.63962 -111.38036 171.85973 308
57.65955 -119.80599 171.96114 304
13.77294 -150.57970 164.75073 385
89.93391 -98.38837 171.69395 316
80.73039 -104.89244 171.74490 312
70.31613 -112.31947 171.87784 308
58.34701 -120.81662 171.96109 304
16.53054 -150.51935 165.19418 387
90.49747 -99.22673 171.71043 316
81.33984 -105.79635 171.78619 312
70.92841 -113.28400 171.84813 308
59.00882 -121.84685 171.97166 304
19.35414 -150.44606 165.69461 388
91.07306 -100.04752 171.66458 316
81.92089 -106.70534 171.74437 312
71.59442 -114.22369 171.83859 308
59.72100 -122.90015 171.93106 304
21.97994 -150.38652 166.11969 298
91.64703 -100.88684 171.66963 316
82.54362 -107.59750 171.76587 312
72.25455 -115.21992 171.83554 308
28.24356 -147.66103 163.28610 297
22.90012 -151.64497 166.11665 297
92.20153 -101.69611 171.68597 316
83.15314 -108.45620 171.74200 312
72.87051 -116.16949 171.85733 308
28.95604 -149.03220 163.20421 297
23.75903 -152.90218 166.09334 297
92.79543 -102.51025 171.64725 316
83.79474 -109.35902 171.74007 312
73.57307 -117.10683 171.80807 308
30.10852 -150.06448 163.31273 390
24.68595 -154.13727 166.11156 297
93.37870 -103.37560 171.64575 316
84.43243 -110.26277 171.73459 312
74.26389 -118.05861 171.82466 308
32.64420 -149.93475 163.73068 391
25.60110 -155.37814 166.12688 297
93.97308 -104.18716 171.64310 316
85.04047 -111.09649 171.71402 312
74.94443 -118.98031 171.83220 308
35.18988 -149.83774 164.18318 392
26.55633 -156.63025 166.10939 297
94.59127 -104.99539 171.67418 316
85.68688 -112.00952 171.71800 312
75.58409 -119.91982 171.81015 308
37.71234 -149.78894 164.63547 393
27.48261 -157.82610 166.14325 297
95.18419 -105.82954 171.65776 316
86.34737 -112.87190 171.73817 312
76.30421 -120.88601 171.82018 308
40.12625 -149.67842 165.08282 394
28.40212 -158.98354 166.09212 297
95.78078 -106.61584 171.62941 316
86.99095 -113.71937 171.73911 312
76.99283 -121.81922 171.80418 308
42.54257 -149.54489 165.49998 396
96.37024 -107.42823 171.61942 316
87.61964 -114.59404 171.73985 312
49.96752 -145.31996 163.39003 300
44.92049 -149.49963 165.91589 397
97.01228 -108.24436 171.61339 316
88.29387 -115.45023 171.70699 312
50.69556 -146.54280 163.38394 300
46.97647 -149.65211 166.23331 302
97.63538 -109.00639 171.62006 316
88.95240 -116.27373 171.72183 312
51.44617 -147.73216 163.31180 300
47.86551 -150.68216 166.25902 302
98.23840 -109.80990 171.60457 316
89.63454 -117.13572 171.67375 312
52.21776 -148.92215 163.26483 300
48.81152 -151.81989 166.25990 302
-27590.27539 -23615.89648 8685.14941 1000
98.89756 -110.59314 171.60461 316
90.28594 -117.98537 171.69707 312
54.03990 -149.16882 163.57932 401
49.68842 -152.86118 166.24361 301
99.51269 -111.40167 171.60486 316
90.99029 -118.83218 171.71100 312
56.20875 -149.08080 164.00688 402
50.62696 -153.91090 166.27870 301
100.16147 -112.16290 171.61131 316
91.63757 -119.64455 171.68286 312
58.38319 -148.96423 164.38466 403
51.55248 -154.96724 166.22450 301
100.79547 -112.94016 171.61357 316
92.35666 -120.50993 171.66997 312
60.50462 -148.88948 164.80357 405
52.46805 -156.08731 166.26802 301
101.43562 -113.73826 171.59317 316
69.13487 -142.94736 163.53937 304
62.56484 -148.84639 165.12599 406
53.41103 -157.09109 166.23991 301
-1749.98694 -1785.29321 126.70853 360
102.08980 -114.50079 171.58104 316
69.83766 -143.97180 163.53183 304
64.64925 -148.75441 165.51935 407
-1714.86169 -1775.89954 127.75592 362
-1773.27295 -1828.52869 169.86053 276
102.75105 -115.22959 171.56790 316
70.59721 -145.00026 163.47136 304
66.66299 -148.66534 165.89224 408
-1747.68042 -1827.90125 81.43390 335
-1687.07935 -1771.95483 128.47139 404
-1782.15308 -1860.01721 168.93539 289
103.41157 -116.03649 171.60355 316
71.35494 -146.04887 163.43398 304
68.66656 -148.61064 166.22395 409
-1699.07385 -1804.59119 84.40456 390
-1662.37512 -1770.02051 129.49998 406
104.08710 -116.80233 171.57588 316
72.11469 -147.11047 163.44653 304
69.84447 -149.29103 166.34325 306
-1671.69604 -1801.05505 85.44505 388
-1638.38220 -1769.44897 130.07520 427
104.73628 -117.54686 171.59613 316
72.91991 -148.15668 163.40939 304
70.73108 -150.21567 166.31697 306
-1644.58093 -1797.29395 86.61584 421
-1616.95264 -1770.86511 130.19083 428
105.44180 -118.25822 171.58092 316
74.48911 -148.35532 163.62146 412
71.62238 -151.19518 166.34175 306
-1621.47278 -1797.36096 87.42386 422
-1596.21191 -1772.62085 130.80026 412
106.12772 -119.01788 171.54059 316
76.38368 -148.33786 164.00383 413
72.50797 -152.09341 166.32585 306
-1599.67700 -1797.68567 88.25903 423
-1575.81372 -1774.22290 131.23424 412
106.79314 -119.76586 171.56349 316
78.22919 -148.21284 164.32185 414
73.45740 -153.00015 166.37312 306
-1576.21790 -1796.55603 89.23308 300
-1556.46582 -1776.76758 131.82243 422
86.88251 -141.30713 163.66447 311
80.09532 -148.18935 164.65675 415
74.37100 -153.91310 166.34271 306
-1550.45984 -1792.66687 90.15637 306
-1537.34985 -1780.24805 132.40311 423
87.64567 -142.18201 163.62538 308
81.91592 -148.11986 164.99097 416
75.27850 -154.86433 166.35614 305
-1524.97607 -1789.49756 91.29466 307
-1519.09192 -1783.19312 132.24213 424
88.43439 -143.14589 163.64000 308
83.69390 -148.04024 165.34943 417
76.23196 -155.74597 166.38829 305
-1500.42102 -1785.29236 92.17950 307
-1500.30005 -1786.19604 132.72728 424
89.18113 -144.02881 163.59566 308
85.46596 -147.95767 165.66568 418
77.14657 -156.69386 166.34790 305
-1480.72375 -1787.13696 92.63029 403
-1483.35229 -1789.59009 132.89568 370
89.98901 -144.98532 163.56897 308
87.19351 -147.91440 165.99811 419
-1461.92407 -1789.12317 93.08661 404
-1466.23779 -1794.39062 133.75922 370
-1521.33765 -1852.77930 172.22972 471
90.77901 -145.88069 163.52675 308
88.91090 -147.83852 166.27321 420
-1443.44397 -1791.93799 93.89114 405
-1450.12134 -1798.72400 133.43950 370
-1504.75964 -1857.15649 172.58379 472
91.52030 -146.78851 163.47984 307
90.17206 -148.29794 166.42490 310
-1425.43359 -1794.43701 94.51604 410
-1433.68066 -1803.37402 134.36557 375
-1493.21509 -1867.46936 172.71133 337
92.32285 -147.67847 163.46507 307
91.02381 -149.12399 166.40907 310
-1408.37866 -1797.80469 95.11075 411
-1417.85938 -1808.52417 134.27153 375
-1480.47217 -1877.33130 172.52545 470
93.96516 -147.61844 163.78078 423
91.92461 -149.90668 166.43285 310
-1390.70325 -1800.72046 95.10921 412
-1402.54919 -1813.67041 134.77785 374
-1512.02991 -1935.58215 171.74493 335
95.60299 -147.56252 164.06152 424
92.85361 -150.70435 166.43542 310
-1375.23303 -1804.98157 96.00131 420
-1386.87463 -1818.49097 134.60056 373
-1522.13281 -1971.11365 171.12683 334
97.28560 -147.47993 164.41693 414
93.71944 -151.49721 166.45381 310
-1358.91614 -1809.47131 96.33743 421
-1370.65002 -1823.01147 134.85109 374
98.95090 -147.32759 164.74544 416
94.62155 -152.31705 166.42021 310
-1343.24915 -1813.58594 96.50694 421
-1355.31177 -1827.79187 135.41679 374
100.64458 -147.13109 165.05170 417
95.57774 -153.08586 166.42667 310
-1327.15161 -1817.82776 96.96068 422
-1339.20813 -1830.99597 135.62910 428
-1387.81848 -1888.75134 173.59015 476
102.28928 -146.98582 165.39949 418
96.48867 -153.88132 166.47595 310
-1311.51453 -1822.13489 97.26201 422
-1324.37756 -1836.74036 135.44510 375
-1371.82300 -1893.13159 173.95683 477
103.91222 -146.83128 165.68892 419
97.38957 -154.64113 166.47751 310
-1296.20776 -1826.05957 97.64722 423
-1308.71558 -1840.84033 135.73288 375
-1376.28442 -1922.58496 173.21144 352
105.55266 -146.69000 166.05115 420
98.32998 -155.42201 166.44781 310
-1280.99744 -1830.27026 97.98770 423
-1293.10364 -1845.70471 136.28178 375
-1382.70447 -1953.80249 214.07083 451
-1374.33691 -1944.62488 255.41443 411
107.11430 -146.51299 166.32407 421
99.25610 -156.19492 166.43689 310
-1265.32556 -1834.15698 98.17365 424
-1278.01758 -1850.33862 136.37079 376
-1351.40710 -1939.83093 255.09068 412
108.30495 -146.85428 166.46841 314
-1250.44714 -1838.62024 98.34143 424
-1263.29993 -1854.64001 136.26547 376
-1335.57495 -1944.98694 255.13205 347
109.17543 -147.59039 166.48294 314
-1235.10864 -1842.42004 99.24788 479
-1247.70898 -1859.27478 136.54266 376
-1270.55444 -1887.18115 174.92654 480
-1346.31543 -1983.66003 255.91747 346
-10948.98438 -14094.71973 3471.61011 1000
110.03929 -148.24101 166.47534 314
-1219.69006 -1846.72913 99.12685 479
-1232.64697 -1863.41113 136.67468 289
-1254.53906 -1891.23083 175.16153 481
110.95590 -148.96248 166.47647 314
-1205.33667 -1851.01331 99.26754 480
-1217.14807 -1866.87683 137.43292 382
-1247.73230 -1905.96130 175.29080 453
111.79601 -149.64908 166.48885 314
-1190.36475 -1855.29150 99.81670 480
-1202.30090 -1871.01501 137.20760 431
-1268.02441 -1957.62378 173.77521 342
112.71273 -150.36037 166.43747 314
-1175.55188 -1859.34924 100.43816 481
