# .PCD v.7 - Point Cloud Data file format
VERSION .7
FIELDS x y z rgb
SIZE 4 4 4 4
TYPE F F F U
COUNT 1 1 1 1
WIDTH 1429
HEIGHT 1
VIEWPOINT 6631.374512 -2690.742188 147.618851 -0.825656 -0.070224 -0.114673 0.547915
POINTS 1429
DATA ascii
388.97098 92.02586 166.04918 431
394.67679 95.23691 167.69289 309
387.54160 92.52062 166.32120 432
394.18991 96.29847 167.66689 309
386.16724 92.99062 166.59398 433
393.65634 97.38400 167.66902 309
384.73734 93.45737 166.86252 434
393.15051 98.39685 167.64479 309
383.40021 93.93806 167.13103 435
382.05554 94.43307 167.38316 436
380.69888 94.87112 167.60976 437
380.07687 95.76577 167.62546 315
379.55853 96.70897 167.62460 315
379.01779 97.67330 167.65678 315
378.46310 98.66092 167.61992 315
377.93170 99.59349 167.64441 315
377.38135 100.52634 167.62903 315
376.80038 101.47291 167.63011 315
376.24789 102.37997 167.61966 313
375.69427 103.29023 167.62695 313
375.12589 104.27148 167.59807 313
374.56848 105.17886 167.57777 313
373.99097 106.11914 167.58669 313
1900.79028 2342.33057 74.85207 347
1901.69763 2343.27002 122.08722 347
1901.49683 2343.50317 169.11534 413
1902.65759 2344.41284 216.46616 413
1902.88171 2345.39429 263.24136 413
20028.30078 37469.14453 -8227.94434 1000
30745.30664 57798.12109 16567.37109 1000
1265.26233 2065.60059 64.43208 455
1265.46155 2067.33008 102.40559 455
1266.43835 2068.82739 140.20555 489
1267.09131 2070.86523 178.15646 489
1268.25903 2071.81909 215.90643 489
1269.11548 2073.79980 254.14555 488
18916.42773 42719.09766 -4393.53760 1000
5469.59424 14887.27344 -2131.62207 1000
590.53082 1776.85962 66.93597 499
590.81824 1777.13672 96.91877 499
590.85004 1777.52905 126.52554 499
590.83441 1778.24219 156.25337 499
591.07629 1778.79749 186.09418 499
591.11536 1778.96680 215.71518 499
591.17218 1779.36133 245.45016 499
591.45923 1780.07300 275.26816 499
4317.43311 27383.53320 1109.31628 1000
-3498.97168 25288.83594 -3589.38232 1000
-1758.68713 3895.82056 71.27745 441
-1525.97571 3241.56665 94.37962 449
-1210.87830 2583.37988 70.00981 463
-1212.90405 2588.15259 117.91042 346
-1225.95471 2573.95898 69.55209 481
-1228.19592 2577.31982 118.05812 371
127.04747 150.30147 167.36253 316
126.20293 149.64948 167.34741 316
125.31786 148.98300 167.33829 316
125.09830 149.30020 170.45859 312
124.47105 148.29895 167.34834 316
124.23343 148.66861 170.43921 312
123.65767 147.62779 167.37216 316
123.13811 148.38162 170.34982 440
122.38528 147.53333 167.16570 440
121.73091 148.42178 170.12308 432
121.03760 147.54642 166.92435 430
120.27805 148.55940 169.87410 431
119.55546 147.69450 166.67250 429
118.81113 148.64561 169.60902 430
118.09160 147.79938 166.40714 428
117.23477 147.13216 166.40103 314
116.37268 146.41066 166.39130 314
115.50343 145.69923 166.41507 314
114.25909 145.50307 166.19316 422
106.58542 155.16568 166.36246 310
112.69109 145.66241 165.88135 421
105.67907 154.38885 166.39789 310
111.14735 145.83827 165.62363 420
104.77139 153.63812 166.39291 310
109.54076 146.00844 165.26912 419
103.87760 152.86105 166.40007 310
107.91483 146.16586 164.97585 418
102.95324 152.03810 166.38171 310
106.28136 146.32407 164.62709 417
102.09522 151.27156 166.38513 310
104.62890 146.47350 164.32556 416
101.23245 150.46608 166.38167 310
102.97052 146.68755 163.96245 415
100.37123 149.66463 166.38881 310
101.25957 146.84279 163.61403 414
99.49670 148.86528 166.39072 310
99.90257 146.57133 163.39380 312
98.60587 148.02859 166.38129 310
99.10757 145.69858 163.45995 311
97.78434 147.18173 166.41379 310
98.33010 144.86873 163.48177 311
96.05132 147.29839 166.07022 422
97.56137 143.93512 163.48242 311
94.35500 147.39365 165.76666 421
85.87195 156.60005 166.33578 305
96.81973 143.03465 163.54039 311
92.65413 147.45929 165.47214 420
84.94424 155.66437 166.33409 305
96.03425 142.17712 163.51372 311
90.91014 147.51469 165.13560 419
83.99962 154.81140 166.30397 306
95.26144 141.25078 163.55106 311
89.16087 147.57947 164.79166 418
83.10101 153.92265 166.34802 306
94.55117 140.34709 163.56282 311
87.39894 147.67941 164.45471 416
82.23176 152.97975 166.34660 306
114.27787 118.67142 171.43971 316
85.56910 147.71465 164.11562 415
81.32625 152.09154 166.28537 306
113.60378 117.95089 171.43184 316
83.75687 147.81506 163.80428 414
80.40027 151.15709 166.31007 306
112.95068 117.18393 171.46291 316
81.91199 147.88431 163.44719 413
79.52194 150.26350 166.28764 306
112.30795 116.41677 171.45792 316
80.93227 147.11644 163.39694 304
78.66516 149.30301 166.30046 306
111.66937 115.65598 171.45026 316
80.12799 146.07477 163.38280 304
77.74949 148.35580 166.29675 306
111.01132 114.92495 171.45987 316
79.41349 145.00562 163.47258 304
76.20972 148.06471 166.07234 411
110.39507 114.17270 171.47238 316
78.65592 143.98253 163.50168 304
74.24721 148.15324 165.72292 409
109.74083 113.39246 171.47136 316
77.97445 142.95847 163.49458 304
72.26006 148.23372 165.35876 408
62.39634 157.36755 166.19037 301
109.12002 112.59631 171.50046 316
77.27621 141.89859 163.53102 304
70.21977 148.32198 165.01244 407
61.55983 156.34871 166.23810 301
108.50188 111.85296 171.49913 316
100.08525 119.51300 171.58070 312
68.18812 148.43230 164.61842 406
60.60054 155.28563 166.23627 301
107.90984 111.07018 171.51201 316
99.39276 118.68945 171.57799 312
66.16302 148.49333 164.21124 405
59.72595 154.19247 166.19577 301
107.25320 110.26561 171.51515 316
98.74335 117.81969 171.54527 312
63.98836 148.54723 163.85179 404
58.82067 153.13190 166.23438 302
106.67433 109.47614 171.49155 316
98.07838 117.00191 171.59656 312
61.86882 148.63446 163.45792 403
57.94089 152.10666 166.24089 301
106.02724 108.69411 171.50024 316
97.43027 116.14336 171.59505 312
60.50061 148.08376 163.26065 300
57.01235 151.01665 166.23221 301
105.45911 107.88902 171.50500 316
96.80712 115.31075 171.56206 312
59.73200 146.88490 163.33989 300
56.13373 149.95940 166.18457 301
104.85966 107.12102 171.52379 316
96.14344 114.47160 171.60509 312
59.05296 145.70818 163.32570 300
55.23957 148.92543 166.19812 400
104.25382 106.29816 171.52670 316
95.54733 113.58422 171.58096 312
58.31232 144.53387 163.38464 300
52.95801 149.00868 165.80777 398
103.68082 105.50272 171.52806 316
94.91318 112.72128 171.62106 312
84.90884 120.95878 171.69713 308
50.66550 149.08427 165.37323 397
103.09684 104.69165 171.53394 316
94.27119 111.86253 171.62544 312
84.23958 120.01301 171.71318 308
48.26057 149.15428 164.94833 396
36.81425 158.44952 166.07440 297
102.54389 103.87852 171.52840 316
93.66837 111.00240 171.60857 312
83.57813 119.09647 171.67529 308
45.86907 149.27138 164.55881 395
35.92478 157.26790 166.07922 297
101.96152 103.07109 171.52321 316
93.02779 110.12753 171.62590 312
82.91961 118.12260 171.69273 308
43.41796 149.36003 164.12935 394
34.98220 156.07294 166.06584 297
101.37747 102.24294 171.57300 316
92.46484 109.26000 171.60051 312
82.27749 117.19964 171.72823 308
40.93052 149.45369 163.64171 392
34.05857 154.81189 166.11551 297
100.82153 101.41965 171.56210 316
91.86457 108.38028 171.60651 312
81.64003 116.25990 171.68600 308
38.46612 149.56152 163.18159 391
33.20272 153.55669 166.06372 297
100.29531 100.61059 171.58197 316
91.27612 107.48896 171.61128 312
80.96997 115.28253 171.72676 308
37.51662 148.39394 163.21417 296
32.33843 152.39107 166.08412 297
99.72486 99.78353 171.55460 316
90.65934 106.59902 171.62631 312
80.33617 114.34749 171.74702 308
36.81898 147.07179 163.21443 296
31.44174 151.14807 166.11475 297
99.21120 98.91778 171.55659 316
90.08339 105.72768 171.63989 312
79.73723 113.40128 171.73093 308
67.88307 122.21121 171.82971 304
30.52014 149.87419 166.10448 297
98.66916 98.10420 171.58313 316
89.49179 104.80602 171.67255 312
79.11343 112.41676 171.73308 308
67.17073 121.19437 171.82542 304
27.88976 149.92490 165.63791 387
98.12884 97.25817 171.58008 316
88.91304 103.92240 171.66689 312
78.49010 111.48805 171.76175 308
66.49963 120.13834 171.85481 304
25.09185 150.08585 165.19493 385
97.59836 96.42622 171.60529 316
88.37050 102.97746 171.64604 312
77.87685 110.46397 171.76488 308
65.85025 119.05431 171.82033 304
22.31827 150.19695 164.67549 384
-46373.69531 33282.16406 -7339.66895 1000
97.08073 95.54726 171.59836 316
87.79011 102.11787 171.65607 312
77.28980 109.53139 171.73163 308
65.22106 118.02474 171.82521 304
19.42513 150.26263 164.23038 386
6.63798 159.27914 165.82721 290
96.57010 94.72652 171.60852 316
87.23801 101.18958 171.64731 312
76.66634 108.55852 171.78049 308
64.56977 116.95320 171.84270 304
16.55237 150.32913 163.76389 385
5.72663 157.86208 165.77600 290
96.06086 93.87228 171.57799 316
86.69624 100.28971 171.68965 312
76.07864 107.58153 171.74815 308
63.91717 115.93355 171.85120 304
13.69977 150.41847 163.20110 383
4.80519 156.47488 165.83833 291
95.53070 93.00404 171.61411 316
86.10850 99.35351 171.65501 312
75.48678 106.55595 171.75336 308
63.25942 114.88689 171.84727 304
11.89133 149.69553 163.04822 285
3.82889 155.10405 165.78053 291
95.02749 92.13931 171.58369 316
85.59467 98.44931 171.70538 312
74.91962 105.60601 171.76562 308
62.65348 113.80700 171.88216 304
48.47818 123.28801 171.98619 300
2.91817 153.73726 165.80322 291
94.54646 91.29127 171.60847 316
85.03970 97.52096 171.68735 312
74.31219 104.63809 171.75758 308
62.01559 112.72865 171.85875 304
47.78867 122.11209 172.01270 300
2.03861 152.27075 165.77829 291
94.03735 90.38236 171.60091 316
84.53036 96.56638 171.67654 312
73.75314 103.62796 171.75287 308
61.37900 111.66454 171.86304 304
47.07865 120.94771 171.97260 300
1.11957 150.88538 165.81676 291
93.56032 89.54024 171.60385 316
84.01567 95.63836 171.69530 312
73.18465 102.59148 171.79082 308
60.79173 110.55991 171.88943 304
46.43194 119.77957 172.01749 300
-1.80932 150.79305 165.34604 377
93.08065 88.66984 171.62613 316
83.48715 94.74544 171.68745 312
72.61868 101.60507 171.77798 308
60.18109 109.52420 171.87517 304
45.80480 118.64543 171.99879 300
-5.07874 150.91037 164.82103 376
92.61038 87.80229 171.63452 316
82.98038 93.81647 171.68735 312
72.07150 100.61791 171.79991 308
59.60691 108.43462 171.89020 304
45.10426 117.45570 172.04506 300
-8.44811 150.97067 164.27197 375
92.10921 86.88542 171.64104 316
82.47768 92.82313 171.71352 312
71.55254 99.61217 171.79114 308
58.98276 107.34978 171.91118 304
44.50809 116.26233 172.01712 300
-11.93415 151.03233 163.73610 373
91.62432 86.01015 171.63446 316
81.99413 91.89529 171.68896 312
71.02126 98.58817 171.82748 308
58.39847 106.24106 171.91823 304
43.83617 115.12901 172.00349 300
-15.39242 151.12488 163.19183 372
-29.88645 159.90555 165.27118 286
91.19420 85.15720 171.62991 316
81.48458 90.95553 171.73557 312
70.49229 97.58043 171.80681 308
57.82673 105.13996 171.94121 304
43.19652 113.90615 172.03342 300
26.06564 124.16461 172.19943 296
-30.83115 158.28346 165.25818 286
90.72762 84.27005 171.64784 316
81.02351 90.02240 171.73825 312
69.95373 96.55117 171.83716 308
57.29472 104.03076 171.92755 304
42.62241 112.71619 172.05280 300
25.41836 122.85498 172.17592 296
-31.69616 156.63797 165.34013 286
90.27045 83.38115 171.65082 316
80.52428 89.04238 171.70496 312
69.40603 95.52955 171.84378 308
56.69101 102.96722 171.94339 304
41.96619 111.52637 172.06523 300
24.74896 121.57077 172.19112 296
-32.62053 155.03099 165.34209 286
89.82311 82.44728 171.63380 316
80.03397 88.08376 171.74739 312
68.88483 94.53701 171.79581 308
56.14727 101.83268 171.95532 304
41.38906 110.33754 172.06819 300
24.09913 120.24677 172.17101 296
-33.49301 153.35516 165.30692 287
89.40265 81.58156 171.66370 316
79.55708 87.14283 171.74355 312
68.40565 93.44619 171.81799 308
55.62734 100.74022 171.90506 304
40.76513 109.14473 172.02403 300
23.45968 118.98116 172.19455 296
-34.36411 151.71204 165.30452 287
88.93396 80.65763 171.64452 316
79.09917 86.20628 171.72369 312
67.88594 92.46438 171.83257 308
55.05634 99.61606 171.91890 304
40.19651 107.91459 172.07216 300
22.77636 117.62891 172.17856 296
-38.17136 151.67859 164.74992 364
88.51463 79.76633 171.64404 316
78.65213 85.20343 171.72243 312
67.40667 91.41782 171.82784 308
54.50710 98.48487 171.95152 304
39.61390 106.70531 172.09341 300
22.10772 116.32468 172.18111 296
-42.19254 151.82341 164.11440 363
88.11592 78.82879 171.66789 316
78.17007 84.23901 171.74623 312
66.89062 90.34896 171.84927 308
53.98560 97.38342 171.94481 304
39.02044 105.53679 172.05241 300
21.51109 114.97536 172.24744 296
-46.45312 151.87527 163.52182 362
87.71767 77.95269 171.68367 316
77.70763 83.26677 171.73528 312
66.43218 89.33613 171.85008 308
53.46318 96.24558 171.96237 304
38.42866 104.27503 172.06946 300
20.90794 113.67913 172.21616 296
-0.03800 124.85217 172.37926 292
87.26624 77.02707 171.66046 316
77.27406 82.28934 171.76872 312
65.93156 88.26486 171.85655 308
52.95485 95.11398 171.94563 304
38.67898 102.62922 172.27458 321
24.17295 110.31389 173.00850 274
-0.69630 123.37245 172.37022 292
86.86208 76.12962 171.65395 316
76.84211 81.33234 171.76569 312
65.46513 87.24232 171.86992 308
52.45697 94.02425 171.98459 304
41.30210 99.78720 172.97533 322
34.06283 103.52766 175.19362 275
16.81402 112.51754 175.79353 275
-72.79507 158.99348 164.96564 284
86.47327 75.18768 171.67047 316
76.43348 80.35361 171.74759 312
64.98322 86.20384 171.85777 308
51.94257 92.87427 171.98328 304
43.87948 97.01612 173.64577 324
37.99898 99.99339 176.12408 323
26.81802 105.69543 177.74843 276
10.89144 113.86607 179.00047 275
86.07497 74.29609 171.68806 316
75.97430 79.36849 171.76054 312
64.56651 85.11647 171.85809 308
51.96067 91.45647 172.12088 327
46.35841 94.29990 174.32053 325
40.59871 97.17654 176.76967 324
34.59388 100.19463 179.32162 322
16.40877 109.38223 180.02708 288
85.68925 73.34947 171.66841 316
75.56227 78.37512 171.75443 312
64.11395 84.08154 171.85303 308
54.23290 88.99564 172.76797 328
48.75104 91.71545 174.98312 326
43.19485 94.47068 177.41414 325
37.09445 97.45758 179.90903 292
15.78081 108.00619 180.07147 288
-10.46014 121.09480 180.28264 284
85.30155 72.46387 171.68727 316
75.15683 77.41948 171.78380 312
63.67629 83.03387 171.84686 308
56.35685 86.55901 173.41644 329
51.10152 89.12022 175.63518 327
45.60516 91.81133 177.98988 326
36.56823 96.24525 179.87085 292
15.25506 106.65542 180.05614 288
-11.15565 119.52300 180.30766 284
84.93169 71.49996 171.71716 316
74.76369 76.37963 171.76311 312
63.21399 81.98049 171.88773 308
58.48772 84.21101 174.00821 331
53.37413 86.66743 176.21799 329
48.04968 89.23582 178.57449 328
36.06630 95.01816 179.88228 292
14.67235 105.29744 180.04576 288
-11.77846 118.02327 180.27092 284
84.54493 70.56144 171.68864 316
74.35572 75.40837 171.79230 312
63.36795 80.63493 172.00592 376
60.03897 82.19237 174.52429 387
55.57461 84.29733 176.80034 330
50.32140 86.75427 179.17657 329
35.56942 93.77707 179.91193 292
-4.43176 112.68070 176.99728 286
-12.39202 116.48084 180.31175 284
84.17918 69.63813 171.69150 316
73.97462 74.42142 171.80270 312
64.18745 78.98230 172.36414 377
60.85341 80.54115 174.81116 388
57.66577 82.02540 177.38571 386
52.64705 84.37131 179.72165 330
35.06216 92.55341 179.89168 292
-14.09066 115.45308 175.51076 342
-14.16155 115.47278 180.13637 342
83.82941 68.71937 171.71628 316
73.57053 73.39622 171.79941 312
64.94941 77.36492 172.68138 378
61.58689 78.91518 175.10492 389
58.43528 80.36253 177.65416 387
52.43130 83.13002 179.75122 296
18.05343 98.88771 176.89558 288
3.47537 105.57677 178.50146 286
-18.61021 115.67330 179.56378 341
83.43748 67.77624 171.71777 316
73.18729 72.40328 171.81319 312
65.70567 75.80784 172.97618 379
62.31013 77.31155 175.35454 390
59.25675 78.71280 177.91479 388
52.00258 81.94824 179.74225 296
23.03779 95.00574 177.92879 317
10.31950 100.75024 179.75349 287
-23.25439 115.94059 179.02858 340
83.10764 66.85599 171.69618 316
72.80360 71.38953 171.79826 312
66.50622 74.23188 173.27103 380
63.08442 75.71244 175.61343 391
60.03598 77.06268 178.18263 389
51.58022 80.82832 179.77551 296
25.78437 92.28349 178.49399 334
16.71150 96.32777 180.83902 288
2.12736 102.78111 182.72189 286
82.75492 65.90557 171.73514 316
72.43607 70.40102 171.81580 312
67.26101 72.69179 173.56538 381
63.81211 74.17631 175.93251 392
60.80242 75.50726 178.44337 390
51.17197 79.70627 179.79262 296
27.89223 89.81870 178.95799 335
20.63647 93.02299 181.57639 317
9.00651 98.05681 183.83401 287
-49.34159 123.52185 180.56129 280
82.43148 64.97662 171.70917 316
72.07491 69.39544 171.77834 312
67.98082 71.16226 173.85512 382
64.54394 72.61827 176.17863 393
61.54875 73.93945 178.71716 391
50.71416 78.55347 179.74733 296
30.00033 87.45002 179.45628 336
23.56609 90.17152 182.12019 334
15.12973 93.85468 184.79869 316
0.83917 99.92506 186.96706 286
82.09148 63.98635 171.69904 316
72.21257 68.18786 171.96541 385
68.72113 69.63234 174.12587 383
65.27755 71.08926 176.45473 394
62.30811 72.33709 178.96896 392
50.30305 77.40742 179.74783 296
32.02966 85.14868 179.90088 337
25.72815 87.75229 182.56387 335
18.23057 90.96633 185.31432 317
7.81513 95.36599 187.92995 287
81.75269 63.05869 171.71886 316
72.89430 66.73796 172.21771 386
69.44717 68.13995 174.39182 384
65.95907 69.59832 176.66588 395
63.02969 70.80092 179.16859 393
39.87792 80.44056 177.80452 341
34.04181 82.83613 180.29852 338
27.87390 85.40028 183.02859 336
21.23902 88.17052 185.77307 318
12.66671 91.67799 188.56596 316
-0.34038 97.07676 191.22595 286
81.45792 62.08473 171.72113 316
73.59408 65.30497 172.52338 387
70.13894 66.70825 174.65981 385
66.69930 68.13637 176.93547 396
63.75216 69.31006 179.41325 394
41.68089 78.27789 178.23550 342
35.95339 80.62802 180.72379 340
29.94110 83.08072 183.39305 337
23.63197 85.69474 186.20752 335
15.87484 88.82761 189.04811 317
6.66169 92.56084 192.00734 287
-15.17618 101.47928 194.15472 268
81.12370 61.17420 171.72771 316
74.24100 63.88823 172.78300 388
70.88644 65.24900 174.96799 386
67.35185 66.66854 177.17200 397
64.46404 67.83311 179.65555 300
42.90751 76.46084 178.58397 375
37.89260 78.44018 181.14919 341
32.02644 80.80812 183.82500 338
25.77148 83.29095 186.58824 336
18.90497 86.04629 189.47214 318
10.24906 89.51377 192.44711 315
-1.42226 94.18449 195.38332 286
80.80360 60.18689 171.75359 316
74.91679 62.51037 173.03908 389
71.58873 63.81456 175.23238 387
68.12090 65.21284 177.45453 384
64.12422 66.77191 179.64467 300
43.87122 74.75200 178.82889 376
39.44853 76.48003 181.54041 373
34.00008 78.62820 184.21841 339
27.92266 80.99296 186.94608 337
21.50614 83.51064 189.89017 334
13.48697 86.64867 192.85016 317
4.37595 90.23385 195.99315 314
-15.89243 98.25328 198.62170 268
80.50439 59.25836 171.72815 316
75.60542 61.16341 173.30017 390
72.26572 62.43723 175.49207 387
68.84687 63.77264 177.66536 385
63.77962 65.69353 179.68225 300
44.74267 73.07714 179.06227 387
40.43205 74.72342 181.77121 374
35.90373 76.48650 184.59143 372
30.01885 78.72653 187.30350 338
23.71457 81.18201 190.18570 336
16.59664 83.89732 193.22478 318
7.83282 87.33914 196.32202 315
-2.48511 91.32090 199.60698 286
80.23028 58.27159 171.71310 316
76.13927 59.84056 173.54765 419
72.97594 61.04353 175.71640 388
69.56477 62.31583 177.92737 386
63.43935 64.62522 179.67012 300
45.48101 71.46712 179.27841 388
41.40333 72.96967 182.00914 375
36.95043 74.71023 184.80310 373
32.03801 76.56444 187.68323 339
25.86848 78.89600 190.50755 337
19.38277 81.32113 193.54951 334
11.08626 84.47762 196.65646 316
1.91499 87.93584 199.99284 314
-16.52028 94.97948 203.11177 268
79.93328 57.34453 171.72820 316
76.43727 58.61708 173.71387 420
73.63976 59.66935 175.96164 418
70.27925 60.91493 178.19235 387
63.11155 63.55737 179.66739 300
46.29136 69.83994 179.52473 389
42.39713 71.25121 182.23549 387
37.96270 72.91738 185.01569 374
33.38013 74.62528 187.92180 371
27.98366 76.61432 190.85754 338
21.65406 78.98677 193.84406 335
14.28206 81.73288 196.96289 317
5.37637 85.09038 200.20331 315
-4.22961 88.62249 203.76526 312
79.61205 56.36802 171.72301 316
76.74920 57.40914 173.88208 421
74.00580 58.43732 176.15073 419
70.98530 59.50328 178.40823 388
62.76430 62.51794 179.67918 300
47.03281 68.26794 179.73056 390
43.19546 69.67083 182.49178 388
38.99512 71.19427 185.23421 375
34.46403 72.85815 188.09482 372
29.75053 74.57787 191.12138 369
23.83320 76.72028 194.11575 336
17.29248 79.13792 197.29999 334
8.72972 82.26324 200.50040 316
-0.61774 85.63603 203.96570 313
79.72788 55.25811 171.86317 425
77.06272 56.22375 174.06711 421
74.29269 57.21709 176.30893 419
71.47536 58.19404 178.60065 417
62.47185 61.42004 179.65912 300
47.79689 66.70309 179.93857 391
43.96817 68.07005 182.66379 389
39.99211 69.47074 185.46123 376
35.54428 71.08807 188.33714 373
30.85203 72.76820 191.30325 370
25.97366 74.47813 194.37808 368
19.58943 76.82373 197.49385 335
12.02109 79.51608 200.73993 317
2.93925 82.76060 204.19550 315
79.99796 54.08466 172.03140 426
77.39632 55.03405 174.21732 422
74.62077 56.02018 176.46303 420
71.82217 56.98233 178.71780 418
62.16936 60.36377 179.69095 300
48.56382 65.15778 180.15605 392
44.76602 66.46529 182.85391 389
40.84566 67.84698 185.64629 387
36.55367 69.35696 188.50899 374
31.94796 71.00578 191.45691 371
27.13172 72.67939 194.51692 369
21.84746 74.50291 197.76804 336
15.12065 76.90247 201.01186 318
6.39148 79.94988 204.40826 316
80.30942 52.94986 172.17097 427
77.70188 53.82888 174.33995 423
74.97833 54.78066 176.61557 421
72.13317 55.75302 178.90445 418
61.87447 59.26371 179.65941 300
49.28598 63.60828 180.37436 393
45.55291 64.89867 183.08253 390
41.67471 66.23011 185.87303 388
37.60798 67.63783 188.70691 375
33.02079 69.25043 191.62428 372
28.26305 70.85265 194.70828 370
23.31651 72.57655 197.91589 367
17.55578 74.54499 201.17764 335
9.69005 77.28725 204.58194 317
80.59646 51.80424 172.33379 427
77.98693 52.68257 174.49451 424
75.28809 53.56543 176.76273 421
72.49979 54.54809 179.03642 419
53.57889 60.90023 178.02153 396
49.99947 62.10588 180.60266 394
46.34577 63.35149 183.24780 391
42.51473 64.64653 186.03325 389
38.54122 65.96854 188.87656 386
34.09399 67.51453 191.79276 373
29.38530 69.08639 194.84314 371
24.53331 70.73003 198.04784 368
19.41340 72.46840 201.38889 365
12.89637 74.61927 204.77518 318
80.91677 50.66842 172.51460 428
78.31178 51.51513 174.68349 424
75.60233 52.42070 176.91512 422
72.82881 53.33374 179.16104 420
54.28328 59.47528 178.20862 397
50.73523 60.64214 180.78621 394
47.09659 61.84571 183.47110 392
43.29142 63.08187 186.18213 390
39.36353 64.36063 189.04054 387
35.16635 65.76551 191.98915 374
30.50215 67.28960 195.00058 371
25.66082 68.89118 198.18968 369
20.65578 70.58060 201.48488 366
15.33383 72.31058 204.91740 363
81.21399 49.53460 172.66649 429
78.59375 50.34892 174.82457 425
75.93599 51.21424 177.04546 423
73.15813 52.12439 179.29362 420
54.97771 57.98261 178.41261 398
51.47468 59.11782 180.98026 395
47.85540 60.29515 183.64413 393
44.10462 61.54469 186.40292 391
40.24327 62.79510 189.23570 388
36.17819 64.06563 192.15729 386
31.60180 65.56762 195.15407 372
26.84045 67.12223 198.29993 370
21.84067 68.70802 201.55746 367
16.62040 70.46416 204.99437 364
81.46534 48.41194 172.80049 429
78.94766 49.20738 174.94658 426
76.26140 50.05986 177.18719 423
73.54076 50.92805 179.45616 421
55.64057 56.56964 178.64146 399
52.17459 57.68634 181.16864 396
48.60646 58.79217 183.83891 394
44.89714 60.01635 186.57159 391
41.06953 61.20109 189.39719 389
37.09729 62.49133 192.28882 386
32.72686 63.82253 195.33713 373
27.98906 65.34259 198.45535 371
23.06984 66.90179 201.69843 368
17.91997 68.53973 205.09729 365
81.75461 47.26712 172.96617 430
79.23903 48.05188 175.09238 426
76.57322 48.87397 177.32304 424
73.83021 49.72089 179.57507 422
56.29609 55.18996 178.82297 412
52.90472 56.22324 181.36554 397
49.34411 57.35930 183.99149 395
45.68808 58.48198 186.74245 392
41.86448 59.68951 189.55032 390
37.93692 60.90244 192.46512 387
33.78573 62.15073 195.48154 374
29.12055 63.61510 198.54033 372
24.29257 65.14142 201.81412 369
19.14494 66.69078 205.18419 366
82.05412 46.15107 173.11755 431
79.52977 46.91626 175.26387 429
76.91031 47.74242 177.45255 425
73.61784 48.71067 179.59386 304
56.74382 53.86310 179.00371 412
53.56005 54.84208 181.54614 410
50.09563 55.85202 184.17232 396
46.43719 56.96320 186.89310 393
42.64907 58.11631 189.68959 391
38.75562 59.30213 192.61169 388
34.73802 60.55576 195.57240 386
30.27565 61.91459 198.68904 372
25.46047 63.34230 201.90852 370
20.43015 64.90144 205.27536 367
82.34952 45.06723 173.23898 431
79.83464 45.78598 175.38403 429
77.23662 46.56824 177.58763 425
73.41003 47.72133 179.61214 304
57.22320 52.49860 179.13498 413
54.02551 53.44570 181.72757 411
50.75036 54.44393 184.34239 408
47.22311 55.50254 187.06419 394
43.45978 56.63150 189.81882 391
39.61937 57.74212 192.74287 389
35.60706 58.92182 195.69046 386
31.36652 60.22458 198.82030 373
26.59657 61.60653 202.00729 371
21.65810 63.09941 205.38036 368
82.64256 43.96932 173.39337 432
80.12999 44.68687 175.54076 430
77.51391 45.44123 177.74487 426
73.15341 46.70218 179.57570 304
57.73742 51.21152 179.30490 414
54.52720 52.12926 181.84212 411
51.23985 53.07307 184.49849 409
47.85699 54.04323 187.18170 407
44.27768 55.07191 189.98579 392
40.41286 56.21783 192.87231 390
36.45873 57.34367 195.84676 387
32.37019 58.57349 198.91228 385
27.76244 59.89389 202.10539 372
22.84686 61.33057 205.42296 369
82.94458 42.88309 173.54697 433
80.43651 43.59204 175.66730 431
77.85590 44.29721 177.86618 427
72.96738 45.70618 179.59924 304
58.18570 49.91621 179.42250 421
55.03750 50.80254 182.00914 412
51.80199 51.69416 184.61647 410
48.45760 52.66879 187.30844 407
44.98041 53.66539 190.10892 405
41.28731 54.70295 192.96773 391
37.34925 55.78642 195.92535 388
33.27064 56.95517 199.04088 386
28.89435 58.18409 202.21524 372
24.05958 59.58432 205.53085 370
17.46005 61.42841 208.90738 261
83.23734 41.78210 173.65388 433
80.72971 42.48580 175.79680 431
78.17679 43.21285 178.00728 427
72.71239 44.71180 179.59464 304
58.60033 48.63574 179.57124 422
55.58018 49.44048 182.16919 413
52.33323 50.33382 184.74139 411
48.96013 51.26046 187.47951 408
45.56846 52.22860 190.21252 406
41.98712 53.21606 193.10666 403
38.21841 54.26474 196.04193 389
34.15911 55.38442 199.12096 386
29.97366 56.51939 202.29704 384
25.22863 57.87819 205.55409 371
19.85966 59.32253 209.00371 335
83.50983 40.72763 173.81848 434
81.04601 41.40672 175.91325 432
78.51356 42.06504 178.12190 428
72.52141 43.68892 179.60159 304
58.96350 47.33666 179.69661 423
56.03009 48.12336 182.26398 421
52.83901 48.98417 184.87599 411
49.52416 49.91930 187.57454 409
46.12292 50.82541 190.34557 406
42.57273 51.81514 193.20880 404
38.94461 52.74793 196.14653 401
35.04913 53.81023 199.24869 387
30.90814 54.91789 202.38786 385
26.41225 56.16865 205.67760 372
21.19702 57.56039 209.02646 339
83.81326 39.65960 173.94656 435
81.34505 40.27973 176.04422 433
78.83158 40.97425 178.25430 429
72.29933 42.67369 179.60854 304
59.39349 46.06532 179.83466 424
56.44414 46.85434 182.39050 421
53.33373 47.66327 185.00970 412
50.09246 48.53406 187.67494 410
46.65365 49.42938 190.44450 407
43.16465 50.35168 193.33168 404
39.57943 51.30258 196.25517 402
35.83887 52.31985 199.30165 399
31.84089 53.36864 202.46680 385
27.54277 54.51529 205.75201 372
22.50956 55.83495 209.07970 340
84.07000 38.57748 174.07512 435
81.63452 39.22942 176.20110 433
79.12781 39.85197 178.37718 429
72.14397 41.67719 179.62210 304
59.83152 44.84406 180.00067 424
56.84692 45.58330 182.54002 422
53.88621 46.34951 185.14583 420
50.59588 47.17943 187.84457 410
47.22616 48.09066 190.59880 408
43.78868 48.94239 193.39363 405
40.19434 49.90105 196.37170 403
36.48058 50.85195 199.37196 400
32.62085 51.80219 202.51100 397
28.52941 52.89317 205.80814 384
23.76756 54.09019 209.13057 341
84.36737 37.53768 174.21246 436
81.95657 38.13717 176.32512 434
79.41724 38.75933 178.48466 430
71.91138 40.63527 179.60701 304
60.19564 43.59278 180.12224 425
57.28377 44.32839 182.64462 423
54.29172 45.09752 185.24518 420
51.12316 45.86241 187.91701 411
47.81739 46.70528 190.65639 408
44.35649 47.56276 193.53822 406
40.79593 48.43188 196.43698 403
37.11143 49.36119 199.47420 401
33.30149 50.34483 202.61641 398
29.31503 51.33675 205.83441 395
25.02735 52.40942 209.18295 341
-191.35809 106.59017 209.08669 295
84.66104 36.45218 174.33032 437
82.22549 37.05933 176.42699 434
79.77627 37.66571 178.60043 431
71.72781 39.63773 179.62000 304
60.60408 42.32779 180.21042 426
57.74672 43.05890 182.75235 423
54.74510 43.78835 185.35185 421
51.68587 44.50094 188.05490 412
48.35912 45.34806 190.76418 409
44.94488 46.18143 193.58630 407
41.37899 47.07511 196.51172 404
37.70849 47.91816 199.54083 401
33.91048 48.86813 202.65462 399
29.99405 49.83724 205.89955 396
25.92009 50.79618 209.22801 393
-186.82439 102.76711 209.23851 485
84.94913 35.43431 174.45163 437
82.53010 35.98519 176.55043 435
80.04778 36.57683 178.71571 431
71.55042 38.59203 179.59232 304
61.00440 41.11395 180.37720 426
58.15726 41.80756 182.89508 424
55.16640 42.49254 185.47166 422
52.14920 43.21965 188.13963 419
48.91398 44.01206 190.91490 410
45.51602 44.79615 193.68619 407
41.97060 45.64851 196.59737 405
38.38355 46.51938 199.60695 402
34.58135 47.38374 202.71529 400
30.67367 48.33349 205.92955 397
26.67583 49.27828 209.27571 394
-186.99205 100.05907 209.22502 485
85.23002 34.40636 174.54678 438
82.82455 34.95109 176.67093 436
80.37891 35.49468 178.85056 432
71.39574 37.58680 179.59732 304
61.42811 39.87641 180.48303 427
58.54593 40.56444 183.01109 425
55.61015 41.25864 185.57768 422
52.58699 41.93124 188.25461 420
49.45035 42.68341 190.97458 411
46.08489 43.45089 193.77493 408
42.59174 44.22930 196.66794 405
38.95938 45.06554 199.67586 403
35.21478 45.94257 202.75264 400
31.38515 46.85639 205.97340 398
27.38271 47.76960 209.34396 395
-187.53621 97.40699 209.19312 485
85.52898 33.37637 174.66991 438
83.11391 33.90461 176.78844 436
80.67756 34.45386 178.96133 432
64.58083 38.06971 178.12900 430
61.82735 38.66948 180.60257 428
58.97409 39.30635 183.12961 425
56.06738 39.96750 185.68573 423
53.05265 40.64109 188.34013 420
49.95161 41.35297 191.07367 418
46.64200 42.08892 193.89053 409
43.20887 42.86688 196.78438 406
39.61766 43.70215 199.74803 404
35.89642 44.54067 202.83037 401
32.07140 45.38439 206.03915 398
28.08685 46.27587 209.32857 395
-187.97102 94.85214 209.27451 485
-193.70134 96.13947 216.31371 296
85.81516 32.34234 174.81940 439
83.44569 32.83251 176.89827 437
81.00556 33.37803 179.05267 433
64.99634 36.87468 178.25134 430
62.24822 37.47285 180.71724 428
59.36771 38.08707 183.25371 426
56.50621 38.73092 185.80927 424
53.49795 39.38878 188.43378 421
50.39246 40.05314 191.15575 419
47.23877 40.76334 193.97850 409
43.75943 41.54424 196.83299 407
40.22972 42.26916 199.80827 404
36.51516 43.08777 202.87556 402
32.73312 43.90274 206.10527 399
28.80183 44.79561 209.37659 396
-188.43849 92.13299 209.17593 485
-186.67220 91.80157 216.38417 297
86.04024 31.34120 174.89336 458
83.72078 31.79906 177.03314 438
81.33109 32.33221 179.17624 435
65.40020 35.71325 178.41525 431
62.60921 36.27350 180.84138 429
59.78246 36.88580 183.34483 426
56.91908 37.48770 185.88667 424
53.95405 38.12860 188.55902 422
50.89010 38.74344 191.24403 419
47.76065 39.41916 194.06210 417
44.35058 40.14960 196.91316 408
40.81908 40.88124 199.88992 405
37.19365 41.67789 202.93115 402
33.36883 42.45732 206.10255 400
29.45706 43.29723 209.43672 397
-182.87413 88.35046 216.36218 438
86.07370 30.37621 174.97050 458
83.91235 30.78636 177.10033 456
81.61813 31.29067 179.26344 436
65.74728 34.51991 178.50160 432
63.03624 35.06531 180.94225 429
60.20147 35.66840 183.44658 427
57.33948 36.25944 186.02061 425
54.38853 36.85653 188.66518 422
51.34749 37.49068 191.36484 420
48.20225 38.12420 194.14169 417
44.95085 38.81051 197.01260 408
41.41399 39.54292 199.95827 406
37.78863 40.29160 203.02861 403
34.05960 41.06427 206.17017 400
30.13939 41.85519 209.44955 398
-182.96901 85.67841 216.30412 439
86.15339 29.39277 174.99800 459
83.98454 29.83528 177.13628 457
81.73434 30.27182 179.32774 455
66.12390 33.35438 178.63022 432
63.43678 33.90509 181.04160 430
60.61244 34.44921 183.54771 428
57.79651 35.05040 186.10455 425
54.85164 35.61589 188.74321 423
51.81690 36.20099 191.45026 421
48.73796 36.84995 194.19725 418
45.50267 37.50921 197.08414 416
42.01860 38.17484 200.02937 406
38.41694 38.86814 203.05597 404
34.74218 39.63742 206.22183 401
30.86971 40.40479 209.45593 398
-183.15250 82.99474 216.31171 439
86.19923 28.43261 175.04698 459
84.01331 28.85649 177.21701 457
81.79285 29.26545 179.39235 455
66.49207 32.20939 178.74980 433
63.80359 32.72447 181.17964 431
61.05669 33.27843 183.67395 428
58.18418 33.81048 186.19182 426
55.25813 34.39116 188.84567 424
52.26500 34.94738 191.53297 421
49.20439 35.55069 194.27188 419
46.01442 36.19500 197.16669 416
42.64295 36.80052 200.08994 407
39.05744 37.53647 203.13918 404
35.35460 38.25252 206.26721 402
31.52373 38.95190 209.47026 399
-183.13513 80.30853 216.39311 424
-191.99123 81.99523 223.52122 295
86.24721 27.48456 175.10574 459
84.09749 27.84808 177.24443 457
81.89948 28.28543 179.42610 455
66.90298 31.08112 178.87169 434
64.19314 31.56160 181.29420 431
61.43857 32.09946 183.76045 429
58.59936 32.61620 186.32442 427
55.73662 33.14359 188.92690 424
52.72078 33.71592 191.59456 422
49.64855 34.29366 194.37737 419
46.49508 34.86363 197.22661 417
43.22993 35.47281 200.14790 408
39.69371 36.13210 203.16623 405
36.01633 36.85172 206.29790 402
32.20522 37.53550 209.54454 400
-183.20776 77.64317 216.31818 425
-189.04198 78.71436 223.42833 322
86.30970 26.48256 175.17940 460
84.15607 26.90055 177.28665 458
81.97709 27.29144 179.45938 455
67.25520 29.95179 178.98479 434
64.58569 30.38992 181.40576 432
61.85635 30.88268 183.85126 430
59.04445 31.39671 186.41499 427
56.16802 31.90210 189.02051 425
53.19627 32.45720 191.70445 422
50.14128 33.01583 194.44090 420
46.97086 33.60243 197.28410 417
43.75214 34.16452 200.18919 415
40.28216 34.80940 203.20914 406
36.65338 35.44240 206.30537 403
32.85703 36.12433 209.56261 400
-183.13579 75.00312 216.33437 425
-186.40361 75.52884 223.40596 323
-58770.60547 10619.75391 15230.44531 1000
86.38757 25.53183 175.20502 460
84.21277 25.90503 177.34720 458
82.03519 26.29712 179.51053 456
67.47193 28.83001 179.01714 453
64.93500 29.26902 181.48822 451
62.24347 29.73868 183.95979 430
59.47174 30.20227 186.48709 428
56.59509 30.74066 189.06908 426
53.63035 31.25061 191.77478 423
50.59874 31.76281 194.50548 421
47.46763 32.32164 197.35767 418
44.25063 32.86557 200.25215 416
40.89904 33.44878 203.24309 406
37.27701 34.07755 206.35107 404
33.51184 34.71343 209.59340 401
-183.13342 72.39191 216.31734 425
-183.86363 72.48055 223.40025 323
86.42487 24.58321 175.25151 460
84.27145 24.94203 177.38695 458
81.93095 25.33303 179.51634 308
67.50978 27.76173 179.07312 454
65.03400 28.15409 181.54909 451
62.48553 28.56968 184.04012 449
59.90378 29.03057 186.57271 428
57.02908 29.50927 189.18192 426
54.09372 29.98578 191.84317 424
51.07083 30.52230 194.58183 421
47.94055 31.02059 197.43269 419
44.74758 31.58567 200.29747 416
41.44053 32.13768 203.30482 414
37.91650 32.72192 206.42693 404
34.18627 33.31179 209.58092 402
-182.34290 69.62136 223.31784 361
86.52560 23.64686 175.31351 461
84.34977 23.96371 177.42993 458
81.85197 24.38341 179.53154 308
67.58671 26.66336 179.14328 454
65.10676 27.06614 181.57739 452
62.55952 27.47628 184.08310 449
59.98971 27.91395 186.62061 447
57.29742 28.34204 189.24669 444
54.55866 28.76025 191.94075 424
51.52778 29.24343 194.64256 422
48.44857 29.78415 197.45592 419
45.25369 30.28221 200.37608 417
41.96196 30.78859 203.38055 414
38.54888 31.34173 206.45288 405
34.84828 31.92355 209.65163 402
-181.68401 66.87230 223.35162 361
86.56080 22.67555 175.34613 461
84.44723 23.01456 177.47578 459
81.73158 23.44498 179.54399 308
67.69113 25.61815 179.18660 454
65.22301 25.98627 181.61084 452
62.65258 26.38752 184.10257 450
60.08591 26.79352 186.64441 447
57.37531 27.18214 189.27364 445
54.67694 27.62350 191.93173 442
51.85725 28.08113 194.69499 440
48.90952 28.50804 197.50429 420
45.78446 29.00502 200.43417 417
42.48219 29.49116 203.39357 415
39.09583 30.01315 206.48248 412
35.52189 30.57826 209.62807 403
-180.96381 64.09020 223.28078 361
86.63075 21.72753 175.39827 461
84.49621 22.04594 177.49402 459
81.64764 22.46815 179.52577 308
67.74461 24.55519 179.19754 454
65.27778 24.89218 181.65335 452
62.73495 25.28356 184.15196 450
60.17133 25.67089 186.70990 447
57.48409 26.07757 189.29369 445
54.77118 26.45490 191.96214 443
51.96453 26.85317 194.74350 440
49.09256 27.29584 197.53859 437
46.18112 27.74870 200.47455 435
43.00139 28.23073 203.44647 415
39.66791 28.67463 206.49641 413
36.15759 29.20576 209.68387 403
-180.32362 61.33742 223.22423 361
86.71174 20.75321 175.40428 461
84.55038 21.06599 177.53844 459
81.59870 21.51219 179.50969 308
67.81522 23.45007 179.26077 455
65.37619 23.82636 181.70154 452
62.84639 24.15166 184.15149 450
60.24543 24.52570 186.69542 448
57.57244 24.91082 189.32262 445
54.85017 25.30529 192.01631 443
52.08676 25.69522 194.74138 440
49.19263 26.11527 197.60670 438
46.27381 26.51733 200.47224 435
43.23554 26.92920 203.45441 432
40.09303 27.40184 206.56639 430
36.72628 27.87088 209.70644 411
-179.71609 58.65026 223.28966 361
86.79672 19.82876 175.44568 462
84.64956 20.10571 177.59636 460
81.50071 20.55761 179.51253 308
67.90920 22.40889 179.26469 455
65.43385 22.73012 181.73465 453
62.92447 23.06936 184.18468 450
60.34630 23.43483 186.74199 448
57.68846 23.79527 189.34256 446
54.98710 24.16105 192.05176 443
52.16893 24.51140 194.78784 441
49.33925 24.92919 197.61716 438
46.39045 25.32517 200.51466 435
43.35944 25.71605 203.47432 433
40.22004 26.15833 206.52992 430
37.03336 26.58736 209.74605 428
-179.68257 56.04211 223.29167 383
86.86493 18.87510 175.50754 462
84.69431 19.16982 177.60117 460
81.43528 19.56690 179.51494 308
67.98682 21.31013 179.33102 455
65.52674 21.66674 181.76387 453
63.02102 21.98483 184.24733 451
60.42517 22.29107 186.78975 448
57.78485 22.66289 189.38066 446
55.09328 23.00020 192.06061 443
52.30392 23.37837 194.81926 441
49.46259 23.73554 197.59955 438
46.51242 24.11333 200.52733 436
43.46790 24.53551 203.48564 433
40.37314 24.89573 206.55403 430
37.15422 25.30427 209.73143 428
-179.72261 53.41500 223.19434 383
86.94603 17.93863 175.53256 462
84.78711 18.17774 177.63347 460
81.38382 18.62990 179.51628 308
68.07990 20.28185 179.37181 455
65.62591 20.54774 181.75681 453
63.10627 20.85172 184.26517 451
60.51267 21.21974 186.82359 448
57.90238 21.53193 189.39331 446
55.14429 21.84561 192.11255 444
52.38412 22.21005 194.80182 441
49.54403 22.52355 197.61835 439
46.60749 22.89850 200.51834 436
43.62473 23.28414 203.52206 433
40.50740 23.68995 206.58582 431
37.33417 24.07813 209.72134 428
-179.65967 50.86211 223.18958 383
86.99379 17.01326 175.55420 462
84.85685 17.23632 177.67076 460
81.32653 17.66678 179.53519 308
68.18869 19.18796 179.39261 456
65.71848 19.49922 181.80339 453
63.16779 19.77737 184.28033 451
60.63771 20.08573 186.84338 449
58.00702 20.40094 189.43301 446
55.25231 20.70781 192.10513 444
52.47866 21.02584 194.84030 441
49.66721 21.35057 197.65840 439
46.70978 21.70505 200.56155 436
43.73618 22.07264 203.50340 434
40.64438 22.44602 206.59593 431
37.49119 22.81435 209.72690 428
-179.66402 48.27254 223.25453 383
87.06442 16.03181 175.57938 463
84.95631 16.30070 177.70314 461
81.29254 16.71355 179.51839 308
68.24441 18.16036 179.39134 456
65.81441 18.40971 181.84325 454
63.26933 18.71660 184.30847 451
60.72963 18.96689 186.88699 449
58.08693 19.28837 189.45488 447
55.40018 19.58477 192.11586 444
52.62681 19.85231 194.85587 442
49.74611 20.20686 197.66441 439
46.85325 20.53841 200.57500 436
43.85072 20.84845 203.52187 434
40.79070 21.16369 206.58279 431
37.65206 21.54228 209.75055 429
-179.62093 45.59796 223.24377 383
87.15025 15.11510 175.64484 464
84.99705 15.32809 177.75140 461
81.22903 15.74790 179.53644 308
68.36087 17.07241 179.42117 456
65.87811 17.34327 181.86369 454
63.39155 17.60281 184.37224 452
60.82177 17.84462 186.91240 449
58.18857 18.13255 189.50874 447
55.46252 18.44157 192.16388 444
52.70245 18.73565 194.90036 442
49.88388 19.04132 197.70877 439
46.96329 19.30887 200.58369 437
44.02816 19.64747 203.54456 434
40.93693 19.97554 206.63121 432
37.80686 20.29236 209.75502 429
-179.70105 43.07236 223.19160 384
87.21488 14.18548 175.67349 464
85.07076 14.37754 177.78677 461
81.22018 14.76827 179.53267 308
68.39977 16.01992 179.48454 456
65.98856 16.23740 181.91838 454
63.46465 16.53977 184.37854 452
60.93239 16.78104 186.88974 449
58.25201 17.01928 189.48782 447
55.59541 17.31304 192.15834 445
52.84396 17.57778 194.90237 442
50.00777 17.82362 197.68925 440
47.09868 18.12091 200.62323 437
44.12013 18.44836 203.56795 435
41.06740 18.71626 206.61311 432
37.91695 19.06188 209.76257 429
-179.62756 40.50175 223.19456 384
87.28912 13.25078 175.69783 465
85.18961 13.42500 177.80830 461
81.18394 13.80429 179.50970 308
68.53586 14.96732 179.50121 457
66.06229 15.18554 181.94518 454
63.56252 15.41921 184.37968 452
61.01098 15.64543 186.95470 450
58.39493 15.89185 189.55377 447
55.72382 16.16444 192.21368 445
52.93745 16.43000 194.91934 442
50.13686 16.64747 197.70599 440
47.25258 16.91194 200.61305 437
44.24897 17.20659 203.60240 435
41.20173 17.48791 206.63242 432
38.08043 17.76457 209.74086 429
-179.58699 37.91785 223.22760 384
87.38078 12.30748 175.70186 465
85.26561 12.47643 177.83089 461
81.11860 12.83868 179.52928 308
68.60033 13.92597 179.54543 457
66.14055 14.11703 181.95146 454
63.67736 14.35089 184.45174 452
61.10767 14.54949 186.98254 450
58.48560 14.76869 189.53377 447
55.80008 14.99999 192.22470 445
53.03538 15.26178 194.93338 443
50.26669 15.50463 197.75427 440
47.35351 15.75738 200.62709 438
44.40652 16.00469 203.59384 435
41.38548 16.24817 206.65900 432
38.24077 16.52020 209.75682 430
-179.69418 35.27334 223.17749 384
87.43410 11.34939 175.74666 465
85.33044 11.53046 177.83949 462
81.12186 11.86031 179.54257 308
68.69787 12.87439 179.54781 457
66.27850 13.07157 181.95345 455
63.73981 13.25384 184.43324 452
61.19476 13.46682 186.99640 450
58.57525 13.66164 189.56122 448
55.90658 13.90641 192.23537 446
53.18271 14.08015 194.96152 443
50.40815 14.34668 197.78073 441
47.51297 14.52950 200.64207 438
44.54822 14.79760 203.57396 435
41.50051 15.03750 206.61617 433
38.38557 15.28921 209.79553 430
-179.59811 32.70747 223.18347 384
87.50822 10.41344 175.78197 465
85.44456 10.59062 177.86674 462
81.09908 10.92909 179.52856 308
68.76211 11.81915 179.55945 457
66.33834 11.99806 181.98955 455
63.84379 12.15769 184.45729 453
61.31864 12.34554 187.02025 450
58.66697 12.54526 189.58801 448
56.03976 12.73293 192.25470 446
53.30078 12.94085 194.98778 443
50.50575 13.16988 197.76688 441
47.66037 13.35015 200.64651 438
44.66449 13.57814 203.60194 435
41.65688 13.80734 206.65794 433
38.51729 14.06259 209.78310 430
-179.61986 30.16804 223.25366 384
87.60352 9.51089 175.79935 465
85.51927 9.62521 177.89705 462
81.10224 9.94893 179.53412 308
68.87580 10.77999 179.59811 457
66.45937 10.94081 182.01311 455
63.94622 11.12058 184.47928 453
61.41797 11.28541 187.03049 450
58.81115 11.41702 189.63159 448
56.18227 11.63519 192.25877 446
53.43594 11.81039 194.98926 443
50.63973 12.01937 197.81589 441
47.78514 12.19009 200.64886 438
44.82404 12.37381 203.62019 436
41.82534 12.61097 206.66132 433
38.66468 12.79928 209.77730 430
-179.66869 27.53253 223.24313 384
-193.38371 28.52619 266.18073 276
87.69179 8.56059 175.79305 466
85.57404 8.68830 177.94858 462
81.08053 8.95120 179.55312 308
68.96161 9.72576 179.63942 458
66.53381 9.86192 182.05392 455
64.04935 10.01592 184.52545 453
61.49215 10.18638 187.03151 451
58.90763 10.32368 189.65050 449
56.26675 10.50550 192.27556 446
53.55325 10.64470 194.99330 444
50.78719 10.82138 197.82501 441
47.90849 11.04026 200.70010 439
44.98152 11.17497 203.62041 436
41.92921 11.36704 206.65320 433
38.83955 11.57649 209.78410 430
-179.64421 25.04032 223.23207 384
-193.51840 25.90346 266.21030 276
-188.05426 25.55955 272.65988 361
-188.03316 25.50100 279.78879 361
-187.87164 25.55112 286.88837 360
-187.91522 25.53216 294.11749 360
87.74020 7.64067 175.81265 466
85.66792 7.75203 177.92978 462
81.08691 7.98679 179.52963 308
69.07932 8.66869 179.63097 458
66.64841 8.78624 182.08473 455
64.17000 8.95066 184.53595 453
61.62947 9.06887 187.08659 451
59.04032 9.23906 189.66554 449
56.39766 9.34788 192.29128 446
53.66887 9.50238 195.05515 444
50.91407 9.66491 197.80586 441
48.04142 9.83378 200.67392 439
45.12239 10.00752 203.63232 436
42.05467 10.16487 206.70120 433
38.93862 10.33733 209.82784 431
-179.58466 22.36903 223.20169 384
-193.58557 23.18847 266.11874 276
-187.72957 22.94615 272.60049 386
-187.62560 22.86983 279.68851 385
-187.70740 22.85188 286.84106 385
-187.67371 22.86166 294.01471 385
87.85092 6.70305 175.84991 466
85.76412 6.82238 177.95135 463
81.09782 7.01962 179.53400 308
69.18158 7.62246 179.64624 458
66.74011 7.73324 182.07220 456
64.27223 7.87814 184.56500 454
61.76374 7.99129 187.10208 451
59.17992 8.12374 189.67650 449
56.50504 8.24928 192.33934 447
53.84362 8.38937 195.02927 444
51.02437 8.51466 197.82417 442
48.18707 8.64763 200.72758 439
45.25313 8.77847 203.65335 436
42.24253 8.92265 206.70018 434
39.13617 9.09298 209.80002 431
-179.59636 19.86022 223.24892 384
-193.66852 20.56926 266.22556 276
87.91025 5.79011 175.85118 466
85.86436 5.84905 178.00711 464
81.11951 6.06936 179.54109 308
69.27631 6.56258 179.70006 458
66.84999 6.66264 182.09547 456
64.36103 6.77793 184.55956 454
61.87500 6.89447 187.10529 452
59.30067 7.01601 189.67548 449
56.64574 7.12150 192.31523 447
53.95116 7.21530 195.06927 444
51.14159 7.35775 197.85815 442
48.32385 7.49642 200.72816 439
45.38103 7.59341 203.66560 436
42.34671 7.72292 206.71245 434
39.28231 7.87594 209.82919 431
-179.57352 17.21176 223.23630 384
-193.79326 17.86207 266.17105 276
87.99036 4.85353 175.87892 466
85.94687 4.92132 178.00128 464
81.11514 5.11458 179.52025 308
69.35422 5.52123 179.68422 458
66.97095 5.62180 182.09796 456
64.50449 5.69927 184.59415 454
61.97386 5.82947 187.12183 452
59.40571 5.92975 189.72694 449
56.76706 6.02046 192.34337 447
54.08350 6.07002 195.06346 444
51.28712 6.18368 197.85970 442
48.44614 6.33598 200.71483 439
45.53918 6.39725 203.66946 437
42.52408 6.49551 206.70729 434
39.41650 6.64666 209.82166 431
-179.60843 14.74198 223.21141 384
-193.91554 15.22716 266.12418 276
88.10291 3.93193 175.90712 466
86.03958 3.99822 177.99960 464
81.14066 4.15271 179.55525 308
69.49430 4.50249 179.72426 459
67.08085 4.58430 182.12379 457
64.61970 4.62186 184.62352 454
62.12582 4.71588 187.14374 452
59.54847 4.81018 189.70190 450
56.90757 4.87640 192.37802 447
54.22495 4.94821 195.06853 445
51.45200 5.04663 197.86931 442
48.57797 5.13298 200.73457 439
45.66814 5.19833 203.69016 437
42.64724 5.31535 206.71785 434
39.57614 5.42849 209.84477 431
