# .PCD v.7 - Point Cloud Data file format
VERSION .7
FIELDS x y z rgb
SIZE 4 4 4 4
TYPE F F F U
COUNT 1 1 1 1
WIDTH 1387
HEIGHT 1
VIEWPOINT 6788.411133 -3156.043457 147.785049 -0.813971 -0.113335 -0.083330 0.563615
POINTS 1387
DATA ascii
47.83108 -8.12821 201.10075 440
45.04219 -8.19333 203.93045 437
42.13808 -8.21366 206.88501 434
39.17290 -8.28152 209.85806 432
-159.83951 -12.10691 222.76567 499
-151.99672 -11.94458 235.22426 471
-180.13841 -12.40336 277.37936 287
-142.43463 -11.71964 278.07385 287
86.28496 -8.30900 177.25699 466
84.30463 -8.33754 179.29158 463
70.16042 -8.70350 178.55128 460
67.87720 -8.78533 180.82262 458
65.55628 -8.82184 183.16658 456
63.17483 -8.90537 185.55324 454
60.76561 -8.95758 188.00113 452
58.27676 -8.98480 190.46555 450
55.73790 -9.08600 193.04613 447
53.14530 -9.13437 195.64323 445
50.47318 -9.20937 198.36098 442
47.73584 -9.26833 201.08260 439
44.91092 -9.35073 203.94739 437
41.97566 -9.39327 206.86143 434
39.03632 -9.45079 209.86349 431
-179.48419 -14.94152 223.09265 384
-153.11229 -14.25858 235.28976 470
-182.51198 -14.91678 277.74725 287
86.23743 -9.21109 177.25487 466
84.19447 -9.26189 179.26167 463
70.09499 -9.68151 178.55316 460
67.77078 -9.74406 180.80922 458
65.43644 -9.84363 183.17444 456
63.04137 -9.88340 185.54477 454
60.62751 -9.99107 187.95016 452
58.17434 -10.06699 190.47054 449
55.62603 -10.12007 193.02972 447
53.03257 -10.21275 195.63155 444
50.31296 -10.28232 198.32870 442
47.58358 -10.37313 201.08446 439
44.78935 -10.44419 203.92328 437
41.84843 -10.55832 206.88667 434
38.85428 -10.61813 209.88902 431
-179.40247 -17.45814 223.09174 384
-155.65875 -16.69045 235.34622 399
86.16563 -10.06919 177.22839 465
84.11558 -10.14614 179.28191 463
69.98359 -10.66181 178.50587 460
67.69392 -10.77769 180.80713 458
65.36536 -10.82339 183.12469 456
62.97069 -10.91275 185.51059 453
60.52595 -11.00945 187.95413 452
58.04953 -11.13019 190.46608 449
55.50558 -11.18257 192.99767 447
52.89441 -11.28270 195.65675 444
50.22637 -11.40693 198.31250 442
47.47702 -11.51175 201.08183 439
44.62125 -11.58673 203.94968 436
41.72157 -11.72081 206.85851 434
38.71593 -11.80964 209.88977 431
-179.50461 -20.02260 223.11331 384
-160.62834 -19.20875 235.61539 297
86.08328 -10.95833 177.20139 465
84.03789 -11.05337 179.23698 463
69.91555 -11.65317 178.50067 460
67.57636 -11.76809 180.77003 458
65.27316 -11.87640 183.12044 456
62.88665 -11.94828 185.48100 453
60.42891 -12.08774 187.94878 451
57.93087 -12.18095 190.43210 449
55.37990 -12.30236 192.96886 447
52.78371 -12.37781 195.60883 444
50.06113 -12.52495 198.33270 442
47.33023 -12.63971 201.08897 439
44.49919 -12.72608 203.93864 436
41.57220 -12.87718 206.83871 434
38.55887 -12.98517 209.86511 431
-179.46700 -22.56110 223.16629 384
85.97874 -11.85112 177.18750 464
83.96840 -11.93914 179.23970 462
69.81594 -12.63748 178.50359 460
67.51249 -12.73948 180.78517 458
65.18299 -12.89441 183.08580 455
62.77017 -12.99186 185.46297 453
60.30153 -13.11297 187.92090 451
57.81419 -13.23339 190.40498 449
55.26585 -13.33929 193.00214 446
52.64336 -13.49489 195.62122 444
49.95752 -13.64161 198.29936 441
47.19936 -13.77558 201.05548 439
44.34290 -13.89132 203.90503 436
41.43037 -14.03060 206.87323 433
38.45052 -14.16413 209.85489 431
-179.42371 -25.00689 223.13797 384
85.89268 -12.73729 177.15904 464
83.87896 -12.82587 179.20923 462
69.74316 -13.61699 178.48154 460
67.43033 -13.77234 180.72733 457
65.08357 -13.90247 183.09807 455
62.66730 -14.00782 185.47058 453
60.22131 -14.13933 187.92131 451
57.69753 -14.29288 190.40160 448
55.13681 -14.41890 192.98151 446
52.50942 -14.59244 195.57109 444
49.83821 -14.73723 198.26927 441
47.07471 -14.87565 201.07181 439
44.23443 -15.04053 203.89745 436
41.31149 -15.18508 206.85298 433
38.29692 -15.36878 209.85255 430
-179.49622 -27.57960 223.08290 384
85.82070 -13.60003 177.15851 464
83.79354 -13.74410 179.19852 462
69.61270 -14.63555 178.44553 459
67.32467 -14.76151 180.74312 457
64.98007 -14.88348 183.08089 455
62.60717 -15.04594 185.44675 453
60.14283 -15.21202 187.88086 450
57.60656 -15.34713 190.36363 448
55.03566 -15.49369 192.92970 446
52.37838 -15.66385 195.55122 443
49.70295 -15.82187 198.28122 441
46.91528 -16.01154 201.02515 438
44.07695 -16.15547 203.90916 436
41.17125 -16.37297 206.85220 433
38.16126 -16.58136 209.84392 430
-179.46910 -30.05947 223.15588 384
-54833.03906 -3425.49927 2979.04517 1000
85.74505 -14.51631 177.10179 464
83.73914 -14.64239 179.14165 462
69.56089 -15.59501 178.40385 459
67.25927 -15.76273 180.69496 457
64.89191 -15.91748 183.03546 455
62.51382 -16.07427 185.43562 453
60.02230 -16.26664 187.87329 450
57.52473 -16.41181 190.37444 448
54.90103 -16.57551 192.90916 445
52.28189 -16.79622 195.56818 443
49.59676 -16.95038 198.27129 441
46.77340 -17.15598 201.04282 438
43.97711 -17.33220 203.89365 435
41.00002 -17.53384 206.83990 433
37.98845 -17.73606 209.84431 430
-179.50916 -32.64375 223.16600 384
85.68751 -15.40673 177.10271 464
83.63591 -15.54219 179.12903 462
69.48649 -16.60002 178.37012 459
67.16020 -16.78231 180.68472 457
64.81741 -16.94167 182.98741 455
62.38919 -17.11371 185.38979 452
59.92768 -17.31523 187.85431 450
57.38896 -17.49751 190.36459 448
54.79291 -17.68418 192.89540 445
52.18994 -17.86409 195.55716 443
49.45314 -18.06139 198.26274 441
46.64111 -18.29248 201.03764 438
43.80890 -18.48086 203.87112 435
40.88412 -18.69852 206.84773 433
37.85535 -18.90724 209.85701 430
-179.53120 -35.10357 223.17407 384
-187.19206 -35.62169 271.59903 399
-186.73428 -35.58496 278.62161 496
-186.74716 -35.64824 285.54877 496
-186.75156 -35.56681 292.62857 495
85.61301 -16.30055 177.07973 464
83.58640 -16.43484 179.11319 461
69.38499 -17.57101 178.34409 459
67.08466 -17.79988 180.62967 457
64.72015 -17.95337 183.00816 454
62.29827 -18.16094 185.39555 452
59.82854 -18.36048 187.80431 450
57.33355 -18.54320 190.34233 447
54.72238 -18.75875 192.89268 445
52.05093 -18.96171 195.53596 442
49.32742 -19.17496 198.22020 440
46.55598 -19.40160 201.01897 438
43.68189 -19.62837 203.89583 435
40.75475 -19.86422 206.82187 432
37.71628 -20.12952 209.82227 430
-179.53236 -37.60583 223.13728 384
85.52576 -17.17369 177.03040 463
83.50681 -17.35401 179.08714 461
69.29427 -18.59501 178.33704 459
66.99139 -18.76397 180.63579 457
64.65369 -18.97767 182.96495 454
62.19244 -19.20296 185.35616 452
59.74373 -19.39896 187.78423 450
57.22643 -19.64126 190.28221 447
54.61707 -19.86882 192.89487 445
51.93529 -20.09637 195.53320 442
49.21702 -20.33074 198.21494 440
46.40011 -20.53840 201.01595 437
43.56355 -20.81449 203.86620 435
40.59285 -21.02969 206.80327 432
37.55830 -21.31102 209.82840 429
-179.49559 -40.22229 223.13121 384
85.48869 -18.07350 176.99609 463
83.42694 -18.28113 179.05067 461
69.24061 -19.58224 178.29524 458
66.89227 -19.79805 180.59514 456
64.56798 -20.00837 182.94179 454
62.11311 -20.20807 185.31036 452
59.63541 -20.46596 187.79671 449
57.10822 -20.71041 190.30270 447
54.50208 -20.95408 192.83148 445
51.86005 -21.20844 195.46967 442
49.11496 -21.46363 198.19238 439
46.28875 -21.69423 200.96559 437
43.39399 -21.96486 203.86101 435
40.45036 -22.25344 206.79619 432
37.39386 -22.51899 209.84030 429
-179.52209 -42.77263 223.13248 383
85.39859 -18.97173 176.95990 463
83.37081 -19.17763 179.00427 461
69.14473 -20.59060 178.28688 458
66.85020 -20.81852 180.54955 456
64.45134 -21.05380 182.91313 454
62.04658 -21.27437 185.31564 452
59.55268 -21.51066 187.74045 449
57.04034 -21.76071 190.25797 447
54.41784 -22.04533 192.83275 444
51.73135 -22.27828 195.49495 442
48.98393 -22.55496 198.20476 439
46.19134 -22.82497 200.99387 437
43.28601 -23.15048 203.85539 434
40.32491 -23.39594 206.77577 432
37.27918 -23.72199 209.83513 429
-179.56010 -45.30169 223.20146 383
85.33125 -19.84310 176.94623 463
83.28419 -20.09083 178.98828 461
69.06778 -21.55677 178.22459 458
66.76191 -21.84718 180.50795 456
64.36392 -22.07732 182.88457 454
61.95785 -22.33290 185.26433 451
59.46319 -22.59295 187.72638 449
56.94182 -22.83296 190.26093 447
54.31848 -23.13363 192.81355 444
51.64978 -23.42769 195.44678 442
48.87084 -23.69012 198.18248 439
46.09831 -23.96928 200.93233 436
43.16091 -24.29713 203.83786 434
40.15945 -24.61778 206.78726 431
37.13388 -24.93287 209.81691 429
-179.58034 -47.79699 223.20270 383
85.25077 -20.76526 176.91675 462
83.22873 -20.98574 178.95166 460
69.00876 -22.56358 178.18517 458
66.66118 -22.84812 180.50040 456
64.30970 -23.11784 182.86021 453
61.88573 -23.38078 185.26401 451
59.39143 -23.63418 187.70207 449
56.81854 -23.91279 190.23560 446
54.22649 -24.20400 192.80618 444
51.54906 -24.52320 195.45465 441
48.79959 -24.84892 198.13632 439
45.96326 -25.11322 200.94240 436
43.05020 -25.47589 203.79405 433
40.04852 -25.76036 206.76306 431
36.95689 -26.13655 209.80394 428
-179.62851 -50.29334 223.14319 383
85.18445 -21.65111 176.88329 462
83.15305 -21.90472 178.92624 460
68.90323 -23.58537 178.17747 458
66.60661 -23.85214 180.48340 455
64.20436 -24.13510 182.78989 453
61.79165 -24.42085 185.23157 451
59.27348 -24.72485 187.65976 448
56.71881 -25.01206 190.18190 446
54.12935 -25.32682 192.76990 444
51.42143 -25.64045 195.40440 441
48.69939 -25.95794 198.12611 438
45.83068 -26.28780 200.92142 436
42.91829 -26.63708 203.79134 433
39.93612 -26.95665 206.74629 430
36.87235 -27.32663 209.81831 428
-179.58278 -52.82580 223.24149 383
85.12988 -22.56156 176.81877 462
83.06347 -22.79350 178.89240 460
68.85460 -24.56853 178.15553 457
66.52787 -24.89250 180.44392 455
64.14635 -25.15474 182.78470 453
61.67616 -25.46606 185.19072 451
59.17506 -25.77112 187.64265 448
56.63886 -26.07248 190.14352 446
54.01309 -26.38660 192.75183 443
51.32159 -26.73962 195.37923 441
48.56501 -27.09664 198.11687 438
45.72719 -27.42492 200.89618 436
42.83809 -27.79824 203.76462 433
39.72158 -28.19932 206.72890 415
36.37593 -28.61051 209.78336 405
-179.62645 -55.38491 223.18771 383
85.06976 -23.46246 176.79178 462
82.98932 -23.74189 178.85469 460
68.75152 -25.58684 178.09641 457
66.42677 -25.88769 180.39972 455
64.05118 -26.21311 182.73936 453
61.60680 -26.49973 185.15384 450
59.12125 -26.86497 187.59865 448
56.53593 -27.18307 190.12268 446
53.92901 -27.50896 192.71693 443
51.25237 -27.89356 195.38974 441
48.48115 -28.20505 198.07072 438
45.54749 -28.59870 200.87976 419
42.42161 -28.99305 203.75941 417
39.19283 -29.40049 206.74541 414
35.76050 -29.86150 209.78065 405
-179.59604 -57.95880 223.24095 383
84.98846 -24.36065 176.77408 461
82.93747 -24.67192 178.79680 459
75.23709 -25.67644 179.58852 308
66.37600 -26.89589 180.33900 455
63.96393 -27.26191 182.68745 452
61.52855 -27.56835 185.10309 450
59.03968 -27.91562 187.58646 448
56.46020 -28.28072 190.08078 445
53.83309 -28.60648 192.70961 443
51.01711 -28.99232 195.35742 424
48.07146 -29.41392 198.02864 421
45.02257 -29.81369 200.84798 419
41.90775 -30.25246 203.70000 416
38.69849 -30.66513 206.67393 407
35.15426 -31.16580 209.76878 404
-180.14049 -60.57590 223.25093 361
84.95083 -25.28763 176.71814 461
82.87194 -25.58520 178.77583 459
75.35366 -26.67270 179.60722 308
66.27409 -27.93229 180.32916 454
63.88010 -28.27666 182.65904 452
61.46336 -28.63015 185.07805 450
58.95705 -28.99725 187.54890 447
56.24555 -29.34966 190.07584 428
53.48098 -29.78275 192.61961 426
50.57840 -30.19973 195.25769 423
47.60195 -30.57850 198.00716 421
44.57298 -31.01819 200.81627 418
41.39267 -31.48844 203.66682 416
38.08650 -31.95324 206.66122 406
34.53842 -32.47779 209.73924 404
-180.76321 -63.25349 223.23782 362
84.87036 -26.20285 176.67113 461
82.82232 -26.50149 178.71564 459
75.44425 -27.60049 179.57582 308
66.20752 -28.95966 180.26462 454
63.82841 -29.30792 182.63710 452
61.28112 -29.69213 185.04260 432
58.57050 -30.11801 187.47563 430
55.84354 -30.51817 189.98114 428
53.05877 -30.92216 192.55383 425
50.14025 -31.36113 195.20256 423
47.16153 -31.80847 197.95847 420
44.07326 -32.23231 200.72824 418
40.94515 -32.73454 203.63460 415
37.50242 -33.26432 206.61241 406
33.90448 -33.78551 209.69131 403
-181.41508 -65.85838 223.29958 361
84.80244 -27.11241 176.65245 461
82.73763 -27.43323 178.67114 459
75.53291 -28.52198 179.60548 308
66.06823 -30.01829 180.20317 436
63.51445 -30.39661 182.54362 434
60.85672 -30.82189 184.91830 432
58.17165 -31.23778 187.36732 429
55.43237 -31.68214 189.91245 427
52.60018 -32.08305 192.49776 425
49.69604 -32.53806 195.14755 422
46.69767 -33.00032 197.88104 420
43.58986 -33.49849 200.67566 417
40.33775 -34.01070 203.56943 408
36.88230 -34.53328 206.57474 405
33.26777 -35.09045 209.71162 402
-182.05757 -68.55382 223.23201 361
84.77646 -28.01746 176.60933 460
82.68679 -28.33179 178.64793 458
75.63206 -29.47091 179.56813 308
65.69810 -31.10700 180.13222 436
63.13400 -31.49651 182.46368 433
60.47740 -31.91100 184.84343 431
57.76753 -32.36203 187.29623 429
55.01830 -32.81534 189.80064 426
52.15581 -33.27396 192.41153 424
49.24456 -33.76818 195.08260 421
46.23454 -34.26154 197.82368 419
43.11920 -34.73417 200.66672 416
39.77998 -35.28841 203.56898 407
36.27958 -35.85879 206.54816 404
32.63042 -36.42353 209.63774 402
-183.13057 -71.28570 216.44855 425
-182.84569 -71.27898 223.27354 324
84.68542 -28.91038 176.56949 460
82.62698 -29.26369 178.60298 458
75.75919 -30.44319 179.60258 308
65.31425 -32.18453 180.01399 435
62.73484 -32.58691 182.33945 433
60.08450 -33.05306 184.75256 430
57.40315 -33.51648 187.21661 428
54.62354 -33.97982 189.73737 426
51.74945 -34.45030 192.34637 423
48.79497 -34.94359 194.99605 421
45.73957 -35.43237 197.73692 418
42.58141 -35.96503 200.57968 409
39.15954 -36.56236 203.51842 406
35.68058 -37.15289 206.53242 404
32.04526 -37.75383 209.66232 401
-183.04596 -74.00842 216.48833 425
-185.34045 -74.33262 223.37109 323
84.62682 -29.84138 176.50415 460
82.57196 -30.22588 178.56151 458
75.89602 -31.36628 179.56694 308
64.95414 -33.25489 179.91617 434
62.37782 -33.70890 182.24147 432
59.68885 -34.18314 184.65060 430
56.96980 -34.64230 187.13615 428
54.18056 -35.12972 189.66042 425
51.27579 -35.66158 192.24371 423
48.33210 -36.19007 194.95572 420
45.28356 -36.71089 197.67610 418
41.98899 -37.26831 200.53439 408
38.61589 -37.84168 203.43712 406
35.04309 -38.47715 206.45322 403
31.38776 -39.10867 209.62462 400
-183.01642 -76.55663 216.46031 425
-187.88663 -77.34514 223.39363 323
84.59361 -30.75708 176.45232 459
82.50473 -31.13965 178.51353 457
76.02651 -32.31559 179.57939 308
64.59002 -34.38337 179.78949 434
61.98972 -34.82560 182.15948 432
59.34167 -35.31334 184.57343 429
56.56807 -35.79857 187.01811 427
53.73863 -36.33972 189.55281 425
50.83879 -36.84655 192.19501 422
47.90759 -37.37659 194.87572 420
44.79589 -37.94093 197.62047 410
41.43237 -38.54445 200.49718 408
37.98987 -39.17732 203.41011 405
34.43360 -39.83950 206.41452 402
30.73646 -40.47670 209.57454 400
-183.02351 -79.21792 216.47818 425
-190.47684 -80.44216 223.43736 322
84.52859 -31.67616 176.41141 442
82.27715 -32.10224 178.40594 440
76.14873 -33.24691 179.59416 308
64.24294 -35.46549 179.68236 433
61.60516 -35.94901 182.05994 431
58.92877 -36.47564 184.47862 429
56.16596 -36.99273 186.93880 426
53.35580 -37.49922 189.46521 424
50.43368 -38.04242 192.11707 422
47.41387 -38.59557 194.78851 419
44.24067 -39.20305 197.54829 410
40.89462 -39.83205 200.41193 407
37.38119 -40.48290 203.34831 404
33.80663 -41.17059 206.41678 402
30.04215 -41.86580 209.58705 399
-183.06241 -81.74041 216.50795 425
84.24126 -32.66653 176.30595 441
81.99006 -33.09323 178.31728 439
76.30363 -34.17721 179.60414 308
63.86674 -36.59623 179.58611 433
61.25388 -37.12782 181.94119 430
58.54881 -37.62126 184.35785 428
55.77760 -38.14527 186.84464 426
52.92249 -38.68536 189.40546 423
50.00207 -39.27127 192.03128 421
46.96313 -39.86594 194.73743 412
43.67180 -40.49810 197.48680 409
40.30477 -41.12238 200.33162 406
36.79183 -41.79625 203.31932 404
33.17527 -42.51156 206.38875 401
29.42282 -43.24580 209.55812 398
-182.96477 -84.36050 216.41475 439
83.98714 -33.63058 176.19556 441
81.68781 -34.07221 178.20949 438
76.40707 -35.14000 179.56505 308
63.52385 -37.71521 179.46097 432
60.87249 -38.26660 181.82094 430
58.15273 -38.78403 184.26190 427
55.33260 -39.31929 186.72298 425
52.46014 -39.90829 189.32483 423
49.53763 -40.48748 191.93710 420
46.39538 -41.10709 194.61673 411
43.09683 -41.75773 197.39519 408
39.68219 -42.45596 200.30698 406
36.16680 -43.15070 203.25041 403
32.52609 -43.89156 206.33235 400
28.75765 -44.65288 209.49879 398
-182.87712 -86.92780 216.45998 439
83.68404 -34.59406 176.04665 440
81.40772 -35.06184 178.07829 438
76.56448 -36.06758 179.57973 308
63.15524 -38.82236 179.32521 431
60.47623 -39.39904 181.72162 429
57.75460 -39.97750 184.16019 427
54.94705 -40.50646 186.66489 424
52.07841 -41.11070 189.23766 422
49.06988 -41.70573 191.87167 420
45.90132 -42.37985 194.54878 410
42.53294 -43.07385 197.34843 408
39.13308 -43.78529 200.23218 405
35.53342 -44.52566 203.19060 402
31.85777 -45.27186 206.27454 400
28.04300 -46.07351 209.49251 397
-183.80801 -89.78204 216.43694 298
83.44669 -35.57418 175.95409 439
81.13350 -36.06242 177.97498 437
76.70087 -37.01178 179.57481 308
62.76460 -39.97186 179.19923 431
60.10056 -40.51858 181.57393 428
57.35955 -41.14156 184.01099 426
54.53673 -41.73003 186.55672 424
51.61498 -42.35714 189.12971 421
48.58730 -42.96692 191.74507 412
45.32296 -43.69303 194.47743 410
41.98706 -44.40946 197.26907 407
38.49892 -45.13325 200.14151 404
34.97343 -45.86646 203.14021 402
31.20776 -46.67039 206.26463 399
27.41937 -47.48952 209.45602 396
-188.17027 -93.32909 209.45747 485
-190.47514 -93.88747 216.44066 297
83.14944 -36.57610 175.81116 439
80.87761 -37.07594 177.86275 437
76.89769 -37.95684 179.59747 308
62.39911 -41.08253 179.07549 430
59.70627 -41.67750 181.49620 428
56.93278 -42.28315 183.95453 426
54.10848 -42.92887 186.43929 423
51.17036 -43.54826 189.02751 421
48.01807 -44.26041 191.68861 411
44.79698 -44.96782 194.38023 409
41.39357 -45.68062 197.19548 406
37.93048 -46.48969 200.08353 404
34.30242 -47.22839 203.08450 401
30.57079 -48.06703 206.20410 398
26.69956 -48.89122 209.45827 396
-187.64729 -95.98437 209.41235 485
82.88291 -37.55487 175.71838 438
80.56205 -38.08126 177.77875 434
77.05610 -38.87583 179.59486 308
62.04049 -42.26572 178.95682 429
59.33640 -42.87677 181.36134 427
56.53989 -43.48923 183.81717 425
53.69226 -44.14156 186.31927 423
50.69491 -44.83138 188.90147 413
47.49572 -45.54280 191.58162 411
44.22051 -46.29015 194.28339 408
40.85096 -47.06520 197.12193 406
37.31089 -47.81108 200.01620 403
33.69640 -48.65251 203.01729 400
29.91653 -49.48304 206.13815 398
26.00450 -50.38971 209.42014 358
-187.26495 -98.47992 209.50215 485
82.62630 -38.57179 175.59181 438
80.28650 -39.07740 177.65692 434
77.21186 -39.81894 179.59435 308
61.68241 -43.43038 178.84740 429
58.95518 -44.04054 181.22478 427
56.15971 -44.68367 183.69046 424
53.27235 -45.39000 186.23560 422
50.20512 -46.07848 188.78773 413
46.96564 -46.82854 191.47664 410
43.65937 -47.60348 194.19255 408
40.27436 -48.39139 197.03484 405
36.73596 -49.19160 199.95718 402
33.07062 -50.04916 202.95726 400
29.25893 -50.92687 206.10263 397
25.25396 -51.85921 209.37090 343
-186.87086 -101.08746 209.45383 486
82.35046 -39.56086 175.45526 437
79.99234 -40.11762 177.53305 433
77.40465 -40.73888 179.56055 308
61.28181 -44.55183 178.69690 428
58.54900 -45.22028 181.11180 426
55.74050 -45.88437 183.58226 424
52.81974 -46.60218 186.12096 414
49.67849 -47.34061 188.71500 412
46.41963 -48.12082 191.36638 409
43.12994 -48.93364 194.09209 407
39.63837 -49.73466 196.93900 404
36.12413 -50.57520 199.86441 402
32.39995 -51.42310 202.91940 399
28.59282 -52.38671 206.09732 386
24.07561 -53.45887 209.30377 342
-188.10199 -104.13190 209.38972 296
82.08835 -40.56990 175.35210 436
79.70580 -41.14331 177.40222 432
77.25139 -41.72885 179.49118 430
60.89725 -45.74253 178.58295 427
58.15093 -46.42551 180.98148 425
55.33990 -47.10367 183.45305 423
52.32952 -47.87527 185.98633 414
49.13421 -48.63827 188.56996 411
45.93325 -49.43509 191.26562 409
42.55268 -50.25286 194.04524 406
39.08723 -51.11040 196.83926 404
35.48106 -51.96586 199.82292 401
31.74836 -52.87593 202.84795 387
27.66088 -53.90170 206.02858 385
22.85743 -55.09192 209.29158 342
81.79976 -41.57250 175.23697 436
79.41289 -42.15157 177.27057 432
76.97063 -42.80232 179.39085 430
60.52451 -46.95062 178.44080 427
57.77322 -47.64977 180.85811 425
54.93418 -48.32941 183.33968 415
51.83128 -49.14433 185.87564 413
48.63124 -49.88848 188.46642 410
45.37082 -50.71906 191.14018 408
41.97780 -51.61919 193.91872 405
38.48774 -52.45929 196.77774 403
34.84487 -53.39111 199.75526 389
30.85013 -54.39469 202.78778 387
26.66507 -55.44431 205.95316 373
21.61812 -56.72723 209.20766 339
81.51923 -42.62748 175.08842 435
79.15008 -43.20945 177.13721 431
76.68291 -43.85156 179.27296 429
60.15020 -48.09648 178.34752 426
57.38895 -48.84509 180.76845 424
54.42295 -49.59691 183.22423 415
51.34745 -50.39436 185.73312 412
48.11255 -51.24114 188.36536 410
44.79924 -52.08755 191.06783 407
41.42017 -52.95935 193.85248 405
37.81608 -53.87997 196.68399 391
34.00143 -54.86440 199.63457 388
30.01096 -55.90762 202.69666 386
25.55129 -57.02620 205.86635 373
19.77411 -58.55494 209.14359 263
81.25029 -43.63637 174.95497 434
78.84457 -44.28301 177.04318 431
76.36096 -44.91711 179.13869 428
59.80320 -49.31354 178.19682 425
56.98896 -50.06622 180.62564 423
53.93989 -50.87154 183.09293 414
50.81503 -51.66465 185.64194 411
47.57764 -52.55495 188.24588 409
44.26114 -53.38981 190.93271 406
40.75579 -54.32824 193.70941 393
37.05532 -55.31895 196.59897 390
33.14062 -56.34025 199.57751 388
29.03639 -57.44773 202.64235 374
24.39927 -58.67434 205.80453 372
80.98339 -44.67827 174.81927 434
78.57410 -45.31528 176.90817 430
76.07269 -45.99391 179.03511 428
66.69307 -48.55637 179.66718 304
56.54104 -51.30293 180.45035 415
53.45675 -52.15907 182.96689 413
50.32575 -52.98866 185.51971 411
47.04776 -53.87641 188.09665 408
43.63461 -54.79728 190.83632 394
39.98118 -55.78535 193.58771 392
36.23334 -56.80971 196.45346 389
32.28518 -57.87380 199.47008 387
27.97489 -59.03428 202.55490 374
23.28693 -60.32955 205.76447 371
80.70637 -45.71428 174.68124 433
78.25268 -46.39891 176.77130 429
75.75205 -47.07376 178.87729 427
66.91547 -49.54301 179.68933 304
56.05936 -52.55793 180.34625 415
52.98727 -53.39818 182.79033 412
49.80106 -54.30185 185.36136 410
46.45716 -55.21399 187.97603 396
42.89901 -56.23722 190.69673 394
39.23861 -57.23092 193.44594 391
35.36848 -58.30748 196.37042 388
31.38580 -59.38241 199.34865 375
26.83968 -60.67189 202.47348 373
22.16063 -61.99380 205.67926 370
80.41956 -46.78592 174.56508 432
77.96259 -47.43540 176.63542 429
75.45610 -48.18844 178.77840 426
67.15189 -50.52871 179.66553 304
55.59781 -53.84459 180.14996 414
52.46834 -54.70277 182.69382 412
49.22234 -55.62011 185.21820 398
45.70472 -56.64659 187.81390 395
42.11922 -57.63644 190.52928 393
38.43808 -58.71335 193.35774 390
34.51742 -59.81603 196.23781 388
30.33073 -61.00327 199.26077 374
25.75639 -62.34195 202.37569 372
21.00398 -63.65399 205.57263 369
80.14191 -47.82405 174.40846 432
77.67109 -48.54896 176.48758 428
75.13589 -49.26185 178.60739 426
67.38282 -51.54228 179.67723 304
55.10273 -55.11305 180.04298 413
51.91840 -56.04251 182.50748 399
48.53456 -57.03620 185.03555 397
44.99763 -58.05062 187.67963 394
41.39709 -59.10666 190.41153 392
37.59706 -60.20428 193.19867 389
33.72123 -61.34542 196.12569 387
29.30753 -62.61253 199.13673 374
24.62836 -63.99535 202.28258 371
19.77996 -65.36032 205.52689 368
79.89677 -48.86982 174.27077 431
77.38525 -49.60693 176.35950 427
74.81075 -50.36923 178.47572 425
67.65519 -52.52578 179.65697 304
54.58054 -56.43513 179.85411 401
51.24424 -57.42751 182.32425 398
47.82306 -58.40887 184.87215 396
44.25352 -59.48856 187.53221 393
40.58520 -60.57355 190.25113 391
36.78928 -61.71166 193.08150 388
32.73236 -62.92059 196.01192 375
28.19070 -64.26915 198.99489 373
23.49240 -65.65771 202.18414 370
18.58665 -67.12685 205.44937 367
79.60942 -49.96008 174.11209 430
77.08558 -50.68514 176.21970 427
74.52631 -51.50252 178.37039 424
67.87003 -53.51414 179.65854 304
53.90075 -57.78689 179.67973 400
50.54530 -58.77936 182.12251 397
47.08271 -59.83366 184.73181 395
43.50806 -60.94727 187.36096 393
39.79192 -62.06527 190.10349 390
35.98569 -63.24506 192.91873 388
31.66540 -64.56110 195.87103 374
27.09506 -65.90168 198.91606 372
22.35888 -67.40414 202.05469 369
17.39003 -68.89104 205.37395 366
79.30225 -51.01849 173.97916 430
76.78816 -51.80996 176.05988 426
74.22311 -52.60355 178.22794 424
68.14178 -54.51376 179.64423 304
53.24492 -59.15320 179.46652 399
49.87481 -60.22144 181.97299 397
46.37259 -61.26517 184.53351 394
42.72863 -62.42999 187.21608 392
39.00361 -63.56009 189.96375 389
35.02897 -64.78544 192.77203 376
30.62249 -66.16718 195.70868 373
25.98663 -67.62719 198.79607 371
21.21921 -69.10319 201.97943 368
16.13139 -70.68244 205.29189 366
79.02240 -52.11223 173.84836 429
76.50368 -52.90997 175.95213 425
73.92027 -53.75481 178.08315 423
68.41764 -55.52126 179.64618 304
52.61536 -60.54486 179.25763 398
49.18094 -61.59737 181.76390 396
45.66194 -62.73214 184.37106 393
41.98362 -63.90039 187.05084 391
38.22335 -65.09200 189.78590 388
34.05627 -66.42196 192.63525 375
29.56106 -67.82508 195.57715 373
24.89041 -69.35553 198.66199 370
20.03093 -70.90248 201.82860 367
14.91497 -72.54634 205.20239 365
78.76603 -53.18841 173.70082 428
76.20612 -54.03417 175.78018 425
73.58598 -54.90303 177.94742 422
68.70237 -56.47648 179.62927 304
51.91713 -61.89627 179.08411 397
48.48506 -63.07153 181.58020 395
44.92480 -64.18223 184.17873 392
41.21298 -65.42363 186.86478 390
37.33369 -66.67390 189.63052 377
33.01403 -68.06207 192.47800 374
28.51016 -69.53510 195.40436 372
23.75319 -71.06947 198.53145 369
18.82015 -72.70290 201.75636 366
12.47456 -74.75735 205.04599 319
78.48038 -54.29339 173.51457 426
75.92002 -55.17307 175.62440 424
73.27460 -56.01601 177.78134 422
68.97661 -57.45824 179.64989 304
51.28019 -63.33793 178.83009 396
47.79029 -64.48843 181.36197 394
44.18586 -65.71634 184.00000 392
40.46899 -66.93803 186.70421 389
36.39172 -68.26690 189.43750 376
32.00264 -69.74586 192.32825 373
27.41711 -71.25880 195.27667 371
22.62071 -72.84109 198.37189 368
16.99905 -74.67741 201.61510 336
9.43119 -77.17863 204.87921 318
78.20919 -55.40008 173.38940 425
75.60901 -56.30051 175.47310 423
72.95031 -57.20068 177.66872 421
69.24113 -58.42657 179.66261 304
50.60371 -64.75805 178.62485 396
47.05788 -65.93373 181.17416 393
43.42398 -67.19760 183.79330 391
39.68982 -68.44321 186.49139 388
35.40369 -69.92128 189.27643 375
30.94617 -71.40771 192.12489 372
26.26747 -72.95734 195.12689 370
21.10879 -74.75736 198.23479 338
14.63316 -76.90623 201.44774 320
6.29867 -79.78173 204.74034 317
77.89596 -56.52648 173.20738 425
75.32335 -57.40514 175.34241 423
72.67899 -58.33974 177.50700 420
69.53971 -59.45061 179.62935 304
49.89742 -66.21586 178.43546 395
46.32364 -67.44997 180.94360 392
42.67332 -68.72349 183.57608 390
38.72019 -70.10502 186.31462 377
34.38414 -71.58636 189.09941 374
29.86881 -73.13702 191.97768 372
25.12445 -74.79639 194.96812 339
18.98435 -76.86435 198.03958 337
11.66114 -79.41022 201.19753 318
3.01431 -82.39832 204.50624 316
77.64604 -57.67746 173.05412 424
75.00993 -58.57307 175.17815 422
72.32497 -59.51953 177.34349 420
69.22102 -60.61206 179.51250 404
49.22211 -67.66644 178.19685 394
45.60693 -68.95531 180.77203 391
41.90934 -70.24412 183.39296 389
37.78160 -71.69572 186.12463 376
33.34916 -73.21642 188.85765 373
28.82190 -74.85178 191.80846 371
23.05141 -76.87920 194.73692 338
16.78536 -79.08331 197.80916 336
8.58008 -81.96793 200.94266 317
-0.32497 -85.16074 204.34445 315
77.36104 -58.80574 172.88562 423
74.70876 -59.72498 175.00909 421
71.70296 -60.79385 177.11975 391
68.60985 -61.91261 179.28668 403
48.49814 -69.15533 177.99986 393
44.87494 -70.46290 180.52939 391
41.03828 -71.85487 183.17889 377
36.77868 -73.38591 185.89487 375
32.34880 -74.95201 188.65839 372
27.03600 -76.88538 191.55246 339
20.93829 -79.05918 194.48265 337
13.90454 -81.58331 197.50758 319
5.38872 -84.63647 200.66487 316
-3.81745 -87.96798 204.11641 314
77.05520 -59.91444 172.70935 423
74.19437 -60.96995 174.81999 392
71.05797 -62.15425 176.85939 390
67.98932 -63.26656 179.08485 402
57.22455 -67.17536 179.74155 300
44.11841 -71.99571 180.35010 390
40.08758 -73.45612 182.97435 376
35.78260 -75.04438 185.64799 374
30.89055 -76.82252 188.44490 341
25.03082 -78.98058 191.20882 338
18.84743 -81.25304 194.16902 336
10.86662 -84.16154 197.22195 318
2.05182 -87.41325 200.45485 315
-12.47315 -92.69933 203.64182 269
76.68365 -61.08547 172.50670 393
73.60588 -62.29137 174.55217 391
70.37886 -63.46373 176.65327 389
67.32623 -64.59354 178.83162 401
57.59615 -68.24556 179.75874 300
43.34640 -73.58156 180.10970 378
39.15654 -75.14182 182.71436 375
34.64880 -76.79942 185.42264 342
29.00496 -78.91218 188.13580 340
22.97008 -81.14998 190.93961 337
16.06819 -83.73898 193.83423 319
7.70206 -86.83784 196.91934 317
-1.37858 -90.23830 200.19276 314
76.10912 -62.38688 172.25377 393
72.96747 -63.56926 174.29663 390
69.72807 -64.81751 176.37846 388
66.68595 -65.99325 178.61923 400
57.91206 -69.31248 179.72891 300
42.45423 -75.16629 179.87334 377
38.17193 -76.81130 182.49541 375
32.81049 -78.84255 185.07849 341
26.97417 -81.05723 187.75169 339
20.87095 -83.40659 190.64200 336
13.15122 -86.35178 193.53894 318
4.46393 -89.63793 196.60518 315
-11.81275 -95.78622 199.44786 269
75.46732 -63.67503 171.97472 392
72.30057 -64.88923 174.03082 389
69.05156 -66.17585 176.12411 387
66.03226 -67.35767 178.39168 399
58.29741 -70.34698 179.75798 300
41.52657 -76.83533 179.57726 376
36.54469 -78.77036 182.13315 342
30.90169 -80.96889 184.73241 340
24.96715 -83.23641 187.44826 337
18.33761 -85.83213 190.27844 319
10.03022 -89.02500 193.16087 317
-0.23836 -93.00633 196.10336 288
75.15628 -64.89027 171.78882 316
71.68148 -66.28065 173.76878 388
68.34460 -67.57442 175.85419 386
65.38417 -68.74204 178.15674 398
58.63868 -71.39849 179.72206 300
40.16415 -78.68106 179.23761 344
34.73083 -80.80566 181.71959 341
28.96796 -83.08902 184.35071 339
22.90855 -85.51690 187.04462 336
15.39934 -88.41099 189.85580 318
6.84821 -91.80090 192.74261 316
-11.02141 -98.85830 195.18321 269
75.50024 -65.83852 171.79079 316
70.99477 -67.63622 173.49489 388
67.68918 -68.97137 175.61046 385
64.67335 -70.16998 177.89471 397
58.99736 -72.43513 179.71559 300
38.46971 -80.68330 178.84245 342
32.90859 -82.92761 181.34459 340
27.01859 -85.32202 183.92685 338
20.59499 -87.85960 186.67735 320
12.42319 -91.14394 189.43475 317
0.88704 -95.80215 192.06924 288
75.81117 -66.74773 171.78687 316
70.35925 -68.99570 173.22768 387
66.96550 -70.38767 175.36519 384
63.99881 -71.59341 177.70010 396
59.38633 -73.51277 179.73186 300
36.66022 -82.75886 178.43961 341
30.96773 -85.07269 180.93736 339
24.95492 -87.56691 183.57228 337
17.72186 -90.52799 186.21851 318
8.45719 -94.31769 188.85190 289
-10.11712 -101.86114 190.83604 269
76.19094 -67.68745 171.80418 316
69.67351 -70.38371 172.94484 386
66.29279 -71.81538 175.07451 383
63.31495 -73.04075 177.41913 395
59.74826 -74.52834 179.71149 300
34.85730 -84.88323 177.97371 340
29.01300 -87.29049 180.47890 338
22.81007 -89.89963 183.10095 320
14.75130 -93.24258 185.71982 317
2.06413 -98.50507 188.01544 288
76.51205 -68.60954 171.78662 316
68.99467 -71.79676 172.64178 385
65.56091 -73.24951 174.79196 382
62.62518 -74.49499 177.18347 394
59.70388 -75.72423 179.61713 392
32.99171 -87.02868 177.50449 339
27.03595 -89.59093 180.04086 337
20.01825 -92.56244 182.61879 319
9.62986 -96.91427 184.90010 289
-9.12782 -104.87106 186.53922 269
76.86521 -69.58628 171.78055 316
68.33532 -73.27243 172.36197 384
64.83188 -74.76110 174.51788 381
61.93567 -76.03088 176.91541 393
58.96589 -77.26656 179.37224 391
45.35036 -83.11684 179.87808 296
24.98454 -91.90887 179.56287 336
16.87422 -95.39873 182.01532 290
3.36000 -101.22252 183.94902 288
77.23135 -70.49643 171.78334 316
67.63552 -74.71555 172.09677 383
64.11482 -76.23139 174.21855 381
61.20814 -77.50288 176.67836 392
58.23488 -78.82486 179.13220 390
45.81168 -84.29205 179.87263 296
22.34394 -94.51347 179.02261 319
10.89361 -99.53343 180.95653 289
-27.17430 -116.26388 179.48692 337
77.60414 -71.44523 171.77219 316
67.31503 -75.99173 171.87086 312
63.43553 -77.72855 173.93721 393
60.49157 -79.02491 176.41078 391
57.51263 -80.37692 178.86565 389
46.21930 -85.37885 179.86230 296
18.10098 -97.91535 178.16692 290
4.66196 -103.88397 179.84485 288
-22.47064 -116.01443 180.11168 339
77.98566 -72.37943 171.80598 316
67.69092 -76.99943 171.87257 312
62.70947 -79.27695 173.67065 392
59.78954 -80.58912 176.12561 390
56.71161 -81.99651 178.60150 333
46.68426 -86.48612 179.83127 296
12.28418 -102.11152 177.00920 289
-17.89480 -115.74637 176.14165 340
-19.64175 -116.56593 180.39706 284
78.34784 -73.29687 171.75932 316
68.10987 -77.98191 171.85680 312
62.00683 -80.78622 173.36653 391
59.04603 -82.18027 175.81712 389
54.68618 -84.18781 178.06612 332
47.14660 -87.62910 179.81229 296
6.07488 -106.52279 175.81407 288
-13.46152 -115.56593 176.72343 341
-19.04669 -118.09310 180.43275 284
78.73409 -74.21917 171.78242 316
68.53170 -78.99925 171.86803 312
61.32607 -82.36476 173.08516 390
57.48114 -84.15966 175.38203 332
52.60247 -86.41252 177.53326 330
47.61010 -88.77808 179.81696 296
29.79174 -97.08623 179.97969 292
-2.77421 -112.29985 178.35281 285
-18.42033 -119.65766 180.41017 284
79.10519 -75.10095 171.77020 316
68.95947 -79.94612 171.84818 312
60.26344 -84.08210 172.67720 333
55.46275 -86.34554 174.79712 331
50.48282 -88.73025 176.96899 329
45.34218 -91.19002 179.28337 328
30.32795 -98.31845 179.99986 292
8.80980 -108.51775 180.13957 288
79.50794 -76.05209 171.75368 316
69.34309 -80.92354 171.87917 312
58.33681 -86.24445 172.06332 332
53.42777 -88.65820 174.17314 330
48.25111 -91.11585 176.38928 328
43.02052 -93.65595 178.70050 327
30.83410 -99.52119 179.96436 292
9.37867 -109.86000 180.15436 288
79.92249 -76.93541 171.75021 316
69.78085 -81.92739 171.87172 312
58.27747 -87.54408 171.92999 308
51.29914 -90.97665 173.56895 329
46.01005 -93.58591 175.74637 328
40.64185 -96.20304 178.13373 326
31.31879 -100.76784 179.96808 292
9.93926 -111.22549 180.17390 288
80.30897 -77.86409 171.74388 316
70.22691 -82.86445 171.83514 312
58.76456 -88.61845 171.95274 308
49.10854 -93.41801 172.89876 328
43.64451 -96.12320 175.10837 327
38.16343 -98.84448 177.50626 325
30.48639 -102.65086 179.69482 279
10.53880 -112.57613 180.15369 288
80.73315 -78.79472 171.74808 316
70.67908 -83.85644 171.86180 312
59.22208 -89.65204 171.94243 308
46.84626 -95.91011 172.22244 326
41.29502 -98.73787 174.47160 325
35.59261 -101.60937 176.88457 323
21.68484 -108.62769 178.00069 277
-80.95809 -160.50485 164.89275 284
81.12543 -79.68640 171.77084 316
71.12978 -84.81532 171.84158 312
59.72369 -90.70619 171.95212 308
46.64184 -97.38070 172.06531 304
38.80357 -101.44361 173.78232 324
27.89910 -107.03617 175.19666 276
11.93854 -115.20635 176.10468 276
81.58011 -80.60413 171.75201 316
71.56025 -85.79808 171.85364 312
60.16432 -91.71407 171.91731 308
47.15205 -98.48624 172.06799 304
34.60899 -105.05942 172.76125 277
18.23773 -113.61672 173.13226 275
-55.17967 -151.88960 163.50562 368
81.99085 -81.46100 171.76242 316
72.02686 -86.75418 171.85356 312
60.66116 -92.76830 171.93381 308
47.69535 -99.65791 172.02803 304
32.64314 -107.62983 172.19321 300
14.96900 -116.94757 172.31064 296
-51.20857 -151.94798 164.08481 369
82.43808 -82.39545 171.74034 316
72.49247 -87.74344 171.83211 312
61.20244 -93.79018 171.92569 308
48.23266 -100.76689 172.05844 304
33.19787 -108.79840 172.18063 300
15.57947 -118.27182 172.28711 296
-47.19181 -151.98723 164.67561 361
82.84911 -83.27056 171.73869 316
72.95125 -88.68725 171.84383 312
61.68850 -94.79335 171.92992 308
48.74858 -101.84644 172.00865 304
33.79141 -110.02198 172.14973 300
16.26035 -119.59816 172.28174 296
-43.33281 -152.04279 165.24797 287
83.32555 -84.17426 171.73689 316
73.42118 -89.65700 171.82848 312
62.19819 -95.84746 171.93143 308
49.31512 -102.96638 172.02409 304
34.39720 -111.21329 172.13924 300
16.89702 -120.84067 172.29836 296
-42.43242 -153.69894 165.25946 286
83.75581 -85.03844 171.72356 316
73.89941 -90.58461 171.81848 312
62.69978 -96.88491 171.92924 308
49.89771 -104.05921 172.00830 304
35.02016 -112.38535 172.15311 300
17.59038 -122.20322 172.30075 296
-41.54028 -155.36066 165.24304 286
84.21130 -85.93259 171.73647 316
74.38949 -91.51002 171.80606 312
63.24220 -97.86473 171.90579 308
50.45194 -105.16262 172.02711 304
35.61164 -113.60519 172.17055 300
18.25326 -123.46616 172.31598 296
-40.69069 -157.07454 165.21288 286
84.67645 -86.81427 171.75192 316
74.86060 -92.49893 171.79457 312
63.79289 -98.90854 171.90346 308
51.04325 -106.26426 172.04504 304
36.24853 -114.81707 172.15469 300
18.94452 -124.81690 172.28770 296
-39.77378 -158.72371 165.27234 286
85.13390 -87.73089 171.74228 316
75.37935 -93.43917 171.78740 312
64.29991 -99.90556 171.89462 308
51.61876 -107.35305 172.00508 304
36.87962 -115.94773 172.16289 300
-23.69518 -151.48627 163.20526 369
-38.92599 -160.31195 165.21140 286
85.62400 -88.57591 171.72141 316
75.87402 -94.37490 171.80237 312
64.83958 -100.89780 171.90237 308
52.19659 -108.43394 172.02496 304
37.50628 -117.16395 172.15105 300
-20.10878 -151.35336 163.73782 370
86.07997 -89.46810 171.73116 316
76.38779 -95.32327 171.81059 312
65.38289 -101.95225 171.92262 308
52.77132 -109.53648 171.97913 304
38.14635 -118.29964 172.12106 300
-16.58501 -151.31746 164.33447 371
86.58743 -90.33997 171.72244 316
76.91196 -96.22892 171.82288 312
65.95695 -102.94709 171.88860 308
53.38268 -110.59330 172.00922 304
38.77549 -119.52530 172.15312 300
-13.12610 -151.21808 164.89766 373
-481.78494 -437.26926 382.51401 1000
87.05061 -91.21297 171.69620 316
77.42236 -97.18863 171.80972 312
66.50093 -103.93003 171.90681 308
53.94953 -111.70922 171.99083 304
39.49442 -120.66946 172.10760 300
-9.67902 -151.09132 165.39841 374
87.55428 -92.08980 171.71986 316
77.94958 -98.10103 171.80687 312
67.05354 -104.93175 171.87086 308
54.59830 -112.77007 172.00171 304
40.14993 -121.85312 172.13907 300
-7.34209 -151.61275 165.74095 291
88.06124 -92.97311 171.72295 316
78.48770 -99.04109 171.79062 312
67.67742 -105.93099 171.88480 308
55.21754 -113.82835 171.97409 304
40.80862 -123.00343 172.13158 300
-6.42004 -153.03564 165.78731 291
88.54712 -93.81723 171.68410 316
79.03941 -99.96246 171.77507 312
68.22590 -106.91496 171.87154 308
55.83959 -114.87859 171.98241 304
41.47970 -124.19255 172.07829 300
-5.51079 -154.45035 165.79019 291
89.05275 -94.63965 171.70384 316
79.56923 -100.84430 171.76588 312
68.82243 -107.91957 171.86163 308
56.44658 -115.95967 171.96973 304
3.36003 -150.70348 162.88947 285
-4.61469 -155.90182 165.74464 291
89.59101 -95.53737 171.71321 316
80.14586 -101.78823 171.76047 312
69.39930 -108.87293 171.88895 308
57.11829 -117.01205 171.95334 304
6.21844 -150.78136 163.41920 380
-3.65506 -157.25879 165.74498 290
90.10688 -96.36111 171.70245 316
80.69785 -102.69253 171.77881 312
70.01305 -109.86904 171.83426 308
57.73883 -118.07512 171.93753 304
9.19207 -150.69638 163.87746 381
-2.76708 -158.71841 165.77902 290
90.61051 -97.22375 171.70473 316
81.23823 -103.57458 171.77809 312
70.60694 -110.85580 171.82906 308
58.37769 -119.13979 171.97141 304
12.13931 -150.63258 164.41991 383
91.16481 -98.05603 171.70578 316
81.82068 -104.51480 171.74678 312
71.20997 -111.77625 171.87271 308
59.08132 -120.17113 171.96808 304
15.04325 -150.50963 164.90991 384
91.68169 -98.92409 171.68533 316
82.41206 -105.39603 171.73444 312
71.85020 -112.79266 171.83272 308
59.75018 -121.20778 171.93610 304
17.86842 -150.48233 165.37228 385
92.20139 -99.75329 171.65971 316
82.99229 -106.27971 171.74008 312
72.47367 -113.73582 171.85387 308
60.39017 -122.24689 171.94075 304
20.61618 -150.41345 165.82104 386
92.75512 -100.57799 171.66037 316
83.56209 -107.19876 171.77017 312
73.08351 -114.71439 171.82878 308
61.05057 -123.28721 171.91310 304
22.80411 -150.69968 166.11374 297
93.33558 -101.40771 171.64145 316
84.16817 -108.06566 171.76414 312
73.71862 -115.65302 171.84341 308
29.12406 -148.05606 163.28743 296
23.68981 -151.96956 166.15268 297
93.87328 -102.26073 171.67598 316
84.72728 -108.97414 171.71704 312
74.34022 -116.57255 171.82257 308
29.75375 -149.40898 163.22205 296
24.54028 -153.23570 166.12112 297
94.43215 -103.04683 171.65411 316
85.32905 -109.83489 171.73016 312
74.99100 -117.55791 171.83070 308
31.44563 -149.95882 163.39613 388
25.45435 -154.49741 166.11273 297
94.56391 -104.22355 171.65419 316
85.94568 -110.70932 171.73419 312
75.63402 -118.50651 171.80141 308
34.02613 -149.91037 163.91794 389
26.33190 -155.68178 166.12491 297
95.56120 -104.69004 171.67097 316
86.55958 -111.61903 171.71796 312
76.30935 -119.41461 171.79207 308
36.60629 -149.79933 164.36391 391
27.22059 -156.92368 166.16277 297
96.14419 -105.53223 171.63121 316
87.17860 -112.49438 171.69868 312
76.96422 -120.34303 171.79924 308
39.10056 -149.71645 164.76878 392
28.17914 -158.13960 166.15613 297
96.72471 -106.30592 171.63132 316
87.77151 -113.35113 171.72519 312
77.62257 -121.30476 171.77844 308
41.51214 -149.58878 165.19830 393
97.33812 -107.12883 171.61133 316
88.43584 -114.18494 171.71049 312
78.30952 -122.20815 171.77209 308
43.95409 -149.49438 165.62744 394
97.90871 -107.94951 171.60458 316
89.08445 -115.05159 171.68626 312
50.85131 -145.79637 163.40916 300
46.30748 -149.43666 166.03665 395
98.52769 -108.74635 171.60132 316
89.24485 -116.27097 171.68971 312
51.55778 -146.94403 163.36987 300
47.85473 -150.01213 166.21199 301
99.12519 -109.55605 171.61830 316
90.33260 -116.74149 171.67668 312
52.27055 -148.13126 163.34894 300
48.72839 -151.09602 166.22182 301
99.73849 -110.33438 171.59778 316
90.99149 -117.63199 171.70467 312
53.20846 -149.21199 163.32077 398
49.61105 -152.16534 166.25435 301
100.34135 -111.09547 171.58839 316
91.66340 -118.46309 171.67714 312
55.43443 -149.13107 163.75372 400
50.50863 -153.21037 166.26216 301
100.93361 -111.88210 171.58780 316
92.32718 -119.29642 171.65234 312
57.56941 -149.03194 164.16660 401
51.41204 -154.34300 166.26675 301
101.58650 -112.68630 171.61449 316
92.94444 -120.13288 171.65588 312
59.74214 -148.94286 164.57570 402
52.33194 -155.39046 166.22635 301
102.19913 -113.47119 171.59727 316
93.63341 -120.96321 171.65202 312
61.87457 -148.84305 164.94406 403
53.20604 -156.46399 166.27618 301
102.82655 -114.22105 171.58583 316
70.00031 -143.39413 163.53152 304
63.95749 -148.76747 165.33716 404
54.12486 -157.48735 166.25797 301
103.46580 -114.97747 171.58411 316
70.76685 -144.41872 163.53542 304
65.99561 -148.69473 165.70334 405
104.11283 -115.79026 171.58682 316
71.47534 -145.47539 163.47449 304
68.02840 -148.58783 166.08134 407
104.75842 -116.54612 171.56566 316
72.22678 -146.51256 163.43834 304
69.80614 -148.79263 166.32770 305
105.37029 -117.29775 171.54994 316
72.96192 -147.59311 163.42918 303
70.65636 -149.73650 166.33521 305
106.05119 -118.05686 171.54070 315
73.94740 -148.43459 163.44281 409
71.54580 -150.66643 166.35481 305
106.71176 -118.76485 171.54204 315
75.85468 -148.36432 163.82864 410
72.43027 -151.58597 166.35155 305
107.34915 -119.54630 171.57146 315
77.70608 -148.23215 164.19687 412
73.32243 -152.49161 166.33705 305
87.04193 -140.89302 163.66432 311
79.58581 -148.17239 164.54102 413
74.21136 -153.46321 166.35017 305
87.75231 -141.80257 163.66096 311
81.40165 -148.14073 164.85873 414
75.11570 -154.37328 166.33223 305
88.51492 -142.70009 163.64116 307
83.23959 -148.03305 165.17946 415
76.04339 -155.29015 166.34531 305
89.27242 -143.64948 163.60730 307
85.02980 -148.00369 165.52904 416
76.94963 -156.17848 166.34697 305
90.02984 -144.60004 163.57030 307
86.76196 -147.89757 165.87425 417
77.86137 -157.09587 166.37010 305
90.78920 -145.50304 163.55280 307
88.52833 -147.86674 166.16307 418
91.51769 -146.41318 163.52545 307
90.07574 -147.92604 166.41719 309
92.29438 -147.28854 163.46693 307
90.98560 -148.72591 166.41212 309
93.60936 -147.63788 163.65021 421
91.81905 -149.52898 166.40976 309
95.22105 -147.58784 163.98497 422
92.68481 -150.38129 166.41682 309
96.85851 -147.52934 164.29575 412
93.57143 -151.17387 166.43182 309
98.60043 -147.32283 164.63998 413
94.50320 -151.95026 166.42856 309
100.29881 -147.20999 164.94754 414
95.40293 -152.75323 166.45195 309
101.94180 -146.99986 165.28716 415
96.29964 -153.53270 166.48080 309
103.58356 -146.85481 165.61502 416
97.14780 -154.34253 166.46722 310
105.19697 -146.71205 165.90649 417
98.09240 -155.09546 166.46165 310
-21499.44531 -25653.77734 8082.73779 1000
106.83184 -146.51138 166.21701 419
98.98430 -155.87169 166.48213 310
108.20406 -146.60034 166.46785 314
109.03220 -147.33615 166.46649 314
109.88503 -148.04037 166.48726 314
110.76657 -148.75066 166.48683 314
111.60472 -149.46251 166.47484 314
112.49020 -150.11632 166.47331 314
-4659.37354 -6302.55664 483.38849 1000
115.22160 -148.45859 167.25520 437
116.49947 -148.57912 167.42683 316
117.34924 -149.22354 167.44701 316
117.08385 -149.55879 170.54790 312
118.20236 -149.93579 167.45450 316
117.99144 -150.21962 170.55602 312
120.14729 -149.13951 167.91077 490
119.89853 -151.25589 167.42461 316
124.26939 -148.84608 168.64594 490
-979.70435 -1947.06030 -45.13121 395
-957.80286 -1937.88953 -42.89295 410
-965.52838 -1978.15356 -86.11513 366
-937.36078 -1931.77087 -41.46457 413
-983.32861 -2007.92053 -12.67462 287
-942.21130 -1966.17175 -83.08557 367
-918.04480 -1926.11694 -39.85870 414
-918.61487 -1954.13062 -80.01700 369
-900.77325 -1923.57007 -38.36655 427
-887.51721 -1928.15637 -75.06198 288
-884.25256 -1922.71313 -37.48845 428
-865.18884 -1916.94739 -72.25336 377
-868.19757 -1921.41199 -36.09013 428
-846.96204 -1911.14612 -70.47301 396
-852.53125 -1920.96716 -35.49700 379
-829.60901 -1908.01660 -68.84641 397
-837.80676 -1922.77283 -35.02360 382
-813.59863 -1906.47119 -68.00249 456
-823.61292 -1925.12708 -34.37528 381
-797.66864 -1904.97681 -66.44189 457
-809.29974 -1927.14685 -33.78273 381
-781.77429 -1903.31567 -65.67044 458
-796.98315 -1931.92859 -33.82137 406
-767.05756 -1903.50562 -64.44716 468
-861.09930 -2083.07178 -52.05458 475
-766.21552 -1931.22107 -104.05580 458
-752.24316 -1903.16895 -64.04890 472
-848.23419 -2089.48535 -52.48479 475
-751.36890 -1930.97766 -102.73205 459
-737.95215 -1903.75220 -62.92492 472
-835.67047 -2097.54175 -52.26523 383
-736.02802 -1930.09424 -101.71704 459
-723.30127 -1904.03735 -62.38514 473
-823.76343 -2105.67041 -52.46883 385
-721.31097 -1929.46277 -101.01370 460
-708.90839 -1904.51794 -61.33438 474
-811.58936 -2114.20679 -52.57432 384
-706.28253 -1929.65881 -99.79952 460
-694.38647 -1904.99756 -60.56865 481
-731.02496 -1979.96716 -34.83403 489
-690.47754 -1926.79785 -98.76007 316
-680.73468 -1906.01746 -59.98792 481
-717.26349 -1982.30798 -34.69658 490
