# .PCD v.7 - Point Cloud Data file format
VERSION .7
FIELDS x y z rgb
SIZE 4 4 4 4
TYPE F F F U
COUNT 1 1 1 1
WIDTH 1383
HEIGHT 1
VIEWPOINT 6849.863281 -3402.163330 143.468842 -0.755491 -0.124963 -0.060489 0.640281
POINTS 1383
DATA ascii
49.94169 -12.01165 198.51216 442
47.22053 -12.10300 201.26193 439
44.44454 -12.16079 204.05710 437
41.56393 -12.25560 206.94934 434
38.62016 -12.33167 209.91689 431
-179.54318 -17.78073 223.16928 384
-156.29453 -17.23118 235.30843 400
85.40800 -11.97380 177.73383 465
82.54848 -12.05933 179.50836 312
69.31635 -12.49121 178.99879 460
67.08607 -12.54678 181.25520 458
64.75297 -12.65322 183.51395 456
62.39459 -12.70531 185.87550 453
59.99677 -12.78870 188.30327 451
57.52289 -12.86043 190.74002 449
55.01593 -12.95158 193.25468 447
52.42444 -13.00002 195.86270 444
49.80936 -13.12816 198.51181 442
47.10976 -13.17580 201.23967 439
44.30949 -13.30539 204.07323 437
41.45327 -13.35452 206.93802 434
38.47462 -13.48740 209.90666 431
-179.58803 -20.32580 223.13152 384
-162.76115 -19.71517 235.72687 299
85.33936 -12.83607 177.70990 465
82.56490 -12.98185 179.53685 312
69.21491 -13.44488 178.95433 460
66.97380 -13.52096 181.22839 458
64.64960 -13.64135 183.49809 456
62.30000 -13.73907 185.87332 453
59.90008 -13.81068 188.27292 451
57.40641 -13.90095 190.72789 449
54.89432 -14.00393 193.25931 447
52.33077 -14.08724 195.83572 444
49.68235 -14.21361 198.48474 442
46.96795 -14.31518 201.21759 439
44.18219 -14.39590 204.04860 436
41.30875 -14.50888 206.95004 434
38.35110 -14.61167 209.93210 431
-179.53647 -22.78034 223.11394 384
85.25880 -13.73530 177.70775 465
82.54921 -13.84435 179.51572 312
69.13860 -14.40991 178.92970 460
66.89584 -14.51736 181.20003 458
64.57538 -14.63762 183.48946 455
62.22561 -14.74872 185.85092 453
59.79625 -14.81297 188.24500 451
57.33579 -14.94094 190.70222 448
54.76022 -15.04395 193.25305 446
52.22034 -15.15945 195.85725 444
49.53485 -15.27031 198.51082 441
46.81844 -15.41792 201.20338 439
44.01077 -15.51549 204.02487 436
41.17442 -15.63265 206.94742 433
38.20777 -15.80937 209.92355 431
-179.53447 -25.26034 223.21364 384
85.20731 -14.58697 177.69179 464
82.58439 -14.70985 179.54396 312
69.06947 -15.39119 178.90424 460
66.78820 -15.50912 181.19502 458
64.49178 -15.62556 183.47157 455
62.09740 -15.75364 185.81314 453
59.71685 -15.86389 188.24847 451
57.22371 -15.97503 190.71346 448
54.66376 -16.12848 193.24252 446
52.09187 -16.26281 195.81725 444
49.44176 -16.36717 198.47142 441
46.68164 -16.49244 201.20883 439
43.90510 -16.63336 204.01860 436
41.00272 -16.80205 206.93645 433
38.02477 -16.96259 209.88673 431
-179.55382 -27.79509 223.17340 384
85.13815 -15.47250 177.66670 464
82.57464 -15.61389 179.53566 312
69.00389 -16.37427 178.91205 460
66.70393 -16.46669 181.16643 457
64.41521 -16.62665 183.44992 455
62.03638 -16.76492 185.80690 453
59.59808 -16.90972 188.22383 450
57.12289 -17.04145 190.69241 448
54.55750 -17.16068 193.19821 446
51.93844 -17.31803 195.78000 443
49.28844 -17.46227 198.47198 441
46.58653 -17.61670 201.19850 438
43.75956 -17.78047 204.03925 436
40.90340 -17.92873 206.89777 433
37.91043 -18.12798 209.91808 430
-179.52016 -30.26584 223.22952 384
85.06700 -16.32964 177.63409 464
82.63258 -16.48643 179.50874 312
68.89874 -17.34167 178.86597 459
66.65111 -17.48190 181.10764 457
64.31694 -17.60471 183.45557 455
61.93915 -17.75992 185.80986 453
59.49440 -17.92654 188.18791 450
57.03798 -18.09608 190.66949 448
54.45490 -18.21919 193.17728 445
51.87643 -18.40314 195.79126 443
49.19792 -18.57344 198.45821 441
46.42334 -18.72507 201.18602 438
43.64424 -18.91003 204.01385 436
40.76522 -19.10468 206.89143 433
37.76229 -19.29610 209.88574 430
-179.59270 -32.78665 223.19487 384
84.99364 -17.17537 177.59921 464
82.66402 -17.33565 179.52362 312
68.84402 -18.30469 178.83800 459
66.55160 -18.44002 181.10086 457
64.21244 -18.61779 183.40329 455
61.83764 -18.76151 185.74864 452
59.43694 -18.96751 188.16644 450
56.92395 -19.13367 190.62643 448
54.35384 -19.26907 193.19916 445
51.77059 -19.45889 195.75757 443
49.09015 -19.63731 198.45895 440
46.30800 -19.83749 201.18486 438
43.49852 -20.03369 204.01442 435
40.61407 -20.22492 206.91885 433
37.64566 -20.42768 209.90233 430
-179.56689 -35.26916 223.21716 384
-186.80913 -35.79004 271.25040 399
-186.78485 -35.86752 278.18765 496
-186.77454 -35.84171 285.14215 496
-186.66524 -35.77203 292.23373 495
84.89408 -18.05884 177.58641 464
82.66983 -18.24275 179.51915 312
68.75938 -19.26928 178.82573 459
66.46752 -19.43896 181.09221 457
64.16230 -19.61964 183.40291 455
61.76829 -19.77910 185.73972 452
59.30985 -19.97912 188.13472 450
56.84079 -20.14982 190.61140 448
54.27644 -20.34181 193.14729 445
51.63493 -20.53948 195.77728 443
48.94466 -20.76547 198.41931 440
46.21788 -20.97874 201.16267 437
43.37627 -21.18204 204.00862 435
40.45210 -21.37370 206.89050 432
37.50947 -21.59460 209.86269 430
-179.62550 -37.75824 223.18393 384
84.83707 -18.92632 177.55998 463
82.71471 -19.11468 179.53036 312
68.66002 -20.26803 178.80431 459
66.38586 -20.43826 181.03821 457
64.03426 -20.62494 183.34926 454
61.65507 -20.81829 185.73528 452
59.25640 -21.03532 188.12549 450
56.72600 -21.22164 190.60692 447
54.18267 -21.40653 193.13623 445
51.53144 -21.62992 195.74135 442
48.87582 -21.83899 198.42004 440
46.09267 -22.05632 201.16504 437
43.23672 -22.33123 203.99313 435
40.35824 -22.54620 206.87578 432
37.34122 -22.79346 209.86203 429
-179.61264 -40.33036 223.22534 384
84.78471 -19.79743 177.50960 463
82.74229 -19.97017 179.52980 461
68.57047 -21.22338 178.75174 459
66.33181 -21.40644 181.00105 456
63.98594 -21.63813 183.30405 454
61.60398 -21.85619 185.68092 452
59.16047 -22.04638 188.11960 450
56.66727 -22.27621 190.58464 447
54.09081 -22.48320 193.11040 445
51.44980 -22.71368 195.69884 442
48.75652 -22.93823 198.38255 440
46.00140 -23.20538 201.14940 437
43.11097 -23.44843 203.98209 434
40.20919 -23.72164 206.88670 432
37.17628 -23.94780 209.86763 429
-179.56570 -42.79524 223.19577 383
84.70541 -20.67446 177.48080 463
82.67258 -20.87290 179.48988 461
68.50031 -22.19562 178.71965 458
66.22408 -22.39818 180.99408 456
63.89140 -22.60812 183.28993 454
61.52335 -22.83856 185.64020 452
59.07840 -23.06730 188.05840 449
56.57561 -23.31951 190.57716 447
53.97234 -23.54309 193.12128 444
51.37140 -23.79625 195.71474 442
48.64256 -24.03560 198.37012 439
45.86684 -24.30829 201.14450 437
43.02569 -24.57135 203.96277 434
40.07349 -24.86347 206.87306 431
37.06642 -25.13737 209.88989 429
-179.57210 -45.35986 223.19206 383
84.65897 -21.55033 177.43674 463
82.62121 -21.75767 179.44887 461
68.44772 -23.17703 178.70937 458
66.16063 -23.41544 180.94698 456
63.79025 -23.64525 183.26036 454
61.42612 -23.85796 185.63400 451
58.95505 -24.11512 188.03157 449
56.47538 -24.38506 190.51094 447
53.89653 -24.60476 193.06126 444
51.25936 -24.90155 195.66707 442
48.55428 -25.17346 198.36929 439
45.75379 -25.41759 201.12947 436
42.90695 -25.73487 203.92592 434
39.94087 -25.99452 206.85011 431
36.90092 -26.34802 209.87567 429
-179.58046 -47.91496 223.19948 383
84.55361 -22.43119 177.39575 463
82.56403 -22.65863 179.41753 461
68.38631 -24.15740 178.67451 458
66.06728 -24.40567 180.92912 456
63.72260 -24.65458 183.22050 454
61.34671 -24.91532 185.60155 451
58.86303 -25.14093 188.03082 449
56.34653 -25.44398 190.51233 446
53.79798 -25.71430 193.06090 444
51.15862 -26.00839 195.67107 441
48.46251 -26.27926 198.35612 439
45.64558 -26.54490 201.08997 436
42.79577 -26.86522 203.94492 434
39.83145 -27.20911 206.85716 431
36.76820 -27.52959 209.84143 428
-179.63690 -50.43339 223.22125 383
84.48736 -23.33365 177.36348 462
82.47815 -23.56871 179.38776 460
68.30755 -25.11962 178.63268 458
65.99107 -25.37392 180.89742 456
63.67105 -25.67352 183.18550 453
61.24509 -25.92270 185.55421 451
58.79321 -26.19395 188.00639 449
56.27308 -26.48475 190.48608 446
53.69459 -26.79818 193.03337 444
51.07976 -27.06402 195.66228 441
48.34708 -27.39719 198.32295 439
45.55483 -27.67943 201.09138 436
42.65055 -28.03609 203.89433 433
39.56770 -28.39085 206.83162 416
36.29839 -28.73984 209.84377 407
-179.59460 -52.87819 223.18390 383
84.44508 -24.19425 177.34526 462
82.39809 -24.46115 179.35020 460
68.21960 -26.11666 178.58675 458
65.92711 -26.38814 180.87346 455
63.56446 -26.67224 183.15450 453
61.19257 -26.96115 185.54962 451
58.69522 -27.26079 187.95665 448
56.18959 -27.53075 190.45566 446
53.58247 -27.87666 193.01125 443
50.94754 -28.16683 195.61522 441
48.19142 -28.47852 198.28030 423
45.25634 -28.83539 201.03023 420
42.17863 -29.19514 203.88574 418
39.02457 -29.59788 206.80177 415
35.67052 -29.98600 209.81709 406
-179.66592 -55.38623 223.24463 383
84.36870 -25.10335 177.31897 462
82.35458 -25.34303 179.31479 460
68.16498 -27.10164 178.52728 457
65.83830 -27.41003 180.82625 455
63.49211 -27.70040 183.14583 453
61.06291 -28.00693 185.48944 451
58.64752 -28.29677 187.92560 448
56.12106 -28.59978 190.42220 446
53.46751 -28.93813 192.96071 427
50.63913 -29.31515 195.56306 425
47.75828 -29.66885 198.22374 422
44.81426 -30.01506 200.99382 420
41.70031 -30.42340 203.85951 417
38.55871 -30.79339 206.78918 408
35.06862 -31.23284 209.79230 405
-179.58488 -57.94793 223.25797 383
84.31733 -25.96591 177.27963 462
82.28328 -26.24665 179.27092 460
68.07205 -28.10119 178.51830 457
65.76250 -28.40461 180.77951 455
63.41238 -28.69585 183.10376 453
61.02986 -29.00291 185.46286 450
58.46669 -29.36978 187.88960 432
55.79362 -29.71229 190.36836 429
53.05322 -30.04626 192.90585 427
50.21998 -30.43962 195.51453 424
47.30262 -30.82807 198.18771 422
44.32525 -31.19872 200.94052 419
41.23274 -31.60543 203.79230 417
37.95452 -32.02279 206.72444 407
34.47336 -32.51439 209.75734 405
-180.10771 -60.58063 223.25418 362
84.26717 -26.87224 177.22585 461
82.24670 -27.13787 179.25562 459
68.03452 -29.09099 178.46800 457
65.68570 -29.40587 180.72856 455
63.25330 -29.72847 183.05884 436
60.72796 -30.10184 185.39767 433
58.08030 -30.46749 187.79237 431
55.38838 -30.80903 190.27795 429
52.64384 -31.20899 192.84386 426
49.77319 -31.57913 195.44176 424
46.85310 -31.98125 198.15884 421
43.87197 -32.41319 200.90408 419
40.74869 -32.82306 203.78221 416
37.38261 -33.29569 206.71626 407
33.89628 -33.79929 209.75070 404
-180.77954 -63.22494 223.26389 362
84.18624 -27.75652 177.16588 461
82.15739 -28.03219 179.19283 459
67.87036 -30.08956 178.39711 439
65.41043 -30.43372 180.64261 437
62.89823 -30.81911 182.94901 435
60.31755 -31.16957 185.31702 433
57.69886 -31.56065 187.72040 430
55.01318 -31.94833 190.23129 428
52.20485 -32.35235 192.74718 426
49.36954 -32.72969 195.39839 423
46.43344 -33.18445 198.05316 421
43.37133 -33.58321 200.85188 418
40.20441 -34.05347 203.69513 409
36.76904 -34.55269 206.68198 406
33.27201 -35.04138 209.72795 403
-181.40002 -65.85661 223.22540 362
84.13470 -28.65072 177.15007 461
82.08632 -28.93093 179.15521 459
67.51360 -31.14121 178.28998 439
65.08642 -31.48486 180.54750 437
62.56395 -31.88215 182.86861 434
59.96603 -32.25259 185.22305 432
57.31949 -32.66618 187.63622 430
54.58807 -33.07186 190.11905 427
51.80409 -33.49548 192.69371 425
48.90422 -33.94115 195.31163 423
45.96449 -34.34357 198.03575 420
42.89756 -34.84293 200.80305 418
39.63057 -35.32222 203.68773 408
36.16690 -35.84059 206.61020 406
32.67212 -36.36489 209.70743 403
-182.02301 -68.47852 223.22749 361
84.08217 -29.51785 177.08960 461
82.06525 -29.84933 179.10751 459
67.17264 -32.18530 178.21207 438
64.73594 -32.54501 180.47292 436
62.17303 -32.94540 182.75572 434
59.60385 -33.34248 185.14520 432
56.90164 -33.79580 187.54500 429
54.19973 -34.18412 190.03304 427
51.35795 -34.66223 192.58786 424
48.49948 -35.08747 195.24142 422
45.48758 -35.58489 197.98351 419
42.38924 -36.05803 200.73796 410
39.02967 -36.54244 203.61140 408
35.57785 -37.10971 206.57300 405
32.04653 -37.68937 209.64980 402
-183.01744 -71.23391 216.53531 426
-182.66234 -71.11674 223.28525 324
84.02042 -30.43114 177.03438 460
82.00268 -30.74833 179.08032 458
66.84497 -33.22323 178.07800 438
64.35899 -33.61229 180.34549 436
61.80633 -34.05221 182.66629 433
59.22297 -34.47567 185.02681 431
56.52145 -34.91223 187.48340 429
53.75145 -35.35593 189.98663 426
50.96622 -35.80843 192.56061 424
48.04682 -36.26673 195.19792 421
45.03069 -36.76398 197.91154 419
41.80069 -37.29621 200.67398 410
38.45837 -37.84917 203.57751 407
35.02216 -38.37478 206.54041 404
31.41929 -38.96255 209.67009 402
-183.06992 -73.81411 216.46123 425
-185.19113 -74.06008 223.39034 324
83.98691 -31.32778 177.00684 460
81.82938 -31.66808 179.01306 441
73.49797 -33.07582 179.59807 308
64.00828 -34.70567 180.24332 435
61.42913 -35.13084 182.57178 433
58.80296 -35.54423 184.92216 430
56.14803 -36.00264 187.37024 428
53.38697 -36.48731 189.87680 426
50.50924 -36.95668 192.44496 423
47.61722 -37.46268 195.11044 421
44.56323 -37.98140 197.83850 412
41.26322 -38.51050 200.65343 409
37.88329 -39.11247 203.54074 406
34.39248 -39.68844 206.54097 404
30.76275 -40.33421 209.62602 401
-183.07603 -76.30059 216.48178 425
-187.68169 -77.12802 223.38440 323
83.76339 -32.25075 176.89891 443
81.55334 -32.63737 178.90788 441
73.59594 -34.03601 179.61002 308
63.64991 -35.77862 180.12952 434
61.09948 -36.24683 182.45401 432
58.42430 -36.66701 184.86597 430
55.73598 -37.13738 187.27913 427
52.94361 -37.65672 189.80367 425
50.08740 -38.16953 192.36928 423
47.14493 -38.64475 195.06801 420
44.00803 -39.19947 197.77577 411
40.72683 -39.78987 200.56215 408
37.30667 -40.38043 203.45921 406
33.78437 -40.99556 206.49846 403
30.12831 -41.62634 209.59267 400
-183.00246 -78.88690 216.54655 425
-190.22791 -80.19072 223.41115 323
83.50787 -33.19532 176.79469 442
81.26717 -33.59232 178.79068 440
73.76244 -34.97538 179.58755 308
63.31880 -36.85423 180.02434 434
60.72940 -37.33756 182.32706 431
58.05766 -37.80988 184.74937 429
55.31310 -38.30645 187.19612 427
52.51886 -38.82470 189.73529 424
49.64707 -39.35526 192.29474 422
46.67108 -39.86456 194.98532 413
43.44996 -40.47667 197.69472 410
40.13024 -41.07684 200.53801 408
36.71932 -41.68460 203.41338 405
33.13793 -42.35030 206.42502 402
29.47499 -42.99150 209.58516 400
-182.95670 -81.52132 216.53331 425
83.24088 -34.14878 176.69983 442
80.99669 -34.56331 178.71638 438
73.89754 -35.87899 179.60416 308
62.91740 -37.97056 179.92497 433
60.32546 -38.41245 182.24162 431
57.66967 -38.92287 184.62761 429
54.92490 -39.47864 187.10179 426
52.13177 -40.00113 189.60825 424
49.20768 -40.53708 192.24960 421
46.17205 -41.12007 194.90562 412
42.91817 -41.71803 197.65184 410
39.58032 -42.33894 200.46437 407
36.15130 -42.97889 203.37511 404
32.55422 -43.65765 206.42738 402
28.81422 -44.37096 209.55339 399
-182.97139 -84.07578 216.45087 439
82.97070 -35.07911 176.59058 441
80.72521 -35.52100 178.60898 437
74.06146 -36.80777 179.62105 308
62.58083 -39.05190 179.79408 433
59.96348 -39.55995 182.11107 430
57.28540 -40.08526 184.53526 428
54.53478 -40.62521 187.00800 426
51.70183 -41.16641 189.53491 423
48.79501 -41.71037 192.14140 414
45.61496 -42.33739 194.82089 412
42.35379 -42.97594 197.56380 409
38.98699 -43.64959 200.36612 406
35.51111 -44.31229 203.34207 404
31.94184 -45.01198 206.35913 401
28.19826 -45.76354 209.51842 398
-182.83138 -86.68017 216.45335 439
82.69231 -36.02424 176.45467 440
80.44292 -36.51080 178.49878 437
74.20564 -37.77290 179.59723 308
62.21523 -40.14478 179.68481 432
59.59956 -40.66385 182.02876 430
56.92000 -41.21219 184.41620 427
54.10847 -41.79827 186.88077 425
51.28112 -42.37357 189.42220 423
48.25917 -42.96455 192.03203 413
45.07614 -43.59943 194.72174 411
41.80204 -44.26446 197.48155 408
38.41579 -44.94184 200.30539 406
34.92020 -45.63075 203.28836 403
31.29184 -46.37871 206.34123 400
27.54153 -47.15042 209.47174 398
-183.20480 -89.40618 216.46819 299
82.43861 -36.98885 176.34230 440
80.16101 -37.46967 178.36234 436
74.35029 -38.66869 179.59877 308
61.84722 -41.28045 179.52956 431
59.24032 -41.80069 181.93381 429
56.49724 -42.38503 184.33844 427
53.71963 -42.95398 186.80180 424
50.88021 -43.54095 189.35872 422
47.78162 -44.20480 191.97446 413
44.56301 -44.84266 194.65105 410
41.25904 -45.52073 197.38939 408
37.86673 -46.23366 200.24886 405
34.32551 -46.95976 203.20486 402
30.63737 -47.70581 206.26320 400
26.89534 -48.50286 209.46492 397
-188.24413 -93.04682 209.55438 485
-189.61617 -93.32771 216.48677 298
82.19373 -37.99108 176.23715 439
79.90520 -38.47460 178.23590 435
74.54878 -39.59727 179.61873 308
61.51375 -42.40083 179.41153 431
58.83279 -42.96434 181.77145 428
56.09934 -43.53705 184.21060 426
53.33214 -44.16240 186.68501 424
50.39815 -44.74839 189.24348 415
47.25011 -45.42756 191.84131 412
44.01238 -46.14457 194.53679 409
40.72143 -46.81235 197.32480 407
37.25980 -47.58683 200.17189 404
33.69849 -48.35186 203.18137 402
30.04569 -49.09388 206.23329 399
26.17338 -49.91839 209.43915 359
-187.78326 -95.61433 209.56795 485
-196.31775 -97.43907 216.52937 296
81.92234 -38.93708 176.10419 439
79.63052 -39.47157 178.15872 435
74.71956 -40.53247 179.59583 308
61.15799 -43.51434 179.33434 430
58.47490 -44.11879 181.66753 428
55.72161 -44.71228 184.08795 425
52.92802 -45.31153 186.62184 423
49.85380 -45.97248 189.15468 414
46.73820 -46.67976 191.77614 411
43.50569 -47.40052 194.44760 409
40.12982 -48.11976 197.23917 406
36.65568 -48.89645 200.15685 404
33.09877 -49.72400 203.13039 401
29.39321 -50.49794 206.18990 398
25.43877 -51.35394 209.42274 358
-187.22835 -98.12482 209.50591 485
81.63412 -39.93801 176.00793 438
79.34090 -40.45817 178.00771 434
74.86821 -41.47083 179.59354 308
60.80009 -44.67427 179.18199 429
58.06840 -45.26365 181.57872 427
55.34759 -45.89307 184.02010 425
52.42466 -46.54570 186.46678 416
49.36189 -47.24976 189.05890 413
46.23095 -47.95608 191.63983 411
42.94810 -48.71646 194.37404 408
39.58211 -49.45315 197.15846 406
36.09739 -50.22998 200.09026 403
32.47288 -51.06860 203.05518 400
28.74217 -51.90202 206.17859 398
24.44727 -52.90216 209.39011 344
-186.79825 -100.65903 209.55228 486
81.36424 -40.89693 175.87138 437
79.07764 -41.45448 177.92279 434
75.04115 -42.38224 179.61046 308
60.41780 -45.80363 179.07550 429
57.71044 -46.40728 181.44037 426
54.93560 -47.06301 183.85999 424
51.97380 -47.73759 186.35031 415
48.86918 -48.49381 188.94920 412
45.66482 -49.21203 191.57722 410
42.40430 -49.98845 194.30588 407
38.97504 -50.76784 197.10432 405
35.49525 -51.60210 200.01089 402
31.85331 -52.43483 202.97327 400
27.92406 -53.36803 206.12436 386
23.27711 -54.45199 209.34430 343
-187.22272 -103.39738 209.52518 297
81.09846 -41.91764 175.76987 437
78.78001 -42.46340 177.80005 433
75.25217 -43.31495 179.60641 308
60.06737 -46.94926 178.91183 428
57.30210 -47.59700 181.31787 426
54.50938 -48.24752 183.78127 417
51.49065 -48.97812 186.27098 414
48.39199 -49.73072 188.83893 412
45.17613 -50.49054 191.46756 409
41.83166 -51.33043 194.20325 407
38.43396 -52.10393 196.99965 404
34.89648 -52.99856 199.94620 402
31.05550 -53.89784 202.91783 388
26.96927 -54.86565 206.06404 375
22.06881 -56.03205 209.27806 340
80.84175 -42.88597 175.64110 436
78.51108 -43.48533 177.65152 432
75.44212 -44.21188 179.57770 308
59.69465 -48.11394 178.80862 427
56.92317 -48.77366 181.18617 425
54.02569 -49.50024 183.64488 416
51.00387 -50.23277 186.13315 413
47.87493 -51.00682 188.69023 411
44.60870 -51.81955 191.37209 409
41.28190 -52.65798 194.11351 406
37.84670 -53.47602 196.91208 403
34.06934 -54.38889 199.82372 390
30.17619 -55.39052 202.84317 387
25.87242 -56.40226 205.98433 374
20.60914 -57.73478 209.20648 263
80.58261 -43.89608 175.49660 436
78.20923 -44.48903 177.52159 432
75.64296 -45.13395 179.59921 308
59.33701 -49.25794 178.66220 427
56.55593 -49.95287 181.05180 418
53.59588 -50.74436 183.49892 415
50.53131 -51.48390 186.02368 413
47.37401 -52.30711 188.56749 410
44.09963 -53.09647 191.26401 408
40.69013 -53.98762 193.96913 394
37.03492 -54.91258 196.82771 392
33.28011 -55.86541 199.75729 389
29.31805 -56.87247 202.80080 376
24.80808 -58.00310 205.89261 373
-187.88350 -111.69218 202.40579 495
80.33698 -44.89407 175.36316 435
77.90977 -45.53436 177.40086 431
75.45316 -46.17323 179.49309 429
58.94476 -50.46529 178.51671 426
56.11116 -51.17537 180.90948 417
53.11637 -51.96223 183.37642 414
50.02366 -52.74423 185.88887 412
46.81036 -53.59982 188.47235 410
43.54646 -54.46344 191.11195 396
39.93597 -55.36754 193.85732 393
36.28059 -56.30829 196.71771 391
32.39767 -57.33556 199.63414 388
28.23757 -58.38264 202.68617 375
23.70367 -59.60067 205.85562 372
-187.15726 -114.21298 202.50165 495
80.04911 -45.92671 175.25662 434
77.66086 -46.55337 177.30586 431
75.18622 -47.23611 179.36276 428
58.58618 -51.60497 178.41389 425
55.63154 -52.38318 180.76001 416
52.64938 -53.22007 183.23969 414
49.51108 -54.01602 185.74648 411
46.30232 -54.88555 188.35262 398
42.78355 -55.80530 191.00482 395
39.21215 -56.79617 193.76326 393
35.47325 -57.77654 196.58682 390
31.58480 -58.77710 199.56081 387
27.16905 -59.99176 202.61177 374
22.59764 -61.18702 205.75764 372
79.78183 -46.95993 175.08395 434
77.37550 -47.62193 177.14955 430
74.87646 -48.29460 179.25761 428
58.14809 -52.84163 178.26472 418
55.19461 -53.62551 180.64105 415
52.13486 -54.47123 183.08707 413
48.99248 -55.33412 185.62643 399
45.57039 -56.26674 188.20874 397
42.07072 -57.23738 190.87091 394
38.41236 -58.22450 193.63077 392
34.63047 -59.23284 196.51318 389
30.61151 -60.35208 199.47046 376
26.15160 -61.54524 202.53008 373
21.45101 -62.84550 205.70100 371
79.52995 -47.98741 174.95653 433
77.08355 -48.64136 177.04445 429
74.60481 -49.32895 179.14006 427
57.71263 -54.05894 178.11464 417
54.75782 -54.87676 180.47685 415
51.63423 -55.76073 182.94954 401
48.27969 -56.65847 185.47037 398
44.89088 -57.63438 188.03023 396
41.30474 -58.60330 190.71919 393
37.63377 -59.65056 193.49448 391
33.83141 -60.71064 196.40775 388
29.55709 -61.91756 199.32146 375
25.04875 -63.20364 202.43869 373
20.31455 -64.49352 205.62019 370
79.24840 -48.98912 174.81502 432
76.81637 -49.68879 176.90411 429
74.29919 -50.43087 179.00766 426
65.11598 -53.03807 179.66780 304
54.20046 -56.16623 180.33763 402
50.95052 -57.08443 182.76018 400
47.58845 -58.04762 185.28038 397
44.13312 -59.01679 187.88647 395
40.53443 -60.06498 190.57988 393
36.84325 -61.10608 193.36150 390
32.91709 -62.25437 196.26677 377
28.54251 -63.49339 199.24973 374
23.95711 -64.82258 202.34421 372
19.15934 -66.15682 205.56102 369
78.96413 -50.03570 174.69247 430
76.50238 -50.77180 176.74904 428
73.98073 -51.51014 178.85484 426
65.37457 -54.03479 179.67284 304
53.58149 -57.48748 180.11272 401
50.30986 -58.40575 182.59700 399
46.91162 -59.42245 185.11803 397
43.40254 -60.42677 187.71729 394
39.81265 -61.50813 190.41710 392
36.07566 -62.60617 193.26430 389
31.88201 -63.81926 196.09673 376
27.49759 -65.11669 199.13095 373
22.84659 -66.48507 202.25008 371
18.00373 -67.88761 205.47452 368
78.69334 -51.11895 174.55975 429
76.23988 -51.83867 176.60020 427
73.67334 -52.58819 178.71802 425
65.63608 -55.01004 179.66539 304
52.97849 -58.80920 179.92969 401
49.65013 -59.80512 182.42412 398
46.20655 -60.79670 184.93993 396
42.70841 -61.89767 187.57851 393
39.05013 -62.98615 190.29211 391
35.22558 -64.12495 193.10683 378
30.91186 -65.42252 195.97731 375
26.38089 -66.71436 199.01323 373
21.73322 -68.13693 202.10466 370
16.82836 -69.61752 205.38344 367
78.41788 -52.15451 174.41670 429
75.95300 -52.91211 176.49229 427
73.38433 -53.70998 178.58348 424
65.90778 -55.97265 179.65439 304
52.33824 -60.13124 179.73260 400
48.95731 -61.15867 182.24113 397
45.53791 -62.24125 184.75883 395
41.94789 -63.31535 187.41672 393
38.25058 -64.41779 190.16025 390
34.23809 -65.67260 192.96393 377
29.85445 -67.00367 195.86650 374
25.29601 -68.42360 198.87717 372
20.56386 -69.85426 202.04095 369
15.61607 -71.39300 205.32822 366
78.17772 -53.21315 174.23622 428
75.66332 -54.00427 176.30722 426
73.10359 -54.79168 178.45154 424
66.13656 -56.98048 179.68274 304
51.64114 -61.48695 179.57597 399
48.29792 -62.53450 182.05351 396
44.79699 -63.66251 184.57404 394
41.18961 -64.75039 187.27301 392
37.47401 -65.91419 190.00806 389
33.24358 -67.27926 192.78589 376
28.80785 -68.61312 195.68124 373
24.21386 -70.09059 198.76971 371
19.43017 -71.56115 201.93228 368
14.13096 -73.25346 205.25328 337
77.89287 -54.31293 174.11676 427
75.38482 -55.09618 176.19991 425
72.76315 -55.92220 178.32446 423
66.41299 -57.95116 179.68448 304
50.98679 -62.84709 179.36761 398
47.62045 -63.97754 181.82867 396
44.09454 -65.09528 184.43118 393
40.43261 -66.26727 187.08382 391
36.54697 -67.51643 189.83472 378
32.23839 -68.88570 192.65004 375
27.80012 -70.30789 195.55284 372
23.08752 -71.78802 198.62508 370
18.24105 -73.34082 201.84846 338
11.44841 -75.52056 205.07611 320
77.59005 -55.36411 173.94243 427
75.07469 -56.20654 176.03799 425
72.49292 -57.06564 178.15572 422
66.73285 -58.90619 179.66512 304
50.34304 -64.24731 179.14377 397
46.90712 -65.36105 181.62994 395
43.38077 -66.51783 184.21523 392
39.70444 -67.74672 186.90002 390
35.58478 -69.05473 189.61420 377
31.22505 -70.48395 192.48901 374
26.73422 -71.97182 195.42072 372
21.97962 -73.49867 198.49748 369
16.10538 -75.43320 201.67300 337
8.43253 -77.92355 204.89693 319
77.32742 -56.46834 173.81517 426
74.76485 -57.30993 175.87854 424
72.19221 -58.17175 178.03419 422
67.02051 -59.91290 179.67224 304
49.68466 -65.68269 178.95259 396
46.18611 -66.83755 181.44676 394
42.63335 -68.04562 184.06888 392
38.79099 -69.27966 186.70009 378
34.61204 -70.69389 189.42992 376
30.18949 -72.17986 192.29088 373
25.64713 -73.65603 195.25977 371
20.20164 -75.51390 198.30775 339
13.60071 -77.70081 201.47188 321
5.36281 -80.42004 204.71158 318
77.05326 -57.54904 173.65074 425
74.47706 -58.43756 175.75153 423
71.84706 -59.31429 177.87796 421
67.31123 -60.88340 179.64528 304
48.99758 -67.08945 178.73750 395
45.52510 -68.25463 181.24632 393
41.86974 -69.53362 183.87479 391
37.87805 -70.84347 186.51988 377
33.58038 -72.33093 189.26047 375
29.18520 -73.83678 192.14381 372
24.12515 -75.52571 195.05518 340
18.11107 -77.57748 198.12521 338
10.64569 -80.13239 201.23459 319
2.21884 -82.99783 204.57376 317
76.79420 -58.67172 173.46288 425
74.21004 -59.52909 175.56339 422
71.27410 -60.56977 177.67163 392
67.61004 -61.81612 179.65654 304
48.33542 -68.52956 178.51123 395
44.79487 -69.73437 181.07294 392
41.07185 -71.02904 183.67799 379
36.93208 -72.49993 186.31436 377
32.63968 -73.97419 189.08244 374
27.97343 -75.57340 191.95088 341
22.09944 -77.61051 194.82256 339
15.73138 -79.82953 197.84148 321
7.67532 -82.61999 200.98944 318
-1.04711 -85.64679 204.37671 316
76.49078 -59.78161 173.29799 424
73.73567 -60.75257 175.36653 394
70.63223 -61.84653 177.43874 391
67.75038 -62.88894 179.61856 404
47.62663 -69.99038 178.28426 394
44.06599 -71.25127 180.85580 391
40.16800 -72.59293 183.41243 378
35.96765 -74.09021 186.10603 376
31.61315 -75.67239 188.86922 373
26.01207 -77.60393 191.64827 340
20.08382 -79.70681 194.57878 338
12.84570 -82.29196 197.55862 320
4.52560 -85.20707 200.72160 317
-4.46698 -88.39485 204.17592 315
76.17282 -60.89411 173.12453 395
73.10159 -61.99848 175.14677 393
70.01228 -63.14858 177.19102 391
67.10732 -64.16647 179.42055 403
46.93290 -71.43448 178.08432 393
43.36452 -72.72948 180.64218 390
39.24673 -74.22806 183.22861 377
34.99785 -75.76126 185.90891 375
29.84266 -77.62681 188.60728 342
24.05023 -79.72161 191.35742 339
17.87560 -81.92948 194.31529 321
9.91323 -84.79751 197.31425 319
1.28710 -87.93368 200.47105 316
-14.86784 -93.75664 203.62172 261
75.54871 -62.15968 172.88748 394
72.50877 -63.26234 174.89497 392
69.31927 -64.45590 176.93213 390
66.47112 -65.50465 179.19923 402
55.40597 -69.55051 179.76872 300
42.44722 -74.31218 180.35826 379
38.30759 -75.82701 182.99155 376
33.53115 -77.60827 185.59991 343
27.96617 -79.68484 188.28456 341
22.08636 -81.83546 191.07217 338
15.09560 -84.39628 193.96918 320
6.82502 -87.44172 196.99471 317
-2.48741 -90.85449 200.19476 289
74.98467 -63.39499 172.59340 393
71.90614 -64.54749 174.62738 391
68.70905 -65.75679 176.72037 389
65.85358 -66.84886 178.95366 401
55.71948 -70.63492 179.76022 300
41.58337 -75.91347 180.15611 378
37.19436 -77.57228 182.71500 344
31.75222 -79.61814 185.26479 342
26.04982 -81.74461 187.94736 340
20.01158 -83.99701 190.77180 337
12.20717 -86.91964 193.63910 319
3.67799 -90.12600 196.65656 316
-13.36700 -96.56113 199.43712 270
74.37039 -64.66566 172.36917 392
71.23623 -65.87675 174.34550 390
68.01283 -67.08620 176.48030 388
65.20996 -68.18078 178.74767 400
56.12022 -71.65550 179.74380 300
40.66315 -77.56246 179.88638 377
35.41100 -79.51814 182.31114 343
29.87255 -81.64141 184.88048 341
24.07104 -83.90707 187.57379 338
17.27487 -86.43211 190.36433 320
9.16483 -89.53290 193.22527 318
-1.36321 -93.60693 196.20415 289
73.76839 -65.93884 172.06235 392
70.63581 -67.19621 174.12061 389
67.37998 -68.47446 176.20126 387
64.54102 -69.52524 178.49626 399
56.44818 -72.70325 179.75153 300
39.05995 -79.48746 179.48509 345
33.63868 -81.57222 181.93544 342
27.99092 -83.74434 184.54984 340
22.00468 -86.06945 187.21886 337
14.45474 -89.06240 189.99837 319
5.99159 -92.34540 192.88802 290
-12.53699 -99.50991 195.15530 270
73.25082 -67.22896 171.81966 316
69.99400 -68.52130 173.85336 388
66.66666 -69.80726 175.92896 386
63.91381 -70.95448 178.25748 398
56.83823 -73.72183 179.74843 300
37.34814 -81.46387 179.07562 343
31.84685 -83.65378 181.54688 341
26.05778 -85.91943 184.14815 339
19.50310 -88.51838 186.84521 321
11.47863 -91.69855 189.55948 318
-0.22953 -96.36126 192.17853 289
73.58768 -68.17342 171.82721 316
69.32121 -69.87513 173.58662 387
66.00431 -71.24149 175.69511 385
63.22570 -72.33633 178.01537 397
57.19466 -74.78593 179.75406 300
35.61140 -83.46548 178.66675 342
29.96315 -85.75112 181.11626 340
24.09857 -88.14200 183.75792 338
16.74565 -91.06102 186.37410 319
7.14757 -94.98341 188.96895 290
-11.56609 -102.46383 190.94229 270
73.89735 -69.12372 171.82407 316
68.68639 -71.23428 173.27489 386
65.32713 -72.62792 175.39822 398
62.58136 -73.75977 177.78839 396
57.62553 -75.82465 179.75677 300
33.82064 -85.57216 178.22113 341
28.07119 -87.89250 180.72429 339
21.76467 -90.50042 183.32065 321
13.87161 -93.77221 185.91626 318
0.96504 -99.01315 188.13507 289
-1409.91003 -677.24194 43.98274 463
-1413.05225 -678.46661 72.79408 492
74.28639 -70.04341 171.83882 316
68.03731 -72.66951 173.03618 386
64.68992 -74.02985 175.14314 397
61.90808 -75.21242 177.55313 395
58.00681 -76.82914 179.73143 300
31.96985 -87.68686 177.73032 340
26.16618 -90.14365 180.27040 338
19.02948 -93.09415 182.77295 320
8.36944 -97.56641 185.05630 290
74.64358 -70.98355 171.82433 316
67.37495 -74.07890 172.73494 385
63.99397 -75.46216 174.90234 396
61.20703 -76.65878 177.27733 394
58.31422 -77.92172 179.69916 392
43.23371 -84.29940 179.88737 296
24.05670 -92.45613 179.82452 321
15.36602 -96.16393 182.14470 291
2.24668 -101.71854 184.11528 289
74.98997 -71.89104 171.80003 316
66.70145 -75.47464 172.41707 384
63.34332 -76.91422 174.63962 395
60.49600 -78.15523 177.00600 393
57.59048 -79.40334 179.48802 391
43.66025 -85.42313 179.83876 296
21.36887 -95.03095 179.26430 320
9.64107 -100.13583 181.11339 290
-27.69225 -116.27946 179.72394 336
75.37787 -72.79259 171.81659 316
66.00986 -76.93230 172.15927 383
62.66836 -78.39529 174.36281 394
59.77689 -79.65662 176.74231 392
56.84581 -80.97381 179.23814 390
44.12594 -86.54419 179.83855 296
16.66471 -98.59347 178.31639 291
3.56732 -104.36507 180.05301 289
-23.00020 -115.96951 180.31602 338
75.75774 -73.70763 171.81660 316
65.50343 -78.29533 171.88324 312
61.98994 -79.87176 174.05557 393
59.09530 -81.17728 176.50555 391
55.54475 -82.72922 178.85274 334
44.58430 -87.63972 179.85626 296
11.03448 -102.60708 177.19981 290
-18.40819 -115.77390 176.40488 339
-21.69995 -117.23128 180.43370 284
76.15707 -74.63274 171.79926 316
65.88802 -79.29966 171.90123 312
61.30098 -81.36575 173.76549 392
58.24122 -82.74073 176.17741 335
53.60283 -84.88729 178.33595 333
45.05053 -88.78177 179.83929 296
4.98826 -106.90826 175.99922 289
-13.95135 -115.55483 177.03906 340
-21.08282 -118.80051 180.40614 284
76.51310 -75.55260 171.79205 316
66.30450 -80.26447 171.90826 312
60.60949 -82.88067 173.50264 391
56.33799 -84.86283 175.61441 333
51.57792 -87.06139 177.77330 331
45.51189 -89.88843 179.86397 296
27.72234 -98.10767 180.01357 292
-3.76763 -112.58073 178.55450 284
-20.48211 -120.30930 180.44342 284
-2617.12988 -1318.69312 321.93713 1000
76.92057 -76.46431 171.81482 316
66.74361 -81.24819 171.87057 312
59.08683 -84.83685 172.99913 334
54.40075 -87.01378 175.03444 332
49.46613 -89.33488 177.22093 331
44.45944 -91.70097 179.53542 329
28.21949 -99.31824 180.01347 292
6.79217 -109.35571 180.17514 288
77.32047 -77.39561 171.80251 316
67.17631 -82.19339 171.86868 312
57.20576 -86.95564 172.35683 333
52.38728 -89.23987 174.45808 331
47.35872 -91.68983 176.64590 330
42.21817 -94.11723 178.98607 328
28.75548 -100.51501 180.01108 292
7.37803 -110.73248 180.17923 288
77.73375 -78.29337 171.77943 316
67.60088 -83.18575 171.85759 312
56.11995 -88.76125 171.97067 308
50.28722 -91.56705 173.83437 330
45.15272 -94.04638 176.08380 329
39.88887 -96.58868 178.40268 327
29.28704 -101.73615 180.00737 292
7.91849 -112.09671 180.15784 288
78.14385 -79.18682 171.78236 316
68.04957 -84.15034 171.88898 312
56.58699 -89.77036 171.97379 308
48.15654 -93.92178 173.20947 329
42.89188 -96.52339 175.46318 328
37.44459 -99.20136 177.83105 326
29.45473 -103.11124 179.89093 280
8.52853 -113.40943 180.17195 288
78.56011 -80.08696 171.77138 316
68.48351 -85.10103 171.88419 312
57.06264 -90.80207 171.97585 308
45.95800 -96.37828 172.54300 327
40.56387 -99.06129 174.78339 326
34.95786 -101.85767 177.22833 324
20.99484 -108.84023 178.25400 278
78.97807 -80.96546 171.78848 316
68.96010 -86.06173 171.88255 312
57.54739 -91.86241 171.96986 308
44.46104 -98.49210 172.09193 304
38.14033 -101.69440 174.13374 325
26.82585 -107.44715 175.40915 277
11.82491 -115.04469 176.48047 277
79.40925 -81.86936 171.76126 316
69.42013 -87.01748 171.84189 312
58.05641 -92.88052 171.96770 308
45.03859 -99.59101 172.06551 304
33.27950 -105.61396 172.96744 278
17.64368 -113.68552 173.44839 276
-56.47259 -151.87605 163.74301 367
79.85528 -82.77319 171.75278 316
69.83772 -87.99065 171.87993 312
58.55533 -93.90359 171.97841 308
45.54650 -100.70443 172.05200 304
30.50008 -108.59235 172.18294 300
12.86534 -117.79999 172.32338 296
-52.39943 -151.93274 164.35353 368
80.26398 -83.66293 171.78003 316
70.31084 -88.94260 171.83870 312
59.01184 -94.94547 171.96027 308
46.09181 -101.77840 172.04863 304
31.11435 -109.74365 172.16180 300
13.49527 -119.08060 172.32150 296
-48.50927 -151.98195 164.89615 370
80.70031 -84.54009 171.77379 316
70.82120 -89.88275 171.87004 312
59.52810 -95.93185 171.92447 308
46.63036 -102.92787 172.06618 304
31.66450 -110.93858 172.21539 300
14.17272 -120.40406 172.29646 296
-45.86549 -152.70583 165.23152 286
81.18575 -85.44865 171.76161 316
71.30097 -90.82885 171.82822 312
60.08527 -96.96124 171.93542 308
47.21925 -104.03928 172.05325 304
32.32446 -112.18165 172.16263 300
14.81715 -121.71719 172.32700 296
-45.00269 -154.36218 165.25830 286
81.64625 -86.32062 171.75897 316
71.77464 -91.80624 171.82506 312
60.61328 -97.98307 171.93837 308
47.74741 -105.11281 172.04730 304
32.90310 -113.32256 172.15179 300
15.48002 -123.04173 172.31316 296
-44.09597 -156.07909 165.22101 286
82.07190 -87.19540 171.74768 316
72.28349 -92.72808 171.83098 312
61.11573 -98.99460 171.92471 308
48.35946 -106.22376 172.02541 304
33.52696 -114.51017 172.16154 300
16.13295 -124.29686 172.33853 296
-43.23110 -157.73412 165.20084 286
82.53016 -88.08436 171.75252 316
72.75661 -93.66560 171.82738 312
61.64182 -99.99411 171.90985 308
48.94031 -107.31304 172.05644 304
34.16720 -115.71133 172.13725 300
-28.68291 -151.55338 162.82440 366
-42.29238 -159.31837 165.22252 286
83.04781 -88.95724 171.74216 316
73.27881 -94.60459 171.83830 312
62.19786 -101.01376 171.92120 308
49.51484 -108.38089 172.05933 304
34.81940 -116.86623 172.13403 300
-24.96754 -151.46115 163.40814 368
83.50947 -89.81235 171.76505 316
73.78256 -95.55398 171.81610 312
62.75222 -102.02500 171.94348 308
50.11264 -109.43484 172.03458 304
35.44455 -118.04400 172.13113 300
-21.29794 -151.37813 163.99771 369
83.97309 -90.68758 171.75163 316
74.32334 -96.46294 171.83923 312
63.33215 -103.01010 171.89429 308
50.67030 -110.53270 172.02919 304
35.95496 -119.07990 172.16374 300
-17.74731 -151.27451 164.54385 370
84.49261 -91.55077 171.71606 316
74.81822 -97.41402 171.79623 312
63.86629 -104.01688 171.91843 308
51.28563 -111.58213 171.99048 304
36.76426 -120.37398 172.15160 300
-14.31583 -151.24763 165.12164 372
84.95785 -92.43609 171.71475 316
75.33180 -98.32689 171.82024 312
64.45585 -105.00453 171.88600 308
51.90571 -112.69095 172.01794 304
37.42905 -121.53821 172.16185 300
-10.91735 -151.17372 165.61098 373
85.44682 -93.27765 171.74823 316
75.88864 -99.25076 171.79269 312
64.98236 -105.97265 171.92670 308
52.52379 -113.74780 171.98021 304
38.10779 -122.69979 172.12634 300
-9.71295 -152.36336 165.72594 291
85.98837 -94.14916 171.70987 316
76.44946 -100.13821 171.82710 312
65.58602 -106.97649 171.89162 308
53.15590 -114.79980 171.98044 304
38.73256 -123.83478 172.10483 300
-8.83055 -153.81512 165.69200 291
86.50232 -95.00626 171.72812 316
76.98386 -101.06255 171.80672 312
66.14647 -107.97514 171.90121 308
53.79142 -115.83447 171.98000 304
0.36038 -149.97701 162.96469 285
-7.88430 -155.20943 165.74548 291
87.02038 -95.83737 171.69458 316
77.50518 -101.98097 171.77452 312
66.77909 -108.92058 171.90257 308
54.44174 -116.92052 171.97458 304
1.97948 -150.83246 163.14917 378
-6.91375 -156.66040 165.75192 290
87.53194 -96.69139 171.71754 316
78.08702 -102.86205 171.79601 312
67.36910 -109.89079 171.87032 308
55.08485 -117.98203 171.99272 304
5.03879 -150.74236 163.62573 379
-6.03150 -158.07242 165.75681 290
88.03817 -97.53397 171.70050 316
78.61876 -103.80184 171.80246 312
67.98820 -110.87630 171.89058 308
55.74987 -119.02937 171.98076 304
8.07856 -150.69427 164.17615 380
-5.08755 -159.42319 165.73599 290
88.55865 -98.39979 171.71387 316
79.18890 -104.67085 171.76376 312
68.56721 -111.83956 171.87158 308
56.39811 -120.07136 171.98715 304
11.01108 -150.65903 164.64117 382
89.11597 -99.21921 171.67900 316
79.76239 -105.59811 171.75256 312
69.19815 -112.80479 171.88992 308
57.01906 -121.12511 171.95518 304
13.89679 -150.56171 165.13483 383
89.67252 -100.03518 171.68848 316
80.35812 -106.48618 171.75421 312
69.79016 -113.75729 171.84279 308
57.69704 -122.14203 171.94162 304
16.74227 -150.46303 165.56683 384
90.18307 -100.87141 171.67769 316
80.92301 -107.37572 171.76952 312
70.44862 -114.72977 171.83315 308
58.41082 -123.15264 171.93622 304
19.48561 -150.45567 166.05939 385
90.72658 -101.70860 171.70691 316
81.53859 -108.25385 171.75708 312
71.06875 -115.69331 171.83119 308
26.13066 -147.59380 163.29662 296
20.61476 -151.51447 166.10068 295
91.29581 -102.52600 171.69630 316
82.14432 -109.13129 171.77336 312
71.71711 -116.63293 171.86227 308
26.82748 -148.91028 163.20401 296
21.50786 -152.74290 166.13657 297
91.86038 -103.37332 171.67838 316
82.71774 -110.02232 171.75378 312
72.34368 -117.57132 171.85214 308
27.67243 -150.14603 163.18524 386
22.36407 -153.97539 166.11548 297
92.43060 -104.19376 171.69330 316
83.32531 -110.90707 171.75803 312
72.98885 -118.50750 171.82884 308
30.31540 -150.04427 163.65959 387
23.25873 -155.22659 166.12523 297
93.01997 -104.96521 171.66238 316
83.94421 -111.73067 171.72247 312
73.65188 -119.45350 171.80859 308
32.88417 -149.96307 164.17081 388
24.19491 -156.40794 166.12596 297
93.58650 -105.79917 171.64993 316
84.55440 -112.60927 171.72597 312
74.31565 -120.37095 171.83574 308
35.43317 -149.88213 164.58957 390
25.09554 -157.65221 166.11566 297
94.15737 -106.61085 171.65166 316
85.20867 -113.47148 171.73247 312
74.99094 -121.29985 171.79732 308
37.90536 -149.73291 165.04378 391
26.04308 -158.87044 166.08589 297
94.73577 -107.41985 171.67033 316
85.84137 -114.35028 171.73988 312
75.65971 -122.23086 171.81400 308
40.38655 -149.65565 165.45126 392
95.35558 -108.20070 171.65823 316
86.42545 -115.21153 171.71085 312
47.92522 -145.53650 163.40532 300
42.78786 -149.55301 165.86809 393
95.94592 -109.01413 171.64705 316
87.08522 -116.03168 171.72873 312
48.60358 -146.69698 163.35907 300
44.84247 -149.69684 166.23570 301
96.51817 -109.81070 171.63374 316
87.71674 -116.91528 171.71887 312
49.35119 -147.88734 163.31046 300
45.74076 -150.81447 166.25987 301
97.16358 -110.60497 171.64052 316
88.38666 -117.73267 171.71249 312
50.09382 -149.03616 163.29967 300
46.62500 -151.84613 166.24545 301
97.77950 -111.38270 171.60817 316
89.03986 -118.61237 171.71906 312
52.00401 -149.23927 163.59410 398
47.55846 -152.95059 166.23892 301
98.36073 -112.15330 171.61844 316
89.68987 -119.44158 171.67770 312
54.23491 -149.12064 164.04378 399
48.39527 -154.01862 166.23735 301
99.01101 -112.92346 171.64337 316
90.34786 -120.23538 171.71545 312
56.43659 -149.08076 164.41559 400
49.30557 -155.06848 166.23363 301
99.61520 -113.71914 171.61557 316
91.03456 -121.06572 171.69693 312
58.60704 -148.96625 164.84390 401
50.24428 -156.17632 166.24715 301
100.23465 -114.48760 171.60497 316
67.10313 -143.26816 163.51884 304
60.72486 -148.90836 165.22218 402
51.11463 -157.23351 166.23535 301
100.90076 -115.22295 171.61008 316
67.85352 -144.33546 163.48561 304
62.78986 -148.80725 165.57021 403
101.53216 -116.01062 171.59372 316
68.57474 -145.39870 163.49007 304
64.81935 -148.70988 165.98279 405
102.19936 -116.76145 171.61639 316
69.30698 -146.46399 163.45937 304
66.86982 -148.65433 166.31081 406
102.82979 -117.49941 171.58417 316
70.05048 -147.45491 163.42085 304
67.75854 -149.56020 166.32346 305
103.51134 -118.24652 171.60591 316
70.81587 -148.53409 163.38202 304
68.62140 -150.51765 166.34872 305
104.14326 -118.98983 171.58115 316
72.73534 -148.43495 163.74031 409
69.55083 -151.45888 166.32666 305
104.79192 -119.74133 171.57619 316
74.67500 -148.35118 164.09912 410
70.41325 -152.41820 166.34181 305
84.18848 -140.91974 163.66942 307
76.55109 -148.30145 164.42912 411
71.31629 -153.33508 166.36890 305
84.92456 -141.85516 163.65634 307
78.41312 -148.22740 164.81029 412
72.20677 -154.23793 166.31693 305
85.70445 -142.76921 163.64085 307
80.21853 -148.16772 165.12930 413
73.13712 -155.15482 166.37805 305
86.40125 -143.68971 163.59566 307
82.04043 -148.08708 165.44179 414
74.03976 -156.03482 166.33246 305
87.19664 -144.61745 163.56688 307
83.78782 -148.02466 165.77403 415
74.96272 -157.00409 166.37486 305
87.95937 -145.54504 163.51364 307
85.57077 -147.93642 166.11673 416
88.72288 -146.45177 163.48230 307
87.25180 -147.95834 166.42255 309
89.44732 -147.37375 163.45216 307
88.13255 -148.73778 166.39716 309
90.72237 -147.79112 163.63940 419
88.98434 -149.56039 166.40154 309
92.37643 -147.71292 163.92479 420
89.88870 -150.38295 166.44505 309
94.03951 -147.63895 164.23029 421
90.76230 -151.17807 166.44894 309
95.63777 -147.58307 164.53763 422
91.63692 -152.00348 166.41486 309
97.31731 -147.47801 164.84442 412
92.58065 -152.78406 166.41595 309
98.97678 -147.29373 165.23058 414
93.48370 -153.55675 166.45395 309
100.65103 -147.15224 165.53006 415
94.36535 -154.31258 166.42371 309
102.29571 -147.00679 165.87671 416
95.25932 -155.12265 166.47168 309
103.93276 -146.80215 166.16226 417
96.17780 -155.84779 166.45930 309
105.50375 -146.71628 166.45552 314
106.35264 -147.44136 166.47510 314
107.21482 -148.16515 166.44449 314
108.05647 -148.83261 166.43665 314
108.90173 -149.54024 166.44080 314
109.77267 -150.24225 166.44844 314
110.67419 -150.94885 166.46429 314
111.57535 -151.59418 166.45723 314
114.69191 -149.30914 167.47781 316
115.58356 -150.00681 167.48277 316
116.41329 -150.63150 167.46017 316
117.30988 -151.29434 167.47408 316
120.21413 -149.14525 168.36678 490
124.30086 -148.85558 169.07503 490
125.99896 -148.31464 169.42944 436
127.23955 -148.34370 169.61684 487
127.79239 -149.38348 169.46745 401
-34515.16016 -55638.85156 16668.71875 1000
-305.09158 -2127.84814 -108.46793 363
-288.49615 -2115.93921 -106.22712 414
-295.57538 -2146.80469 -73.74867 351
-283.81381 -2154.35815 -148.68997 384
-272.02127 -2104.47559 -104.11166 415
-281.36578 -2144.98901 -73.51107 313
-266.46393 -2140.71216 -145.57903 385
-256.09879 -2095.38940 -101.84832 430
-279.02658 -2194.25952 -79.52567 338
-249.72435 -2127.40454 -143.04652 386
-240.86551 -2087.58569 -100.62785 453
-232.13721 -2110.56274 -139.89861 439
-226.11526 -2081.61597 -99.37474 454
-216.21321 -2099.61011 -137.43605 293
-211.54686 -2076.25391 -97.58842 438
-198.96748 -2079.10864 -133.43268 299
-197.42906 -2071.80566 -96.99538 438
-182.78368 -2065.73364 -130.97148 408
-183.08578 -2067.18921 -95.84953 439
-168.51399 -2059.67773 -129.15263 409
-169.55765 -2063.86768 -94.90701 448
-154.65535 -2053.96436 -127.91230 409
-155.43927 -2061.18506 -94.02023 448
-140.28723 -2048.47974 -126.88622 410
-142.09285 -2058.33887 -93.04214 449
-126.58398 -2043.16895 -125.45222 411
-128.63670 -2056.12793 -92.87854 386
-112.84096 -2038.31116 -124.00658 478
-115.23717 -2054.19092 -92.12733 385
-99.38301 -2035.27930 -123.28926 479
-102.01866 -2052.91260 -91.80437 388
-86.24832 -2031.95996 -122.77941 480
-89.04261 -2052.17676 -90.98344 389
-73.15090 -2029.24133 -121.93102 480
-75.98546 -2051.06812 -91.06016 388
-59.70301 -2026.38611 -121.31905 481
-63.17017 -2051.11255 -90.76736 302
-46.60094 -2022.92053 -120.21427 481
-50.69881 -2054.23096 -90.87335 301
-33.71852 -2020.24426 -119.61900 487
-37.82536 -2051.42163 -89.78387 396
-44.81796 -2106.28076 -62.89154 496
-21.03594 -2018.37280 -119.09337 488
-30.84450 -2102.17578 -97.17883 496
-31.09925 -2106.16992 -62.63468 496
-7.93992 -2016.08179 -118.49435 488
-17.53814 -2101.81055 -96.83321 496
-17.85338 -2105.15771 -62.28284 496
5.02686 -2014.20203 -117.86255 490
-4.38672 -2101.02783 -96.57266 496
-8.97448 -2142.42334 -67.37774 283
17.73046 -2012.90576 -117.24954 493
8.81137 -2100.36328 -96.79794 496
4.09429 -2142.52783 -66.99464 451
29.81607 -2011.82654 -116.77675 493
16.79743 -2148.45337 -103.59928 286
42.53261 -2010.81519 -116.74438 493
20.04703 -2262.13037 -120.53079 382
54.94154 -2009.62415 -116.09406 494
33.92057 -2263.70776 -120.22694 381
67.60751 -2008.60620 -115.79547 494
60.75019 -2102.44434 -96.12077 305
80.18764 -2007.96570 -115.82117 495
73.77426 -2101.17261 -95.60704 498
92.92192 -2007.10474 -115.67572 496
86.46764 -2100.71191 -95.84284 498
103.47901 -2033.01794 -153.89383 479
104.76553 -2007.05725 -115.08201 496
99.84966 -2094.21729 -94.66409 498
99.74063 -2098.39087 -59.94260 498
115.93212 -2032.69946 -153.41373 479
117.47786 -2006.20471 -115.01016 496
112.79118 -2093.97070 -94.36230 498
112.71468 -2097.30322 -60.07080 498
110.26907 -2149.07324 39.79543 481
128.42744 -2032.29639 -153.26537 479
129.69022 -2005.36853 -114.57507 496
124.06448 -2132.87231 -99.85172 395
