# .PCD v.7 - Point Cloud Data file format
VERSION .7
FIELDS x y z rgb
SIZE 4 4 4 4
TYPE F F F U
COUNT 1 1 1 1
WIDTH 1382
HEIGHT 1
VIEWPOINT 5983.850586 -4040.284424 140.705673 0.086864 -0.125073 -0.006520 0.988316
POINTS 1382
DATA ascii
43.86714 -59.20864 188.05179 388
40.14095 -60.45277 190.76099 386
36.27378 -61.79873 193.51016 383
31.98784 -63.26112 196.37166 370
27.38046 -64.82397 199.37349 367
22.56164 -66.46556 202.48189 365
17.47147 -68.21702 205.77217 362
79.37469 -48.11145 175.05469 426
76.89208 -48.97610 177.08452 423
74.30653 -49.89707 179.15201 420
56.94830 -55.91175 177.94951 410
53.63972 -57.04808 180.30655 395
50.27604 -58.22060 182.74718 392
46.72712 -59.47633 185.24579 390
43.11375 -60.73403 187.85849 387
39.30838 -62.03314 190.56444 385
35.42807 -63.40673 193.37537 382
30.92668 -64.92131 196.23044 369
26.22021 -66.58609 199.20889 366
21.35468 -68.28997 202.39122 364
16.16504 -70.04517 205.64119 361
79.09875 -49.20266 174.88655 424
76.60603 -50.09990 176.90898 422
74.02384 -51.01497 179.01263 420
64.82457 -54.29430 179.69733 304
52.99886 -58.47327 180.11829 394
49.56772 -59.69149 182.54678 391
46.01677 -60.93096 185.09196 389
42.31217 -62.26312 187.66257 387
38.51077 -63.58863 190.42564 384
34.40242 -65.07834 193.21172 371
29.84228 -66.66016 196.07591 368
25.05793 -68.37643 199.09142 365
20.08594 -70.15591 202.23186 363
14.90751 -71.98486 205.54225 360
78.84885 -50.34212 174.72241 423
76.29829 -51.26942 176.77687 421
73.69594 -52.20850 178.85661 419
65.14628 -55.30031 179.67604 304
52.32934 -59.89662 179.85486 393
48.85583 -61.17706 182.34804 391
45.24656 -62.47197 184.85376 388
41.54158 -63.79923 187.52295 386
37.66696 -65.21284 190.22490 383
33.34737 -66.78059 193.02852 370
28.74277 -68.43853 195.90364 367
23.92172 -70.17615 198.94328 364
18.85408 -72.01435 202.14970 362
12.64290 -74.21346 205.44180 314
78.54795 -51.43962 174.54723 423
76.02514 -52.40018 176.58557 420
73.40887 -53.37402 178.70514 418
65.46248 -56.27523 179.66911 304
51.65620 -61.37933 179.63950 392
48.12950 -62.67916 182.10275 390
44.52071 -64.01256 184.65161 387
40.76297 -65.38283 187.30594 385
36.73767 -66.87614 190.02502 371
32.28899 -68.50235 192.84520 369
27.59413 -70.21827 195.75166 366
22.72589 -72.02565 198.83897 363
17.26933 -74.04420 201.97301 331
9.33568 -76.90804 205.19308 312
78.30475 -52.60659 174.35222 422
75.72807 -53.56479 176.44142 420
73.06415 -54.52489 178.53152 417
65.82338 -57.28046 179.68411 304
50.96298 -62.82049 179.40388 391
47.42495 -64.18866 181.92307 389
43.72836 -65.52957 184.45212 386
39.91075 -66.95152 187.15141 384
35.73418 -68.54656 189.84737 370
31.21980 -70.27122 192.63942 368
26.47622 -72.02444 195.62349 365
21.47852 -73.90481 198.64223 363
14.82783 -76.38622 201.77235 314
5.91915 -79.73097 205.02675 311
78.00862 -53.73272 174.18558 421
75.41371 -54.70856 176.27896 419
72.76456 -55.73292 178.37283 417
66.15156 -58.24769 179.69685 304
50.24560 -64.33495 179.19786 390
46.66317 -65.68838 181.67690 388
42.97477 -67.13486 184.25577 385
39.07051 -68.57780 186.91739 372
34.68000 -70.25169 189.64151 369
30.10432 -72.02536 192.46750 367
25.27661 -73.86622 195.43007 364
19.28588 -76.14403 198.46156 331
11.57145 -79.11297 201.55371 313
2.34258 -82.64397 204.80617 310
77.73730 -54.85775 174.04256 421
75.12672 -55.90128 176.11218 418
72.46928 -56.94377 178.22148 416
66.51831 -59.25580 179.68756 304
49.52438 -65.85217 178.93799 389
45.93364 -67.26559 181.44058 387
42.17357 -68.67974 184.07503 385
38.06458 -70.28678 186.66974 371
33.59991 -72.00857 189.40952 369
28.99719 -73.85014 192.26869 366
23.52739 -75.94998 195.18611 333
16.90837 -78.54372 198.17053 330
8.20205 -81.94048 201.23354 312
-1.34603 -85.63638 204.58270 309
77.43856 -56.05333 173.84929 420
74.83913 -57.04945 175.93578 418
72.16713 -58.15226 178.06491 415
66.84813 -60.23904 179.67221 304
48.84492 -67.39193 178.70505 388
45.16594 -68.83414 181.23535 386
41.39815 -70.30618 183.84451 384
37.06233 -72.03611 186.48975 370
32.55088 -73.83157 189.23952 368
27.62880 -75.76908 192.06453 334
21.30044 -78.29779 194.93178 331
13.84931 -81.21131 197.86366 313
4.72663 -84.83726 200.99954 311
-5.18193 -88.74387 204.37930 308
77.18018 -57.19770 173.67781 419
74.51479 -58.26163 175.75751 417
71.82101 -59.36055 177.90355 415
67.20309 -61.23269 179.66805 304
48.10791 -68.89298 178.49838 388
44.43586 -70.39999 180.99724 385
40.46039 -72.00655 183.56247 372
36.04098 -73.78074 186.23604 369
31.50623 -75.64361 189.02231 367
25.48136 -78.01942 191.74353 333
18.98586 -80.64128 194.59042 330
10.53628 -84.03079 197.51823 312
1.09029 -87.87213 200.67369 309
76.87749 -58.37282 173.47113 418
74.21819 -59.45304 175.55206 416
71.18636 -60.73086 177.62611 384
67.56018 -62.22115 179.68547 304
47.35639 -70.46870 178.24937 387
43.65577 -72.03239 180.77664 384
39.47465 -73.73220 183.34106 371
35.01809 -75.55576 185.99973 368
29.55764 -77.79197 188.65355 334
23.25745 -80.38926 191.40268 332
16.15424 -83.32045 194.25916 313
7.10934 -87.02534 197.16373 311
-3.71688 -91.43365 200.27373 282
76.59002 -59.56894 173.27948 418
73.74319 -60.74842 175.35353 386
70.49542 -62.11522 177.39026 383
67.48079 -63.39184 179.55783 395
46.63193 -72.06347 177.95482 386
42.76995 -73.65951 180.52124 372
38.50208 -75.50358 183.06868 370
33.52139 -77.58283 185.65361 335
27.48525 -80.08507 188.28604 333
21.01829 -82.76244 191.03949 331
12.90704 -86.16789 193.81650 312
3.57312 -90.08018 196.85245 310
-22.59113 -100.98745 198.90858 263
76.28168 -60.77908 173.11548 387
73.09930 -62.11994 175.04347 385
69.84014 -63.51234 177.10832 382
66.81216 -64.79878 179.31427 394
55.35838 -69.64279 179.79019 300
41.85170 -75.37048 180.23215 371
37.35130 -77.27811 182.78964 337
31.49104 -79.81635 185.30121 334
25.31659 -82.41705 187.88826 332
18.41116 -85.37810 190.64970 314
9.52943 -89.10886 193.45612 311
-2.73943 -94.31003 196.22900 282
75.65947 -62.12148 172.81235 386
72.46780 -63.53128 174.77827 384
69.14326 -64.92703 176.84564 382
66.11977 -66.26351 179.04324 393
55.77734 -70.72424 179.73970 300
40.90062 -77.15202 179.92731 370
35.43605 -79.49728 182.37724 336
29.42170 -82.05801 184.86412 333
23.10994 -84.82021 187.51421 331
15.22745 -88.25619 190.17313 313
5.98915 -92.21815 192.98166 283
75.01703 -63.50861 172.52518 385
71.80042 -64.94434 174.51346 383
68.40813 -66.38509 176.52899 381
65.44321 -67.72821 178.77071 392
56.16609 -71.75808 179.77321 300
39.24854 -79.19845 179.54465 337
33.45045 -81.74852 181.93546 335
27.34415 -84.45190 184.43077 332
20.66108 -87.38839 187.09799 314
11.93219 -91.23656 189.70654 311
-1.75348 -97.18993 192.06870 282
74.38512 -64.91004 172.20486 384
71.12444 -66.34875 174.18358 382
67.68620 -67.85601 176.23741 380
64.74389 -69.18927 178.51984 391
56.56642 -72.82643 179.78220 300
37.39248 -81.40809 179.03935 336
31.44211 -84.05468 181.46077 333
25.18626 -86.83817 184.02202 331
17.55210 -90.24407 186.59036 313
7.04005 -94.97609 188.99266 283
73.74050 -66.29868 171.91756 383
70.41207 -67.82220 173.88254 381
66.98356 -69.36625 175.97755 379
64.05112 -70.70047 178.26680 390
57.03273 -73.88631 179.74451 300
35.46371 -83.65581 178.59296 335
29.42082 -86.41656 181.01450 332
22.95234 -89.31032 183.57474 330
14.33657 -93.22225 186.05089 312
-0.92469 -100.13879 187.91452 264
73.87090 -67.37299 171.83646 316
69.75369 -69.27539 173.62019 380
66.26778 -70.84998 175.66216 378
63.32517 -72.22292 177.97662 389
57.43877 -74.91248 179.74625 300
33.48049 -85.98170 178.09816 334
27.26529 -88.87112 180.50696 331
19.93991 -92.25642 182.98671 313
8.18777 -97.65628 185.02875 283
74.26524 -68.32090 171.83014 316
69.05320 -70.72780 173.27008 379
65.55450 -72.38706 175.36507 377
62.62225 -73.73235 177.69252 388
57.92075 -75.96980 179.72623 300
31.47433 -88.36497 177.58495 333
25.13499 -91.32465 180.01619 330
16.36320 -95.43717 182.26967 284
-0.03038 -103.11977 183.73734 264
74.69467 -69.21950 171.80583 316
68.36298 -72.22502 172.98894 378
64.78898 -73.93716 175.06163 389
61.90406 -75.32327 177.45062 387
58.33945 -76.98953 179.76756 300
43.40898 -84.10880 179.85460 296
22.35183 -94.17157 179.39616 313
9.40802 -100.31165 181.06462 283
-23.63401 -116.03067 180.23901 345
75.06652 -70.19515 171.81847 316
67.63099 -73.76958 172.64250 377
64.09892 -75.50827 174.78769 388
61.16147 -76.90125 177.13345 386
58.14000 -78.35425 179.60913 384
43.91808 -85.27691 179.85666 296
17.62415 -97.94379 178.44557 284
1.03264 -105.97363 179.59610 264
-21.52407 -116.91713 180.40329 284
75.51456 -71.11021 171.78772 316
66.91125 -75.32334 172.31288 376
63.38144 -77.05369 174.48953 387
60.39591 -78.50565 176.85442 385
57.33258 -80.04610 179.33347 383
44.43139 -86.39777 179.86496 296
10.66144 -102.91088 177.01782 283
-15.14658 -115.58534 176.78769 347
-20.91376 -118.42500 180.43710 284
75.94270 -72.03277 171.78036 316
66.17050 -76.89745 171.99556 375
62.69962 -78.66917 174.18080 386
59.65229 -80.16293 176.53073 384
56.53547 -81.72558 179.04932 382
44.92311 -87.47435 179.86572 296
2.39275 -108.72859 175.37439 264
-8.00604 -113.86026 177.87627 291
-20.20015 -119.97153 180.40297 284
76.33002 -72.95499 171.81624 316
66.28444 -78.07026 171.90173 312
61.92656 -80.26553 173.85791 385
58.91106 -81.83255 176.24492 383
54.40522 -84.05600 178.41365 324
45.43040 -88.61218 179.86937 296
0.78760 -111.21099 174.98814 293
0.76955 -111.24205 179.23373 293
76.78745 -73.87933 171.78560 316
66.75385 -79.07452 171.89151 312
61.19786 -81.88431 173.49548 384
57.36029 -83.89005 175.73877 325
52.11177 -86.58026 177.79262 323
45.94581 -89.72370 179.84682 296
28.47348 -98.73704 179.97925 292
7.32793 -109.57635 180.19067 288
77.24650 -74.82067 171.79404 316
67.23412 -80.04884 171.87154 312
60.31274 -83.64388 173.12878 326
55.17411 -86.31750 175.11404 324
49.75933 -89.17482 177.15179 322
44.26658 -92.02950 179.41179 321
29.04477 -99.94477 180.00034 292
7.98396 -110.96931 180.18477 288
77.66941 -75.72495 171.78574 316
67.70598 -81.02752 171.89835 312
58.20264 -86.08478 172.44283 325
52.91367 -88.85485 174.42934 323
47.31099 -91.81617 176.47397 322
41.64391 -94.83995 178.76164 320
29.61406 -101.17564 180.01976 292
8.62019 -112.32439 180.20227 288
78.11532 -76.64098 171.80264 316
68.18394 -82.02575 171.87013 312
56.88361 -88.06831 171.98897 308
50.56263 -91.47686 173.72984 322
44.79173 -94.53852 175.78996 320
38.91953 -97.69516 178.05588 318
30.19072 -102.42356 179.96022 292
9.25949 -113.69382 180.17996 288
78.56522 -77.57079 171.79948 316
68.64638 -82.98684 171.85051 312
57.36543 -89.14014 171.97662 308
48.13922 -94.19797 172.97398 320
42.20009 -97.41474 175.08443 319
36.18182 -100.72971 177.37489 317
20.53677 -109.22795 178.05219 271
79.05643 -78.50657 171.79510 316
69.16901 -83.96755 171.85025 312
57.90536 -90.15062 171.96333 308
45.58647 -97.01011 172.18845 319
39.51186 -100.32928 174.32274 318
28.17355 -106.61005 175.54185 269
-53.63977 -151.86467 163.87508 373
79.52281 -79.40897 171.78586 316
69.64024 -84.91225 171.86169 312
58.42570 -91.21944 171.95285 308
45.61636 -98.41367 172.08791 304
36.60463 -103.50278 173.51884 270
15.14588 -115.47791 172.73401 268
-49.81050 -151.93507 164.42917 375
79.98805 -80.28112 171.76367 316
70.12391 -85.92153 171.87755 312
58.99112 -92.23407 171.93060 308
46.22451 -99.54358 172.03622 304
31.41998 -107.95306 172.20026 300
14.05694 -117.86554 172.33922 296
-45.90971 -151.94858 165.01700 366
80.46754 -81.22731 171.75340 316
70.65685 -86.88438 171.85373 312
59.52574 -93.31595 171.94447 308
46.81415 -100.65462 172.07420 304
32.00713 -109.15770 172.16643 300
14.72436 -119.12149 172.32913 296
-43.76652 -152.99423 165.23511 286
80.92261 -82.11386 171.74329 316
71.18066 -87.84870 171.86943 312
60.07424 -94.33910 171.95514 308
47.41179 -101.77328 172.02625 304
32.67839 -110.35216 172.20120 300
15.46702 -120.42142 172.29161 296
-42.87850 -154.65671 165.27934 286
81.40819 -83.01511 171.76120 316
71.71203 -88.78835 171.84772 312
60.65387 -95.37344 171.91020 308
47.98384 -102.89101 172.06502 304
33.31924 -111.60029 172.14014 300
16.18771 -121.73117 172.30876 296
-41.98114 -156.27931 165.25894 286
81.92558 -83.91581 171.75107 316
72.21686 -89.77022 171.85460 312
61.20363 -96.38451 171.90741 308
48.57312 -103.98235 172.05197 304
33.98801 -112.74880 172.16708 300
16.86603 -123.04103 172.30455 296
-41.05771 -157.93726 165.22707 286
82.41471 -84.81353 171.73833 316
72.75557 -90.70383 171.83659 312
61.80535 -97.40397 171.94925 308
49.22337 -105.08376 172.02098 304
34.62701 -113.94418 172.12987 300
17.58949 -124.34250 172.30205 296
-40.08825 -159.57574 165.21294 286
82.92032 -85.66392 171.75833 316
73.29499 -91.65351 171.82318 312
62.32920 -98.39253 171.90561 308
49.81464 -106.16125 172.03848 304
35.33467 -115.10877 172.15901 300
-23.34151 -151.41046 163.37233 374
83.41177 -86.59877 171.74068 316
73.83960 -92.58492 171.80112 312
62.93893 -99.42261 171.94028 308
50.45395 -107.28429 172.01320 304
36.02667 -116.31257 172.12209 300
-19.84344 -151.32401 163.88889 375
83.94958 -87.46586 171.75751 316
74.36957 -93.51853 171.84416 312
63.51691 -100.42722 171.93893 308
51.08781 -108.36572 172.02055 304
36.69762 -117.50587 172.16591 300
-16.41246 -151.25858 164.49149 377
84.48040 -88.32182 171.71890 316
74.94364 -94.46938 171.79446 312
64.11578 -101.45008 171.93446 308
51.70576 -109.41619 172.03900 304
37.41639 -118.66366 172.11024 300
-13.09240 -151.19817 165.02438 378
85.00373 -89.22958 171.71150 316
75.47814 -95.42039 171.81137 312
64.74059 -102.45828 171.90858 308
52.40176 -110.53462 171.99019 304
38.09521 -119.83313 172.11998 300
-9.80146 -151.08656 165.49692 379
85.53555 -90.08686 171.71593 316
76.07269 -96.34296 171.80923 312
65.35011 -103.46521 171.92006 308
53.04011 -111.56264 172.01263 304
38.77428 -121.04559 172.09351 300
-7.85091 -151.86334 165.76245 291
86.07042 -90.94630 171.69858 316
76.63206 -97.28431 171.81519 312
65.92290 -104.44078 171.87865 308
53.67156 -112.64637 171.99489 304
39.53752 -122.18116 172.12556 300
-6.83264 -153.24094 165.71817 291
86.56770 -91.83286 171.73727 316
77.20866 -98.19817 171.77664 312
66.57389 -105.42147 171.90306 308
54.36031 -113.75670 171.97173 304
40.19673 -123.34631 172.11162 300
-5.87874 -154.70911 165.75755 291
87.14908 -92.66891 171.69386 316
77.78156 -99.12917 171.78465 312
67.16509 -106.43187 171.87646 308
55.05458 -114.80254 171.98352 304
2.93751 -150.64702 162.93559 285
-4.88608 -156.09453 165.79216 291
87.69046 -93.53741 171.69238 316
78.37000 -100.05948 171.79779 312
67.82636 -107.38614 171.89784 308
55.68944 -115.83856 171.99185 304
5.70008 -150.75449 163.34132 385
-3.91374 -157.42989 165.76788 290
88.24345 -94.40762 171.70367 316
78.98634 -100.96414 171.79890 312
68.45643 -108.40509 171.87245 308
56.41718 -116.89778 171.94942 304
8.58454 -150.66798 163.81546 386
-3.00205 -158.90434 165.74368 290
88.79623 -95.24823 171.69699 316
79.56924 -101.86990 171.79712 312
69.08870 -109.37882 171.86131 308
57.06831 -117.99023 171.97618 304
11.44720 -150.61378 164.34535 387
89.36855 -96.12502 171.70274 316
80.15788 -102.80638 171.75426 312
69.72131 -110.33995 171.84836 308
57.77436 -118.99414 171.98326 304
14.32640 -150.51894 164.75961 389
89.95447 -96.94628 171.67508 316
80.80907 -103.70788 171.75893 312
70.39312 -111.31683 171.88229 308
58.49819 -120.08508 171.95728 304
17.10123 -150.51468 165.28290 390
90.50816 -97.79780 171.69707 316
81.42425 -104.61008 171.74519 312
71.07523 -112.29764 171.85066 308
59.17859 -121.11109 171.98134 304
19.77712 -150.44041 165.68965 391
91.08778 -98.63153 171.70172 316
82.00456 -105.50972 171.75241 312
71.69115 -113.23342 171.83113 308
59.90210 -122.13918 171.96761 304
22.40409 -150.41493 166.15175 297
91.67551 -99.48898 171.65681 316
82.65234 -106.38287 171.76894 312
72.37994 -114.18874 171.83324 308
60.65427 -123.16136 171.93593 304
23.29082 -151.62683 166.13066 297
92.24908 -100.34485 171.66936 316
83.25081 -107.28183 171.76343 312
73.08650 -115.18626 171.83592 308
29.47913 -148.82309 163.25816 296
24.22379 -152.92178 166.13339 297
92.87730 -101.16697 171.68449 316
83.92481 -108.14805 171.73228 312
73.72324 -116.11317 171.83902 308
30.41817 -150.05441 163.24013 393
25.20496 -154.14062 166.15089 297
93.47768 -101.99982 171.64906 316
84.55377 -109.04589 171.76491 312
74.43475 -117.06123 171.81189 308
32.97038 -149.93161 163.65553 394
26.08438 -155.34415 166.13705 297
94.05602 -102.81642 171.64691 316
85.18512 -109.93315 171.74788 312
75.09457 -117.99451 171.79584 308
35.45748 -149.85028 164.11084 395
27.05666 -156.58969 166.09282 297
94.69762 -103.62714 171.64511 316
85.82714 -110.79204 171.74818 312
75.83701 -118.96352 171.81918 308
37.88652 -149.78294 164.56573 396
28.01889 -157.75993 166.09122 297
95.27319 -104.44493 171.66586 316
86.49144 -111.68456 171.70154 312
76.51965 -119.90383 171.80740 308
40.31716 -149.63956 164.99591 398
28.99252 -158.99712 166.13155 297
95.92532 -105.24838 171.65529 316
87.17266 -112.53973 171.73512 312
77.25773 -120.78204 171.82727 308
42.67769 -149.55341 165.41135 399
96.53038 -106.06528 171.63887 316
87.83734 -113.38321 171.71481 312
77.96232 -121.75351 171.77800 308
45.06545 -149.47639 165.76607 400
97.14529 -106.88120 171.65474 316
88.51552 -114.24332 171.72716 312
51.29700 -146.01044 163.37001 300
47.37637 -149.36128 166.19478 401
97.80433 -107.67881 171.65018 316
89.19489 -115.10677 171.70715 312
52.10608 -147.20514 163.36664 300
48.45051 -150.32997 166.24689 302
98.44846 -108.48350 171.60527 316
89.87295 -115.94508 171.68947 312
52.82094 -148.37411 163.33580 300
49.39013 -151.37015 166.26260 302
99.08625 -109.25794 171.63461 316
90.57478 -116.80733 171.70985 312
54.08755 -149.11331 163.38509 404
50.27310 -152.44897 166.22623 302
99.75416 -110.04415 171.60970 316
91.24635 -117.63412 171.67612 312
56.19579 -149.04065 163.84390 405
51.23970 -153.56915 166.28537 301
100.37456 -110.82360 171.63084 316
91.94169 -118.51429 171.67593 312
58.39292 -148.98576 164.17180 406
52.16716 -154.61769 166.26810 301
101.05591 -111.60020 171.61583 316
92.63303 -119.31381 171.67230 312
60.47448 -148.90193 164.58939 407
53.13785 -155.66142 166.26067 301
101.70650 -112.36419 171.58273 316
93.37243 -120.17903 171.67775 312
62.54338 -148.79745 164.97141 409
54.07376 -156.72202 166.25737 301
102.35535 -113.15742 171.58484 316
70.51103 -143.13843 163.56934 304
64.62631 -148.76962 165.33655 410
55.02479 -157.73494 166.26208 301
103.06091 -113.92361 171.56941 316
71.31584 -144.18854 163.52289 304
66.64043 -148.69293 165.69725 411
103.73767 -114.67205 171.58707 316
72.07031 -145.23305 163.50246 304
68.59792 -148.61980 166.05928 412
104.41266 -115.44253 171.57413 316
72.87669 -146.25293 163.47400 304
70.45786 -148.66202 166.31267 306
105.07817 -116.22291 171.58810 316
73.67194 -147.28078 163.39604 304
71.38862 -149.57994 166.31822 306
105.75874 -116.97313 171.55762 316
74.46481 -148.34016 163.38162 304
72.27256 -150.49622 166.32094 306
106.45073 -117.70899 171.57286 316
76.28743 -148.33578 163.71700 416
73.23606 -151.41966 166.36201 306
107.15201 -118.46393 171.52873 316
78.14161 -148.23610 164.07364 417
74.16970 -152.33937 166.37589 306
107.88685 -119.21147 171.55844 316
79.95924 -148.14917 164.38008 418
75.07793 -153.23152 166.38789 306
88.35841 -141.22200 163.66786 311
81.81757 -148.07220 164.75456 419
76.01200 -154.18181 166.36295 306
89.13527 -142.13759 163.62607 311
83.59383 -148.02454 165.04788 420
76.95615 -155.08060 166.39238 305
89.92529 -143.05188 163.64902 311
85.36976 -147.99352 165.37491 421
77.92513 -155.95322 166.39952 305
90.76623 -143.93648 163.62143 311
87.12462 -147.91768 165.68185 422
78.89322 -156.89105 166.39926 305
91.55695 -144.83252 163.54770 307
88.79056 -147.82724 165.98747 423
92.34325 -145.74568 163.55537 307
90.49929 -147.75981 166.28085 424
93.14854 -146.64037 163.48758 307
91.72941 -148.20395 166.45914 310
93.96109 -147.54337 163.45937 307
92.65398 -149.03409 166.42380 310
95.48796 -147.56400 163.71028 426
93.58399 -149.82724 166.44150 310
97.16913 -147.46863 164.03522 417
94.52676 -150.63913 166.43219 310
-765.30280 -1160.72693 116.32481 411
-768.53418 -1164.22412 141.06613 345
98.85136 -147.34241 164.37596 418
95.45524 -151.39229 166.46298 310
-754.72131 -1162.02576 116.65324 492
-756.29346 -1163.79614 141.45526 492
-757.68781 -1165.69824 166.65143 470
-758.87250 -1167.34851 191.34476 492
100.51070 -147.18097 164.72884 419
96.35556 -152.17261 166.46034 310
-747.78271 -1168.38123 116.64752 480
-749.50006 -1170.25391 141.42598 480
-751.24982 -1172.73303 166.21204 439
-754.38092 -1176.17871 191.42128 376
102.20696 -146.96104 165.05626 420
97.27750 -152.98697 166.47346 310
-744.93463 -1179.89197 116.41068 380
103.79604 -146.81029 165.34245 421
98.23206 -153.77066 166.45303 310
105.43214 -146.66037 165.68164 422
99.15112 -154.50719 166.43958 310
-1183.64246 -1757.96887 142.44476 438
-1187.53052 -1762.28345 179.18074 391
107.03512 -146.49873 165.94557 423
100.05659 -155.27971 166.47495 310
-1171.03357 -1764.04150 142.34541 493
-1173.78491 -1767.90344 179.19780 467
-1177.03882 -1771.67737 216.45837 333
108.58759 -146.33586 166.23820 424
101.05200 -156.04587 166.47511 310
-1588.66406 -2321.40088 168.38667 490
-1595.58435 -2330.14453 216.45229 488
109.92537 -146.51729 166.48247 314
110.83525 -147.17444 166.45186 314
111.74281 -147.90018 166.47632 314
112.59545 -148.59326 166.47478 314
113.52018 -149.27905 166.47897 314
115.63053 -148.26668 167.03323 432
117.01761 -148.24626 167.22520 442
118.31342 -148.32970 167.42140 316
117.80537 -149.09622 170.38118 441
119.19643 -149.00215 167.42906 316
118.96529 -149.38200 170.50818 312
120.35359 -149.30067 167.53868 489
119.87378 -150.04356 170.51848 312
121.00570 -150.32582 167.44447 316
121.89895 -151.01048 167.39568 316
124.52114 -149.03091 168.24847 489
-13843.21582 -43211.35547 10029.49805 1000
-14698.21289 -63952.86719 -3011.57666 1000
-581.85974 -23716.46094 993.27985 1000
6362.28564 -10143.69922 3190.90161 1000
361.26260 -111.20129 167.60838 313
361.96317 -110.31153 167.59129 315
362.67462 -109.39284 167.61606 315
363.33502 -108.48069 167.61148 315
364.04828 -107.57910 167.60318 315
364.73541 -106.69236 167.62021 315
365.38678 -105.77825 167.63899 315
366.07129 -104.84192 167.64201 315
366.71722 -103.95692 167.63274 315
367.38486 -103.02938 167.61232 315
368.06912 -102.06825 167.60741 315
368.69257 -101.13404 167.61717 315
369.34042 -100.20522 167.62457 315
369.99908 -99.28427 167.65526 315
371.19717 -98.70848 167.44238 440
372.58875 -98.26363 167.23758 439
373.94196 -97.75185 166.99953 438
382.63644 -103.24171 167.68506 309
375.34387 -97.28876 166.73680 437
383.30011 -102.19499 167.65265 309
376.76733 -96.78909 166.48050 436
383.92264 -101.13928 167.69087 309
378.20734 -96.28643 166.26334 435
384.50220 -100.13301 167.67970 309
379.60950 -95.78731 166.01630 434
385.13910 -99.07288 167.69142 309
32037.37109 -18970.37109 -8412.76953 1000
381.06448 -95.30910 165.73724 433
385.76447 -98.06145 167.70134 309
382.56638 -94.77018 165.45647 432
386.35666 -96.98499 167.73253 311
383.99942 -94.25541 165.19818 431
386.97165 -95.98051 167.72575 311
385.54971 -93.74146 164.92926 430
387.61826 -94.93279 167.70256 311
386.76089 -93.09041 164.74652 317
388.17789 -93.89478 167.71283 311
387.41461 -92.06396 164.74030 317
388.77365 -92.80397 167.70015 311
387.99289 -91.04170 164.75377 317
390.11731 -92.17287 167.53621 428
388.59665 -90.00050 164.75414 317
391.66696 -91.63305 167.25752 427
389.22278 -88.94432 164.71304 317
393.25131 -91.09771 166.94218 426
389.78766 -87.91006 164.69537 317
394.88589 -90.54950 166.69833 425
404.07129 -95.30540 167.74492 305
390.41556 -86.86523 164.70729 317
396.47687 -89.95341 166.38040 424
404.65799 -94.12239 167.71925 305
390.97449 -85.83385 164.71812 317
398.11880 -89.38645 166.11351 423
405.22076 -92.93807 167.76442 305
391.56790 -84.78851 164.67822 317
399.76126 -88.81769 165.78032 422
405.78647 -91.78673 167.77310 305
392.13089 -83.72490 164.71254 317
401.42297 -88.25786 165.50375 421
406.33023 -90.65384 167.76051 305
392.70148 -82.67295 164.71199 317
403.16266 -87.66185 165.20291 420
406.90884 -89.45097 167.78734 305
393.21616 -81.60403 164.68121 317
404.82437 -87.06469 164.84424 419
407.44476 -88.29655 167.79176 305
370.63397 -69.81776 171.50645 316
405.61316 -86.01836 164.81586 313
407.95270 -87.09116 167.77977 305
371.08246 -68.86978 171.51042 316
406.16669 -84.84241 164.84462 313
408.48999 -85.92701 167.82976 305
371.52777 -67.95454 171.53548 316
406.73569 -83.72078 164.81155 313
409.61389 -85.03996 167.68190 436
38627.04688 -17228.43164 -3920.65308 1000
371.97751 -66.98344 171.54771 316
407.25565 -82.55927 164.80983 312
411.14532 -84.26571 167.40311 436
372.41385 -66.02700 171.53734 316
407.80798 -81.42789 164.81674 312
412.70160 -83.51908 167.14836 435
372.82684 -65.10733 171.53127 316
408.38538 -80.26788 164.80286 312
414.23264 -82.77917 166.89679 434
373.22925 -64.13805 171.56093 316
408.91269 -79.07542 164.78664 312
415.84775 -81.98643 166.62589 433
373.67136 -63.17936 171.54530 316
409.43304 -77.92379 164.80957 312
417.41522 -81.23377 166.36638 432
427.20621 -85.27594 167.80782 301
374.07162 -62.26245 171.53839 316
409.91794 -76.80621 164.80754 312
419.04358 -80.44977 166.10559 431
427.75354 -83.98886 167.81308 301
374.48663 -61.25821 171.55022 316
410.48431 -75.60829 164.81012 312
420.61429 -79.64981 165.84593 430
428.25510 -82.69521 167.77890 301
374.85376 -60.32927 171.53012 316
410.96368 -74.45871 164.81715 312
422.27887 -78.84110 165.54799 429
428.76038 -81.40187 167.80939 301
263.87399 -16.58401 203.50200 314
385.85510 -63.40541 171.66014 312
423.95294 -78.06610 165.24188 428
429.24341 -80.12614 167.83400 301
40987.36719 -15659.14746 -1204.27380 1000
264.01904 -16.30609 203.50645 314
386.26648 -62.41835 171.66779 312
425.61206 -77.26122 164.94826 427
429.71472 -78.75898 167.84711 301
264.15131 -16.03073 203.50319 314
386.64413 -61.35048 171.69034 312
426.47018 -76.10988 164.89612 308
430.20615 -77.48008 167.82301 301
264.28726 -15.74263 203.50905 314
387.04565 -60.32846 171.64993 312
426.97629 -74.83555 164.90466 308
430.67224 -76.16907 167.84444 301
264.42520 -15.46319 203.50330 314
387.45023 -59.30054 171.66173 312
427.51187 -73.57227 164.87921 308
431.08942 -74.83788 167.85011 301
264.55832 -15.18976 203.50493 314
387.82150 -58.28986 171.67503 312
428.01868 -72.28854 164.84462 308
432.49316 -73.87075 167.67529 423
2111.97876 -661.06128 151.62779 404
264.68777 -14.90669 203.50798 314
388.20734 -57.22056 171.65973 312
428.50418 -70.99978 164.88448 308
434.32367 -73.02692 167.34128 422
2110.77905 -647.35883 151.66917 498
2114.82104 -648.73724 184.16925 499
2119.56299 -650.31860 216.86040 465
264.81290 -14.62025 203.50534 314
388.56842 -56.20725 171.67831 312
428.95673 -69.78897 164.88948 308
436.11023 -72.13477 167.03900 421
2121.06421 -638.26917 151.03426 386
264.94952 -14.33798 203.50560 314
388.91382 -55.16536 171.66960 312
429.44446 -68.48260 164.87627 308
437.89139 -71.28631 166.78487 420
265.06894 -14.05873 203.50618 314
389.29019 -54.11602 171.69171 312
429.92062 -67.18729 164.87895 308
439.70819 -70.31765 166.47122 434
265.19946 -13.78367 203.50584 314
389.65979 -53.06221 171.70673 312
430.38486 -65.92188 164.83035 308
441.32968 -69.33508 166.20801 433
265.32312 -13.50108 203.50850 314
390.00574 -51.98759 171.68803 312
402.25467 -55.78104 171.82941 308
442.96881 -68.36347 165.92825 432
452.91107 -71.45702 167.84796 297
265.43283 -13.20650 203.50798 314
390.31711 -50.95965 171.68839 312
402.60538 -54.66114 171.82237 308
444.63876 -67.38154 165.66454 431
453.27213 -70.00684 167.91884 297
265.55911 -12.92719 203.50421 314
390.64777 -49.93499 171.71075 312
402.94821 -53.55190 171.79919 309
446.29642 -66.35153 165.35596 430
453.68451 -68.51815 167.89896 297
265.66617 -12.64553 203.50337 314
391.02179 -48.86205 171.68808 312
403.30945 -52.41964 171.80789 309
448.00009 -65.36329 165.05692 429
454.05557 -67.09581 167.89034 297
265.78726 -12.35425 203.50711 314
391.29745 -47.80936 171.69290 312
403.63397 -51.26587 171.82594 309
449.01007 -64.10767 164.97357 303
454.47250 -65.59985 167.93170 297
265.89828 -12.07400 203.50183 314
391.61450 -46.77374 171.73624 312
403.98145 -50.14643 171.81566 309
449.46722 -62.71859 164.93207 303
454.81937 -64.21461 167.91219 297
266.00601 -11.78951 203.50569 314
391.94339 -45.68848 171.72838 312
404.29538 -49.00833 171.83289 309
449.83188 -61.29645 164.93578 303
455.22818 -62.73843 167.97038 297
266.12149 -11.49928 203.50960 314
392.22922 -44.65972 171.71959 312
404.65839 -47.88570 171.83469 309
450.26480 -59.84570 164.93205 303
455.55606 -61.25306 167.99025 297
266.22684 -11.21467 203.50920 314
392.54297 -43.55179 171.73923 312
404.97360 -46.74326 171.85144 309
450.66919 -58.43156 164.93777 303
456.87561 -60.04896 167.78746 424
266.33282 -10.92207 203.49985 314
392.83035 -42.52594 171.71498 312
405.26443 -45.60831 171.83603 309
451.03720 -57.02776 164.99007 303
458.67947 -58.95103 167.48602 423
266.43448 -10.63859 203.50758 314
393.11746 -41.42744 171.71657 312
405.56183 -44.46728 171.82924 309
451.43698 -55.64231 164.99620 303
460.53574 -57.83491 167.15994 422
266.53937 -10.35069 203.50560 314
393.40326 -40.37161 171.75020 313
405.84500 -43.33871 171.84601 309
451.78598 -54.21349 164.97327 303
462.35519 -56.71561 166.92140 454
266.64444 -10.05944 203.50726 314
393.66888 -39.30917 171.72052 313
406.14975 -42.17543 171.84679 309
452.13284 -52.75887 164.97430 303
463.70584 -55.44447 166.72047 453
266.74069 -9.77375 203.50235 314
393.91974 -38.23446 171.73248 313
406.40436 -41.02983 171.87434 309
420.72369 -44.25923 172.00465 305
465.08234 -54.19502 166.48872 452
266.83359 -9.48137 203.50923 314
270.27783 -10.23599 203.47478 281
406.70947 -39.92792 171.85815 309
421.02914 -43.03899 171.97617 305
466.46472 -52.89497 166.30334 451
266.94034 -9.19805 203.50983 314
270.32681 -9.91313 203.49110 281
406.94708 -38.73509 171.86465 309
421.30792 -41.79455 171.99236 305
467.82901 -51.62169 166.06288 450
267.02838 -8.90007 203.50772 314
270.38098 -9.58801 203.50854 281
407.20950 -37.58524 171.86690 309
421.56949 -40.52628 172.02725 305
469.19382 -50.30241 165.89456 449
267.11777 -8.61767 203.50847 314
270.46329 -9.27319 203.50824 310
407.47562 -36.45303 171.86751 309
421.84067 -39.30941 172.00380 305
470.64035 -48.98951 165.62338 449
267.20822 -8.32985 203.50504 314
270.55487 -8.96726 203.50235 310
407.71848 -35.33208 171.89104 309
422.10535 -38.07583 171.97992 305
472.03720 -47.66775 165.41457 448
481.64771 -49.47910 168.04172 293
267.30341 -8.03953 203.49832 314
270.65448 -8.66039 203.49896 310
407.97906 -34.13479 171.84775 309
422.34113 -36.84051 172.03157 305
473.51028 -46.33249 165.19077 447
481.87271 -47.91701 168.06221 293
267.38705 -7.74268 203.50127 314
270.73935 -8.34705 203.50710 310
408.20160 -33.03753 171.84572 309
422.60419 -35.62283 172.01994 305
474.33023 -44.85195 165.07440 300
482.10437 -46.28992 168.02855 293
267.46573 -7.44793 203.50237 314
270.83322 -8.02573 203.50598 310
408.42068 -31.87372 171.85286 309
422.84808 -34.34667 172.03477 305
474.58847 -43.29109 165.09187 300
482.35547 -44.67537 168.09828 293
267.55057 -7.15477 203.50089 314
270.91156 -7.72205 203.49716 310
408.62479 -30.71512 171.87367 309
423.05838 -33.11334 172.01723 305
474.88223 -41.72730 165.06834 300
482.58786 -43.02233 168.06183 293
267.63416 -6.87206 203.50105 314
270.99854 -7.40859 203.49956 310
408.83899 -29.54711 171.86369 309
423.28622 -31.89132 172.03535 305
475.13354 -40.21664 165.08766 300
482.81500 -41.44559 168.07413 293
267.71609 -6.57274 203.50844 314
271.07770 -7.10282 203.50383 310
409.06003 -28.40247 171.90450 309
423.55881 -30.63090 172.02934 305
475.41653 -38.64723 165.14211 300
483.01605 -39.77867 168.14058 293
267.79373 -6.28793 203.50520 314
271.16251 -6.78678 203.50426 310
409.29553 -27.22591 171.85352 309
423.70868 -29.35582 172.03322 305
440.49545 -31.86043 172.17018 301
483.20404 -38.16967 168.10843 294
267.85986 -5.99335 203.50061 314
271.24072 -6.47443 203.50970 310
409.44171 -26.08647 171.86832 309
423.92621 -28.10641 172.00249 305
440.69867 -30.51097 172.19691 301
483.58157 -36.59133 168.14105 460
267.93445 -5.70324 203.50714 314
271.31772 -6.15574 203.50905 310
409.64453 -24.92450 171.91064 309
424.12436 -26.87696 171.99809 305
440.87808 -29.14138 172.16141 301
484.76602 -35.11644 167.90865 460
268.00647 -5.40282 203.50003 314
271.38297 -5.84443 203.50189 310
409.81546 -23.77953 171.90126 309
424.36157 -25.64119 172.03613 305
441.08862 -27.82989 172.21422 301
485.99481 -33.62735 167.72675 459
268.08398 -5.11197 203.50279 314
271.46469 -5.53444 203.50645 310
410.01895 -22.59879 171.87813 309
424.52866 -24.37041 172.02748 305
441.31366 -26.47018 172.16914 301
487.23099 -32.14029 167.59103 458
268.14389 -4.82030 203.50688 314
271.53201 -5.21486 203.50970 310
410.15875 -21.45580 171.89572 309
424.66269 -23.12058 172.01666 305
441.48154 -25.10156 172.20190 301
488.44055 -30.62612 167.42357 457
268.21539 -4.52114 203.49725 314
271.59680 -4.89449 203.49658 310
410.31720 -20.28963 171.91425 309
424.84052 -21.88089 172.05588 305
441.66959 -23.76579 172.21617 301
489.65109 -29.08659 167.21129 456
268.28055 -4.22808 203.50963 314
271.66229 -4.58590 203.50252 310
410.49527 -19.12554 171.90706 309
424.99838 -20.65354 172.00902 305
441.80884 -22.38124 172.17882 301
490.87662 -27.52349 167.01117 456
268.34799 -3.93466 203.49831 314
271.73105 -4.26542 203.50121 310
410.62164 -17.97121 171.87939 309
425.17331 -19.37233 172.02577 305
442.00699 -21.03076 172.21339 301
492.19278 -25.96959 166.84294 455
268.40613 -3.64914 203.49860 314
271.79660 -3.96245 203.50591 310
410.73602 -16.77822 171.89633 309
425.32559 -18.14360 172.04399 305
442.15518 -19.65444 172.19768 301
493.47076 -24.45543 166.65791 454
268.45956 -3.35469 203.50633 314
271.86206 -3.64380 203.50424 310
410.89706 -15.64409 171.87076 309
425.44360 -16.86492 172.01241 305
442.28522 -18.34479 172.19933 301
494.72046 -22.88501 166.43605 453
268.51941 -3.06098 203.50157 314
271.91321 -3.33258 203.50610 310
411.01755 -14.47290 171.89948 309
425.61215 -15.61897 172.01006 305
442.41595 -17.00722 172.19432 301
496.02039 -21.23266 166.19849 452
268.57858 -2.76140 203.50340 314
271.96683 -3.01404 203.49989 310
411.13287 -13.31972 171.87628 309
425.69714 -14.37637 172.04160 305
442.55905 -15.62549 172.21443 301
462.30270 -17.05901 172.36865 297
268.62576 -2.47082 203.50879 314
272.02933 -2.69459 203.50633 310
411.23029 -12.12815 171.92024 309
425.80667 -13.14944 172.01933 305
442.70621 -14.24189 172.20564 301
462.38791 -15.61038 172.41217 297
268.68158 -2.17007 203.49867 314
272.08173 -2.37837 203.50226 310
411.32565 -10.96604 171.90930 309
425.95178 -11.88300 172.06139 305
442.81918 -12.90279 172.21217 301
462.53360 -14.09148 172.38078 297
268.73096 -1.88139 203.50262 314
272.12897 -2.07088 203.50641 310
411.45261 -9.81099 171.88997 309
426.03369 -10.64198 172.01372 305
442.93204 -11.55171 172.18504 301
462.65604 -12.66872 172.42212 297
268.77499 -1.57854 203.50778 314
272.18634 -1.75093 203.50235 310
411.51080 -8.61996 171.91464 309
426.14081 -9.34409 172.01733 305
443.02197 -10.16304 172.21725 301
462.73206 -11.15506 172.36719 297
268.83328 -1.28504 203.50287 314
272.22772 -1.42983 203.50331 310
411.64368 -7.45901 171.89449 309
426.19025 -8.10046 172.02246 305
443.06958 -8.84572 172.22237 301
462.83768 -9.70428 172.40201 297
268.86694 -0.99212 203.50464 314
272.26996 -1.12320 203.50101 310
411.70062 -6.30342 171.92126 309
426.29053 -6.82550 172.03032 305
443.18661 -7.49259 172.18925 301
462.93237 -8.18307 172.39960 297
268.91476 -0.70159 203.50639 314
272.31744 -0.80202 203.50696 310
411.74716 -5.13601 171.88249 309
426.38147 -5.56323 172.04259 305
443.23203 -6.08639 172.21188 301
463.03134 -6.71718 172.42599 297
268.95877 -0.40813 203.50508 314
272.35968 -0.49231 203.50737 310
411.81439 -3.97693 171.88074 309
426.41733 -4.36285 172.07011 305
443.30960 -4.78601 172.19157 301
463.06296 -5.27816 172.40810 297
268.98987 -0.10679 203.50867 314
272.40292 -0.17455 203.50519 310
411.89383 -2.78703 171.89052 309
426.51968 -3.09475 172.03426 305
443.35126 -3.38938 172.22922 301
463.15161 -3.74294 172.41678 297
269.02777 0.18518 203.50848 314
272.43161 0.14301 203.50595 310
411.93335 -1.63891 171.90051 309
426.54495 -1.81160 172.06203 305
443.40683 -2.05209 172.18819 301
451.83835 -2.16389 174.44035 426
512.87549 -2.96537 168.27992 288
269.07013 0.48706 203.50037 314
272.46793 0.46510 203.49825 310
411.97583 -0.47340 171.89568 309
426.59924 -0.56676 172.03046 305
443.48645 -0.66196 172.21361 301
463.25238 -0.78055 172.36766 297
512.88037 -1.10059 168.33252 288
269.10342 0.77666 203.50517 314
272.50491 0.77078 203.49789 310
411.99384 0.69661 171.92101 309
426.62360 0.69955 172.06219 305
443.51978 0.68494 172.23717 301
452.38788 0.65440 174.35942 424
513.62207 0.28755 168.32060 288
269.13232 1.07352 203.50851 314
272.53104 1.08575 203.50761 310
412.01413 1.88812 171.89751 309
426.66269 1.93302 172.05434 305
443.51318 2.01843 172.17928 301
451.98114 2.10340 174.43288 423
513.02594 2.40162 168.27184 288
269.16885 1.37026 203.50629 314
272.57233 1.40866 203.49982 310
412.05292 3.02739 171.92427 309
426.66861 3.22265 172.06981 305
443.58395 3.38270 172.22008 301
463.32773 3.61348 172.37372 297
269.18704 1.66632 203.50964 314
272.60013 1.72342 203.49998 310
412.07114 4.22527 171.88579 309
426.68774 4.48719 172.04485 305
443.56766 4.78921 172.17738 301
463.35330 5.13548 172.40060 297
269.22162 1.95599 203.50101 314
272.62027 2.04000 203.50375 310
412.06720 5.37474 171.90889 309
426.70731 5.73975 172.02034 305
443.60220 6.10059 172.19119 301
463.32825 6.57861 172.37923 297
269.24677 2.24678 203.49800 314
272.63934 2.34456 203.50299 310
412.09665 6.55223 171.89861 309
426.67166 6.93984 172.04724 305
443.55795 7.46119 172.18034 301
463.30960 8.05966 172.38655 297
269.27029 2.54906 203.50540 314
272.67282 2.66225 203.49779 310
412.08243 7.72516 171.92017 309
426.66974 8.22932 172.06335 305
443.52859 8.82652 172.21030 301
463.28970 9.55190 172.41844 297
269.28833 2.84460 203.50179 314
272.74557 2.99049 203.49359 281
412.08316 8.84218 171.92094 309
426.64417 9.46159 172.05829 305
443.52875 10.18307 172.18723 301
463.25885 10.99953 172.42538 297
269.31042 3.13055 203.49739 314
399.29623 9.42632 171.75424 313
412.04224 10.00279 171.91264 309
426.66110 10.74402 172.06898 305
443.51346 11.54096 172.18962 301
463.24814 12.50894 172.41565 297
269.32864 3.42897 203.50337 314
399.28677 10.50644 171.76888 313
412.01163 11.20240 171.91335 309
426.60574 12.01448 172.04395 305
443.46185 12.87765 172.19748 301
463.17682 14.00475 172.37282 297
269.33875 3.72242 203.50148 314
399.25198 11.58340 171.79196 313
411.99905 12.36514 171.91899 309
426.54282 13.26159 172.05363 305
443.43762 14.24850 172.19731 301
463.11432 15.48684 172.42482 297
269.36075 4.01783 203.50891 314
399.19046 12.67297 171.77504 313
411.97964 13.50566 171.88167 309
426.49673 14.50073 172.04460 305
443.37311 15.60065 172.19566 301
496.94528 19.19176 166.24440 483
269.36719 4.30467 203.50116 314
399.16232 13.73767 171.78615 313
411.87860 14.67224 171.90471 309
426.45041 15.75613 172.02919 305
443.31799 16.96316 172.22583 301
495.82428 20.77542 166.39873 451
269.38248 4.60850 203.50293 314
399.14478 14.85215 171.79700 313
411.87585 15.82963 171.90057 309
426.42517 17.03108 172.03500 305
443.25467 18.35450 172.20930 301
494.58142 22.35554 166.66368 452
269.39069 4.89561 203.50754 314
399.06351 15.92048 171.75977 313
411.80731 16.99733 171.92104 309
426.36374 18.25826 172.02406 305
443.15173 19.69538 172.18810 301
493.25391 23.93920 166.82010 453
269.39407 5.19437 203.50780 314
399.00491 17.01254 171.76053 313
411.73071 18.20286 171.91016 309
426.26593 19.51565 172.03760 305
443.08759 21.03994 172.22162 301
492.02432 25.48164 167.02921 454
269.40256 5.47920 203.50586 314
398.94257 18.11765 171.77289 313
411.65799 19.31874 171.89403 309
426.18134 20.75071 172.05182 305
443.02487 22.39759 172.21783 301
490.74161 27.03647 167.21906 455
269.39975 5.77939 203.50081 314
398.87375 19.20835 171.79012 313
411.56656 20.48014 171.91548 309
426.10773 21.98137 172.05849 305
442.90912 23.76805 172.18097 301
489.53870 28.61117 167.42230 456
269.40225 6.06547 203.50922 314
398.80402 20.26972 171.78323 313
411.46155 21.67007 171.88240 309
426.00558 23.26454 172.00291 305
442.78418 25.07683 172.18927 301
488.25284 30.12425 167.65445 456
269.40042 6.35700 203.50214 314
398.70868 21.34102 171.77383 313
411.38843 22.80007 171.91583 309
425.91495 24.50741 172.01944 305
442.68536 26.48264 172.19585 301
487.10135 31.58723 167.83109 457
269.39197 6.65274 203.50375 314
398.58969 22.44627 171.75287 313
411.27374 23.98274 171.88397 309
425.75717 25.76895 172.01476 305
442.53583 27.80317 172.16655 301
485.82187 33.08394 168.06854 458
269.39389 6.93897 203.49985 314
398.51648 23.49393 171.76064 313
411.17282 25.16262 171.86052 309
425.68063 27.01435 172.02850 305
442.39847 29.15033 172.16537 301
485.18378 34.60443 168.13002 294
269.38788 7.23358 203.50150 314
398.42776 24.60047 171.78658 313
411.03632 26.28388 171.89049 309
425.54776 28.27229 172.00150 305
477.56110 35.23193 165.11224 300
485.11176 36.26080 168.12514 294
269.38110 7.52962 203.50435 314
398.29440 25.65028 171.74355 313
410.95645 27.44766 171.90718 309
425.41391 29.46316 171.99655 305
477.38470 36.82602 165.13666 300
484.99097 37.87154 168.10733 294
269.36768 7.81494 203.50912 314
398.16187 26.76632 171.74698 313
410.81012 28.58290 171.88080 309
425.27008 30.75415 172.01753 305
477.25760 38.40289 165.10719 300
484.90280 39.49013 168.10481 293
269.36102 8.10897 203.50183 314
398.07068 27.81016 171.73888 313
410.68121 29.74381 171.85646 309
425.08896 31.98977 172.02824 305
477.06760 39.96290 165.12418 300
484.82108 41.10510 168.07440 293
269.34323 8.39981 203.49867 314
397.91885 28.91301 171.76746 313
410.55045 30.89548 171.88370 309
424.98392 33.20848 171.99660 305
476.84113 41.50259 165.12305 300
484.64902 42.73470 168.03757 293
269.33261 8.68408 203.50386 314
397.76480 29.97715 171.73264 313
410.37985 32.04087 171.89980 309
424.79984 34.44498 172.02773 305
476.35660 42.99866 165.17780 444
484.49582 44.34472 168.04189 293
269.31454 8.97964 203.50380 314
397.62271 31.04977 171.74510 313
410.21045 33.23229 171.88689 309
424.61542 35.71860 172.03802 305
474.90442 44.34007 165.42654 445
484.31396 45.95178 168.05077 293
269.29224 9.26190 203.50993 314
397.49152 32.14962 171.74005 313
410.08115 34.34577 171.89777 309
424.45255 36.91894 172.00018 305
473.46967 45.65467 165.66605 446
484.17245 47.59668 167.98280 293
269.27115 9.55379 203.50023 314
397.32913 33.18272 171.77602 313
409.89154 35.53978 171.87944 309
424.27914 38.17439 172.03543 305
472.05341 46.99231 165.89645 447
269.25757 9.84285 203.50101 314
397.18036 34.27515 171.75417 313
409.74054 36.68521 171.87123 309
424.09659 39.38346 172.00266 305
470.67462 48.30521 166.08406 448
269.23438 10.12686 203.49980 314
397.01599 35.34595 171.73593 313
409.54236 37.80600 171.88474 309
423.86456 40.64308 171.97777 305
469.27365 49.58355 166.32971 449
269.20648 10.42113 203.49785 314
396.83289 36.41227 171.76637 313
409.32388 38.94802 171.87234 309
423.67401 41.85807 172.02794 305
467.95938 50.87432 166.55063 449
269.17880 10.70116 203.49883 314
396.66412 37.47100 171.75262 313
409.17068 40.10509 171.85104 309
455.37332 49.83967 164.95647 304
466.58063 52.17822 166.74815 450
269.14856 10.99623 203.50876 314
396.47681 38.53879 171.72197 313
408.93994 41.23629 171.84444 309
455.09253 51.26042 164.95245 304
465.19406 53.43198 166.95477 451
269.12158 11.27474 203.50200 314
396.26089 39.60874 171.74298 313
408.74341 42.39246 171.85326 309
454.84296 52.67933 164.92979 303
463.89990 54.64870 167.16504 452
269.08899 11.56267 203.50375 314
396.04163 40.65942 171.73582 312
408.50851 43.49669 171.86101 309
454.57385 54.07445 164.96808 303
462.52521 55.90767 167.43309 453
269.05447 11.85506 203.50581 314
395.87216 41.75428 171.71056 312
408.32031 44.67434 171.82791 309
454.28555 55.48363 164.94815 303
460.78424 57.03955 167.69585 421
269.10544 12.16181 203.47844 289
395.64542 42.77052 171.72554 312
408.05948 45.79998 171.85318 309
453.98062 56.94156 164.93719 303
459.26813 58.19724 167.95876 297
384.47995 41.12728 171.62059 316
395.43201 43.82511 171.71805 312
407.83301 46.94107 171.83052 309
453.63733 58.30900 164.91893 303
458.95950 59.65441 167.96912 297
384.26767 42.13411 171.64037 316
395.18097 44.89141 171.74675 312
407.58609 48.08341 171.85226 309
453.36786 59.70420 164.97490 303
458.69080 61.12313 167.94138 297
384.06067 43.09319 171.60800 316
394.95407 45.96724 171.72285 312
407.35504 49.22901 171.85831 309
452.97025 61.16850 164.95972 303
458.46564 62.60393 167.92822 297
383.85223 44.10691 171.60190 316
394.75314 47.04024 171.74644 312
407.06442 50.30733 171.81422 309
451.92450 62.35741 165.13066 425
458.17737 64.03439 167.87451 297
383.59512 45.06558 171.62985 316
394.48596 48.08236 171.70720 312
406.80383 51.47092 171.82593 309
450.26361 63.37341 165.41431 427
457.86133 65.46902 167.86525 297
3192.38965 816.40955 166.67764 417
383.36420 46.06558 171.61844 316
394.23416 49.10299 171.73396 312
406.57828 52.58324 171.85841 309
448.56241 64.40732 165.73329 428
457.56015 66.90894 167.86722 297
3203.37622 839.11792 115.78971 437
3177.91992 831.73126 166.15457 397
383.16757 47.04966 171.60886 316
393.97525 50.16819 171.71509 312
435.05243 62.01280 164.86150 308
446.90912 65.41738 166.03387 429
457.27866 68.38802 167.88158 297
3177.77441 851.01013 116.57148 308
3167.65356 848.79657 166.71855 397
382.91724 48.03307 171.59073 316
393.69925 51.21597 171.69481 312
434.71399 63.30634 164.87645 308
445.24655 66.39879 166.30736 430
3145.44775 861.54712 116.69816 411
3160.56934 866.00488 166.47812 325
382.63620 48.99169 171.60660 316
393.44217 52.26442 171.70061 312
434.33618 64.60549 164.83754 308
443.61896 67.40363 166.58855 431
3129.23682 876.27820 117.52071 424
3266.56860 916.98700 165.04097 434
382.38455 49.99421 171.60297 316
393.17816 53.30050 171.71507 312
433.95355 65.88755 164.83023 308
442.00958 68.36575 166.86588 432
3113.94556 890.96124 117.89581 424
382.12579 50.96355 171.61995 316
392.89954 54.33672 171.70784 312
433.59195 67.18488 164.83871 308
440.43494 69.27946 167.11009 433
3101.12988 905.95483 117.75743 482
381.88055 51.95123 171.59090 316
392.62738 55.38285 171.71729 312
433.22083 68.41168 164.83069 308
438.80597 70.25471 167.39894 419
3090.42065 921.83014 118.21095 492
381.58344 52.91139 171.59947 316
392.29501 56.41957 171.69258 312
432.87656 69.70435 164.87346 308
436.99496 71.10615 167.73053 420
3080.37695 937.86835 118.22939 492
381.32040 53.90250 171.58418 316
392.02142 57.44641 171.68443 312
432.44937 70.99889 164.86482 308
436.03537 72.19932 167.87720 301
3071.01685 953.89215 118.20044 492
381.05093 54.84907 171.58450 316
391.69318 58.49062 171.69763 312
