# .PCD v.7 - Point Cloud Data file format
VERSION .7
FIELDS x y z rgb
SIZE 4 4 4 4
TYPE F F F U
COUNT 1 1 1 1
WIDTH 1426
HEIGHT 1
VIEWPOINT 6547.778320 -2543.582031 143.447327 -0.840784 -0.073255 -0.106266 0.525759
POINTS 1426
DATA ascii
416.01892 73.11480 164.79478 312
425.47769 76.74072 165.99922 428
433.93542 80.01050 167.81064 301
379.45807 60.12225 171.58600 316
415.60910 74.29462 164.77472 312
423.84995 77.53996 166.27995 429
433.51477 81.30404 167.78824 301
379.13171 61.06124 171.58621 316
415.18314 75.49040 164.79422 312
422.28067 78.28260 166.59677 430
378.79315 62.01533 171.58530 316
414.71552 76.67696 164.81175 312
420.70990 79.05158 166.85397 431
378.45630 63.00284 171.57935 316
414.24350 77.79442 164.80162 312
419.11499 79.83506 167.16116 432
378.08008 63.96674 171.54198 316
413.78506 78.96286 164.82146 312
417.58496 80.54413 167.42665 433
377.73627 64.92133 171.53799 316
413.36511 80.16676 164.80011 312
416.04916 81.31092 167.70323 434
377.40457 65.86375 171.56709 316
412.88492 81.32285 164.77232 312
415.24109 82.33906 167.75636 305
377.03012 66.82895 171.53920 316
412.42130 82.46232 164.82352 312
414.80518 83.52338 167.79968 305
399.98581 78.27550 164.71870 316
411.64017 83.49297 164.91763 436
414.35068 84.69958 167.73619 305
399.54517 79.32288 164.68568 316
410.15955 84.17960 165.18832 437
413.92639 85.90501 167.74976 305
399.06503 80.44804 164.68930 316
408.71817 84.89005 165.44632 438
413.43219 87.06801 167.76588 305
6536.03955 2930.84155 904.09100 1000
398.59076 81.47967 164.69724 316
407.29547 85.56773 165.65105 439
412.97531 88.29829 167.72351 305
398.14133 82.58761 164.72095 316
405.69589 86.19312 165.98941 420
412.52005 89.44645 167.69774 305
397.65524 83.63753 164.70636 317
404.10577 86.75606 166.29111 421
412.05389 90.62955 167.69197 305
25475.42969 12296.61621 7260.63330 1000
397.15311 84.71804 164.72449 317
402.44821 87.30862 166.58067 423
411.54221 91.80209 167.71170 305
396.64450 85.73364 164.69174 317
400.85406 87.87432 166.92389 424
396.12482 86.83166 164.70660 317
399.31827 88.40947 167.20883 425
395.62823 87.84310 164.72119 317
397.76556 88.97075 167.50731 426
49906.87500 25728.16992 4820.30859 1000
395.11066 88.87971 164.70404 317
396.47342 89.65268 167.70071 311
394.55136 89.96888 164.70805 317
395.97134 90.67150 167.71271 311
393.22510 90.50946 164.95876 428
395.46472 91.72397 167.71960 311
391.72067 91.07143 165.30061 429
394.97141 92.80947 167.68422 309
390.25323 91.53819 165.54391 430
394.44080 93.87501 167.69966 309
388.84152 92.07111 165.86830 431
393.92245 94.97781 167.70329 309
387.38373 92.58166 166.14743 432
393.41296 96.02573 167.65941 309
386.00488 93.04968 166.41249 433
392.90369 97.06028 167.63350 309
384.57196 93.53844 166.63922 434
392.34872 98.11694 167.62756 309
383.21332 94.00026 166.93741 435
391.80972 99.16053 167.64323 309
381.84299 94.50541 167.17177 436
43310.56250 26148.42578 -5567.61377 1000
380.49109 94.96449 167.44484 437
379.25580 95.52880 167.61641 315
378.73431 96.44032 167.64780 315
378.16626 97.38362 167.62952 315
377.59073 98.36829 167.63950 315
377.04324 99.31240 167.62202 315
376.47894 100.24278 167.63002 315
375.91312 101.16325 167.63646 315
375.35306 102.13655 167.63054 315
374.75693 103.05710 167.60660 315
374.18170 103.97852 167.59633 313
373.56897 104.93852 167.57785 313
372.99393 105.86082 167.56847 313
1846.04077 2238.70898 126.59422 499
1846.07434 2238.59717 171.45789 499
1845.95276 2237.81201 217.03839 499
1845.96960 2237.40942 262.17676 499
1845.92981 2237.91333 307.02194 499
3098.52856 5596.92578 -84.18504 1000
1190.78540 2005.22717 109.80964 438
1190.89771 2005.43420 146.63577 438
1191.64343 2006.25500 183.17682 438
1191.90381 2006.84155 219.78844 438
1192.26477 2007.10669 256.30261 438
1192.59082 2007.85461 292.75092 438
1192.37451 2008.60095 329.28601 438
23205.34570 65039.14844 2565.09912 1000
12036.73926 60694.78516 292.53305 1000
508.23792 1748.15405 102.25408 476
507.90372 1748.01416 131.35632 477
507.88107 1747.65198 160.42000 477
507.88144 1747.14050 189.89978 477
507.71381 1746.98108 218.54922 477
507.61588 1746.50098 247.44656 477
507.95837 1746.39734 276.41446 477
507.72543 1745.96838 305.51379 477
508.06488 1745.83008 334.61758 425
641.83252 5523.97949 -1068.86987 1000
-18678.57227 62631.65234 14402.14941 1000
-24814.78320 62863.99219 2480.64648 1000
-1738.46777 3978.49463 147.13554 491
-1515.57275 3319.05688 157.85789 499
-1247.48242 2648.44165 118.69070 423
-16348.21582 29763.66602 4722.27734 1000
-1263.18262 2638.32935 118.59957 474
-1265.64001 2642.06421 168.35674 430
125.66083 150.63518 167.36778 316
124.79870 149.94516 167.37117 316
124.40810 148.62878 167.57735 490
123.65135 149.66727 170.43977 312
123.06068 148.61586 167.38893 316
122.77130 149.00595 170.44069 312
122.20464 147.95854 167.38792 316
121.78295 148.51825 170.39714 441
121.03692 147.69064 167.23677 441
120.43689 148.54340 170.20602 433
119.73681 147.68633 167.03143 440
118.97907 148.65794 169.97122 432
118.26426 147.77502 166.78053 430
117.52355 148.75421 169.71431 431
116.75971 147.93327 166.49100 429
115.66338 147.51711 166.41640 314
114.82423 146.79482 166.38603 314
113.95165 146.12560 166.39453 314
112.90722 145.68828 166.28360 423
111.34640 145.82500 165.98077 422
104.08148 154.93584 166.40276 310
109.77785 145.98500 165.71339 421
103.14818 154.14783 166.37309 310
108.16880 146.16986 165.37486 420
102.24807 153.33920 166.40794 310
106.54975 146.33319 165.06326 419
101.32738 152.57361 166.36487 310
104.90862 146.46173 164.74965 418
100.45396 151.80977 166.36484 310
103.26384 146.62154 164.41983 417
99.56411 150.97643 166.37317 310
101.60537 146.82779 164.06833 416
98.65964 150.17613 166.38074 310
99.88371 146.98163 163.76562 415
97.80632 149.35747 166.37537 310
98.23648 147.09888 163.40042 312
96.89870 148.54630 166.35732 310
97.42233 146.21603 163.43443 311
96.05526 147.72635 166.40651 309
96.59691 145.32120 163.48351 311
94.78091 147.39111 166.22597 423
95.82848 144.48257 163.50299 311
93.08029 147.42310 165.94748 422
95.04219 143.54608 163.49876 311
91.39896 147.49550 165.61371 421
83.15045 156.34610 166.31622 305
94.25795 142.68973 163.55391 311
89.67209 147.58606 165.28894 420
82.22112 155.49162 166.30978 305
93.49471 141.75706 163.58774 311
87.90154 147.62263 164.98909 419
81.31576 154.53955 166.33714 305
92.75455 140.83420 163.55775 311
86.11820 147.69167 164.62302 418
80.41869 153.66571 166.32513 305
112.39995 118.94711 171.45749 315
84.31258 147.80257 164.28914 417
79.47859 152.78288 166.32330 305
111.73352 118.20438 171.44704 315
82.50681 147.81387 164.00409 416
78.59544 151.80237 166.28900 305
111.09333 117.44728 171.48502 316
80.67276 147.90578 163.62224 414
77.67154 150.91464 166.28333 305
110.40176 116.67931 171.49327 316
78.94395 147.79597 163.31401 303
76.79560 149.95752 166.29530 305
109.72034 115.94284 171.49091 316
78.18470 146.77821 163.39832 303
75.86822 149.03120 166.29054 305
109.09254 115.17657 171.47310 316
77.47375 145.71884 163.43132 303
74.98239 148.12640 166.25798 412
108.45621 114.40875 171.48280 316
76.69213 144.70598 163.44179 303
73.01183 148.18475 165.92487 411
107.79266 113.67262 171.50569 316
75.94984 143.67416 163.47459 304
71.04290 148.30515 165.55624 410
107.14291 112.87311 171.52094 316
75.22777 142.57635 163.52042 304
69.01633 148.40140 165.21042 408
59.61055 157.18184 166.22809 301
106.52762 112.12219 171.52290 316
98.08360 119.86858 171.56331 312
67.01206 148.42957 164.84920 407
58.65017 156.07715 166.20105 301
105.86523 111.34475 171.49405 316
97.40837 119.04279 171.58809 312
64.91384 148.53593 164.46877 406
57.71049 155.03026 166.20680 301
105.25453 110.57293 171.52074 316
96.71361 118.17397 171.58098 312
62.81905 148.62067 164.06268 405
56.79562 153.96144 166.21806 301
104.64503 109.76460 171.51089 316
96.10394 117.35580 171.59123 312
60.68228 148.73042 163.71417 404
55.96202 152.91859 166.23235 301
104.03310 108.98373 171.53044 316
95.42566 116.47952 171.59290 312
58.49521 148.76714 163.31099 403
54.99363 151.84692 166.21536 301
103.40474 108.16670 171.54987 316
94.72767 115.64827 171.59811 312
57.61359 147.70920 163.30183 300
54.12255 150.74419 166.19791 301
102.78333 107.41154 171.53204 316
94.11219 114.77615 171.62071 312
56.88993 146.53310 163.34837 300
53.21150 149.69942 166.16127 301
102.16706 106.59637 171.53676 316
93.44427 113.93030 171.61282 312
56.21881 145.36057 163.33424 300
51.79330 149.02696 166.01733 400
101.58277 105.79611 171.55206 316
92.80097 113.06618 171.60303 312
82.87266 121.36027 171.70950 308
49.53736 149.13481 165.61874 398
101.00364 104.96136 171.55539 316
92.17152 112.21170 171.60893 312
82.18765 120.44450 171.70470 308
47.19237 149.18051 165.23186 397
100.42543 104.18176 171.53830 316
91.56629 111.32925 171.64107 312
81.50868 119.50142 171.69691 308
44.80822 149.29218 164.78421 396
33.77706 158.26820 166.10706 297
99.80615 103.33907 171.57988 316
90.89761 110.47543 171.64056 312
80.83046 118.59217 171.72572 308
42.35968 149.40782 164.36229 395
32.86041 157.00999 166.05882 297
99.24344 102.53334 171.58400 316
90.30405 109.60558 171.61618 312
80.14819 117.61729 171.70476 308
39.90105 149.51762 163.93103 394
31.95597 155.76193 166.09546 297
98.65796 101.72388 171.55153 316
89.66477 108.72507 171.63957 312
79.45892 116.68349 171.72435 308
37.39171 149.56363 163.51862 392
31.03363 154.59286 166.05646 297
98.08442 100.86941 171.57776 316
89.09320 107.81251 171.66365 312
78.80978 115.73235 171.71483 308
35.24225 149.43402 163.16663 296
30.10813 153.32339 166.08057 297
97.51025 100.04547 171.57381 316
88.47034 106.97872 171.63838 312
78.19001 114.81349 171.74033 308
34.52335 148.05682 163.18845 296
29.25017 152.05858 166.08549 297
96.98591 99.20657 171.59132 316
87.86863 106.08127 171.65625 312
77.52863 113.82616 171.77240 308
65.73031 122.75972 171.81697 304
28.31385 150.84659 166.06808 297
96.40852 98.40494 171.61404 316
87.29504 105.18684 171.67328 312
76.87776 112.86834 171.74100 308
65.02266 121.68869 171.84123 304
26.93342 150.01439 165.94533 388
95.88473 97.54429 171.60197 316
86.69366 104.27892 171.69225 312
76.28835 111.88427 171.75328 308
64.34093 120.66863 171.86433 304
24.20819 150.11623 165.51559 387
95.32030 96.72592 171.60788 316
86.12236 103.39278 171.68625 312
75.66837 110.91585 171.77597 308
63.62827 119.62034 171.86090 304
21.43686 150.21819 165.03966 386
94.79728 95.83753 171.61691 316
85.52460 102.45620 171.67720 312
75.05804 109.97906 171.75912 308
62.95549 118.57325 171.87883 304
18.57096 150.27214 164.53847 387
94.24721 95.02113 171.59502 316
84.99878 101.55743 171.68210 312
74.40251 109.01151 171.74657 308
62.33634 117.51975 171.88063 304
15.78053 150.38725 164.09537 386
3.28244 159.15089 165.77751 290
93.75687 94.14659 171.61832 316
84.38963 100.64317 171.67886 312
73.80557 108.00721 171.79414 308
61.67281 116.43900 171.89339 304
12.87214 150.44160 163.59459 385
2.41652 157.75743 165.73601 290
93.18474 93.28114 171.60208 316
83.85140 99.72675 171.67207 312
73.22482 107.05207 171.80423 308
61.02150 115.41660 171.91283 304
9.95784 150.53029 163.09331 383
1.44723 156.33916 165.79922 291
92.69246 92.42181 171.60283 316
83.31405 98.82051 171.71979 312
72.58502 106.04649 171.80104 308
60.36443 114.35046 171.86823 304
46.18569 123.93569 171.97673 300
0.49930 154.96724 165.76080 291
92.19172 91.58678 171.63786 316
82.73113 97.87424 171.70680 312
72.03475 105.06450 171.81340 308
59.70769 113.27798 171.87956 304
45.53339 122.80988 172.00037 300
-0.44825 153.52400 165.74268 291
91.67466 90.68423 171.64510 316
82.19497 96.96593 171.70563 312
71.44553 104.08402 171.81088 308
59.12784 112.21194 171.90450 304
44.79931 121.64648 172.03217 300
-1.35289 152.09641 165.77692 291
91.18228 89.84571 171.61729 316
81.64980 96.03944 171.71150 312
70.83805 103.08288 171.78481 308
58.48999 111.10781 171.91660 304
44.13456 120.48177 172.02888 300
-2.46344 150.82094 165.71262 379
90.64540 88.94981 171.64363 316
81.10834 95.08298 171.72978 312
70.31815 102.06851 171.79828 308
57.87106 110.07063 171.91707 304
43.45365 119.31020 172.02986 300
-5.63703 150.89253 165.16302 377
90.17583 88.09396 171.64742 316
80.58653 94.15251 171.71213 312
69.70598 101.06606 171.79433 308
57.24101 108.98057 171.92078 304
42.77684 118.12476 172.04614 300
-8.97725 150.98114 164.68217 376
89.68062 87.19000 171.63138 316
80.09006 93.19110 171.73955 312
69.15343 100.04513 171.81750 308
56.63567 107.86452 171.90358 304
42.14842 116.95519 172.04628 300
-12.39260 151.07368 164.17041 375
89.20442 86.34885 171.67422 316
79.54105 92.27923 171.75497 312
68.63490 99.03765 171.84872 308
56.07444 106.78348 171.91483 304
41.49800 115.79116 172.02292 300
-15.82423 151.11461 163.55179 373
88.71165 85.42763 171.65758 316
79.06268 91.32332 171.71284 312
68.05153 98.01177 171.83942 308
55.44001 105.72389 171.95386 304
40.84080 114.55581 172.04520 300
-19.36726 151.25684 163.01762 372
-33.44518 159.79526 165.25639 286
88.24729 84.54035 171.63928 316
78.56174 90.39959 171.71992 312
67.52548 96.98986 171.81750 308
54.89030 104.61452 171.91536 304
40.22853 113.36436 172.08487 300
23.07872 123.70231 172.18781 296
-34.33863 158.15656 165.23119 286
87.81980 83.65379 171.66693 316
78.02409 89.42734 171.75328 312
66.95874 95.98946 171.83018 308
54.28300 103.51490 171.92274 304
39.59822 112.20347 172.04982 300
22.36717 122.40094 172.20822 296
-35.29116 156.51808 165.23027 286
87.34680 82.76376 171.66199 316
77.55193 88.46460 171.76080 312
66.46130 94.96958 171.84857 308
53.71228 102.40290 171.95114 304
38.99351 110.99280 172.08742 300
21.69873 121.04634 172.22086 296
-36.14211 154.88921 165.25665 286
86.88293 81.89117 171.65862 316
77.07121 87.49532 171.76828 312
65.90562 93.92703 171.85797 308
53.17989 101.28800 171.96811 304
38.32178 109.78629 172.08844 300
21.02193 119.76752 172.23386 296
-37.04774 153.18073 165.23053 286
86.44122 80.98606 171.69669 316
76.59498 86.55301 171.74493 312
65.40598 92.90842 171.83160 308
52.60686 100.17912 171.96111 304
37.74339 108.57021 172.08952 300
20.33879 118.43880 172.20198 296
-38.21388 151.71451 165.19301 366
85.99510 80.06954 171.69664 316
76.10337 85.60397 171.74568 312
64.92650 91.87576 171.83205 308
52.06678 99.07125 171.97168 304
37.16077 107.38618 172.05795 300
19.69081 117.17692 172.22855 296
-42.24590 151.81104 164.62085 365
85.56216 79.16485 171.67575 316
75.66520 84.64074 171.79149 312
64.39564 90.86075 171.84381 308
51.47540 97.93845 171.96695 304
36.55976 106.16761 172.08765 300
19.06809 115.84481 172.20337 296
-46.42724 151.92024 164.00024 363
85.10812 78.24747 171.67371 316
75.15618 83.64966 171.74899 312
63.86752 89.77724 171.86060 308
50.95302 96.84476 171.94714 304
35.99512 104.97129 172.06572 300
18.43364 114.48143 172.26564 296
-2.43739 125.83602 172.41142 292
84.69016 77.33336 171.69708 316
74.70819 82.66940 171.78012 312
63.38262 88.74392 171.87857 308
50.42558 95.70265 172.00024 304
39.01686 101.82449 172.90318 321
25.55754 109.02831 173.86203 272
-3.19351 124.36932 172.44353 292
84.29213 76.40683 171.71530 316
74.28806 81.70462 171.78415 312
62.92832 87.69928 171.87035 308
49.88766 94.59177 171.99660 304
41.68334 98.92813 173.64256 321
35.61584 102.06203 176.05565 320
18.17445 111.27069 176.52103 274
83.86787 75.49938 171.71883 316
73.83289 80.75809 171.78119 312
62.43107 86.67167 171.87363 308
50.01559 93.13477 172.13277 324
44.23189 96.08041 174.32397 322
38.33718 99.14321 176.71678 321
28.62957 104.19495 178.57018 275
12.15518 112.80305 179.69327 273
83.43228 74.59952 171.69521 316
73.38839 79.77289 171.80130 312
61.94119 85.60097 171.86511 308
52.31037 90.51683 172.84163 326
46.72201 93.37206 175.04596 324
41.01844 96.32397 177.40038 323
34.98011 99.38972 179.85732 321
13.85816 110.22474 180.05208 288
83.07166 73.68437 171.68602 316
72.92835 78.76093 171.80824 312
61.50313 84.51459 171.86606 308
54.58453 88.01894 173.50824 327
49.14590 90.73985 175.66922 325
43.55497 93.59396 178.02946 324
34.56694 98.14385 179.92126 292
13.22607 108.87702 180.08553 288
82.62701 72.75059 171.70374 316
72.50642 77.78785 171.78030 312
61.56326 83.20471 172.00168 386
56.77103 85.60009 174.15785 328
51.48921 88.20249 176.29033 326
46.02305 90.90736 178.60573 325
33.99810 96.89298 179.89763 292
12.66910 107.49712 180.07562 288
-13.72507 120.55196 180.31714 284
82.24686 71.82227 171.73621 316
72.09354 76.81407 171.79163 312
62.33471 81.55726 172.35153 374
58.89279 83.24847 174.78067 329
53.74673 85.73550 176.89705 327
48.47350 88.33912 179.23227 326
33.51514 95.67853 179.88664 292
12.07378 106.09890 180.08089 288
-14.34479 119.03122 180.28200 284
81.89075 70.91417 171.71646 316
71.69165 75.80511 171.79906 312
63.12303 79.90102 172.66602 375
59.93990 81.44486 175.14847 386
55.95240 83.34218 177.51324 328
50.67273 85.90171 179.78238 296
32.97270 94.39983 179.94086 292
-5.94680 113.14304 177.20372 288
-14.99274 117.48917 180.31340 284
81.46977 69.96931 171.73798 316
71.30101 74.78705 171.81352 312
63.93633 78.28331 172.97682 376
60.74471 79.78079 175.43529 387
57.60515 81.25338 177.99950 385
50.22691 84.75216 179.75079 296
11.61584 103.04362 176.10878 286
-14.57044 115.44193 175.94054 344
-15.56450 115.96631 180.33774 284
81.13697 69.04615 171.70818 316
70.87501 73.82734 171.80225 312
64.69147 76.70219 173.29388 377
61.48656 78.19956 175.73314 388
58.38831 79.60233 178.27766 386
49.78076 83.65588 179.74985 296
18.15911 98.37550 177.39861 287
3.25397 105.32687 178.92889 285
-19.00701 115.71126 179.90556 342
80.71939 68.10390 171.72128 316
70.47588 72.81414 171.81070 312
65.46067 75.11510 173.58875 378
62.22445 76.57838 175.98067 389
59.17723 78.00697 178.54225 387
49.33238 82.48152 179.78018 296
22.93809 94.61875 178.41112 316
10.29701 100.39051 180.17732 286
-23.61602 115.92377 179.37265 341
80.36411 67.19374 171.75380 316
70.08042 71.79455 171.80008 312
66.21605 73.56076 173.93550 379
62.95707 75.03430 176.28363 390
59.92473 76.36921 178.77539 388
48.86551 81.38740 179.79341 296
25.63747 91.89407 178.97066 333
16.88098 95.81147 181.37126 287
1.95599 102.52982 183.13907 285
80.03100 66.22974 171.71989 316
70.51182 70.45148 172.05963 382
66.95840 71.99715 174.22485 380
63.69346 73.45062 176.53784 391
60.69358 74.81667 179.06648 389
48.45187 80.26000 179.77434 296
27.80672 89.35799 179.44002 334
20.53000 92.64777 182.00781 316
9.05809 97.67766 184.23268 286
79.63203 65.26812 171.76292 316
71.20503 68.99222 172.33336 383
67.67785 70.51273 174.49988 381
64.40829 71.91945 176.80025 392
61.43435 73.23674 179.30214 390
35.98054 84.35812 177.38887 337
29.89931 87.01481 179.89745 335
23.44782 89.78042 182.58958 333
15.03788 93.44949 185.20277 315
0.76236 99.70200 187.35745 285
79.32789 64.31659 171.73885 316
71.88855 67.50328 172.64842 384
68.44402 69.01861 174.80246 382
65.11320 70.42314 177.08044 393
62.20207 71.68590 179.56308 391
37.89824 82.12016 177.88069 339
31.92964 84.67723 180.39650 336
25.68070 87.36069 183.00180 334
18.14359 90.58943 185.71664 316
7.86775 94.96564 188.26994 286
78.97946 63.39800 171.73494 316
72.58133 66.09045 172.93498 385
69.16495 67.50211 175.07048 383
65.81426 68.92881 177.34296 394
62.40737 70.39331 179.65900 300
39.71042 79.94267 178.30742 340
33.92687 82.39844 180.82288 337
27.81806 84.98976 183.46161 335
21.20563 87.77119 186.20049 317
12.58169 91.40392 188.92923 314
-0.35497 96.84386 191.49696 285
78.63968 62.43824 171.74744 316
73.23273 64.66281 173.18619 386
69.85147 66.07656 175.32716 384
66.53043 67.47987 177.56760 395
62.03878 69.34135 179.68124 300
41.55907 77.83983 178.76598 341
35.85193 80.15903 181.25476 338
29.91934 82.66399 183.86147 336
23.56271 85.28569 186.61990 334
15.80047 88.49658 189.39581 316
6.82610 92.19904 192.34421 286
-16.04392 101.70860 194.33752 266
78.30042 61.49986 171.74548 316
73.92059 63.27644 173.49875 387
70.54508 64.63275 175.57726 385
67.19861 65.99796 177.84383 396
61.65777 68.27557 179.67990 300
42.61753 76.04745 179.04652 374
37.78251 77.96686 181.68919 339
31.93174 80.38556 184.27818 337
25.73435 82.87401 187.00993 335
18.87685 85.70903 189.83913 317
10.17245 89.23028 192.77011 314
-1.45004 93.96867 195.70114 285
77.99361 60.54792 171.77419 316
74.58807 61.89197 173.73286 388
71.24590 63.20390 175.88989 386
67.88148 64.56179 178.05556 397
61.29028 67.18449 179.69571 300
43.55134 74.31628 179.32765 375
39.18514 76.09430 181.98970 372
33.93838 78.17778 184.63428 338
27.89938 80.58923 187.38785 336
21.44193 83.14220 190.24799 333
13.45489 86.36416 193.12875 315
4.33871 90.04173 196.26656 313
-16.62696 98.37930 198.82217 267
78.06042 59.39291 171.86630 422
75.26609 60.53627 174.01904 389
71.96849 61.78806 176.13689 387
68.55563 63.13094 178.28459 398
60.94005 66.13380 179.68211 300
44.40477 72.66171 179.55887 386
40.18893 74.31901 182.24982 373
35.69152 76.05294 184.97061 371
29.93385 78.36308 187.73854 337
23.68293 80.77332 190.53569 334
16.60505 83.54893 193.53468 316
7.78760 87.06192 196.61487 314
-2.37982 91.06406 199.86383 285
78.33722 58.21833 172.06071 422
75.63636 59.28260 174.22406 419
72.66651 60.42158 176.36331 387
69.28857 61.74070 178.55562 385
60.59050 65.08038 179.68048 300
45.21796 71.03485 179.83679 387
41.19114 72.58417 182.47968 374
36.74543 74.29029 185.24565 372
31.96651 76.11564 188.07993 338
25.85300 78.51041 190.91460 336
19.38926 80.96447 193.90120 333
11.12128 84.15831 196.93715 315
1.83747 87.74002 200.17670 313
-18.26081 95.55613 203.15486 257
78.62840 57.07113 172.22548 423
75.97658 58.06256 174.38832 419
73.18923 59.12863 176.60365 417
69.99139 60.33150 178.79640 386
60.24680 64.04990 179.70711 300
45.97300 69.41807 180.03430 388
42.09668 70.88538 182.72934 386
37.75449 72.52570 185.44479 373
33.21987 74.28059 188.29680 370
27.94231 76.24426 191.20261 337
21.65734 78.67478 194.14467 334
14.34153 81.39909 197.25908 316
5.36044 84.80724 200.42503 314
-4.31009 88.47350 203.95081 311
78.91366 55.88673 172.41415 424
76.28991 56.87318 174.53752 420
73.54514 57.90302 176.75540 418
70.69850 58.95222 179.03413 387
59.92741 62.95735 179.68027 300
46.72512 67.87614 180.25787 389
42.89703 69.26511 182.91252 387
38.76880 70.80402 185.69398 374
34.27560 72.51484 188.50476 371
29.56372 74.22975 191.43973 368
23.85569 76.37551 194.40506 335
17.30647 78.81976 197.53700 333
8.76879 82.01794 200.73758 315
-0.60781 85.47878 204.14708 312
79.18856 54.71242 172.57097 425
76.59444 55.67008 174.69571 421
73.85169 56.66833 176.93495 418
71.04987 57.69920 179.17838 416
51.12970 64.94986 177.92055 392
47.48620 66.29320 180.50523 390
43.71646 67.66563 183.17049 388
39.76682 69.13744 185.90994 375
35.32467 70.75506 188.72072 372
30.69754 72.43041 191.64032 369
25.83927 74.21794 194.71477 367
19.59397 76.46079 197.78954 334
12.03621 79.26164 201.00925 316
2.95107 82.55917 204.36749 313
79.50423 53.56344 172.74016 425
76.89024 54.50764 174.89687 421
74.17961 55.45144 177.06909 419
71.39539 56.46927 179.33557 417
51.84447 63.47699 178.11215 393
48.21951 64.76650 180.67902 391
44.48118 66.08755 183.35110 389
40.60884 67.49767 186.10243 386
36.36492 68.99103 188.87772 373
31.79605 70.63615 191.83377 370
27.00069 72.37513 194.87086 368
21.89727 74.20260 198.03242 335
15.22714 76.59256 201.20726 317
6.40611 79.73830 204.58810 314
79.80836 52.41842 172.91231 426
77.18803 53.34600 175.05876 422
74.48853 54.26868 177.21445 420
71.72310 55.27591 179.48299 418
52.53647 61.97153 178.34348 394
48.96880 63.24056 180.92888 392
45.29221 64.56171 183.53117 389
41.43621 65.91004 186.25543 387
37.34747 67.30190 189.11307 374
32.83894 68.92693 191.99127 371
28.16297 70.57815 195.01538 369
23.20744 72.30261 198.19247 366
17.61079 74.26736 201.46111 334
9.76430 76.99536 204.77930 316
80.08707 51.26933 173.05852 427
77.51678 52.17591 175.19049 423
74.82659 53.09408 177.39012 421
71.94543 54.08641 179.57736 304
53.22166 60.53453 178.58011 395
49.67386 61.74026 181.12552 393
46.01646 62.98652 183.76294 390
42.25159 64.28387 186.46724 388
38.32412 65.65746 189.26425 385
33.91098 67.19688 192.17398 372
29.26003 68.75571 195.16826 370
24.36754 70.44163 198.28429 367
19.31276 72.22614 201.59047 364
13.00468 74.35426 204.93031 317
80.36139 50.15195 173.18933 427
77.78493 51.01625 175.34296 424
75.14084 51.91750 177.54433 421
71.67636 53.08483 179.62253 304
53.93443 59.08145 178.77426 396
50.42506 60.27039 181.33528 394
46.78306 61.51392 183.93344 391
43.06059 62.76282 186.63997 389
39.16409 64.05071 189.45978 386
35.01015 65.46017 192.35837 373
30.39814 67.00731 195.31155 371
25.55243 68.63240 198.42963 368
20.56571 70.33141 201.68829 365
15.31702 72.07869 205.11856 363
80.66447 49.04274 173.36653 428
78.09710 49.84979 175.47810 424
75.46847 50.76443 177.68605 422
71.37582 52.09840 179.60315 304
54.59244 57.66306 178.99384 397
51.12944 58.79632 181.49123 394
47.53534 59.98523 184.14804 392
43.81693 61.20739 186.81058 390
39.97924 62.49856 189.63124 387
36.00138 63.77357 192.53389 385
31.50807 65.30471 195.45198 371
26.75001 66.82111 198.59146 369
21.76586 68.48914 201.78984 366
16.56206 70.21543 205.16589 363
80.94318 47.92268 173.53604 429
78.39244 48.73091 175.65987 425
75.75687 49.57619 177.81790 423
71.12994 51.10505 179.60417 304
55.28369 56.19440 179.18996 398
51.86224 57.34631 181.73288 395
48.29415 58.46290 184.29706 393
44.58833 59.68158 186.98753 390
40.83589 60.91421 189.78897 388
36.89064 62.17678 192.67270 385
32.54861 63.55512 195.60786 372
27.86300 65.09872 198.71843 370
22.96530 66.68157 201.89799 367
17.89016 68.31808 205.27982 364
81.22192 46.82801 173.65477 429
78.70592 47.60119 175.77965 426
76.06720 48.42316 177.95786 423
70.87248 50.07854 179.60239 304
55.82845 54.85370 179.35809 411
52.56083 55.91491 181.90486 396
49.03084 56.99034 184.49371 394
45.39449 58.16859 187.13820 391
41.62647 59.34380 189.93420 389
37.74214 60.61573 192.79713 386
33.63410 61.90890 195.79413 373
29.02529 63.33306 198.83841 371
24.19491 64.87646 202.00626 368
19.13413 66.51133 205.35878 365
81.50945 45.70187 173.81503 430
79.02606 46.48923 175.93524 426
76.40171 47.30071 178.08327 424
70.61424 49.10353 179.61755 304
56.32903 53.49641 179.52524 412
53.13189 54.50227 182.07637 409
49.78724 55.57410 184.65846 395
46.15647 56.68277 187.32764 392
42.40987 57.84903 190.09517 390
38.53174 59.03638 192.93036 387
34.54787 60.30189 195.91808 385
30.14200 61.63464 198.92859 372
25.33648 63.16090 202.09753 369
20.36916 64.66745 205.44255 366
-13463.27832 4250.29297 1629.34863 1000
81.79470 44.60042 173.96529 431
79.28367 45.37705 176.08913 427
76.70505 46.18707 178.22542 425
70.36809 48.07343 179.59935 304
56.80167 52.22216 179.69128 412
53.61293 53.15858 182.22519 410
50.37273 54.16267 184.80286 408
46.90985 55.19614 187.50368 393
43.22425 56.34998 190.24731 391
39.36464 57.47240 193.09016 388
35.40737 58.68721 196.02423 386
31.20149 59.96280 199.04308 372
26.50771 61.37342 202.21223 370
21.59640 62.92384 205.50372 367
82.07462 43.53563 174.11391 431
79.61391 44.23584 176.21819 428
77.05649 45.03536 178.37500 425
70.10156 47.10664 179.60843 304
57.27502 50.91675 179.84648 413
54.12415 51.82543 182.38425 411
50.88860 52.80473 184.95102 408
47.53321 53.79941 187.63277 406
43.98939 54.86307 190.40318 391
40.20508 55.97955 193.18930 389
36.27349 57.11055 196.16847 386
32.20066 58.35196 199.17542 384
27.66062 59.70817 202.34625 371
22.79010 61.14730 205.60492 368
82.34541 42.46503 174.26085 432
79.88768 43.15047 176.33998 428
77.32864 43.93430 178.52670 426
69.90627 46.08763 179.60114 304
57.71395 49.60169 180.02687 421
54.62094 50.48399 182.54337 411
51.40076 51.44069 185.11873 409
48.09965 52.37691 187.77693 407
44.65072 53.37302 190.52730 404
41.00968 54.45276 193.33511 390
37.12822 55.58255 196.28644 387
33.08670 56.74192 199.29935 385
28.76120 57.99980 202.43835 372
23.99117 59.36763 205.66312 369
82.63052 41.39331 174.40150 433
80.18854 42.08899 176.50354 431
77.64171 42.77932 178.61626 427
69.65326 45.05010 179.60970 304
58.13738 48.31521 180.11699 421
55.15039 49.18134 182.65515 412
51.92921 50.07361 185.22685 410
48.61311 51.02336 187.87022 407
45.23282 51.96755 190.62077 405
41.71244 52.97586 193.43356 402
37.99097 54.02004 196.36420 388
33.98487 55.19843 199.38599 385
29.89274 56.36428 202.52022 383
25.14347 57.70143 205.76616 370
18.81323 59.49734 209.09932 261
82.90736 40.32165 174.54091 433
80.48809 41.00566 176.63431 431
77.96615 41.69292 178.77974 427
69.42130 44.07986 179.62299 304
58.52066 47.10509 180.29947 422
55.57102 47.88028 182.81261 420
52.44699 48.78227 185.37407 410
49.18211 49.66825 188.00192 408
45.78198 50.58740 190.71983 406
42.28465 51.56303 193.57571 403
38.70290 52.57227 196.49416 400
34.90002 53.63511 199.47423 386
30.79372 54.77161 202.57957 384
26.30522 55.97358 205.84000 371
21.03199 57.47698 209.14600 335
83.21333 39.26947 174.65596 434
80.78414 39.89369 176.74193 432
78.29832 40.60321 178.90599 428
69.19888 43.06235 179.62146 304
58.93328 45.82480 180.40475 423
55.99979 46.60056 182.91937 421
52.95947 47.45351 185.52660 411
49.73176 48.29260 188.13947 409
46.35730 49.23862 190.88127 406
42.88591 50.17193 193.68193 404
39.32118 51.10579 196.57927 401
35.60303 52.14589 199.58395 399
31.70151 53.17996 202.68117 385
27.44933 54.31177 205.89337 372
22.33662 55.72787 209.23460 339
83.49843 38.21940 174.79265 435
81.08814 38.82682 176.90195 433
78.56811 39.49000 178.99388 429
62.16763 43.83213 178.07640 426
59.33205 44.57788 180.52554 423
56.42785 45.37716 183.06003 421
53.48443 46.14748 185.64539 419
50.26093 46.98707 188.25473 409
46.93979 47.87424 190.98293 407
43.46826 48.75973 193.77611 404
39.95004 49.70856 196.68237 402
36.28271 50.68330 199.63538 399
32.43869 51.70469 202.73293 397
28.39267 52.72548 205.93333 383
23.65232 53.99687 209.24226 340
83.73548 37.17374 174.91292 435
81.38775 37.78955 177.00664 433
78.88177 38.42198 179.12836 429
62.53773 42.64420 178.21863 426
59.71491 43.35040 180.68199 424
56.87342 44.09736 183.20212 422
53.91525 44.86391 185.72595 420
50.76318 45.65528 188.35480 410
47.47969 46.50302 191.07341 408
44.04449 47.37857 193.87595 405
40.52320 48.27602 196.72893 403
36.92325 49.23277 199.70091 400
33.09824 50.19144 202.79903 397
29.18631 51.24006 205.98808 395
24.89772 52.32352 209.33017 341
84.05066 36.12447 175.07137 436
81.65003 36.74976 177.12791 434
79.18584 37.34283 179.25803 430
62.93466 41.44005 178.34608 427
60.12735 42.11866 180.78421 425
57.28897 42.85503 183.31450 423
54.34264 43.57286 185.87825 420
51.32733 44.35031 188.49579 411
48.00052 45.16870 191.19391 408
44.60325 46.00081 193.95062 406
41.11570 46.89444 196.83960 403
37.49325 47.78008 199.80859 401
33.74429 48.73828 202.86600 398
29.87199 49.69572 206.04311 395
25.83475 50.72443 209.37126 356
-187.88931 104.38416 209.31580 295
84.32502 35.08414 175.18323 437
81.94590 35.65482 177.27962 434
79.49847 36.26876 179.35684 431
63.31117 40.25241 178.51181 428
60.56151 40.91737 180.93556 426
57.69260 41.60867 183.39954 423
54.75589 42.29711 185.95949 421
51.75507 43.04624 188.60440 418
48.54856 43.80869 191.29951 409
45.19404 44.67573 194.04050 407
41.71598 45.51195 196.92278 404
38.16242 46.36370 199.85472 401
34.41225 47.28397 202.95810 399
30.59327 48.21707 206.13017 396
26.57894 49.20552 209.37589 393
-186.90643 101.32476 209.33781 485
84.57497 34.08453 175.32806 437
82.21834 34.62061 177.37378 435
79.80826 35.19027 179.49370 431
63.69597 39.04323 178.63205 428
60.91128 39.68419 181.03510 426
58.08620 40.36457 183.55087 424
55.18615 41.04758 186.09009 422
52.18441 41.76026 188.69743 419
49.12001 42.48005 191.40190 410
45.78083 43.30067 194.17351 407
42.35074 44.11752 196.98795 405
38.77069 44.94215 199.95915 402
35.07420 45.83482 203.00420 399
31.25363 46.72696 206.14809 397
27.26123 47.71381 209.45107 394
-187.22696 98.63360 209.25969 485
84.87460 33.04374 175.43497 438
82.54647 33.57880 177.48143 436
79.83183 34.22115 179.52740 308
64.05139 37.87306 178.74046 429
61.29423 38.48732 181.19553 427
58.49174 39.15539 183.66374 425
55.62229 39.82765 186.21480 422
52.65573 40.52034 188.79266 420
49.60531 41.21806 191.51024 417
46.34151 41.95592 194.27049 408
42.87914 42.74456 197.09135 405
39.39241 43.54976 200.02020 403
35.72142 44.44205 203.07599 400
31.93244 45.32153 206.17120 397
28.00430 46.21011 209.43527 395
-187.76897 96.11390 209.27779 485
85.14925 32.05130 175.54478 438
82.80921 32.57497 177.61862 436
79.63916 33.26808 179.52618 308
64.43608 36.71273 178.86206 430
61.71861 37.29515 181.29114 427
58.88966 37.92546 183.76920 425
56.06137 38.59333 186.31105 423
53.09281 39.25499 188.88748 420
50.09592 39.93518 191.59903 418
46.88807 40.64288 194.34843 409
43.49284 41.41406 197.13684 406
39.98347 42.17951 200.05959 404
36.34372 42.99287 203.11542 401
32.56742 43.84087 206.23860 398
28.68354 44.70441 209.46120 395
-188.16875 93.43230 209.33168 485
-190.31976 93.93793 216.32329 296
85.34162 31.04128 175.63968 458
83.12059 31.54923 177.72231 437
79.50401 32.31542 179.53004 308
64.81364 35.54808 179.01289 430
62.08867 36.10888 181.41093 428
59.30864 36.72932 183.87848 426
56.47177 37.36417 186.40416 423
53.51557 37.97986 189.00366 421
50.52830 38.62498 191.67906 419
47.41422 39.30870 194.39888 416
44.05484 40.05022 197.23454 407
40.59020 40.80983 200.14977 404
36.94839 41.60436 203.14874 402
33.25703 42.44901 206.30606 399
29.36238 43.24155 209.51202 396
-183.42374 89.72472 216.38608 297
85.38380 30.11728 175.71259 458
83.26325 30.56300 177.81291 456
79.34498 31.38152 179.56323 308
65.17966 34.36229 179.12933 431
62.48423 34.94638 181.54884 429
59.75526 35.54136 183.99837 426
56.90139 36.15430 186.49641 424
53.98641 36.76250 189.07280 422
50.99902 37.40939 191.75737 419
47.90648 38.06749 194.48994 417
44.63050 38.71740 197.34157 408
41.20007 39.43243 200.22038 405
37.59146 40.23726 203.24016 402
33.92161 41.02422 206.33383 400
30.04705 41.81372 209.54544 397
-182.96346 87.02393 216.33272 439
85.41816 29.16204 175.73903 458
83.30990 29.58589 177.87573 456
79.19965 30.44643 179.53413 308
65.55932 33.24933 179.25620 432
62.88961 33.78823 181.61824 429
60.12780 34.36798 184.08391 427
57.31386 34.91435 186.60544 425
54.43567 35.50288 189.18417 422
51.44075 36.14161 191.86919 420
48.36706 36.75607 194.57375 417
45.22960 37.38216 197.41835 415
41.79170 38.12632 200.29893 406
38.21437 38.83237 203.25598 403
34.54926 39.60106 206.37605 400
30.71869 40.40009 209.56691 398
-183.10510 84.31992 216.34515 439
85.51173 28.19691 175.79753 459
83.34962 28.62449 177.91426 457
79.07840 29.48998 179.52335 308
65.92107 32.09484 179.37674 432
63.28063 32.61842 181.77168 430
60.54775 33.13795 184.19231 428
57.73108 33.71842 186.72208 425
54.86094 34.27139 189.25667 423
51.90588 34.89555 191.90572 421
48.87059 35.50378 194.67838 418
45.71856 36.12724 197.47624 416
42.37951 36.78638 200.36708 406
38.84003 37.47015 203.33463 404
35.18019 38.18870 206.43367 401
31.40326 38.96511 209.58589 398
-183.10683 81.72241 216.35332 424
85.55739 27.22823 175.84647 459
83.43240 27.64196 177.95598 457
78.92373 28.51250 179.56560 308
66.32892 30.95179 179.50490 433
63.64853 31.45585 181.88242 431
60.93307 32.00604 184.30249 428
58.15620 32.53128 186.80898 426
55.27663 33.11152 189.35043 424
52.36321 33.64631 192.00111 421
49.31629 34.25138 194.70996 419
46.20047 34.82084 197.52197 416
42.95000 35.45090 200.41821 407
39.48796 36.13447 203.40715 404
35.82677 36.83084 206.43219 402
32.06082 37.58298 209.64404 399
-183.11284 79.03330 216.39900 424
-190.39189 80.40978 223.46962 321
85.61204 26.30570 175.90163 459
83.47075 26.70810 177.99222 457
78.79893 27.57845 179.53770 308
66.67899 29.81653 179.59053 433
64.02122 30.32944 181.99438 431
61.33183 30.81487 184.41760 429
58.59094 31.34988 186.89044 427
55.72015 31.86220 189.47272 424
52.81742 32.42587 192.08702 422
49.77139 32.96922 194.82999 419
46.68875 33.52900 197.57932 417
43.47474 34.17285 200.49934 414
40.06966 34.77868 203.44336 405
36.47165 35.45852 206.48923 402
32.72911 36.16360 209.65820 400
-183.10057 76.42828 216.32159 424
-187.70215 77.21313 223.35477 322
85.67455 25.35629 175.95056 460
83.52106 25.72765 178.07025 458
78.68445 26.60372 179.53651 308
66.82455 28.76688 179.66945 453
64.39787 29.16705 182.07976 451
61.73817 29.66486 184.51627 430
58.99969 30.17118 186.98257 427
56.17316 30.68493 189.54010 425
53.22551 31.19157 192.16576 422
50.22326 31.74197 194.86682 420
47.15872 32.27289 197.63361 417
44.00608 32.84344 200.51070 415
40.65926 33.43098 203.46594 406
37.09304 34.09665 206.51698 403
33.42100 34.78003 209.71364 400
-183.19328 73.80125 216.33038 425
-185.11353 74.05894 223.29729 323
85.71714 24.39459 175.98611 460
83.60709 24.78022 178.10539 458
78.57948 25.67202 179.55989 308
66.88624 27.68455 179.72997 453
64.44008 28.10141 182.11302 451
61.97091 28.55274 184.58073 449
59.39207 28.98604 187.10692 446
56.58783 29.49681 189.63263 425
53.68451 29.97691 192.27675 423
50.71672 30.49525 194.94000 421
47.65279 31.01486 197.71324 418
44.46569 31.56404 200.56432 416
41.22905 32.15995 203.55606 413
37.72602 32.77201 206.56830 404
34.06048 33.39107 209.74254 401
-183.21045 71.17898 216.32330 425
-182.67175 70.99261 223.27788 361
85.77100 23.49612 176.03056 460
83.69458 23.83731 178.12173 458
78.46590 24.68632 179.55971 308
66.98973 26.59047 179.75522 453
64.55149 27.01413 182.17593 451
62.02032 27.47245 184.63142 449
59.47486 27.85216 187.13313 447
56.85098 28.31356 189.71843 444
54.12722 28.74793 192.31641 424
51.14818 29.24973 195.03204 421
48.12966 29.74278 197.79356 419
44.96970 30.31321 200.62561 416
41.76237 30.85908 203.56305 414
38.34946 31.43143 206.62897 404
34.70989 32.02677 209.71658 402
-181.94740 68.31357 223.24255 361
85.81927 22.53734 176.08014 461
83.73177 22.87204 178.19160 458
78.35581 23.75660 179.54175 308
67.05122 25.58927 179.80678 454
64.61146 25.96865 182.18854 452
62.10430 26.34550 184.62219 449
59.57291 26.74321 187.15482 447
56.95876 27.17455 189.74539 444
54.27888 27.62449 192.39255 442
51.47535 28.05278 195.06708 439
48.57315 28.54654 197.85617 419
45.46666 29.02006 200.69083 417
42.24157 29.58660 203.63263 414
38.93455 30.08650 206.63873 411
35.33240 30.67803 209.78737 402
-181.23026 65.56680 223.24496 361
85.90664 21.60440 176.13339 461
83.82023 21.93456 178.22501 459
78.24384 22.80922 179.55701 308
67.14537 24.49460 179.83652 454
64.69064 24.90903 182.22227 452
62.17149 25.26221 184.66821 449
59.65561 25.67515 187.17815 447
57.01377 26.06691 189.75063 445
54.38147 26.48044 192.37614 442
51.61322 26.90007 195.07495 440
48.81253 27.35293 197.85661 437
45.89544 27.81116 200.73978 435
42.72847 28.26306 203.64836 415
39.47638 28.79285 206.69914 412
35.99300 29.32685 209.78790 403
-180.57776 62.88787 223.18756 361
85.98497 20.67589 176.19580 461
83.88243 20.97242 178.25194 459
78.14743 21.81204 179.57147 308
67.22733 23.46553 179.85507 454
64.77963 23.78978 182.25824 452
62.31269 24.19000 184.73341 450
59.73171 24.58973 187.21625 447
57.11535 24.94967 189.77498 445
54.47275 25.34735 192.44687 443
51.70590 25.74129 195.10201 440
48.89620 26.17500 197.88605 437
46.00382 26.57523 200.74519 435
43.01414 27.03475 203.66714 432
39.91366 27.49452 206.69267 429
36.59575 27.96492 209.83342 410
-180.02702 60.18391 223.17683 361
86.03582 19.73473 176.21252 461
83.92268 20.04820 178.30391 459
78.06345 20.87869 179.56927 308
67.28845 22.39585 179.93161 455
64.85390 22.75830 182.32332 452
62.37496 23.09413 184.77295 450
59.82755 23.47088 187.23726 448
57.20791 23.86240 189.83469 445
54.54607 24.23058 192.47322 443
51.80745 24.58514 195.16455 440
48.99488 24.98467 197.93394 438
46.08503 25.42805 200.78960 435
43.11716 25.83488 203.71315 432
40.03969 26.27204 206.69629 430
36.92354 26.71674 209.81485 427
-179.57021 57.52840 223.20409 383
86.11237 18.80527 176.26123 462
83.99043 19.08931 178.35730 460
77.99352 19.92042 179.55249 308
67.33459 21.34408 179.93373 455
64.94304 21.66355 182.32909 453
62.47346 22.03429 184.78999 450
59.89624 22.34714 187.28218 448
57.33261 22.71352 189.84760 446
54.64301 23.07128 192.48502 443
51.88837 23.44999 195.19601 441
49.10080 23.85864 197.95900 438
46.20680 24.22654 200.80769 435
43.22987 24.62938 203.73454 433
40.18225 25.04445 206.75653 430
37.05404 25.44390 209.81799 428
-179.60539 54.86359 223.21796 383
86.16598 17.86594 176.30742 462
84.06602 18.14109 178.40086 460
77.89381 18.94828 179.56531 308
67.43803 20.29464 179.99657 455
65.01406 20.61898 182.38065 453
62.53727 20.91664 184.83307 451
60.02717 21.26828 187.31827 448
57.39549 21.59419 189.86876 446
54.74136 21.96271 192.50005 443
52.03670 22.29689 195.19942 441
49.21924 22.65072 197.96387 438
46.34735 23.03399 200.83318 436
43.34808 23.44141 203.75101 433
40.29365 23.81241 206.74159 431
37.16712 24.22831 209.82567 428
-179.59618 52.30262 223.16133 383
86.24023 16.92894 176.35161 462
-122.28808 15.10389 -30.86456 460
77.82651 17.96068 179.55405 308
67.49959 19.24042 180.02354 455
65.10039 19.52839 182.42487 453
62.62947 19.85620 184.87727 451
60.07505 20.15718 187.35760 448
57.48799 20.48253 189.92274 446
54.83007 20.81503 192.55157 444
52.10590 21.15131 195.20760 441
49.33381 21.50408 197.98853 438
46.44765 21.84345 200.84671 436
43.46002 22.22995 203.74939 434
40.46632 22.58645 206.74310 431
37.31973 22.97627 209.84459 428
-179.56860 49.70334 223.16783 383
86.31405 16.02245 176.36336 462
84.21413 16.25407 178.45866 460
77.74601 17.02640 179.53761 308
67.57468 18.20281 180.07761 456
65.18788 18.49033 182.42822 453
62.72462 18.77448 184.89035 451
60.17643 19.07426 187.38202 449
57.62371 19.38527 189.94017 446
54.93389 19.68831 192.55792 444
52.21839 20.01137 195.25807 441
49.41755 20.36900 198.02620 439
46.54483 20.68931 200.82390 436
43.63459 21.02948 203.73975 434
40.62660 21.38773 206.76227 431
37.49004 21.72840 209.84593 428
-179.57922 47.21947 223.21526 383
86.38677 15.09081 176.40366 463
84.27915 15.31576 178.50095 461
77.71434 16.03958 179.56139 308
67.65511 17.16816 180.11421 456
65.27197 17.41490 182.49530 454
62.78337 17.69589 184.93159 451
60.27146 18.01358 187.38451 449
57.71942 18.29314 189.95659 447
55.03508 18.58192 192.59464 444
52.32883 18.84683 195.26013 442
49.52546 19.19343 198.03838 439
46.66065 19.49040 200.87778 437
43.75762 19.85020 203.75345 434
40.71019 20.15569 206.79720 431
37.64504 20.52214 209.86084 429
-179.53906 44.57708 223.13478 383
86.43698 14.18693 176.45970 463
84.34010 14.40093 178.50276 461
77.64894 15.11011 179.57246 308
67.75953 16.15026 180.13023 456
65.35544 16.39956 182.52127 454
62.89950 16.61740 184.92142 452
60.37201 16.92953 187.44104 449
57.78211 17.20499 189.98405 447
55.15549 17.44799 192.61108 444
52.42589 17.76796 195.29256 442
49.63271 18.03400 198.03546 440
46.80392 18.33508 200.88976 437
43.90016 18.64989 203.78970 434
40.90149 18.95065 206.76924 432
37.79432 19.24817 209.88562 429
-179.54324 42.00433 223.20604 384
86.50452 13.26864 176.47812 463
84.45165 13.44820 178.53282 461
77.58762 14.13288 179.58330 308
67.85601 15.10863 180.17924 456
65.42939 15.33218 182.51622 454
62.98311 15.56268 184.97179 452
60.46392 15.81509 187.47563 449
57.87717 16.05243 190.02510 447
55.25571 16.31540 192.64328 445
52.53939 16.61687 195.28558 442
49.79412 16.85593 198.05376 440
46.91653 17.13779 200.91460 437
44.00564 17.46891 203.77768 435
41.04821 17.74746 206.80927 432
37.93176 18.04643 209.91132 429
-179.54697 39.48058 223.12981 384
86.59465 12.33485 176.49367 463
84.52941 12.51861 178.59923 461
77.54586 13.16072 179.55591 308
67.94916 14.06775 180.18845 457
65.54340 14.29054 182.56334 454
63.09568 14.51673 184.97452 452
60.58895 14.74036 187.46530 450
57.99271 14.98095 190.00923 447
55.35064 15.19238 192.65079 445
52.65442 15.44919 195.30516 443
49.92301 15.73658 198.09970 440
47.07782 15.96360 200.88570 437
44.14209 16.26375 203.79529 435
41.13240 16.51473 206.83267 432
38.08009 16.78541 209.88091 429
-179.50089 36.94989 223.12428 384
86.67592 11.41305 176.53017 465
84.56443 11.58595 178.62207 461
77.49795 12.18995 179.58179 308
67.99299 13.01390 180.19815 457
65.59679 13.21529 182.58296 454
63.14262 13.43076 185.00595 452
60.66176 13.66401 187.51178 450
58.07777 13.89239 190.03522 447
55.46312 14.10584 192.66202 445
52.78581 14.31624 195.34984 443
50.01681 14.56463 198.09888 440
47.18306 14.81746 200.93739 438
44.28342 15.05185 203.83220 435
41.29695 15.31159 206.84122 432
38.20124 15.58642 209.91740 430
-179.55206 34.30106 223.12491 384
86.72736 10.51489 176.54541 465
84.67450 10.65794 178.63829 462
77.47479 11.22352 179.54222 308
68.12409 11.99549 180.24066 457
65.69572 12.16461 182.64067 455
63.24483 12.39307 185.04065 452
60.77507 12.58284 187.54747 450
58.17139 12.79926 190.07030 448
55.59418 12.99172 192.68208 446
52.88938 13.22443 195.37892 443
50.16245 13.41837 198.11711 441
47.33941 13.64414 200.94780 438
44.44626 13.86915 203.84752 435
41.45111 14.11480 206.85159 433
38.37168 14.34823 209.92717 430
-179.55009 31.84077 223.16054 384
86.79516 9.56905 176.56851 465
84.75655 9.70981 178.65474 462
77.47197 10.28719 179.54938 308
68.20393 10.93347 180.24893 457
65.81050 11.13486 182.65250 455
63.36450 11.28998 185.06526 453
60.83278 11.49105 187.55959 450
58.33110 11.69678 190.09836 448
55.71147 11.88046 192.71127 446
53.04554 12.09037 195.39772 443
50.29578 12.27925 198.10341 441
47.44423 12.48952 200.95149 438
44.57568 12.68472 203.85806 435
41.59818 12.93958 206.82393 433
38.49613 13.14610 209.90475 430
-179.53310 29.28931 223.14200 384
86.89473 8.67650 176.62247 465
84.83637 8.78415 178.69545 462
77.42760 9.30456 179.57289 308
68.30662 9.92389 180.27122 457
65.88126 10.08687 182.66115 455
63.46179 10.26119 185.11456 453
60.97842 10.42342 187.58655 451
58.43074 10.57928 190.10062 448
55.80048 10.78613 192.73927 446
53.13773 10.96758 195.40739 443
50.38082 11.12866 198.12161 441
47.58488 11.32344 200.94029 438
44.69296 11.50361 203.85066 436
41.75014 11.73014 206.82457 433
38.66439 11.91140 209.93950 430
-179.58255 26.66569 223.20323 384
86.95358 7.75203 176.61842 466
84.92239 7.87685 178.70459 462
77.42821 8.33562 179.57443 308
68.39393 8.89756 180.30135 458
65.99267 9.04964 182.70370 455
63.56351 9.19526 185.12578 453
61.07555 9.33973 187.60670 451
58.50972 9.49321 190.15752 449
55.94000 9.64379 192.74182 446
53.28392 9.81826 195.40889 444
50.54121 9.97533 198.14661 441
47.70738 10.16447 200.97804 439
44.80901 10.32936 203.88918 436
41.86617 10.54720 206.84532 433
38.80550 10.72664 209.91393 430
-179.51254 24.10729 223.17850 384
-187.09352 24.52997 272.06409 472
-186.80571 24.53689 278.99023 497
-186.78798 24.54734 286.14194 496
-186.68282 24.62036 293.16016 495
87.03045 6.84468 176.65637 466
85.00940 6.94732 178.75032 462
77.44006 7.37048 179.56677 308
68.48198 7.87874 180.31723 458
66.08669 8.00272 182.72598 455
63.66808 8.11035 185.15105 454
61.17530 8.29585 187.59489 451
58.63475 8.39828 190.14343 449
56.03322 8.55567 192.78252 446
53.40222 8.68895 195.44855 444
50.67455 8.85668 198.14970 441
