# .PCD v.7 - Point Cloud Data file format
VERSION .7
FIELDS x y z rgb
SIZE 4 4 4 4
TYPE F F F U
COUNT 1 1 1 1
WIDTH 1386
HEIGHT 1
VIEWPOINT 6675.452148 -3944.810059 146.475342 -0.222937 -0.140301 0.029381 0.964236
POINTS 1386
DATA ascii
49.88430 -15.61440 198.13153 442
-177.17064 -5.33867 -14.17151 439
44.26932 -15.77999 203.72792 436
41.37636 -15.90150 206.64789 434
38.36397 -16.00612 209.68704 431
-179.52051 -22.65505 223.17598 384
85.80849 -15.34245 176.98131 465
83.74946 -15.43727 179.03525 463
69.61801 -15.96138 178.32120 460
67.31144 -16.03699 180.60229 458
64.98723 -16.10170 182.91415 456
62.56661 -16.21456 185.28683 453
60.15946 -16.30184 187.76051 451
57.61462 -16.40780 190.25836 449
55.07345 -16.50505 192.80734 446
52.41811 -16.59765 195.40755 444
49.75180 -16.71098 198.09428 442
46.97401 -16.81869 200.89992 439
44.15310 -16.93362 203.70990 436
41.24847 -17.05155 206.68835 434
38.24034 -17.16571 209.68103 431
-179.61005 -25.16430 223.14902 384
85.72103 -16.21942 176.98952 465
83.70733 -16.29946 179.02950 463
69.54539 -16.93515 178.26883 460
67.24929 -17.03848 180.58466 458
64.88466 -17.12009 182.90721 455
62.48532 -17.20575 185.30859 453
60.02673 -17.33438 187.73505 451
57.55444 -17.43801 190.20799 448
54.93170 -17.57494 192.78572 446
52.34360 -17.67120 195.39217 443
49.61319 -17.80397 198.09412 441
46.88655 -17.91676 200.85999 439
44.04234 -18.04209 203.71367 436
41.08363 -18.18034 206.65633 433
38.10003 -18.33917 209.67401 431
-179.53984 -27.62177 223.12766 384
85.63961 -17.07951 176.95828 464
83.60019 -17.21318 178.98277 462
69.46071 -17.89163 178.28029 460
67.15755 -17.98696 180.54073 458
64.82054 -18.11705 182.86700 455
62.40160 -18.25270 185.27423 453
59.96905 -18.36846 187.68542 451
57.42574 -18.49400 190.21837 448
54.84644 -18.62901 192.76227 446
52.19758 -18.75603 195.41618 443
49.49524 -18.93001 198.08342 441
46.71718 -19.04914 200.85558 439
43.88094 -19.19944 203.73312 436
40.97832 -19.35671 206.66022 433
37.94662 -19.49129 209.69435 430
-179.50740 -30.15215 223.14787 384
85.55412 -17.98209 176.93344 464
83.54325 -18.10364 178.97186 462
69.36646 -18.85467 178.25304 460
67.07571 -18.99605 180.50394 457
64.71231 -19.11473 182.86369 455
62.33278 -19.28768 185.24355 453
59.83750 -19.39895 187.66304 450
57.35329 -19.56562 190.18394 448
54.75111 -19.70570 192.73181 446
52.09727 -19.83355 195.40395 443
49.37849 -20.03201 198.07234 440
46.59774 -20.14720 200.83284 438
43.75974 -20.33281 203.70073 436
40.83067 -20.53122 206.66179 433
37.81102 -20.66881 209.66232 430
-179.52161 -32.70570 223.11580 384
85.45892 -18.85763 176.91316 464
83.43041 -18.98374 178.94847 462
69.28104 -19.84973 178.22379 459
66.98176 -20.00008 180.50360 457
64.62738 -20.11721 182.83447 455
62.22745 -20.30891 185.22964 453
59.77726 -20.44020 187.66406 450
57.22308 -20.60920 190.17081 448
54.67421 -20.79821 192.72330 445
52.02798 -20.94040 195.35965 443
49.27176 -21.11134 198.05748 440
46.47626 -21.27594 200.81888 438
43.62555 -21.48607 203.69107 436
40.69665 -21.66736 206.64841 433
37.66531 -21.83992 209.67331 430
-179.56723 -35.16632 223.13785 384
-187.11678 -35.79265 271.52536 399
-186.81937 -35.84155 278.56305 496
-186.76306 -35.84322 285.49084 496
-186.75935 -35.83873 292.61203 495
85.41216 -19.70386 176.86842 464
83.37302 -19.87264 178.91415 462
69.22221 -20.82896 178.19475 459
66.92109 -20.97142 180.49207 457
64.53303 -21.14465 182.79597 455
62.12725 -21.33347 185.17281 452
59.67697 -21.47388 187.66368 450
57.16697 -21.64577 190.12622 448
54.55106 -21.85389 192.70273 445
51.90336 -22.04962 195.32466 443
49.20241 -22.20943 198.06674 440
46.40200 -22.41832 200.79774 437
43.51200 -22.60094 203.66096 435
40.54049 -22.80976 206.61858 433
37.52227 -23.01218 209.65762 430
-179.46205 -37.69479 223.12198 384
85.35589 -20.60376 176.82869 464
83.28941 -20.73922 178.90169 462
69.14381 -21.80486 178.17917 459
66.82988 -21.98149 180.45972 457
64.47153 -22.16659 182.76068 455
62.06843 -22.34106 185.17020 452
59.59819 -22.51682 187.63672 450
57.06565 -22.73680 190.11021 447
54.46449 -22.91721 192.68471 445
51.81742 -23.13688 195.31113 443
49.06120 -23.29817 198.04025 440
46.26430 -23.53150 200.78670 437
43.36490 -23.74423 203.65594 435
40.41920 -23.97653 206.59059 432
37.38627 -24.22372 209.65051 430
-179.46301 -40.22941 223.13646 384
85.28642 -21.49202 176.82913 463
83.23598 -21.66801 178.85338 461
69.04652 -22.79248 178.10632 459
66.76106 -22.96029 180.41521 457
64.36085 -23.14437 182.74135 454
61.95170 -23.37803 185.14343 452
59.47609 -23.54204 187.61333 450
56.96966 -23.76446 190.12633 447
54.39145 -23.99168 192.68919 445
51.70300 -24.20109 195.30865 442
48.97209 -24.46756 198.01552 440
46.17126 -24.67505 200.81383 437
43.28801 -24.90668 203.65875 434
40.32203 -25.15930 206.62007 432
37.25993 -25.41103 209.64804 429
-179.54428 -42.79778 223.13225 383
85.19450 -22.34709 176.78677 463
83.13902 -22.53767 178.82286 461
75.40228 -23.22949 179.57623 308
66.66391 -23.98452 180.36378 456
64.27811 -24.16542 182.74025 454
61.88152 -24.38223 185.12885 452
59.39319 -24.61053 187.56351 450
56.86152 -24.83903 190.06442 447
54.28505 -25.08633 192.66473 445
51.58658 -25.28622 195.30475 442
48.89289 -25.53260 197.97897 440
46.04290 -25.79396 200.76251 437
43.13595 -26.03929 203.63078 434
40.18539 -26.29511 206.57039 432
37.11385 -26.58967 209.65691 429
-179.54230 -45.30428 223.17671 383
85.12701 -23.23754 176.73994 463
83.07887 -23.44688 178.80864 461
75.42514 -24.16130 179.59396 308
66.58347 -24.97011 180.34665 456
64.20431 -25.18246 182.72176 454
61.81040 -25.42010 185.07143 452
59.29247 -25.65156 187.53870 449
56.78162 -25.88530 190.03246 447
54.15906 -26.14175 192.61720 444
51.50108 -26.40066 195.28615 442
48.74856 -26.66912 197.99182 439
45.95337 -26.95064 200.78471 437
43.03320 -27.17572 203.61603 434
40.03765 -27.47947 206.60721 431
36.95792 -27.78412 209.61053 415
-179.48904 -47.83326 223.18553 383
85.05861 -24.12171 176.74550 463
83.01411 -24.31959 178.74713 461
75.50677 -25.10077 179.59566 308
66.48739 -25.98683 180.30624 456
64.14915 -26.20235 182.67401 454
61.70588 -26.44159 185.08432 451
59.22923 -26.69102 187.52505 449
56.70683 -26.95741 190.02286 447
54.06910 -27.22791 192.58739 444
51.41867 -27.50611 195.24254 442
48.66617 -27.80426 197.94557 439
45.83899 -28.05985 200.73688 436
42.84250 -28.34703 203.63103 419
39.68701 -28.66069 206.53537 417
36.38919 -28.98653 209.59593 408
-179.45654 -50.37137 223.11739 383
84.99130 -25.03779 176.70868 463
82.94537 -25.22901 178.73738 461
75.58499 -26.03094 179.58588 308
66.43938 -26.98201 180.28687 456
64.04990 -27.24794 182.61346 454
61.63908 -27.48327 185.01791 451
59.11909 -27.78021 187.48532 449
56.57465 -28.02492 190.01018 446
53.97363 -28.30267 192.58662 444
51.30830 -28.62246 195.22296 441
48.43587 -28.89933 197.91039 424
45.44226 -29.23198 200.68944 422
42.35224 -29.55464 203.57715 419
39.18681 -29.89130 206.53110 416
35.77835 -30.26842 209.55110 407
-179.56210 -52.91609 223.16646 383
84.93670 -25.88852 176.63707 462
82.88469 -26.12026 178.69199 460
75.64041 -26.96155 179.60304 308
66.35443 -28.00647 180.26085 456
63.96511 -28.24106 182.59178 453
61.51305 -28.52623 184.99280 451
59.02967 -28.78948 187.45735 449
56.44732 -29.11079 189.99500 431
53.69613 -29.39449 192.52997 429
50.87980 -29.73063 195.15306 426
47.94855 -30.08471 197.88934 424
44.98692 -30.39612 200.68762 421
41.86830 -30.74995 203.52850 418
38.66878 -31.09788 206.47655 409
35.20444 -31.51536 209.55206 407
-179.50485 -55.42483 223.17732 383
84.86835 -26.78739 176.63345 462
82.82561 -27.06076 178.67415 460
75.73900 -27.89922 179.59161 308
66.28521 -29.00082 180.21162 455
63.88387 -29.29578 182.55254 453
61.37273 -29.55001 184.94972 435
58.74621 -29.88534 187.37994 433
56.05204 -30.23275 189.91919 430
53.29085 -30.51655 192.46384 428
50.44698 -30.88363 195.11003 425
47.52625 -31.23329 197.82860 423
44.51046 -31.59844 200.59363 420
41.40396 -31.94937 203.51050 418
38.07851 -32.35748 206.48000 409
34.59172 -32.80609 209.54897 406
-179.54608 -57.97807 223.12129 383
84.81042 -27.70484 176.59900 462
82.74528 -27.93561 178.60651 460
75.82528 -28.82266 179.59792 308
66.08938 -30.00344 180.19162 439
63.59810 -30.35419 182.50310 437
61.00801 -30.66419 184.85768 435
58.37961 -30.96640 187.30147 432
55.65048 -31.32833 189.84349 430
52.88538 -31.65853 192.38043 427
49.99668 -32.03898 195.03926 425
47.06879 -32.40810 197.75000 422
44.04937 -32.77916 200.54337 420
40.92680 -33.20338 203.46416 411
37.52636 -33.61040 206.44269 408
33.98462 -34.03215 209.52213 405
-179.98752 -60.57549 223.09859 362
84.75571 -28.58074 176.55484 462
82.67604 -28.83664 178.59915 460
75.91781 -29.73644 179.59831 308
65.74020 -31.02873 180.06348 438
63.23853 -31.39333 182.39337 436
60.63961 -31.72492 184.80573 434
57.96933 -32.07307 187.22876 432
55.26208 -32.45860 189.72816 429
52.46400 -32.84740 192.32990 427
49.58127 -33.17568 194.99582 424
46.58998 -33.60476 197.71191 422
43.55738 -33.97316 200.54013 419
40.35278 -34.42107 203.41870 410
36.92708 -34.85887 206.38702 407
33.39181 -35.32863 209.50220 405
-180.51497 -63.18149 223.12886 362
84.66139 -29.47755 176.51497 461
82.63968 -29.76021 178.53035 459
76.01388 -30.68184 179.58661 308
65.42545 -32.10329 179.95668 438
62.84087 -32.46669 182.29584 436
60.26207 -32.84408 184.67450 433
57.56829 -33.20029 187.16318 431
54.83337 -33.56591 189.68230 429
52.03291 -33.98962 192.27785 426
49.15078 -34.38924 194.90424 424
46.17720 -34.79943 197.62502 421
43.11188 -35.22637 200.48648 419
39.78706 -35.66750 203.37434 410
36.32167 -36.14731 206.36992 407
32.77245 -36.63537 209.47188 404
-181.18021 -65.82935 223.14769 362
84.63602 -30.36229 176.45679 461
82.57990 -30.65684 178.52364 459
76.11882 -31.57689 179.57822 308
65.03347 -33.16978 179.89034 437
62.47472 -33.53596 182.19006 435
59.84804 -33.93185 184.60220 433
57.18272 -34.31475 187.08461 431
54.41951 -34.69487 189.58435 428
51.59748 -35.13601 192.19199 426
48.70115 -35.53894 194.84734 423
45.69344 -35.97314 197.61601 421
42.53584 -36.43906 200.41127 412
39.20982 -36.92751 203.33870 409
35.71899 -37.39431 206.34784 406
32.14650 -37.95612 209.45380 404
-181.79216 -68.46994 223.20940 362
84.56110 -31.24807 176.41539 461
82.42014 -31.59680 178.44580 443
76.20484 -32.52779 179.59447 308
64.70194 -34.23567 179.77242 437
62.12408 -34.65079 182.11833 435
59.46862 -35.02294 184.49382 432
56.80781 -35.42370 186.96536 430
54.01059 -35.85774 189.50447 428
51.19720 -36.26369 192.13263 425
48.27172 -36.70119 194.77670 423
45.21315 -37.18293 197.51176 420
42.00740 -37.67073 200.35245 411
38.61544 -38.17982 203.24750 408
35.10861 -38.71666 206.27730 406
31.53736 -39.24060 209.42006 403
-183.18011 -71.28579 216.40358 426
-182.47626 -71.22519 223.15407 361
84.39278 -32.18235 176.33923 444
82.14772 -32.52209 178.35258 442
76.31008 -33.44535 179.58261 308
64.32279 -35.29702 179.65660 436
61.74466 -35.71969 181.99033 434
59.12550 -36.15340 184.41789 432
56.40139 -36.57710 186.90689 429
53.60581 -36.97660 189.42950 427
50.75734 -37.44411 192.01793 425
47.80682 -37.88410 194.69894 422
44.72683 -38.39836 197.46165 413
41.45574 -38.93459 200.31908 410
38.06160 -39.47391 203.20877 408
34.55190 -40.01861 206.21928 405
30.91787 -40.55683 209.36320 402
-183.18793 -73.85596 216.36043 426
-184.86107 -74.07782 223.16948 324
84.11927 -33.13505 176.24831 444
81.87784 -33.47782 178.26274 442
76.44644 -34.35042 179.58170 308
63.96344 -36.35875 179.54842 436
61.39200 -36.80917 181.89293 433
58.73927 -37.26610 184.31636 431
56.00289 -37.68406 186.80095 429
53.19602 -38.12100 189.32356 426
50.31163 -38.61512 191.96193 424
47.37891 -39.13502 194.63017 421
44.22157 -39.62529 197.42372 412
40.90630 -40.18671 200.23204 410
37.45872 -40.72656 203.16571 407
33.93629 -41.30261 206.22887 404
30.28906 -41.90982 209.33878 402
-183.11510 -76.44170 216.31345 425
-187.43617 -77.18267 223.26610 324
83.83524 -34.07814 176.14384 443
81.59438 -34.43176 178.16335 441
76.58254 -35.28145 179.56795 308
63.61220 -37.49012 179.43344 435
61.02539 -37.93832 181.79976 433
58.35258 -38.34909 184.21812 430
55.61163 -38.85588 186.68852 428
52.76287 -39.32195 189.27374 426
49.89613 -39.80318 191.89722 423
46.87119 -40.28909 194.55598 414
43.64500 -40.85355 197.30920 412
40.33090 -41.44123 200.17455 409
36.85963 -42.00348 203.14232 406
33.31932 -42.60238 206.15886 404
29.61084 -43.26514 209.32997 401
-183.18700 -79.04273 216.38742 425
-189.87161 -80.24729 223.35265 325
83.57778 -35.02946 176.03578 443
81.32292 -35.39061 178.04720 441
76.71158 -36.21138 179.59641 308
63.24014 -38.55319 179.33707 434
60.62323 -39.00664 181.70015 432
57.95170 -39.52067 184.11484 430
55.17793 -39.97929 186.62779 428
52.35141 -40.46966 189.15938 425
49.44062 -40.99383 191.79803 423
46.35983 -41.52342 194.49684 414
43.10066 -42.11304 197.26251 411
39.77119 -42.70669 200.12543 408
36.28203 -43.32846 203.07130 406
32.72968 -43.94641 206.12175 403
29.00789 -44.61281 209.31920 400
-183.17107 -81.59881 216.27834 425
83.33134 -35.96095 175.90898 442
81.06892 -36.36391 177.94775 440
76.82941 -37.14617 179.58826 308
62.91594 -39.64650 179.22835 434
60.27869 -40.13769 181.58359 432
57.57642 -40.62554 184.03008 429
54.81272 -41.15575 186.50983 427
51.93919 -41.63189 189.06953 425
49.01026 -42.21746 191.72577 415
45.84233 -42.78543 194.42795 413
42.56615 -43.40861 197.17999 410
39.21442 -43.98748 200.06819 408
35.67010 -44.63298 203.04564 405
32.08668 -45.27861 206.11067 402
28.32715 -46.00172 209.29027 400
-183.13257 -84.17455 216.30377 440
83.06215 -36.91512 175.82352 442
80.80035 -37.33908 177.86342 440
76.95112 -38.06298 179.58362 308
62.53186 -40.77569 179.10959 433
59.89096 -41.26152 181.46495 431
57.15777 -41.79475 183.92720 429
54.37539 -42.29969 186.43620 426
51.49646 -42.85942 188.99782 424
48.49872 -43.39524 191.61436 415
45.31507 -44.00662 194.33611 412
42.03125 -44.66938 197.12970 410
38.60781 -45.31942 199.98590 407
35.07210 -45.95894 202.97037 404
31.47046 -46.67668 206.06435 402
27.64788 -47.36195 209.24387 399
-182.99701 -86.87154 216.33466 440
82.77074 -37.86348 175.70255 441
80.47725 -38.32534 177.73241 437
77.12148 -38.98702 179.56773 308
62.17044 -41.86855 178.99905 433
59.49451 -42.38746 181.36536 430
56.80651 -42.92583 183.84006 428
54.00388 -43.46692 186.31396 426
51.11030 -44.03892 188.92613 417
48.00903 -44.64120 191.52287 414
44.77195 -45.27096 194.22256 412
41.45120 -45.92994 197.03052 409
38.01918 -46.60353 199.94859 406
34.49912 -47.31703 202.89806 404
30.83031 -48.01452 206.01315 401
27.04357 -48.74137 209.19101 398
-182.90063 -89.46310 216.34424 439
82.50011 -38.82387 175.60446 441
80.20655 -39.30388 177.61324 437
77.28088 -39.91259 179.55823 308
61.83223 -43.00179 178.86723 432
59.12329 -43.53389 181.26196 430
56.42069 -44.07572 183.72707 427
53.58263 -44.63800 186.24388 425
50.58348 -45.25504 188.81639 416
47.46157 -45.86108 191.44772 413
44.25419 -46.55935 194.14224 411
40.89722 -47.23439 196.98366 408
37.47462 -47.92196 199.85110 406
33.85452 -48.65947 202.86958 403
30.20843 -49.39828 205.98827 400
26.37091 -50.15395 209.18979 398
-188.23734 -93.09887 209.28526 485
-189.11444 -93.25473 216.36911 299
82.23070 -39.80590 175.48654 440
79.93718 -40.30018 177.52599 436
77.44592 -40.81294 179.58661 308
61.46657 -44.13367 178.76854 431
58.77136 -44.67767 181.16425 429
55.97094 -45.26258 183.62454 427
53.14417 -45.86344 186.12286 424
50.11859 -46.51104 188.71281 415
46.93857 -47.14655 191.34787 413
43.69318 -47.81249 194.04579 410
40.33971 -48.50847 196.90532 408
36.85546 -49.24504 199.79378 405
33.29697 -49.98941 202.79515 402
29.53028 -50.78119 205.93448 400
25.65719 -51.57734 209.13712 397
-187.83530 -95.69586 209.34927 485
-195.69102 -97.40037 216.34515 297
81.96205 -40.77367 175.34099 439
79.67632 -41.27945 177.40158 436
77.24789 -41.83472 179.50365 433
61.07895 -45.22380 178.64594 431
58.35616 -45.84310 181.00926 428
55.57826 -46.43170 183.51395 426
52.71128 -47.05685 185.99445 417
49.62237 -47.70888 188.61702 415
46.44238 -48.41509 191.22542 412
43.16732 -49.09792 194.00453 410
39.75275 -49.83187 196.79663 407
36.29692 -50.59349 199.73387 404
32.64707 -51.38467 202.72890 402
28.90372 -52.19490 205.88583 399
24.70279 -53.09793 209.13048 376
-187.30637 -98.20623 209.37657 485
81.70962 -41.79554 175.25098 439
79.39082 -42.28935 177.30038 435
76.96211 -42.82934 179.36627 433
60.74191 -46.39339 178.50696 430
58.00385 -46.97064 180.89943 428
55.18671 -47.62495 183.40463 425
52.20700 -48.26392 185.91434 416
49.13984 -48.94789 188.48143 414
45.89574 -49.67868 191.13353 411
42.60137 -50.39353 193.91513 409
39.20993 -51.19051 196.75021 406
35.64555 -51.93658 199.67242 404
32.00116 -52.74063 202.71922 401
28.03744 -53.63178 205.83388 388
23.56194 -54.62136 209.06506 344
-186.90013 -100.78604 209.34425 487
81.44465 -42.77198 175.12799 438
79.08881 -43.31805 177.16365 434
76.65923 -43.84783 179.24890 432
60.36999 -47.53286 178.37682 429
57.61002 -48.15686 180.80266 427
54.79474 -48.82240 183.25682 418
51.73330 -49.48245 185.77267 416
48.58265 -50.21520 188.36990 413
45.37388 -50.93217 191.05458 411
42.05437 -51.70492 193.82166 408
38.59335 -52.49662 196.64107 406
35.05688 -53.30063 199.57990 392
31.17322 -54.16014 202.60780 390
27.10973 -55.11777 205.78745 377
22.44107 -56.17766 209.05351 344
-186.78668 -103.46272 209.24664 486
81.17683 -43.78313 174.97118 438
78.78930 -44.32163 177.03142 434
76.33981 -44.89046 179.15634 432
60.00056 -48.69288 178.26241 429
57.21945 -49.30844 180.65460 427
54.30198 -50.02406 183.15479 417
51.22662 -50.73468 185.66513 415
48.09604 -51.48733 188.25369 413
44.85575 -52.23544 190.91612 410
41.51262 -53.05787 193.72813 407
38.02062 -53.86314 196.54710 394
34.26630 -54.74070 199.48209 392
30.36449 -55.63207 202.52393 389
26.07437 -56.63777 205.72548 376
21.23259 -57.78727 208.97253 343
80.89738 -44.75489 174.85037 437
78.53842 -45.32743 176.91515 433
76.06279 -45.95422 179.05203 431
59.60522 -49.83521 178.11354 428
56.82652 -50.54440 180.55769 419
53.83213 -51.22715 183.03128 417
50.73315 -51.99252 185.51761 414
47.57531 -52.76839 188.15392 412
44.32304 -53.53804 190.82639 409
40.90144 -54.38190 193.60600 396
37.23373 -55.26230 196.47932 393
33.43085 -56.16541 199.43394 391
29.44724 -57.10701 202.49187 378
24.96865 -58.19387 205.60716 375
19.98931 -59.40488 208.92004 340
80.63589 -45.78367 174.72964 436
78.23994 -46.35572 176.79552 432
75.76597 -46.99222 178.92236 430
66.82533 -49.15619 179.67020 304
56.38843 -51.71228 180.42030 418
53.37306 -52.50148 182.88905 416
50.25743 -53.21762 185.40376 414
47.10077 -54.03284 188.04442 411
43.71215 -54.90178 190.73067 398
40.16703 -55.74761 193.46684 395
36.44162 -56.67042 196.33652 393
32.61971 -57.60771 199.31520 390
28.42654 -58.63147 202.39325 377
23.89848 -59.78076 205.55836 374
18.77223 -61.04514 208.85329 339
80.37744 -46.77026 174.58954 436
77.94615 -47.36927 176.68118 432
75.45878 -48.02585 178.78912 430
67.03331 -50.17744 179.63852 304
55.93887 -52.94487 180.28366 418
52.89454 -53.71806 182.72520 415
49.78244 -54.52176 185.26762 413
46.45038 -55.35792 187.91856 399
42.99169 -56.23995 190.58585 397
39.36929 -57.16154 193.35304 394
35.63153 -58.11600 196.22943 392
31.75850 -59.06350 199.22330 389
27.40362 -60.19066 202.26781 376
22.78574 -61.38831 205.49167 373
-187.11211 -114.23445 202.16588 495
80.08630 -47.81279 174.48236 435
77.66763 -48.44988 176.56265 431
75.17074 -49.06571 178.69254 429
67.22426 -51.13462 179.63985 304
55.49179 -54.16997 180.14676 417
52.42522 -54.98981 182.59955 415
49.20558 -55.80781 185.15404 401
45.78349 -56.69883 187.75652 398
42.24514 -57.64762 190.42987 396
38.62122 -58.56836 193.26308 393
34.84058 -59.53849 196.12941 391
30.76655 -60.59241 199.09238 378
26.33723 -61.79827 202.19710 375
21.65649 -62.97995 205.39590 373
79.83068 -48.81878 174.36555 434
77.36504 -49.47395 176.40457 431
74.87998 -50.16262 178.54678 428
67.48271 -52.10888 179.68112 304
55.02456 -55.43438 180.00325 416
51.84482 -56.28215 182.43639 402
48.51302 -57.16802 184.99922 400
45.06393 -58.09014 187.58026 398
41.49958 -58.99727 190.30754 395
37.85087 -60.03500 193.13051 393
34.03932 -61.05969 196.04250 390
29.76480 -62.17549 199.01556 377
25.26617 -63.38501 202.13731 374
20.53965 -64.64378 205.37447 372
79.53452 -49.85350 174.20306 434
77.06627 -50.54136 176.29700 430
74.56608 -51.20526 178.41423 428
67.72000 -53.09984 179.64955 304
54.44621 -56.72885 179.80130 404
51.16577 -57.56947 182.25708 402
47.78773 -58.52480 184.82240 399
44.32248 -59.48334 187.47969 397
40.74008 -60.45562 190.18306 394
37.05211 -61.48441 193.00551 392
33.11575 -62.52690 195.90234 379
28.72857 -63.71418 198.87114 376
24.16216 -65.01046 201.99852 373
19.41181 -66.25835 205.28619 371
79.27831 -50.88459 174.09302 433
76.83216 -51.58199 176.17009 429
74.25587 -52.30988 178.30974 427
67.94145 -54.03989 179.63962 304
53.80750 -57.99545 179.59982 403
50.54757 -58.92218 182.12659 401
47.14985 -59.90240 184.65639 398
43.61392 -60.84673 187.31168 396
39.99646 -61.89848 190.03546 393
36.26135 -62.95957 192.83688 391
32.12553 -64.11005 195.76831 378
27.68506 -65.30746 198.75430 375
23.05924 -66.64615 201.89157 373
18.26674 -68.01385 205.20235 370
79.00860 -51.92691 173.91422 432
76.50298 -52.66489 176.03125 429
73.95650 -53.39819 178.16127 426
68.18060 -55.01770 179.65735 304
53.18027 -59.35012 179.40889 402
49.84752 -60.27046 181.90106 400
46.40443 -61.27338 184.46895 398
42.88897 -62.26937 187.12263 395
39.23935 -63.33732 189.89830 393
35.41942 -64.41319 192.71037 380
31.10660 -65.67313 195.62822 377
26.62484 -66.94667 198.64320 374
21.94928 -68.29411 201.84615 372
17.09706 -69.69666 205.15656 369
78.74459 -52.97942 173.77614 432
76.22813 -53.73356 175.86211 428
73.65358 -54.46836 178.05217 426
68.46642 -56.00663 179.64360 304
52.54419 -60.67056 179.26213 401
49.18789 -61.65039 181.72211 399
45.72403 -62.63916 184.32031 397
42.18478 -63.72368 186.98744 394
38.48247 -64.79195 189.71878 392
34.41344 -65.98154 192.57545 379
30.09482 -67.25957 195.46626 376
25.54511 -68.57117 198.57259 373
20.85594 -69.97959 201.72935 371
15.87889 -71.44299 205.03365 368
78.44341 -54.05465 173.65231 430
75.93182 -54.83175 175.75972 427
73.33572 -55.60308 177.90999 425
68.70518 -57.00865 179.63103 304
51.88835 -62.01012 179.04964 401
48.51648 -63.03978 181.56883 398
45.00121 -64.06635 184.14670 396
41.44721 -65.15075 186.82861 393
37.68085 -66.26739 189.59447 380
33.48991 -67.55606 192.39729 378
29.05527 -68.85739 195.34561 375
24.49575 -70.22444 198.41200 373
19.69619 -71.66275 201.62450 370
14.46456 -73.24049 204.95161 339
78.17635 -55.11993 173.47906 429
75.67331 -55.89395 175.62416 427
73.05288 -56.70899 177.73994 424
68.94061 -57.96659 179.63109 304
51.20501 -63.38351 178.85997 400
47.82561 -64.42513 181.36536 397
44.27661 -65.51390 183.97597 395
40.67426 -66.63949 186.66141 393
36.77385 -67.81140 189.39227 379
32.45168 -69.13316 192.26318 377
28.04651 -70.49580 195.21323 374
23.36163 -71.91247 198.31744 372
18.51855 -73.42172 201.50925 341
11.86072 -75.48586 204.81657 322
77.92234 -56.20628 173.33301 428
75.34883 -56.97456 175.45396 426
72.74810 -57.79745 177.59851 424
69.24110 -58.92704 179.65004 304
50.58339 -64.74904 178.66402 399
47.13086 -65.84956 181.19781 397
43.59278 -66.96601 183.76572 394
39.91518 -68.07044 186.47179 392
35.80870 -69.36386 189.25337 379
31.47033 -70.71400 192.08551 376
26.98790 -72.18965 195.06671 373
22.26127 -73.60455 198.16185 371
16.43638 -75.46225 201.34541 339
8.96651 -77.79359 204.64348 321
77.61208 -57.27465 173.19565 428
75.06118 -58.09731 175.31023 425
72.46349 -58.94194 177.48639 423
69.48595 -59.86687 179.63583 304
49.91053 -66.16054 178.44487 398
46.46470 -67.23967 180.99275 396
42.84135 -68.39913 183.62048 393
39.05792 -69.60226 186.30574 380
34.84067 -70.94580 189.06726 378
30.47444 -72.37407 191.95911 375
25.89559 -73.87064 194.92593 372
20.49234 -75.58269 197.99370 341
14.06834 -77.62409 201.18964 323
6.00761 -80.19501 204.49356 320
77.34722 -58.34403 173.03769 427
74.78848 -59.20662 175.16866 425
72.00967 -60.12141 177.27737 395
68.95534 -61.13386 179.44513 407
49.25788 -67.54613 178.26443 397
45.75126 -68.69918 180.80101 395
42.13692 -69.86990 183.42081 392
38.10936 -71.18890 186.10252 379
33.88398 -72.60336 188.89612 377
29.42329 -74.01133 191.76947 374
24.40824 -75.70858 194.74852 342
18.40310 -77.65333 197.79178 340
11.23786 -80.00312 200.96381 322
2.92421 -82.69475 204.28667 319
77.06590 -59.47300 172.89911 426
74.43655 -60.33807 175.00002 397
71.35186 -61.37203 177.07434 394
68.36737 -62.36822 179.25572 406
48.56287 -68.99225 178.05115 396
45.05396 -70.14218 180.56192 394
41.30381 -71.39999 183.19794 381
37.20599 -72.77110 185.90172 378
32.85106 -74.22771 188.66432 376
28.21030 -75.81797 191.58952 344
22.42747 -77.71095 194.49864 341
16.21807 -79.82328 197.52679 323
8.30901 -82.45468 200.69402 321
-0.22867 -85.29350 204.10512 318
76.79182 -60.59198 172.70729 425
73.81252 -61.58318 174.74060 396
70.75108 -62.63205 176.83302 393
67.76321 -63.65438 179.07066 405
57.17719 -67.27457 179.73958 300
44.32403 -71.62766 180.35506 393
40.40413 -72.95355 183.00867 380
36.23783 -74.41147 185.69760 377
31.87417 -75.86681 188.50887 375
26.32425 -77.78098 191.29466 343
20.41639 -79.75440 194.25922 340
13.45427 -82.18044 197.28442 322
5.26390 -84.95026 200.49995 319
-3.48414 -87.93423 203.94687 317
76.24451 -61.77715 172.47472 397
73.21089 -62.84884 174.54053 395
70.07796 -63.89770 176.59900 392
67.12698 -64.97143 178.84012 405
57.48823 -68.29734 179.74628 300
43.57291 -73.13715 180.18590 392
39.49197 -74.54450 182.77003 379
35.28666 -76.05059 185.50261 377
30.08477 -77.82578 188.18967 344
24.37453 -79.82269 190.99017 341
18.37541 -81.91802 193.99796 339
10.55747 -84.62820 196.99304 321
2.15594 -87.51498 200.22917 318
-10.31208 -91.89875 203.53191 273
75.67099 -62.98503 172.23848 396
72.60590 -64.12138 174.29286 394
69.46491 -65.20917 176.39575 392
66.46980 -66.27742 178.64104 404
57.84851 -69.34729 179.75359 300
42.74590 -74.70715 179.90926 381
38.59134 -76.15881 182.52982 378
33.78177 -77.84068 185.20551 345
28.25514 -79.79425 187.91483 343
22.42942 -81.86448 190.70219 340
15.67135 -84.30605 193.67500 322
7.63237 -87.16311 196.70033 320
-1.02823 -90.20044 199.95500 317
75.09319 -64.23506 172.01060 395
72.00161 -65.36653 174.05202 393
68.77513 -66.52330 176.15018 391
65.88551 -67.57362 178.37984 403
58.14297 -70.36364 179.72356 300
41.83270 -76.27854 179.69279 380
37.34407 -77.88852 182.28188 347
31.99337 -79.80031 184.87434 344
26.35946 -81.85205 187.58585 342
20.39398 -83.99234 190.44542 339
12.80364 -86.75891 193.33865 321
4.57180 -89.74763 196.36882 319
-9.37974 -94.81253 199.40353 273
74.78823 -65.43127 171.81055 316
71.35428 -66.65559 173.79938 392
68.15259 -67.88148 175.91124 390
65.23962 -68.96400 178.19537 402
58.48581 -71.41871 179.73239 300
40.84910 -77.90289 179.44608 348
35.65963 -79.82264 181.88498 345
30.20297 -81.83503 184.47810 343
24.40520 -83.97665 187.25015 341
17.89100 -86.36418 190.06404 323
9.94821 -89.31680 192.96053 320
0.25485 -92.86011 195.97043 292
-21.91749 -101.04528 198.44348 272
75.08771 -66.31849 171.79634 316
70.72703 -67.95428 173.52954 391
67.46494 -69.18047 175.66241 389
64.59751 -70.27432 177.96913 401
58.87001 -72.41904 179.72290 300
39.22122 -79.79597 179.03659 347
33.93446 -81.76454 181.49982 344
28.33570 -83.87343 184.12592 342
22.46123 -86.07620 186.87349 340
15.10887 -88.84566 189.68291 321
6.95434 -91.90720 192.57536 319
-8.36573 -97.69092 195.19997 273
75.40263 -67.27993 171.81247 316
70.10500 -69.27995 173.25455 390
66.77613 -70.56587 175.41318 388
63.89854 -71.67330 177.69435 400
59.23269 -73.49067 179.71312 300
37.54424 -81.74441 178.63071 346
32.15772 -83.83443 181.11940 343
26.43478 -85.99068 183.78537 341
20.12220 -88.41101 186.48656 323
12.27298 -91.44732 189.23814 320
1.48044 -95.57854 191.96448 292
75.75979 -68.21082 171.80745 316
69.46220 -70.64101 173.00069 389
66.14216 -71.93606 175.11856 387
63.24240 -73.06397 177.47920 399
59.57402 -74.48668 179.73964 300
35.88142 -83.71226 178.22647 345
30.34123 -85.86547 180.76309 342
24.52461 -88.13501 183.39577 340
17.40869 -90.90473 186.05783 322
8.52525 -94.36699 188.72054 293
-7.21770 -100.50822 191.02124 273
76.08949 -69.11726 171.81248 316
68.82483 -72.01498 172.74257 388
65.43110 -73.34875 174.87833 386
62.61131 -74.47044 177.21494 398
59.75179 -75.58997 179.70403 396
34.08335 -85.75315 177.78235 343
28.46258 -87.98859 180.30051 341
22.33733 -90.40314 182.96344 323
14.61477 -93.51678 185.58397 321
2.73774 -98.19670 187.94507 291
76.40408 -70.04969 171.79683 316
68.14548 -73.37737 172.44107 387
64.73495 -74.73029 174.61397 385
61.91704 -75.90228 176.97786 397
59.05542 -77.02163 179.44655 395
45.20010 -82.65770 179.87056 296
26.55627 -90.17860 179.88350 340
19.68971 -92.95573 182.48579 322
9.77977 -96.95128 184.80869 293
-6.07617 -103.31771 186.82652 273
76.75455 -70.94966 171.78922 316
67.47211 -74.77774 172.18005 387
64.05064 -76.17176 174.33064 398
61.24069 -77.31436 176.73764 396
58.36161 -78.54212 179.20003 394
45.61884 -83.75020 179.85147 296
24.62803 -92.39480 179.46519 323
16.48759 -95.74308 181.89319 294
4.05420 -100.87321 183.97389 291
77.08756 -71.88686 171.78267 316
66.82428 -76.19693 171.89973 386
63.40448 -77.58411 174.04683 397
60.57596 -78.81362 176.47926 395
57.62291 -80.05091 178.97781 393
46.01496 -84.90353 179.85336 296
21.97844 -94.92311 178.93102 322
11.09674 -99.47692 180.96269 292
-4.71131 -106.09181 182.61502 273
77.44816 -72.79440 171.76907 316
67.17924 -77.13409 171.87971 312
62.73722 -79.05451 173.80605 396
59.87516 -80.28677 176.22697 394
56.92818 -81.54713 178.75449 392
46.47105 -85.98331 179.83510 296
17.85713 -98.12419 178.07214 294
5.44050 -103.45783 179.91927 291
-24.39607 -116.09149 179.76860 335
77.80693 -73.70738 171.80084 316
67.56779 -78.11514 171.86453 312
62.06611 -80.54417 173.50299 395
59.17733 -81.79596 175.95982 393
55.30521 -83.47655 178.27579 336
46.87891 -87.10418 179.83739 296
12.47921 -101.94370 177.03177 292
-19.64066 -115.86349 175.78363 336
-19.62548 -115.84193 180.38379 336
78.20772 -74.61671 171.78596 316
67.96124 -79.11834 171.87062 312
61.38406 -81.99112 173.26224 394
57.98737 -83.50801 175.58958 337
53.35434 -85.52094 177.76801 335
47.32221 -88.21638 179.81033 296
6.87385 -105.97487 175.92781 291
-14.97504 -115.59720 176.45984 337
-18.55999 -117.16550 180.39647 284
78.55035 -75.53064 171.79388 316
68.37375 -80.06258 171.88283 312
60.65615 -83.53812 172.94315 338
56.10717 -85.55942 175.07132 336
51.36166 -87.70000 177.27483 334
46.58318 -89.82887 179.62064 333
30.02003 -97.24275 179.96620 292
-5.53807 -113.14189 177.89470 281
-17.97158 -118.74116 180.40825 284
78.95830 -76.42717 171.78716 316
68.78686 -81.06296 171.88333 312
58.85086 -85.56133 172.34975 337
54.19423 -87.67757 174.46777 335
49.37370 -89.90898 176.68990 333
44.40221 -92.12025 179.06796 332
30.53908 -98.42957 180.00841 292
9.12140 -108.20710 180.19218 288
-17.35273 -120.22881 180.34906 284
79.32405 -77.30625 171.77211 316
69.16145 -82.03139 171.87094 312
57.63948 -87.34214 171.96609 308
52.22506 -89.84981 173.89983 333
47.22698 -92.17244 176.16711 331
42.21328 -94.47701 178.54984 331
31.03172 -99.66675 179.98155 292
9.68877 -109.48034 180.15269 288
79.70348 -78.25057 171.77638 316
69.62646 -82.97907 171.87289 312
58.12001 -88.37686 171.94237 308
50.20601 -92.10838 173.32359 332
45.08992 -94.49466 175.57440 331
39.94271 -96.96278 177.97963 329
31.58035 -100.85099 179.97369 292
10.30482 -110.87418 180.16002 288
80.13386 -79.12016 171.78705 316
70.05016 -83.93269 171.86624 312
58.56477 -89.41945 171.95567 308
48.13060 -94.40718 172.67809 331
42.93672 -96.91712 174.94800 330
37.58275 -99.44840 177.37103 328
29.76596 -103.17116 179.53473 282
10.87923 -112.21621 180.11827 288
80.51623 -80.01250 171.74649 316
70.48090 -84.89089 171.84053 312
59.04164 -90.46887 171.93707 308
45.97894 -96.76817 172.06165 330
40.63545 -99.35125 174.33150 329
35.20034 -102.00589 176.80727 327
22.08305 -108.35838 178.00877 281
8.57312 -114.88793 179.65685 279
80.91465 -80.94083 171.77216 316
70.88161 -85.84892 171.82928 312
59.49941 -91.45548 171.96198 308
46.48028 -97.89794 172.05251 304
38.30400 -101.92211 173.73625 328
27.69956 -107.11345 175.15741 280
13.73562 -114.01382 176.36119 280
-80.29013 -160.26881 164.93155 284
81.33617 -81.80682 171.74883 316
71.35390 -86.80988 171.86165 312
59.96741 -92.46369 171.95631 308
46.96957 -99.02403 172.02315 304
33.81153 -105.57814 172.57498 280
19.45058 -112.76961 173.36172 278
-6.81271 -125.88206 172.49306 292
81.74876 -82.72404 171.75746 316
71.80139 -87.75947 171.82838 312
60.47979 -93.50986 171.91191 308
47.49408 -100.13013 172.03879 304
32.46700 -107.70670 172.20706 300
14.82219 -116.65535 172.30161 296
-54.52426 -151.88011 163.59149 366
82.18843 -83.57211 171.77649 316
72.23556 -88.69582 171.81912 312
60.93917 -94.53497 171.94299 308
48.00199 -101.20847 172.03355 304
33.07332 -108.91251 172.19011 300
15.47576 -117.96946 172.30945 296
-50.44199 -151.99828 164.19580 367
82.60134 -84.47507 171.73433 316
72.66977 -89.65279 171.84616 312
61.43139 -95.56916 171.95076 308
48.56655 -102.27505 172.03532 304
33.61666 -110.10635 172.17650 300
16.11057 -119.28488 172.32108 296
-46.37852 -152.00468 164.75850 359
83.01882 -85.33057 171.73918 316
73.13931 -90.60296 171.82921 312
61.96109 -96.57003 171.90681 308
49.08592 -103.39288 172.03488 304
34.23289 -111.29067 172.16289 300
16.78994 -120.58186 172.33449 296
-42.80172 -152.21857 165.25122 287
83.48127 -86.23662 171.76433 316
73.62724 -91.55197 171.83904 312
62.47651 -97.56914 171.92505 308
49.65709 -104.51138 172.02373 304
34.81008 -112.45887 172.15482 300
17.38454 -121.87448 172.27531 296
-41.95687 -153.89777 165.26006 286
83.93888 -87.10139 171.73766 316
74.11518 -92.45399 171.82185 312
62.98642 -98.59174 171.91843 308
50.19346 -105.57023 172.03690 304
35.40671 -113.66198 172.14764 300
18.06334 -123.12399 172.27776 296
-41.04523 -155.53627 165.27013 286
84.36868 -87.95136 171.72121 316
74.57712 -93.38072 171.83824 312
63.48304 -99.55273 171.91841 308
50.76504 -106.62770 172.03169 304
35.97751 -114.84740 172.13809 300
18.71525 -124.43990 172.32756 296
-40.21127 -157.17227 165.26039 286
-37285.89453 -20846.09766 -1164.64075 1000
84.84192 -88.85315 171.72679 316
75.10307 -94.34196 171.82976 312
63.99485 -100.57848 171.89659 308
51.31706 -107.74992 172.01567 304
36.62706 -116.03822 172.15875 300
-26.38864 -151.56584 162.75848 365
-39.25031 -158.79601 165.25450 286
85.30756 -89.71468 171.72105 316
75.56552 -95.27970 171.83412 312
64.51731 -101.56713 171.88281 308
51.93238 -108.79818 172.01909 304
37.23978 -117.18069 172.14917 300
-22.68242 -151.38924 163.39268 366
-38.33887 -160.39171 165.24406 286
85.77045 -90.57669 171.72058 316
76.09809 -96.18724 171.79747 312
65.05706 -102.55346 171.91835 308
52.44710 -109.88622 171.99652 304
37.88406 -118.36532 172.13629 300
-19.06229 -151.34149 163.89966 368
86.23361 -91.45248 171.71037 316
76.59893 -97.10952 171.82358 312
65.62754 -103.53835 171.88538 308
53.04634 -110.95256 171.97623 304
38.49940 -119.52552 172.12222 300
-15.48959 -151.24861 164.46532 369
86.69720 -92.29301 171.70772 316
77.07957 -98.02987 171.81345 312
66.18567 -104.55160 171.91672 308
53.65335 -111.98617 172.00601 304
39.19124 -120.67420 172.13412 300
-11.99125 -151.16794 165.06877 370
87.15701 -93.15999 171.72777 316
77.60924 -98.97380 171.81163 312
66.74029 -105.53477 171.86272 308
54.25283 -113.05264 172.01668 304
39.79824 -121.82754 172.11343 300
-8.59309 -151.13289 165.61516 372
87.67410 -93.98116 171.70079 316
78.10666 -99.85670 171.80768 312
67.29092 -106.52955 171.85741 308
54.84847 -114.15273 171.96198 304
40.48455 -122.98173 172.08279 300
-6.97647 -152.06836 165.74088 291
88.17018 -94.87663 171.70064 316
78.65611 -100.75079 171.77509 312
67.87309 -107.47363 171.87436 308
55.47219 -115.15083 171.96048 304
41.12811 -124.10507 172.12706 300
-6.06690 -153.47784 165.76846 291
88.65376 -95.67059 171.68294 316
79.15819 -101.68291 171.77151 312
68.41550 -108.44855 171.87318 308
56.07963 -116.25746 171.95082 304
3.03539 -149.74731 163.01910 285
-5.17320 -154.86900 165.79478 291
89.16374 -96.54159 171.67685 316
79.73036 -102.58724 171.79796 312
68.98750 -109.43626 171.86804 308
56.76123 -117.27736 171.96062 304
4.32043 -150.80437 163.07793 377
-4.19584 -156.25650 165.79843 291
89.66048 -97.35790 171.69974 316
80.25510 -103.46247 171.75385 312
69.60177 -110.41055 171.86855 308
57.37406 -118.35985 171.98471 304
7.39240 -150.71964 163.62619 378
-3.35428 -157.65657 165.73807 290
90.19279 -98.20929 171.68399 316
80.79858 -104.37582 171.79198 312
70.18250 -111.35856 171.84167 308
58.00198 -119.40038 171.97610 304
10.36111 -150.62239 164.14565 379
-2.44423 -159.02670 165.73206 290
90.69256 -99.05599 171.66956 316
81.39198 -105.26853 171.76752 312
70.77716 -112.31591 171.84769 308
58.65832 -120.39351 171.96028 304
13.34224 -150.58246 164.59119 380
91.24213 -99.88749 171.67474 316
81.92239 -106.16508 171.77232 312
71.41179 -113.26826 171.84845 308
59.29387 -121.44676 171.92921 304
16.22229 -150.52524 165.12534 382
91.77372 -100.70472 171.68416 316
82.49493 -107.02093 171.76114 312
72.00112 -114.24875 171.86092 308
59.95518 -122.46537 171.96870 304
19.04830 -150.48073 165.54083 383
92.26938 -101.53609 171.68779 316
83.10972 -107.90522 171.73381 312
72.60323 -115.16335 171.83089 308
60.61090 -123.50888 171.93790 304
21.86278 -150.33691 166.02301 381
92.81773 -102.34736 171.68016 316
83.66625 -108.77921 171.74771 312
73.21482 -116.11913 171.81274 308
28.41480 -147.56129 163.29977 296
23.01507 -151.35779 166.15648 297
93.36396 -103.18549 171.66489 316
84.21991 -109.65274 171.73520 312
73.86672 -117.04276 171.85167 308
29.07174 -148.91043 163.23831 296
23.90972 -152.62962 166.15573 297
93.94491 -103.99629 171.67340 316
84.80678 -110.56136 171.75725 312
74.51438 -117.97478 171.80428 308
30.01099 -150.05188 163.21664 385
24.76586 -153.86067 166.11255 297
94.50596 -104.79295 171.67393 316
85.42114 -111.38396 171.73395 312
75.12699 -118.94655 171.80852 308
32.64880 -149.94035 163.70724 386
25.63240 -155.03217 166.12097 297
95.03278 -105.61687 171.62949 316
86.00425 -112.28143 171.72253 312
75.79211 -119.84550 171.82880 308
35.20655 -149.86501 164.17282 387
26.52255 -156.26917 166.12425 297
95.58566 -106.39751 171.62376 316
86.64939 -113.12546 171.71460 312
76.46342 -120.76848 171.80257 308
37.73323 -149.76030 164.64124 389
27.44114 -157.52075 166.11530 297
96.15574 -107.19941 171.65289 316
87.23631 -114.00122 171.69273 312
77.10473 -121.68753 171.82417 308
40.23956 -149.63248 165.09050 390
28.34834 -158.74521 166.12900 297
96.74413 -108.00305 171.65022 316
87.83327 -114.82718 171.70630 312
49.33361 -144.48849 163.43639 300
42.66296 -149.59903 165.53519 391
97.34119 -108.79657 171.64586 316
88.48335 -115.70506 171.70273 312
50.00390 -145.63528 163.38307 300
45.07227 -149.48737 165.90669 392
97.91318 -109.57690 171.63219 316
89.09761 -116.53719 171.70631 312
50.69148 -146.82808 163.37218 300
47.05476 -149.72499 166.23711 301
98.53182 -110.36013 171.60217 316
89.72009 -117.39150 171.71352 312
51.38988 -147.97205 163.32391 300
47.94333 -150.79491 166.24907 301
99.09332 -111.14690 171.62964 316
90.38294 -118.20487 171.71584 312
52.13760 -149.13174 163.31917 300
48.78452 -151.87080 166.26007 301
99.71047 -111.91910 171.60962 316
91.02712 -119.04946 171.67184 312
54.26884 -149.15041 163.66170 397
49.68151 -152.93614 166.24106 301
100.28963 -112.71751 171.58328 316
91.66014 -119.85968 171.70506 312
56.47467 -149.03281 164.08505 398
50.55729 -153.98975 166.23735 301
100.94413 -113.45928 171.58824 316
92.33017 -120.69501 171.68739 312
58.63052 -148.97992 164.48975 399
51.45364 -155.07695 166.26564 301
101.54455 -114.24641 171.60617 316
68.32380 -142.45818 163.59039 304
60.81789 -148.90033 164.90033 400
52.33496 -156.13138 166.21291 301
102.13579 -114.98418 171.57541 316
69.07241 -143.53789 163.53946 304
62.88972 -148.81688 165.29941 401
53.20242 -157.18120 166.25070 301
-41925.11719 -36344.69922 220.19363 1000
102.75924 -115.74137 171.58299 316
69.74114 -144.55464 163.50961 304
65.00219 -148.76707 165.66780 402
103.39397 -116.50011 171.57220 316
70.49673 -145.63126 163.48578 304
67.05091 -148.64908 166.02654 404
104.05320 -117.26610 171.58658 316
71.20448 -146.60124 163.43431 304
68.87482 -148.77068 166.35590 305
104.69065 -118.04097 171.59317 316
71.92519 -147.64992 163.38008 304
69.70430 -149.69446 166.30940 305
105.31259 -118.73833 171.57106 316
72.94323 -148.44765 163.48337 407
70.57453 -150.60809 166.36191 305
105.95166 -119.50747 171.54181 316
74.87448 -148.39174 163.83188 408
71.46941 -151.53505 166.31732 306
85.26399 -140.32034 163.71477 311
76.78052 -148.29001 164.19135 409
72.34011 -152.44380 166.37663 306
85.96729 -141.23094 163.66092 308
78.66183 -148.19885 164.55502 410
73.23737 -153.36536 166.33665 306
86.69758 -142.12131 163.62650 308
80.47998 -148.13586 164.87097 411
74.12936 -154.26263 166.35486 306
87.42708 -143.07089 163.63461 308
82.28501 -148.07698 165.22023 412
75.00763 -155.20284 166.35017 305
88.18333 -143.97672 163.59491 308
84.09854 -148.00188 165.56006 413
75.92001 -156.12691 166.34578 305
88.87547 -144.89436 163.55045 307
85.87344 -147.94466 165.89465 414
76.77801 -157.00569 166.33110 305
89.66093 -145.83119 163.52713 307
87.59624 -147.88097 166.19022 415
90.43166 -146.70253 163.49701 307
89.07268 -148.10880 166.43530 310
91.16255 -147.58011 163.49220 307
89.88864 -148.91353 166.44658 310
92.71548 -147.67337 163.74770 418
90.74680 -149.74200 166.41335 310
94.36752 -147.64986 164.07336 419
91.61565 -150.54466 166.45334 310
95.99450 -147.55826 164.36841 420
92.50439 -151.30806 166.45738 310
97.66828 -147.42245 164.70912 410
93.39924 -152.10542 166.46028 310
99.34089 -147.26907 165.05995 412
94.24563 -152.90190 166.47313 310
100.99861 -147.11659 165.34244 413
95.12651 -153.67606 166.44600 310
102.66172 -146.93842 165.67804 414
96.01288 -154.46123 166.43353 310
104.32697 -146.77367 165.99673 415
96.91608 -155.22112 166.43077 310
105.91122 -146.60199 166.33270 416
97.82983 -156.03310 166.45689 310
107.08348 -146.97485 166.45319 314
107.89711 -147.69873 166.44746 314
108.74855 -148.37209 166.46838 314
109.60907 -149.07916 166.45134 314
110.46733 -149.78384 166.48773 314
-10437.91699 -13201.69531 767.06720 1000
111.30219 -150.47055 166.47546 314
112.17580 -151.17926 166.48283 314
115.32809 -148.91040 167.47250 316
116.18297 -149.60175 167.47537 316
117.02319 -150.25499 167.45595 316
117.85550 -150.88362 167.46384 316
120.38793 -149.33873 168.17891 490
124.49515 -149.01067 168.91780 490
127.42742 -148.50743 169.47028 487
-21587.54492 -34158.33594 -1791.45959 1000
2002.73572 -39686.73828 10143.38770 1000
824.44769 -1343.84900 -76.51730 399
827.11682 -1349.28955 -52.74586 331
830.10767 -1334.31311 -75.10735 488
832.27985 -1339.14099 -51.40965 488
834.44586 -1344.12695 -27.47950 489
836.41785 -1348.66565 -3.28760 487
838.29083 -1330.12390 -75.30260 486
840.81201 -1335.51465 -51.51561 486
843.75702 -1341.91638 -27.67668 453
846.69250 -1348.87842 -3.94421 324
848.54822 -1330.72937 -76.18604 449
853.17206 -1340.35962 -52.96491 323
8861.70020 -12126.03613 1149.58496 1000
43622.81250 -51510.88672 15726.02832 1000
8884.36133 -7638.22559 1899.95569 1000
357.52502 -111.86491 167.56964 316
358.27783 -110.94239 167.57344 316
358.98318 -110.06800 167.59314 316
359.70117 -109.12447 167.58017 315
360.39490 -108.21429 167.59477 315
361.08640 -107.30762 167.59601 315
361.81534 -106.42638 167.61371 315
362.46921 -105.49785 167.61154 315
363.16449 -104.57356 167.63365 315
363.83093 -103.65845 167.60303 315
364.51770 -102.74193 167.63173 315
365.22168 -101.79137 167.60744 315
365.85181 -100.86000 167.63315 315
366.96344 -100.18063 167.48975 439
368.32550 -99.70280 167.26472 438
369.75693 -99.24958 167.03366 437
378.35541 -104.56010 167.62079 310
371.17868 -98.71642 166.81302 436
378.99942 -103.53630 167.63049 310
372.61295 -98.22653 166.56676 435
379.64825 -102.51314 167.67786 310
374.03650 -97.73105 166.29057 434
380.34894 -101.49106 167.68108 310
375.52118 -97.22811 166.03374 433
380.98288 -100.41311 167.65872 310
376.99509 -96.71074 165.80409 432
381.61191 -99.42663 167.69797 311
378.46048 -96.18861 165.51410 431
382.26514 -98.34269 167.69650 311
379.97855 -95.67525 165.23318 430
382.92465 -97.35133 167.70303 311
381.49493 -95.17220 164.98935 429
383.55426 -96.30069 167.72466 311
382.94821 -94.59794 164.72868 317
384.19394 -95.24932 167.67883 311
383.59433 -93.57426 164.72804 317
384.79831 -94.21376 167.72220 311
384.23285 -92.51167 164.70457 317
386.13663 -93.53886 167.50397 427
384.86603 -91.50616 164.73906 317
387.76462 -92.99236 167.22284 426
1885.17322 -873.33527 181.51350 1000
385.50931 -90.47059 164.69250 317
389.34525 -92.41592 166.94319 425
386.11603 -89.42965 164.70544 317
390.98615 -91.86913 166.69048 424
399.87506 -96.35775 167.71738 306
386.74564 -88.35514 164.69719 317
392.61761 -91.32331 166.37794 423
400.48285 -95.24616 167.70433 306
387.34668 -87.33896 164.71213 317
394.28232 -90.75582 166.09727 421
401.06781 -94.07230 167.75618 306
387.94016 -86.27828 164.69109 317
395.94485 -90.13927 165.77573 420
401.70676 -92.91132 167.74478 306
388.50900 -85.22381 164.69122 317
397.66559 -89.55138 165.45683 419
402.27844 -91.72580 167.76534 306
389.13879 -84.15916 164.68616 317
399.37918 -88.98891 165.16949 418
402.86151 -90.56444 167.77144 306
389.71066 -83.11764 164.67377 317
401.08734 -88.37685 164.83722 417
403.44308 -89.41365 167.78650 306
367.30527 -71.68073 171.48512 318
401.89084 -87.27132 164.78551 313
403.96921 -88.21094 167.77083 306
367.78238 -70.73872 171.47122 318
402.47531 -86.16725 164.81717 313
404.69366 -87.11176 167.76077 416
368.22647 -69.79545 171.51257 318
403.03326 -85.01184 164.79195 313
406.48599 -86.48904 167.46288 415
368.69516 -68.86040 171.49591 318
403.62057 -83.83857 164.80135 313
408.06161 -85.78893 167.17567 434
369.15475 -67.87572 171.50044 317
404.19720 -82.67823 164.78040 313
409.68936 -85.01133 166.91841 433
369.62363 -66.95695 171.50500 317
404.74719 -81.54276 164.80336 313
411.23721 -84.26485 166.69658 432
370.03146 -66.01453 171.49901 317
405.31570 -80.40229 164.80606 313
412.86484 -83.46965 166.40575 431
422.53281 -87.39602 167.75737 302
370.50763 -65.05818 171.50331 317
405.89233 -79.21500 164.79172 313
414.47662 -82.69450 166.12581 430
423.05331 -86.14314 167.78366 302
370.93811 -64.10715 171.49425 317
406.42416 -78.08086 164.76355 313
416.07410 -81.87890 165.84372 429
423.60657 -84.83179 167.76855 302
371.37180 -63.14497 171.54254 317
406.97952 -76.89539 164.77446 313
417.74799 -81.06667 165.60846 428
424.16354 -83.54123 167.83035 302
371.77991 -62.19832 171.50865 317
407.49384 -75.76586 164.80551 312
419.43610 -80.24210 165.33624 427
424.65933 -82.28589 167.84242 302
