# .PCD v.7 - Point Cloud Data file format
VERSION .7
FIELDS x y z rgb
SIZE 4 4 4 4
TYPE F F F U
COUNT 1 1 1 1
WIDTH 1354
HEIGHT 1
VIEWPOINT 6539.622559 -2531.284424 143.269684 -0.842451 -0.074490 -0.105089 0.523147
POINTS 1354
DATA ascii
45.44664 -35.80742 197.91602 417
42.25777 -36.38183 200.75026 408
38.83239 -37.02567 203.63304 405
35.29657 -37.66765 206.62418 402
31.62375 -38.34273 209.72015 400
-183.25409 -77.96779 216.16776 425
-188.56429 -78.86948 223.13533 322
84.38662 -29.50826 176.82617 459
82.28583 -29.92710 178.86377 457
74.51984 -31.41364 179.61658 308
64.71281 -33.27935 180.16724 433
62.12708 -33.77176 182.46614 431
59.45317 -34.26040 184.87943 429
56.73007 -34.79134 187.30307 426
53.89808 -35.35306 189.83124 424
51.01088 -35.90726 192.45486 421
48.04284 -36.49126 195.11624 419
44.99797 -37.04033 197.82285 416
41.67277 -37.71498 200.64964 407
38.20716 -38.33696 203.56393 404
34.68479 -39.02322 206.57593 402
30.94541 -39.71704 209.73476 399
-183.21875 -80.57697 216.20198 424
-191.46756 -82.11538 223.16734 296
-16310.80566 -3155.08301 1589.29700 1000
84.33291 -30.44209 176.74815 459
82.26277 -30.87173 178.78384 457
74.72803 -32.34476 179.57820 308
64.36626 -34.41151 180.02812 433
61.77372 -34.90578 182.35312 430
59.05154 -35.42582 184.77455 428
56.34271 -35.98405 187.21281 426
53.47108 -36.55421 189.74393 423
50.57260 -37.14152 192.34457 421
47.58567 -37.69397 194.99110 418
44.45391 -38.34240 197.75583 409
41.09297 -38.98602 200.57381 406
37.62962 -39.67480 203.49742 404
34.05370 -40.40896 206.55801 401
30.28923 -41.12874 209.66060 398
-183.25885 -83.20447 216.21201 439
84.28780 -31.39852 176.67046 459
82.08900 -31.86629 178.68092 438
74.99275 -33.31496 179.60936 308
64.03072 -35.52178 179.89581 432
61.37471 -36.08166 182.22913 430
58.67807 -36.62547 184.63063 427
55.89853 -37.16321 187.11926 425
53.08070 -37.77385 189.62988 423
50.13626 -38.38282 192.23358 420
47.11168 -38.99598 194.92426 418
43.90616 -39.65522 197.66278 408
40.53595 -40.32857 200.49620 406
37.03502 -41.03600 203.43217 403
33.40512 -41.77758 206.48770 400
29.61058 -42.55086 209.63606 398
-183.17166 -85.86269 216.18423 439
84.07146 -32.38530 176.55444 440
81.81945 -32.87735 178.56374 438
75.22217 -34.24791 179.60555 308
63.64779 -36.67881 179.76709 431
61.01455 -37.20615 182.09546 429
58.29731 -37.78877 184.51491 427
55.50462 -38.37158 186.99751 424
52.62942 -38.98106 189.52318 422
49.69592 -39.62771 192.11894 420
46.60880 -40.26332 194.81078 410
43.32067 -40.94564 197.58627 408
39.93353 -41.65031 200.46066 405
36.41372 -42.41203 203.36266 402
32.77326 -43.18597 206.41708 400
28.95565 -43.99473 209.63170 397
-183.05093 -88.44795 216.17250 438
83.82693 -33.35823 176.39233 439
81.56548 -33.87384 178.44327 437
75.44700 -35.18193 179.60101 308
63.28148 -37.80788 179.62659 431
60.65416 -38.37884 181.98254 428
57.91554 -39.01524 184.36934 426
55.11323 -39.61332 186.85800 424
52.21572 -40.23949 189.44052 421
49.25882 -40.86177 192.06052 419
46.08521 -41.54268 194.75768 410
42.79425 -42.27279 197.52171 407
39.34375 -43.05308 200.36627 404
35.79930 -43.81925 203.34877 402
32.13036 -44.60966 206.41650 399
28.31330 -45.41753 209.58527 396
-188.51828 -92.29077 209.19907 485
-186.44466 -91.86681 216.14325 297
83.57368 -34.37761 176.26135 439
81.29568 -34.89957 178.31451 437
75.68994 -36.13136 179.59619 308
62.93671 -39.00107 179.48331 430
60.29326 -39.56711 181.84666 428
57.50472 -40.18921 184.26755 425
54.71423 -40.83852 186.74562 423
51.79464 -41.48202 189.33147 421
48.79797 -42.17466 191.96326 411
45.55225 -42.85228 194.61238 409
42.21609 -43.61572 197.42931 406
38.76400 -44.38492 200.26549 404
35.17006 -45.20782 203.26929 401
31.43809 -46.03994 206.34671 398
27.60705 -46.91257 209.54167 396
-187.98787 -94.83704 209.19270 485
-193.22694 -96.06408 216.14325 296
83.30756 -35.37823 176.11635 438
81.03858 -35.92852 178.16125 436
75.97298 -37.09435 179.59709 308
62.58072 -40.15866 179.34052 429
59.88928 -40.73813 181.68896 427
57.13944 -41.40895 184.14841 425
54.30786 -42.05194 186.60950 422
51.38308 -42.73421 189.21744 420
48.28244 -43.43267 191.82254 411
44.99722 -44.17010 194.54807 408
41.59682 -44.97739 197.33791 406
38.13277 -45.77995 200.21555 403
34.52034 -46.59453 203.20171 400
30.76892 -47.47502 206.27963 398
26.90308 -48.32826 209.52473 361
-187.50212 -97.43480 209.13586 485
83.04337 -36.41683 175.97600 437
80.75273 -36.95940 178.00620 435
76.22517 -38.00663 179.56508 308
62.23660 -41.32821 179.17821 429
59.51198 -41.94487 181.56978 426
56.71949 -42.61750 183.98410 424
53.87384 -43.28667 186.52158 422
50.94739 -43.99006 189.09647 412
47.75420 -44.77553 191.70552 410
44.44931 -45.52169 194.44638 407
41.06072 -46.31836 197.20868 405
37.55322 -47.16872 200.13982 402
33.92723 -48.02505 203.10109 400
30.11856 -48.88110 206.25026 397
26.17667 -49.82373 209.47292 357
-187.06622 -100.04266 209.22841 485
82.79807 -37.44716 175.83035 437
80.47526 -38.00601 177.87807 433
76.49651 -38.97357 179.59438 308
61.84138 -42.50416 179.02957 428
59.11095 -43.16792 181.44365 426
56.32381 -43.82536 183.86609 423
53.45233 -44.53588 186.39206 421
50.43189 -45.28754 188.95271 412
47.20704 -46.03268 191.61482 409
43.89536 -46.89075 194.32950 407
40.44750 -47.71072 197.14812 404
36.93984 -48.55069 200.02533 402
33.26183 -49.45313 203.05676 399
29.44559 -50.38114 206.20583 396
25.41698 -51.35483 209.41446 357
-186.80736 -102.70723 209.22652 485
82.52919 -38.46404 175.70668 436
80.20383 -39.03318 177.75761 432
76.74424 -39.89232 179.56697 308
61.47601 -43.69982 178.89931 427
58.74536 -44.36256 181.26021 425
55.94914 -45.11518 183.73866 423
53.03289 -45.78529 186.26982 420
49.89754 -46.59888 188.81911 411
46.66741 -47.39701 191.50227 409
43.33097 -48.21312 194.22479 406
39.88310 -49.11914 197.06468 403
36.30502 -50.00372 199.94292 401
32.62376 -50.93413 203.00726 398
28.75182 -51.86794 206.10475 395
24.35168 -52.93952 209.38367 342
-191.12173 -106.52009 209.04398 295
82.28162 -39.48114 175.55518 436
79.94997 -40.10534 177.59491 432
77.02786 -40.84270 179.59734 308
61.12653 -44.88591 178.73134 427
58.39140 -45.60536 181.13727 424
55.53085 -46.34570 183.59447 422
52.57439 -47.11058 186.13474 413
49.42139 -47.90571 188.72105 410
46.15100 -48.75434 191.37016 408
42.74160 -49.61311 194.09799 405
39.27616 -50.48344 196.95732 403
35.68820 -51.39986 199.87321 400
31.97434 -52.35369 202.92931 397
27.90455 -53.40269 206.06601 384
23.08365 -54.64339 209.28490 341
82.01243 -40.54076 175.39963 435
79.66819 -41.15388 177.46391 431
77.16063 -41.82096 179.54344 429
60.76585 -46.10120 178.56058 426
57.99102 -46.85805 180.99966 424
55.10653 -47.59953 183.48270 421
52.10077 -48.38440 185.97380 412
48.89716 -49.24861 188.54678 410
45.58627 -50.07814 191.23329 407
42.23092 -50.96575 193.99844 405
38.68899 -51.87328 196.86618 402
35.06312 -52.83784 199.78503 399
31.12285 -53.86491 202.82956 386
26.91913 -54.96954 206.02104 372
21.85368 -56.32486 209.23242 338
81.78103 -41.59335 175.25417 434
79.36974 -42.24199 177.30444 431
76.90631 -42.91074 179.41486 428
60.40113 -47.33945 178.44951 425
57.57275 -48.09425 180.83957 423
54.71247 -48.86489 183.29169 414
51.58787 -49.69712 185.84375 411
48.38248 -50.58629 188.45494 409
45.07734 -51.44448 191.10783 406
41.64663 -52.39349 193.87227 404
38.10939 -53.33145 196.74669 401
34.28841 -54.35416 199.71333 387
30.25504 -55.44942 202.73524 385
25.76781 -56.65887 205.89520 372
20.15339 -58.13499 209.19939 263
81.48925 -42.67496 175.10583 434
79.09674 -43.31586 177.14304 430
76.59377 -44.00047 179.26152 428
60.03956 -48.58635 178.25723 425
57.19605 -49.33184 180.71385 422
54.23315 -50.14497 183.17604 413
51.10253 -51.02918 185.66965 411
47.84584 -51.89954 188.32262 408
44.52320 -52.84829 190.99542 406
41.06295 -53.79445 193.75351 403
37.27864 -54.83093 196.64694 389
33.42459 -55.90536 199.57065 387
29.33459 -57.02737 202.64368 373
24.68421 -58.30915 205.82649 371
81.22636 -43.70445 174.92909 433
78.81924 -44.40669 176.98445 429
76.28287 -45.11688 179.08932 427
59.66001 -49.82613 178.12976 424
56.81871 -50.60470 180.55914 415
53.74009 -51.49218 182.98705 412
50.57882 -52.38239 185.55006 410
47.31657 -53.30675 188.14606 407
43.92713 -54.25007 190.88557 405
40.29399 -55.24913 193.61797 391
36.45650 -56.33614 196.47714 388
32.51778 -57.43419 199.49004 386
28.19373 -58.68179 202.57590 373
23.49445 -59.97239 205.73570 370
80.95772 -44.78511 174.77682 432
78.54855 -45.48666 176.85191 429
76.00111 -46.23151 178.95726 426
66.90883 -48.85648 179.64389 304
56.32587 -51.89732 180.34978 414
53.25726 -52.80548 182.82222 412
50.08471 -53.73328 185.37529 409
46.77827 -54.66070 188.00127 407
43.18962 -55.70407 190.68369 393
39.46529 -56.75602 193.47227 390
35.62767 -57.85906 196.38582 388
31.66092 -59.06535 199.38100 385
27.07180 -60.35957 202.42567 372
22.36566 -61.72365 205.65399 369
80.68812 -45.89310 174.63165 432
78.25822 -46.62983 176.70966 428
75.72708 -47.37479 178.80493 426
67.23234 -49.82887 179.66106 304
55.87017 -53.21143 180.20111 413
52.77593 -54.10631 182.68555 411
49.55526 -55.04605 185.26402 397
46.02916 -56.09543 187.86598 394
42.43129 -57.16428 190.56876 392
38.67057 -58.27824 193.33180 389
34.80310 -59.42908 196.27478 387
30.59271 -60.65939 199.23611 373
25.97561 -62.05421 202.35503 371
21.12320 -63.44717 205.57446 368
80.43568 -46.98924 174.45950 431
77.96929 -47.69021 176.51732 427
75.43700 -48.49168 178.66556 425
67.57265 -50.87337 179.67442 304
55.43628 -54.50184 180.02553 412
52.25742 -55.48442 182.52425 398
48.85254 -56.52052 185.03934 396
45.28706 -57.58730 187.69977 393
41.64428 -58.67508 190.41670 391
37.84912 -59.79042 193.22607 388
33.94108 -61.00735 196.09969 386
29.52457 -62.34635 199.11006 372
24.81301 -63.73645 202.22177 370
19.93245 -65.27374 205.49150 367
80.17059 -48.08764 174.28757 430
77.71781 -48.83587 176.35709 427
75.11698 -49.64543 178.48477 424
67.90381 -51.85522 179.67332 304
54.96605 -55.84975 179.82961 400
51.60224 -56.90762 182.29492 397
48.14033 -57.94385 184.88629 395
44.57953 -59.06313 187.50009 392
40.85713 -60.18110 190.20050 390
37.01566 -61.36758 193.05804 388
32.93614 -62.62758 195.94424 374
28.40905 -64.06831 198.95969 372
23.67588 -65.54037 202.10252 369
18.73037 -67.05351 205.40710 366
79.90808 -49.16733 174.11987 430
77.42976 -49.97112 176.19391 426
74.83838 -50.78045 178.33049 424
68.25513 -52.85550 179.66855 304
54.26492 -57.24770 179.60555 399
50.92766 -58.32343 182.08659 396
47.39246 -59.40447 184.65689 394
43.78036 -60.56951 187.34198 392
40.10257 -61.72819 190.07210 389
36.19195 -62.97462 192.91563 387
31.87972 -64.29372 195.82916 373
27.27958 -65.76022 198.85487 371
22.48499 -67.25790 201.99055 368
17.42657 -68.87338 205.30498 365
79.66451 -50.30698 173.96027 429
77.14108 -51.09026 176.02919 425
74.52063 -51.92305 178.16618 423
68.63060 -53.84785 179.65688 304
53.60738 -58.68383 179.41290 398
50.22582 -59.76215 181.89355 396
46.71534 -60.90363 184.44553 393
43.03313 -62.07450 187.10985 391
39.25076 -63.27102 189.88493 388
35.25161 -64.58724 192.74019 375
30.82725 -66.04572 195.65027 372
26.12776 -67.52002 198.72520 370
21.30696 -69.07057 201.89703 367
16.17511 -70.75374 205.21983 364
79.38132 -51.38972 173.77193 428
76.83864 -52.23964 175.86824 425
74.23386 -53.13492 178.00519 422
68.97900 -54.85620 179.65317 304
52.96260 -60.09524 179.20695 397
49.49334 -61.23802 181.67911 395
45.96244 -62.42790 184.28674 392
42.23072 -63.62722 186.93982 390
38.46332 -64.90595 189.73845 387
34.26375 -66.26955 192.55061 374
29.74876 -67.72222 195.46779 372
25.00962 -69.29947 198.54370 369
20.06252 -70.91824 201.79477 366
14.91743 -72.58976 205.11092 364
79.11366 -52.53063 173.58369 428
76.53340 -53.39681 175.69926 424
73.91173 -54.27484 177.86029 422
69.32664 -55.80631 179.65695 304
52.27950 -61.52759 178.94383 396
48.78837 -62.68838 181.45166 394
45.23236 -63.92772 184.05754 391
41.48831 -65.20369 186.77258 389
37.63623 -66.48095 189.52573 376
33.20470 -67.96632 192.39760 373
28.64852 -69.51368 195.31345 371
23.83062 -71.09381 198.41115 368
18.85317 -72.79798 201.66432 365
12.26747 -74.97713 204.98149 318
78.83485 -53.70332 173.39418 427
76.23985 -54.58272 175.53369 423
73.59623 -55.48089 177.70694 421
69.70776 -56.81231 179.65677 304
51.59622 -62.99268 178.71005 395
48.08280 -64.18346 181.23701 393
44.45385 -65.47096 183.85667 391
40.68539 -66.76901 186.56197 388
36.63013 -68.17573 189.30705 375
32.15420 -69.66805 192.20299 372
27.53595 -71.29465 195.14185 370
22.64269 -72.91731 198.25766 367
16.89417 -74.86905 201.51225 335
9.11267 -77.56255 204.75475 317
78.56492 -54.82336 173.25082 426
75.98949 -55.76727 175.36310 422
73.33707 -56.67755 177.52222 420
70.10313 -57.81815 179.66296 304
50.93264 -64.49526 178.50604 395
47.38307 -65.72913 181.00824 392
43.70522 -67.00390 183.66162 390
39.92425 -68.33347 186.35353 387
35.60006 -69.83283 189.10179 374
31.08820 -71.39931 191.96808 371
26.39956 -73.07376 195.01476 369
21.08775 -74.90987 198.11542 336
14.38677 -77.27867 201.30403 318
5.77297 -80.27203 204.59995 316
78.29373 -55.97913 173.02954 426
75.68860 -56.91235 175.17262 422
73.00975 -57.89383 177.36913 420
70.23296 -58.86562 179.58905 417
50.24970 -65.99216 178.26962 394
46.64971 -67.24906 180.79832 391
42.92979 -68.57773 183.40654 389
38.96679 -70.03938 186.14618 376
34.58258 -71.59409 188.91969 373
29.99458 -73.17483 191.80940 370
25.13087 -74.96500 194.83656 338
18.85433 -77.16016 197.83943 335
11.27887 -79.86216 201.00754 317
2.41587 -83.01348 204.38647 315
78.01819 -57.16589 172.87395 423
75.39852 -58.12542 174.98804 421
72.70090 -59.11852 177.19418 419
69.60527 -60.22370 179.36369 402
49.50728 -67.48868 178.00015 393
45.92379 -68.82478 180.57497 390
42.14391 -70.17194 183.23607 388
37.98314 -71.70450 185.89177 375
33.53993 -73.34513 188.67264 372
28.89065 -75.03227 191.60818 370
23.01245 -77.15730 194.55962 337
16.51651 -79.48741 197.58728 319
8.04648 -82.55501 200.77338 316
-1.14470 -85.91882 204.18050 313
77.72984 -58.34166 172.67249 423
75.10035 -59.30355 174.79562 420
72.17786 -60.40147 176.97037 390
68.96841 -61.59720 179.11862 402
58.15284 -65.60538 179.72165 300
45.14521 -70.36759 180.32755 390
41.30898 -71.81906 182.99101 376
36.99249 -73.43055 185.66458 374
32.44083 -75.09514 188.49280 371
27.00963 -77.13574 191.32800 338
20.79452 -79.42231 194.24356 336
13.42146 -82.15762 197.30400 317
4.71719 -85.38854 200.50461 315
-4.77892 -88.85516 203.92984 312
77.46523 -59.51186 172.47437 422
74.73234 -60.58330 174.61943 391
71.53036 -61.76585 176.68964 389
68.34010 -63.00391 178.85225 401
58.58224 -66.64837 179.76173 300
44.38399 -71.97442 180.08191 389
40.34000 -73.52039 182.73282 375
35.96767 -75.19440 185.45102 373
30.92514 -77.07288 188.18977 339
24.95808 -79.32983 190.99126 337
18.59472 -81.71548 193.92369 335
10.25130 -84.84879 196.98737 316
1.20648 -88.30692 200.15674 314
-19.57359 -96.16281 203.07265 257
77.21507 -60.73207 172.26357 421
74.10299 -61.93214 174.29929 390
70.86394 -63.16971 176.42201 388
67.68620 -64.41244 178.61938 400
59.01247 -67.71861 179.73593 300
43.61680 -73.62708 179.81790 377
39.35967 -75.24199 182.45207 374
34.70717 -77.02123 185.13773 341
28.90922 -79.25579 187.82297 338
22.80509 -81.64584 190.64159 336
15.63575 -84.41608 193.54851 318
6.99217 -87.70248 196.64369 315
-3.45622 -91.67772 199.83632 287
76.64613 -62.04063 171.98236 392
73.43250 -63.28315 174.00740 389
70.19699 -64.58022 176.12439 387
67.02039 -65.81137 178.35913 399
59.45462 -68.74319 179.71602 300
42.66685 -75.31879 179.57787 376
38.35643 -77.00947 182.19070 373
32.84164 -79.18505 184.76999 340
26.85778 -81.53342 187.44469 337
20.62499 -83.96619 190.32359 335
12.48980 -87.12215 193.21674 317
3.60496 -90.64284 196.25476 314
-17.77214 -98.96980 198.73715 268
76.34293 -63.27189 171.78619 316
72.82770 -64.67029 173.72417 388
69.49640 -66.00518 175.83095 386
66.32143 -67.25564 178.11331 398
59.88913 -69.80688 179.70613 300
41.76453 -77.05605 179.25276 375
36.61188 -79.09668 181.81067 341
30.82328 -81.39234 184.37814 339
24.75921 -83.80903 187.07603 336
17.77406 -86.59789 189.87395 318
9.26316 -89.98035 192.75128 315
-2.56696 -94.70453 195.67844 287
76.78105 -64.21693 171.79768 316
72.12122 -66.09731 173.44267 387
68.80290 -67.43106 175.55193 385
65.66492 -68.71579 177.84625 397
60.33976 -70.87340 179.74821 300
40.27398 -78.99133 178.91171 342
34.70760 -81.27111 181.32697 340
28.84019 -83.63846 183.94206 337
22.63901 -86.16281 186.72987 335
14.76433 -89.36060 189.43736 317
5.25850 -93.21153 192.28935 288
-17.46874 -102.40302 194.29070 268
77.17514 -65.17476 171.79465 316
71.48421 -67.53767 173.12593 386
68.09302 -68.89591 175.27519 384
64.94464 -70.21423 177.53511 396
60.80967 -71.90231 179.72945 300
38.48142 -81.10169 178.45801 341
32.77526 -83.44672 180.93990 339
26.75445 -85.95500 183.52739 336
19.99924 -88.71280 186.26273 318
11.58965 -92.21054 188.97414 316
-1.73576 -97.72677 191.47562 269
77.62669 -66.12833 171.79071 316
70.82711 -68.98651 172.82928 386
67.36543 -70.39372 174.96429 383
64.28141 -71.72396 177.26608 395
61.29471 -72.99442 179.72974 300
36.63002 -83.32116 177.98283 340
30.79823 -85.72884 180.44563 338
24.62236 -88.33694 183.07443 335
17.01606 -91.52567 185.75833 317
6.17400 -96.10960 188.23671 288
78.06853 -67.04306 171.76764 316
70.15170 -70.40756 172.54095 385
66.69606 -71.90759 174.64764 382
63.53682 -73.24526 176.98306 394
60.63828 -74.51003 179.46791 392
34.77428 -85.53292 177.48792 339
28.76383 -88.07109 180.00955 337
22.26950 -90.85703 182.59583 318
13.65259 -94.56650 185.13036 289
-1.23924 -100.89908 187.21777 269
78.46213 -67.99897 171.76526 316
69.44601 -71.88869 172.21263 384
65.95051 -73.44153 174.35965 381
62.86795 -74.76804 176.71860 393
59.90143 -76.05875 179.18983 391
47.21268 -81.55376 179.83304 296
26.70942 -90.44248 179.53484 335
19.28205 -93.70454 182.06113 317
-157.81694 -68.45022 -22.76154 288
78.93384 -68.95035 171.76631 316
68.73850 -73.42630 171.90269 383
65.21083 -74.97164 174.02481 380
62.14211 -76.35225 176.40958 392
59.11316 -77.68575 178.91710 390
47.73255 -82.68759 179.82018 296
24.51219 -92.94641 178.98543 319
14.72124 -97.29081 181.17177 289
-0.55859 -104.04137 182.92072 269
79.36484 -69.87056 171.76414 316
69.14886 -74.44647 171.83536 312
64.46732 -76.55129 173.74268 379
61.37757 -77.94463 176.12300 391
58.36886 -79.27029 178.66313 389
48.25665 -83.86325 179.84294 296
21.58851 -95.77279 178.33638 318
8.31608 -101.74934 180.03207 288
-23.53998 -116.06832 179.46306 339
79.81926 -70.80973 171.76778 316
69.65063 -75.44421 171.87807 312
63.73093 -78.15984 173.38155 379
60.65980 -79.52956 175.86111 390
57.61661 -80.95399 178.33771 388
48.77835 -84.95657 179.84123 296
15.86084 -99.97871 177.22119 289
0.24710 -107.08145 178.62213 269
-18.88118 -115.81547 180.08713 341
80.29923 -71.74060 171.78416 316
70.12113 -76.45263 171.85924 312
62.93775 -79.76405 173.07271 378
59.90250 -81.17242 175.55035 389
56.35577 -82.84126 177.94951 331
49.33342 -86.10061 179.82733 296
31.66933 -94.28296 179.97925 292
-14.34987 -115.58969 176.08054 342
-15.93672 -116.39182 180.36687 284
80.76686 -72.66490 171.74673 316
70.64337 -77.41828 171.82430 312
62.17378 -81.39651 172.73972 390
59.15588 -82.82935 175.23526 388
54.20631 -85.16457 177.38475 330
49.16655 -87.53916 179.66611 329
32.27979 -95.51202 179.94565 292
-4.61697 -112.88512 177.60413 286
-15.25952 -117.84509 180.33087 284
81.25167 -73.57544 171.73619 316
71.12800 -78.44245 171.86893 312
61.44638 -83.04916 172.42723 389
57.07387 -85.14572 174.57544 331
52.03254 -87.57600 176.74281 329
46.81572 -90.03288 179.08673 328
32.89206 -96.71044 179.93883 292
11.63897 -106.84335 180.12195 288
-14.51252 -119.39876 180.35962 284
81.73201 -74.49933 171.75682 316
71.63831 -79.40015 171.86113 312
60.21609 -84.95519 171.95149 308
54.96043 -87.52472 173.95436 330
49.76001 -90.05709 176.15388 328
44.41642 -92.60873 178.48038 327
33.50610 -97.95477 179.97658 292
12.33275 -108.25943 180.13522 288
82.18860 -75.43966 171.76451 316
72.15144 -80.39252 171.82956 312
60.74039 -86.04643 171.91318 308
52.78739 -89.96882 173.26872 329
-69.96983 -34.52032 -15.57507 326
41.95795 -95.30748 177.86842 326
34.12265 -99.17355 179.95634 292
13.00658 -109.60973 180.15141 288
82.66978 -76.33498 171.72794 316
72.66660 -81.35845 171.80859 312
61.30284 -87.06039 171.94620 308
50.53172 -92.45915 172.60121 327
45.00565 -95.21265 174.79439 325
39.39362 -98.01311 177.18311 324
33.47794 -101.00913 179.73457 322
13.68494 -110.95480 180.13388 288
83.18617 -77.25491 171.75862 316
73.18282 -82.33439 171.83092 312
61.84601 -88.15160 171.91597 308
48.86329 -94.74058 172.01956 304
42.51891 -97.97041 174.08795 324
36.74983 -100.85988 176.50835 323
24.20750 -107.25340 177.89668 277
8.56589 -115.27262 179.17786 275
83.69299 -78.17476 171.74178 316
73.72026 -83.34318 171.83788 312
62.36728 -89.18011 171.92070 308
49.46926 -95.85193 172.01860 304
39.97463 -100.74788 173.36540 324
30.78688 -105.50928 175.17471 276
14.14468 -114.12348 175.82912 276
-75.17080 -160.24849 164.98163 284
84.17651 -79.06686 171.72922 316
74.25754 -84.28764 171.84267 312
62.98088 -90.23275 171.92932 308
50.04531 -96.95496 172.04050 304
37.32763 -103.64117 172.66843 323
20.75532 -112.37374 172.94069 274
-3.18172 -124.91978 172.45450 292
84.71014 -79.99493 171.74512 316
74.81556 -85.25527 171.79315 312
63.54280 -91.22380 171.88678 308
50.68343 -98.13053 171.99915 304
35.75930 -106.05104 172.12917 300
18.34695 -115.33109 172.31567 296
-50.52948 -151.97833 163.43800 370
85.22587 -80.88495 171.70949 316
75.32726 -86.22653 171.82858 312
64.10029 -92.29485 171.92148 308
51.27919 -99.22128 171.98863 304
36.42059 -107.23975 172.15936 300
19.04456 -116.61309 172.26758 296
-46.41367 -152.02780 164.01530 362
85.69998 -81.80303 171.74030 316
75.90413 -87.20604 171.79761 312
64.74358 -93.30431 171.87433 308
51.93633 -100.34824 172.01521 304
37.09247 -108.43421 172.16045 300
19.74424 -117.96178 172.31468 296
-42.15137 -151.86609 164.62654 363
86.25088 -82.68560 171.73299 316
76.44880 -88.13421 171.81415 312
65.32504 -94.35884 171.90984 308
52.57291 -101.45042 172.01091 304
37.77491 -109.63902 172.10889 300
20.53664 -119.24304 172.30595 296
-37.93749 -151.83087 165.20721 364
86.78757 -83.61539 171.72057 316
77.02227 -89.09859 171.80585 312
65.91138 -95.36067 171.87718 308
53.22757 -102.54987 171.99182 304
38.49646 -110.85335 172.15202 300
21.25042 -120.56381 172.26425 296
-36.47289 -153.17178 165.32816 287
87.29844 -84.49861 171.72989 316
77.56444 -90.08672 171.80748 312
66.49816 -96.39012 171.90256 308
53.82730 -103.64104 171.97504 304
39.16179 -112.03053 172.13359 300
22.04776 -121.85673 172.27817 296
-35.51766 -154.79196 165.36044 286
87.88838 -85.37310 171.69618 316
78.12333 -91.01415 171.78229 312
67.11212 -97.42036 171.89687 308
54.52177 -104.73625 172.01396 304
39.88221 -113.24731 172.13971 300
22.75560 -123.14478 172.28406 296
-34.56067 -156.42816 165.30280 286
88.39093 -86.25307 171.70488 316
78.75356 -91.95371 171.80092 312
67.71521 -98.44543 171.89482 308
55.17709 -105.87112 171.97260 304
40.58768 -114.39751 172.13348 300
23.55516 -124.43584 172.25758 296
-33.56320 -158.08044 165.33447 286
88.95474 -87.11837 171.67934 316
79.33424 -92.91636 171.78815 312
68.39224 -99.45501 171.85631 308
55.80379 -106.94088 171.98373 304
41.28681 -115.60456 172.07782 300
-18.51878 -151.35776 163.15959 371
-32.54282 -159.70990 165.29242 286
89.53381 -88.03941 171.66933 316
79.90053 -93.87605 171.77574 312
68.96894 -100.46802 171.89192 308
56.51925 -108.05347 171.98885 304
42.02643 -116.75340 172.11783 300
-14.86160 -151.22083 163.73376 372
90.09125 -88.93442 171.66486 316
80.49075 -94.79130 171.79367 312
69.64503 -101.48353 171.84050 308
57.17730 -109.13617 171.94101 304
42.77208 -117.95802 172.10866 300
-11.29286 -151.17201 164.27324 373
90.64153 -89.78448 171.67029 316
81.13992 -95.71703 171.76532 312
70.24833 -102.47207 171.86308 308
57.84661 -110.19003 171.95726 304
43.50110 -119.13947 172.10953 300
-7.82787 -151.07939 164.77255 374
91.22807 -90.68189 171.69592 316
81.70545 -96.65675 171.75270 312
70.91174 -103.48848 171.87576 308
58.57888 -111.28279 171.96809 304
44.26546 -120.32593 172.10123 300
-4.39284 -150.99529 165.32233 376
91.83591 -91.52435 171.65787 316
82.32161 -97.59891 171.74136 312
71.60773 -104.45119 171.85860 308
59.24797 -112.34766 171.97464 304
45.01532 -121.44885 172.04091 300
-1.19055 -150.98997 165.79317 291
92.40116 -92.38919 171.68196 316
82.95514 -98.54057 171.73428 312
72.22531 -105.47676 171.86740 308
59.95594 -113.43766 171.95392 304
45.77069 -122.58804 172.04980 300
-0.15827 -152.40956 165.83904 291
92.97147 -93.26881 171.68182 316
83.56490 -99.41412 171.74632 312
72.89449 -106.45721 171.81642 308
60.69281 -114.49673 171.95891 304
46.54291 -123.76676 172.03951 300
0.86431 -153.78740 165.81897 291
93.56521 -94.10179 171.66299 316
84.22485 -100.36313 171.76503 312
73.55865 -107.44101 171.82597 308
61.39947 -115.57245 171.90491 304
9.79290 -149.89311 163.05493 285
1.90140 -155.19292 165.83711 291
94.18978 -95.00381 171.64487 316
84.85149 -101.25278 171.75488 312
74.27075 -108.41216 171.83435 308
62.12539 -116.62901 171.92915 304
11.75164 -150.62000 163.29568 382
2.95804 -156.52875 165.85701 291
94.80231 -95.81519 171.63408 316
85.47087 -102.19071 171.75229 312
74.93783 -109.42294 171.80026 308
62.84587 -117.66283 171.92110 304
14.73534 -150.53896 163.77405 383
3.98075 -157.90004 165.90022 290
95.39433 -96.70445 171.63658 316
86.12002 -103.08717 171.74918 312
75.62774 -110.36752 171.80591 308
63.60037 -118.72107 171.89845 304
17.73485 -150.47688 164.30324 384
4.98365 -159.32063 165.84030 290
95.98639 -97.53082 171.62938 316
86.77090 -104.01366 171.71721 312
76.32064 -111.33626 171.79877 308
64.32299 -119.76562 171.90411 304
20.69192 -150.43475 164.73291 383
96.62833 -98.38837 171.62717 316
87.44567 -104.90591 171.73482 312
77.01781 -112.30496 171.78914 308
65.10064 -120.78600 171.91771 304
23.61733 -150.27472 165.25975 384
97.23266 -99.20372 171.61588 316
88.14024 -105.79974 171.71204 312
77.73679 -113.27113 171.78505 308
65.83200 -121.85036 171.92703 304
26.50111 -150.15179 165.72308 385
97.88773 -100.02988 171.64345 316
88.79649 -106.67583 171.71800 312
78.44260 -114.25702 171.80029 308
66.64304 -122.86839 171.88492 304
29.23261 -150.17763 166.18486 298
98.51162 -100.86719 171.60405 316
89.42903 -107.58997 171.70605 312
79.14607 -115.18647 171.78259 308
35.53620 -147.41679 163.26590 297
30.22256 -151.40579 166.17273 297
99.18415 -101.70287 171.63094 316
90.13087 -108.45566 171.67853 312
79.90833 -116.14297 171.77626 308
36.28968 -148.76279 163.28603 297
31.15508 -152.62440 166.13301 297
99.80342 -102.51900 171.59660 316
90.84157 -109.36224 171.68401 312
80.63987 -117.10275 171.79118 308
37.56038 -149.77380 163.35175 390
32.18458 -153.84744 166.18280 297
100.46045 -103.38479 171.59254 316
91.52077 -110.25139 171.68259 312
81.34903 -118.04745 171.78062 308
40.18412 -149.70422 163.76736 391
33.12448 -155.08357 166.13040 297
101.11047 -104.19873 171.58199 316
92.19659 -111.11328 171.69141 312
82.10139 -118.95733 171.76868 308
42.74804 -149.59209 164.24321 392
34.13149 -156.25894 166.17418 297
101.76247 -105.00529 171.59352 316
92.92028 -111.99816 171.68399 312
82.84032 -119.90350 171.74010 308
45.32817 -149.46368 164.71107 393
35.14959 -157.54785 166.18054 297
102.46540 -105.80634 171.58514 316
93.63187 -112.86301 171.64716 312
83.60323 -120.84796 171.75064 308
47.86943 -149.36685 165.11574 395
36.12444 -158.69016 166.18602 297
103.09495 -106.60197 171.56094 316
94.34409 -113.70921 171.65807 312
56.96494 -143.92162 163.48131 300
50.29160 -149.31750 165.52257 396
103.76842 -107.43784 171.58740 316
95.05373 -114.59169 171.67792 312
57.72557 -145.08855 163.43855 300
52.76216 -149.20961 165.97180 397
104.46489 -108.22272 171.55566 316
95.79173 -115.43062 171.63837 312
58.51587 -146.33681 163.37987 300
54.86307 -149.34418 166.29855 302
-1870.95203 -1744.77600 124.60448 370
105.16158 -109.02895 171.56989 316
96.46878 -116.28728 171.66519 312
59.33398 -147.45503 163.35820 300
55.84587 -150.40640 166.29785 302
-1834.68311 -1736.60608 81.75247 318
-1844.27563 -1744.53467 125.73517 348
105.83138 -109.81918 171.54861 316
97.24834 -117.13555 171.62605 312
60.12669 -148.65450 163.31255 300
56.80804 -151.47345 166.29829 302
-1797.99683 -1727.23535 83.43709 346
-1820.75378 -1746.84192 126.06783 318
106.54138 -110.59421 171.57576 316
97.97329 -118.01296 171.64809 312
62.07796 -148.85571 163.64912 401
57.77263 -152.56216 166.27583 302
-1769.07178 -1724.33862 84.22928 396
-1875.09937 -1815.14685 123.08489 472
107.21654 -111.41538 171.57002 316
98.69425 -118.83775 171.60802 312
64.31681 -148.75496 164.05685 402
58.73898 -153.57770 166.26244 301
-1744.61365 -1723.66528 85.28770 422
-1865.73889 -1829.56604 123.13192 474
107.92953 -112.19616 171.55630 316
99.44859 -119.62762 171.63539 312
66.52608 -148.67264 164.44337 403
59.73680 -154.65167 166.32034 301
-1721.04712 -1724.95349 86.17194 423
-1856.53979 -1844.12354 122.73380 378
108.63033 -112.95280 171.51483 316
76.55211 -141.63246 163.65523 304
68.73300 -148.61086 164.82451 405
60.74513 -155.70853 166.28331 301
-1698.48804 -1726.41541 87.23946 428
-1848.91748 -1860.99658 122.46564 323
109.36156 -113.74799 171.52567 316
77.32740 -142.69579 163.60262 304
70.85384 -148.48819 165.23021 406
61.72126 -156.80608 166.26279 301
-1677.56396 -1728.28711 87.76837 440
-1840.02502 -1875.86035 122.62761 495
110.07684 -114.52011 171.54526 316
78.12156 -143.73355 163.58884 304
72.99842 -148.46628 165.56737 407
62.74995 -157.84215 166.28772 301
-1686.29688 -1758.18970 43.66227 430
-1657.58997 -1731.59546 88.74142 441
-1832.42249 -1891.93311 122.46611 433
110.81278 -115.27252 171.50574 316
78.94965 -144.74110 163.51207 304
75.06845 -148.36073 165.90739 408
-1664.68542 -1760.01099 44.74415 431
-1637.35046 -1734.46533 89.42132 442
111.52160 -116.05442 171.49138 316
79.79313 -145.80750 163.47934 304
77.13379 -148.24127 166.27002 409
-1643.82361 -1762.20459 45.62469 431
-1617.25928 -1737.85791 90.07709 443
112.28661 -116.79405 171.49062 316
80.61082 -146.84021 163.42924 304
78.33382 -148.99115 166.38084 306
-30528.38086 -29203.50195 -6820.17969 1000
-1623.73572 -1764.88843 46.64272 433
-1598.24817 -1741.28870 90.30087 431
112.96970 -117.55915 171.52580 316
81.46426 -147.86781 163.43719 304
79.30035 -149.92186 166.35068 306
-1603.34607 -1767.46863 47.72499 446
-1580.29333 -1745.44214 90.67320 432
-1646.03503 -1808.17725 129.06642 469
113.76209 -118.29463 171.48051 316
83.16968 -148.08185 163.69719 412
80.27998 -150.83559 166.39871 306
-1585.33606 -1771.79431 47.98380 447
-1562.59900 -1749.57690 91.06749 432
-1628.36121 -1813.80225 129.27817 469
114.47823 -119.05528 171.48282 316
85.13295 -147.98619 164.03366 413
81.25924 -151.76099 166.39064 306
-1567.17029 -1775.12317 48.76421 448
-1545.67078 -1754.10938 91.51885 439
-1610.83777 -1818.82886 129.58344 470
94.62192 -140.34476 163.65446 311
87.03748 -147.89857 164.37798 414
82.21576 -152.67331 166.41156 306
-1545.37549 -1775.88831 49.41764 316
-1528.66614 -1759.70300 92.13661 439
-1600.73816 -1831.10071 129.23245 342
95.41577 -141.26707 163.66113 311
88.91428 -147.84755 164.72644 415
83.24349 -153.61626 166.39680 306
-34304.30859 -34866.99609 -7102.31104 1000
-1524.67334 -1776.70386 50.89386 317
-1512.44641 -1764.78857 92.62219 440
-1589.77612 -1842.47253 129.89343 489
96.28053 -142.14839 163.58971 311
90.83889 -147.74643 165.08995 416
84.19834 -154.48775 166.37102 306
-1505.13452 -1778.67688 51.56338 324
-1495.70813 -1769.79236 93.18176 442
-1620.62793 -1897.51282 127.29784 340
97.12280 -143.10979 163.60277 311
92.67693 -147.66983 165.38593 417
85.21442 -155.44432 166.42984 306
-1487.62158 -1783.15332 52.15487 324
-1480.10889 -1774.55042 93.32365 443
-1622.84900 -1923.41821 126.95025 473
97.97324 -144.00822 163.53268 311
94.49635 -147.62006 165.71855 418
86.18192 -156.31999 166.43318 305
-1470.53259 -1786.83191 52.96972 325
-1463.60889 -1780.11792 93.36617 443
98.82417 -144.89636 163.54916 311
96.29041 -147.54593 166.06602 419
-1453.84778 -1790.98486 53.18726 325
-1448.31604 -1785.24084 94.00220 444
-1509.91492 -1851.41223 131.02866 419
99.70264 -145.78188 163.51849 311
98.19481 -147.39482 166.36633 410
-1436.63489 -1795.50977 53.89562 325
-1431.93433 -1790.74707 94.65726 444
-1491.56519 -1854.67517 131.31973 475
100.59711 -146.64516 163.51640 312
99.31590 -148.04839 166.48027 310
-1419.98364 -1799.90222 54.26596 325
-1416.52820 -1795.11597 94.71171 445
-1491.69446 -1877.19446 131.19135 356
101.89030 -147.02557 163.62790 411
100.26219 -148.87331 166.45782 310
-1403.87439 -1803.63025 55.03818 326
-1400.77991 -1800.68396 95.25601 446
-1504.81738 -1915.40210 129.42375 453
-1502.97986 -1913.12280 172.46245 476
-1503.06812 -1913.54260 214.04869 476
103.73041 -146.85431 163.99529 412
101.21526 -149.69281 166.45880 310
-1386.84790 -1807.98169 55.47407 326
-1384.94641 -1805.61365 95.76003 446
105.53013 -146.66489 164.35597 413
102.17336 -150.50227 166.48402 310
-1371.10889 -1811.94336 55.60772 326
-1369.38647 -1810.24731 95.80606 447
107.30916 -146.46655 164.69431 415
103.15835 -151.25900 166.46240 310
-1354.34485 -1815.99597 56.35622 326
-1353.81213 -1815.58643 95.78472 447
-1386.41504 -1852.28003 134.19856 478
-1472.10730 -1950.63013 256.84552 451
-1472.31580 -1950.79370 299.51578 451
109.07042 -146.33418 165.04175 416
104.09582 -152.05093 166.45999 310
-1338.69409 -1820.32361 57.03722 421
-1338.71082 -1820.30615 96.67254 448
-1370.48828 -1857.30835 134.18855 479
-1456.20325 -1956.61218 341.29678 478
110.83066 -146.11598 165.34305 417
105.08192 -152.88031 166.45865 310
-1323.18591 -1824.95300 57.33307 422
-1323.44385 -1824.99512 96.37512 448
-1372.89551 -1883.42310 133.21663 341
112.53504 -145.94495 165.67671 418
106.03660 -153.66617 166.44460 310
-1307.72400 -1829.67371 57.57269 422
-1308.26416 -1830.36609 96.72876 449
-1386.29016 -1922.56897 132.01782 347
114.19828 -145.76770 165.98607 419
107.01895 -154.40147 166.47948 310
-1292.06213 -1834.30579 57.98434 423
-1293.07214 -1834.97766 97.36211 449
-1398.31580 -1960.80481 131.02132 345
115.87282 -145.63516 166.32178 420
108.03295 -155.20554 166.45441 310
-1277.03723 -1838.02759 58.39043 423
-1278.44385 -1839.78992 97.70618 450
-1410.08545 -2000.11792 129.81300 350
117.11374 -145.94266 166.47510 314
-1261.92932 -1842.88843 58.85956 423
-1263.44934 -1844.87927 97.55369 450
-1414.15881 -2031.02063 128.54463 453
118.08096 -146.68217 166.46507 314
-1246.53101 -1847.54248 59.22196 424
-1248.16443 -1849.86487 98.41690 451
-1298.62646 -1912.00708 174.09953 432
-1298.09277 -1912.16431 214.81674 482
119.01842 -147.37579 166.45256 314
-1231.39868 -1852.14709 59.99055 424
-1233.59265 -1854.20386 98.64586 381
-1306.06885 -1946.34558 254.85016 322
120.09840 -147.92203 166.51770 426
-1216.37854 -1856.64111 60.23254 425
-1218.83667 -1859.19543 98.83754 381
121.70222 -147.74179 166.78973 427
120.92773 -148.75339 169.69592 427
-1201.75940 -1860.62366 60.27344 425
-1204.33887 -1864.26172 98.84218 382
-1344.00732 -2044.85779 129.70184 484
-1337.27026 -2035.82263 172.07072 429
-1336.47583 -2035.87659 214.45488 484
-1329.35095 -2026.41406 340.29803 483
123.22649 -147.68770 167.06367 438
122.47744 -148.59251 169.97951 428
-1187.16528 -1865.21277 60.89655 426
-1189.61646 -1868.93884 99.25800 382
124.66328 -147.68675 167.31033 438
124.08855 -148.47382 170.22284 437
-1171.83191 -1869.67957 61.41602 426
-1175.17285 -1873.78088 99.34492 382
125.76291 -148.13992 167.38976 316
125.51784 -148.47296 170.45255 438
-1157.52161 -1874.18921 61.97448 426
-1160.84558 -1878.26489 99.87733 382
126.68103 -148.81091 167.35527 316
126.50481 -149.08965 170.44191 312
-1143.01782 -1878.08777 61.81770 427
-1146.33496 -1883.07288 99.93218 383
127.63927 -149.46373 167.34404 316
127.24038 -150.05669 170.39337 290
-1128.55933 -1882.65747 62.20746 427
-1132.10168 -1888.08533 99.85832 383
128.57182 -150.12662 167.35046 316
-1113.58289 -1886.80054 62.40586 428
-1117.57703 -1892.54810 100.66914 383
-1099.18225 -1891.15857 63.22221 428
-1103.50745 -1897.14441 100.92618 383
-1084.73071 -1895.84924 63.37259 428
-1089.20093 -1901.82581 100.65820 384
-1070.55322 -1900.02075 63.32203 429
-1075.26343 -1906.27527 100.89280 384
-1056.44531 -1904.19946 63.81316 443
-1061.30042 -1911.06995 101.50524 384
-1138.37805 -2024.69849 134.43228 489
-1045.24646 -1913.18091 63.93557 443
-1050.52539 -1920.64905 101.17179 399
-1035.19885 -1922.92920 63.85630 347
-1166.68640 -2121.73267 89.33724 459
-1026.55200 -1936.07312 63.28490 347
-1151.12903 -2126.65161 89.55545 460
-1107.50232 -2087.87549 52.21016 316
-1135.50903 -2131.27246 90.40418 460
-1130.32568 -2153.21509 47.57205 346
-1121.43872 -2138.70801 90.25320 470
-1109.10425 -2148.06128 90.03195 388
-1098.14551 -2160.34741 89.53694 388
-22328.76172 -45403.77734 -8190.45166 1000
-21728.44727 -44887.83594 -3915.91260 1000
-28.19379 -1332.97595 59.28328 428
-29.20717 -1337.89221 81.36465 428
-31.14652 -1347.39172 103.24982 292
-19.23613 -1330.30408 60.02306 497
-19.77311 -1334.11194 82.05868 496
-20.78502 -1337.90210 104.03245 473
-21.43648 -1341.72449 126.31448 473
-22.27971 -1345.93909 148.43788 423
-10.99990 -1331.96423 59.76074 495
-11.73428 -1335.87195 81.80543 495
-12.14692 -1339.26172 103.93343 469
-13.11603 -1343.29187 125.99986 474
-13.93012 -1347.26099 148.50609 423
-3.59824 -1338.09961 59.51449 422
-4.14299 -1342.75586 81.24168 422
-6.09494 -1352.01599 103.06598 284
466.04819 -617.56494 40.58606 1000
6293.75391 -16292.42285 214.36229 1000
2100.19946 -3377.29883 89.86423 450
2125.65552 -3373.78809 89.26002 454
2151.43262 -3371.11816 89.02372 451
2177.58984 -3370.00391 89.31435 451
2293.66577 -3570.27075 148.48651 439
2191.53564 -3372.50610 84.25677 452
2292.32935 -3546.93140 144.69777 440
2218.80127 -3371.75391 83.66145 451
2305.61450 -3520.85156 145.43988 440
2247.04248 -3371.61670 83.87814 453
2319.39429 -3493.52710 145.24335 441
2275.15747 -3373.49683 83.56239 442
2332.83911 -3467.49927 145.79466 442
2305.60645 -3376.68726 82.76671 438
2345.36133 -3442.13818 145.71216 443
2337.28931 -3381.18018 82.33054 430
2358.62476 -3415.14209 146.16110 444
2367.99927 -3383.71338 81.14423 420
2381.64453 -3405.26758 146.52592 486
2403.55151 -3393.95020 80.55222 403
2414.31226 -3410.32397 145.63310 403
2443.83057 -3410.05981 79.10719 376
2488.34180 -3433.63477 77.68587 329
2535.59717 -3458.56055 76.62438 334
2583.26733 -3483.61719 75.11859 363
2631.53247 -3508.86816 72.50113 361
2681.13062 -3534.55200 71.59974 360
2731.95728 -3560.61279 69.92573 362
2785.38477 -3589.60889 67.99553 361
1804.78320 -2021.14722 88.48493 299
1811.56433 -2004.66284 88.70280 495
1813.58215 -2007.56091 130.21527 488
2902.06079 -2172.04492 101.37571 488
3770.99854 -2437.29907 144.02924 375
3769.24707 -2403.67456 144.72580 466
383.01773 -103.01741 167.64479 313
3833.64771 -2416.12549 72.25829 403
3777.97827 -2378.36304 144.27971 428
383.53888 -102.05093 167.64407 313
3833.43286 -2384.03027 73.25674 432
3788.12769 -2353.49976 144.29565 435
384.12946 -101.08472 167.66733 313
3812.85327 -2338.42871 73.90999 291
3798.93579 -2330.42700 145.03596 407
384.63315 -100.12049 167.70276 313
3809.82275 -2306.21191 74.87974 360
3811.05835 -2306.13354 144.38058 414
385.19122 -99.15366 167.71729 313
3813.65771 -2277.31958 75.19346 366
3824.08203 -2283.91943 144.41527 359
385.69580 -98.22624 167.68639 313
3819.63184 -2249.61304 76.47460 424
3838.00171 -2261.31934 144.66371 359
386.26566 -97.27778 167.68643 315
3827.47729 -2224.47803 76.18222 429
4022.42603 -2344.84863 141.26846 490
386.75461 -96.31705 167.68602 315
3835.25586 -2198.46777 76.87119 469
3902.77954 -2240.68872 144.30510 335
387.30997 -95.37050 167.70949 315
3844.18433 -2174.44141 76.37106 471
3882.73315 -2197.62549 145.27948 494
3971.13525 -2250.92407 214.52948 327
3951.57959 -2238.28857 285.69507 295
387.83383 -94.39717 167.74265 315
3854.33862 -2150.36426 76.65990 496
3891.20337 -2171.52905 145.39259 494
3926.83716 -2193.21411 214.55560 329
3908.61914 -2182.21362 284.62589 329
388.35718 -93.41977 167.73671 315
3865.28687 -2125.82715 77.28046 496
3899.81909 -2146.22266 145.63481 494
3893.65747 -2143.54834 214.86115 499
3905.05249 -2149.32617 283.83212 416
389.02335 -92.56058 167.66484 432
3876.96191 -2102.73242 76.94906 496
3908.82471 -2122.12012 145.03908 499
3908.28638 -2121.27441 214.96452 499
3918.65625 -2127.49780 284.47052 415
390.42438 -92.08049 167.38603 431
3888.21118 -2080.66138 77.14521 497
3923.27905 -2100.16089 145.61513 499
3922.21362 -2099.10474 214.23959 499
3933.47754 -2105.34546 284.28244 415
391.81964 -91.57172 167.11967 430
400.94019 -96.69501 167.70897 309
3900.83081 -2057.82227 76.94655 497
3937.67749 -2078.46509 145.38271 499
3937.62842 -2077.59790 215.05278 499
3947.73120 -2084.51758 284.65912 416
393.23578 -91.08218 166.87192 429
401.44968 -95.61839 167.73183 309
3914.88647 -2035.09363 77.02616 497
3948.00122 -2054.39014 145.08804 498
3946.84106 -2053.63623 214.59111 476
3952.68506 -2056.35718 283.92593 433
394.64044 -90.58168 166.57817 428
401.98077 -94.60375 167.73949 309
3928.42456 -2013.24158 77.29794 496
3962.91016 -2032.80444 144.90462 498
3962.00537 -2031.93713 215.14139 498
3977.18213 -2039.97827 284.20288 428
396.07758 -90.10374 166.30716 427
402.45966 -93.51007 167.71400 309
3941.59644 -1992.02820 77.51280 495
3977.54980 -2010.57678 145.77879 498
3975.75146 -2009.35864 214.52116 498
3991.62500 -2019.13660 284.14090 428
397.55670 -89.59476 165.99904 426
402.98425 -92.42414 167.74022 309
3956.17822 -1970.49658 76.74496 495
3991.10474 -1988.09570 145.13643 498
3989.56152 -1988.25293 215.24904 498
4006.80249 -1996.21765 284.69055 428
399.06598 -89.07151 165.69228 425
403.42834 -91.38024 167.74228 309
3969.75342 -1948.46753 77.05267 495
4011.52344 -1969.65869 144.61589 498
4009.55591 -1968.83411 215.00049 498
4019.65552 -1974.51062 285.06720 423
400.55936 -88.59109 165.37859 424
403.91751 -90.26920 167.75005 309
3985.10059 -1926.01782 77.21348 495
4024.88916 -1947.71997 145.35954 498
4024.01074 -1946.83862 214.67198 498
4034.64966 -1952.90967 284.53513 422
402.04382 -88.02000 165.09924 423
404.36310 -89.22453 167.79979 309
3999.29468 -1904.92773 76.92280 495
4040.66382 -1926.13208 145.21510 497
4039.51709 -1925.12854 214.99312 498
4049.60425 -1930.70508 284.46042 422
4132.63330 -1972.07214 357.73257 418
403.44275 -87.43542 164.81705 317
404.85922 -88.15044 167.76874 309
4013.38965 -1883.24377 76.37125 495
4055.31812 -1903.24304 145.66821 497
4053.43848 -1902.68457 215.57986 497
4063.62256 -1908.19958 284.89490 428
4138.71143 -1945.37805 357.82187 474
403.97037 -86.35868 164.80829 317
405.32761 -87.04348 167.81125 311
4028.47119 -1861.21399 77.20968 494
4139.28320 -1916.46118 285.85165 497
404.46567 -85.35516 164.81606 317
406.73492 -86.40120 167.52126 420
4043.21704 -1840.22729 76.94530 494
4326.05615 -1976.54675 140.48415 257
4197.59131 -1914.37146 359.49600 477
404.94211 -84.28448 164.79100 317
408.13602 -85.77032 167.29791 439
4057.46777 -1817.87061 76.24360 494
4218.98975 -1895.31970 359.69858 479
405.38467 -83.19516 164.79474 317
409.48248 -85.08376 167.05379 438
4072.30664 -1796.58154 76.75343 494
405.87994 -82.09985 164.82770 317
410.85681 -84.40723 166.79649 437
420.38480 -88.76807 167.79646 305
4087.75415 -1773.88196 76.83971 493
406.32510 -81.03307 164.79604 317
412.26804 -83.73557 166.50906 436
420.83115 -87.58788 167.79729 305
4101.68994 -1751.49854 75.83759 493
406.79144 -79.98811 164.77052 317
413.70828 -83.06078 166.23343 435
421.31500 -86.43027 167.75832 305
4116.95850 -1730.10071 76.36880 493
407.22058 -78.91439 164.78421 316
415.13892 -82.34758 165.96890 434
421.70764 -85.23851 167.78447 305
4131.64941 -1707.85730 75.44711 493
4287.59814 -1776.22363 142.44922 478
4286.89697 -1775.78918 214.98172 478
407.64575 -77.80202 164.76688 316
416.55988 -81.63190 165.69846 433
422.16937 -84.06190 167.77615 305
4146.88477 -1685.99988 75.33962 471
4255.14355 -1733.24561 143.69908 259
408.08276 -76.73825 164.79510 316
418.06049 -80.96066 165.45961 432
422.60342 -82.84112 167.81110 305
4161.33398 -1663.60876 75.81728 470
4260.28613 -1706.38245 143.71176 259
408.55392 -75.62328 164.79036 316
419.50928 -80.22760 165.18361 431
423.04288 -81.65580 167.84369 305
4176.21680 -1641.81824 74.90330 470
4211.41064 -1657.11780 144.64084 394
408.94232 -74.53690 164.81068 316
421.05475 -79.46562 164.85486 430
423.42429 -80.48315 167.82837 305
4192.14990 -1619.87939 74.74200 470
4469.05713 -1732.84204 139.93971 494
409.38348 -73.46033 164.78696 316
421.49423 -78.31296 164.87630 312
423.85614 -79.28716 167.82532 305
4206.58301 -1596.98987 75.17694 470
4310.97314 -1639.66943 143.65144 444
385.89645 -62.93376 171.68126 316
421.94675 -77.15928 164.89029 312
424.23874 -78.06435 167.85489 305
4221.89990 -1575.87476 74.44422 469
4316.87012 -1613.21619 143.11345 498
386.21167 -61.97762 171.64340 316
422.37946 -75.98321 164.86050 312
425.61932 -77.26379 167.62303 428
4347.25049 -1595.01062 70.52799 467
4323.49023 -1587.11267 143.41652 498
386.54071 -61.01903 171.65036 316
422.83456 -74.80602 164.83119 312
427.17172 -76.47900 167.31204 427
4362.61475 -1572.29065 70.73820 482
4298.35938 -1548.43506 143.96362 480
386.85550 -60.07988 171.65170 316
423.24374 -73.61809 164.84869 312
428.78867 -75.73046 167.05014 426
4351.09912 -1539.74255 143.73236 474
387.17493 -59.11629 171.66312 316
423.62582 -72.41574 164.83801 312
430.42142 -74.89542 166.72466 425
4327.51367 -1502.01660 215.89798 415
387.45947 -58.09415 171.66031 316
424.07187 -71.26381 164.83696 312
432.00391 -74.10767 166.41516 424
441.95731 -77.67624 167.83371 301
387.75323 -57.12887 171.67004 316
424.46420 -70.05380 164.83337 312
433.68423 -73.35596 166.12903 423
442.38153 -76.35954 167.82100 301
388.05209 -56.16467 171.67325 316
424.82883 -68.89212 164.82266 312
435.31842 -72.52329 165.80229 422
442.72717 -75.07610 167.86469 301
388.36591 -55.19792 171.67285 316
425.21475 -67.67900 164.81906 312
437.04843 -71.67816 165.46936 421
443.08005 -73.69628 167.86397 301
388.61444 -54.20351 171.70601 316
425.59454 -66.48812 164.81050 312
438.71231 -70.86478 165.15733 420
443.43359 -72.37801 167.90453 301
388.86661 -53.24271 171.68341 316
399.54977 -56.72285 171.77745 313
440.12958 -69.90331 164.91519 307
443.80145 -71.08913 167.90318 301
389.15286 -52.27799 171.70796 316
399.84723 -55.68258 171.80714 313
440.50385 -68.57853 164.90816 307
444.14175 -69.78120 167.92023 301
389.43634 -51.27665 171.69011 316
400.10065 -54.62506 171.78253 313
440.85251 -67.26237 164.95514 307
444.43845 -68.41306 167.93773 301
389.65945 -50.30300 171.67621 316
400.40582 -53.58651 171.81561 313
441.23682 -66.01559 164.90987 307
445.02725 -67.15331 167.85951 431
389.93420 -49.29611 171.71227 316
400.67032 -52.53732 171.81694 313
441.58206 -64.72988 164.94098 307
446.62592 -66.19310 167.61855 430
