# .PCD v.7 - Point Cloud Data file format
VERSION .7
FIELDS x y z rgb
SIZE 4 4 4 4
TYPE F F F U
COUNT 1 1 1 1
WIDTH 1403
HEIGHT 1
VIEWPOINT 5692.331543 -3975.220215 150.070831 -0.046761 -0.138135 0.003210 0.989304
POINTS 1403
DATA ascii
269.61951 0.54520 203.49823 314
273.07733 0.62038 203.49507 281
412.66544 3.30260 171.92485 309
427.29099 3.62813 172.07285 305
444.26523 3.91434 172.23412 301
464.11868 4.31579 172.37631 297
3534.12939 64.51085 54.89468 479
269.67783 0.84940 203.50545 314
399.87906 4.19356 171.77470 313
412.69720 4.49176 171.88330 309
427.32651 4.88991 172.03403 305
444.28336 5.28496 172.18773 301
464.13361 5.81233 172.41278 297
3526.31494 83.90906 55.04845 489
269.71677 1.14355 203.50061 314
399.93262 5.27746 171.76067 313
412.69186 5.69084 171.88466 309
427.34320 6.13760 172.02948 305
444.28644 6.68852 172.22649 301
464.13977 7.29260 172.42097 297
3521.17627 103.87656 55.79649 490
269.76895 1.43876 203.49873 314
399.95349 6.35242 171.80591 313
412.71689 6.84318 171.93175 309
427.37854 7.42514 172.07483 305
444.29086 8.06052 172.18080 301
464.14984 8.77489 172.39992 297
3515.37646 124.25150 55.60278 490
269.82751 1.74120 203.50127 314
399.97003 7.45965 171.80446 313
412.72244 8.01039 171.90373 309
427.35501 8.65457 172.02110 305
444.28873 9.39202 172.20230 301
464.10660 10.29482 172.41464 297
3510.19971 143.88786 56.17425 491
269.86301 2.03140 203.49748 314
399.95969 8.55341 171.79057 313
412.76318 9.20454 171.89143 309
198.82173 9.96789 -42.92188 305
444.31079 10.81166 172.21007 301
464.11008 11.76810 172.37254 297
3505.16064 164.59068 56.68593 495
269.91891 2.33153 203.50572 314
399.97250 9.63778 171.77150 313
412.76300 10.35031 171.93022 309
427.36362 11.20500 172.05365 305
444.27118 12.14034 172.18617 301
464.10062 13.27464 172.39148 297
3501.23096 184.76706 56.80153 495
269.96082 2.63077 203.50423 314
399.94223 10.73062 171.78961 313
412.72937 11.51783 171.88133 309
427.37454 12.48157 172.02657 305
444.25992 13.49688 172.22098 301
464.04306 14.72397 172.42847 297
3497.73926 204.58626 56.48246 495
3625.69824 211.94974 105.71182 261
269.99634 2.92593 203.50294 314
399.92853 11.85559 171.76016 313
412.74658 12.72214 171.92329 309
427.35333 13.69868 172.02353 305
444.21155 14.85300 172.19189 301
497.23523 18.53574 166.35428 483
3494.32275 224.39931 56.71851 495
3571.47290 229.64583 107.76072 499
270.03448 3.21631 203.50954 314
399.92810 12.90678 171.75478 313
412.70734 13.88407 171.91400 309
427.27866 14.96421 172.05995 305
444.20007 16.26038 172.23973 301
496.37683 20.15830 166.47777 452
3490.79248 244.25461 56.56794 497
3571.21973 250.40099 107.71485 499
270.07440 3.51690 203.49823 314
399.91812 14.02971 171.75589 313
412.66748 15.05728 171.89754 309
427.29526 16.25898 172.03465 305
444.13580 17.62440 172.23819 301
495.06741 21.74843 166.75896 453
3488.80518 264.51697 56.77724 497
270.10693 3.81423 203.50368 314
399.86096 15.11632 171.78470 313
412.64554 16.22242 171.91058 309
427.22223 17.52418 172.02052 305
444.07242 18.99002 172.22821 301
493.78998 23.26913 166.92534 453
3486.90356 283.88223 56.69757 497
270.14801 4.11041 203.50758 314
399.85577 16.18914 171.77437 312
412.59164 17.37037 171.89951 309
427.15118 18.72859 172.03102 305
444.03812 20.34767 172.19341 301
492.53958 24.83524 167.13457 454
3485.28882 303.97437 56.69604 497
270.17422 4.40289 203.50591 314
399.79156 17.30546 171.75739 312
412.53806 18.57390 171.92644 309
427.08789 20.00916 172.04974 305
443.94788 21.70064 172.18448 301
491.31454 26.36642 167.35542 455
3483.62451 323.82361 56.21430 497
3638.50000 339.93710 105.17171 365
270.20435 4.70369 203.50244 314
399.72723 18.38855 171.76620 312
412.45697 19.70781 171.88507 309
427.05429 21.25887 172.03175 305
443.91055 23.02410 172.18462 301
490.04181 27.93719 167.55521 456
3482.60596 344.18082 56.85202 496
3571.47241 353.60059 107.12944 370
3623.15674 358.66586 218.01054 334
270.23331 4.99702 203.50098 314
399.68027 19.46919 171.76729 312
412.37683 20.89582 171.91751 309
426.93930 22.51702 172.05653 305
443.76358 24.40777 172.17506 301
488.82764 29.42218 167.74591 457
3482.80859 364.60321 56.78624 496
3566.76733 373.86081 107.66386 498
3624.45581 380.21518 161.55759 498
3605.02563 377.98483 217.25670 495
270.26212 5.28909 203.50114 314
399.64395 20.57446 171.78116 312
412.31436 22.07787 171.89093 309
426.89786 23.75532 172.04237 305
443.69382 25.74539 172.19855 301
487.59183 30.95703 167.99071 458
3481.92432 384.62045 55.97421 496
3641.25342 403.11826 161.80403 498
3609.19800 400.00644 217.34885 407
270.29160 5.57680 203.50925 314
399.53162 21.65915 171.78085 312
412.26334 23.22115 171.90297 309
426.77994 25.06256 172.06064 305
443.57639 27.12564 172.17862 301
486.40790 32.45511 168.12648 294
56604.68750 7007.37012 -9145.64551 1000
3481.44336 405.15930 55.86956 496
3605.26758 420.58920 218.00781 498
270.30582 5.87507 203.50684 314
399.46695 22.72369 171.75763 312
412.18326 24.38932 171.89059 309
426.71964 26.30488 172.04854 305
443.45691 28.47079 172.16823 301
486.32562 34.08366 168.16446 294
3480.95898 424.99768 55.85184 496
270.33136 6.17273 203.49780 314
399.40189 23.83020 171.77237 312
412.04990 25.56068 171.90697 309
426.56055 27.56446 172.01920 305
478.68011 34.68267 165.13643 300
486.26382 35.72255 168.14369 294
3480.21704 445.24063 55.66346 495
3627.48730 465.61871 104.83502 406
270.35123 6.46587 203.50458 314
399.28955 24.91274 171.78828 312
411.99286 26.72607 171.88857 309
426.45883 28.80104 172.05339 305
478.59418 36.20273 165.11575 300
486.23581 37.32784 168.12737 293
3480.15088 465.42050 55.88828 495
3531.47852 473.38745 108.21675 498
270.37503 6.75725 203.50809 314
399.18854 25.96542 171.74704 312
411.86597 27.86532 171.87891 309
426.34705 30.05503 172.04498 305
478.39990 37.79348 165.10027 300
486.15045 38.99736 168.07681 293
3479.22437 486.15265 56.21860 495
3530.95728 493.37869 108.39824 497
270.38150 7.04934 203.50252 314
399.11279 27.04073 171.78760 312
411.76105 29.03676 171.89229 309
426.20007 31.26589 172.05336 305
478.20331 39.36488 165.11690 300
486.02130 40.55570 168.04387 293
3478.73682 506.39557 55.52887 495
270.39740 7.33870 203.49942 314
399.00018 28.16762 171.74942 312
411.61554 30.17895 171.91255 309
426.09662 32.50412 172.01149 305
478.06970 40.90633 165.12613 300
485.91556 42.23663 168.06232 293
3477.99414 526.13947 55.47335 495
270.40674 7.62967 203.50990 314
398.88126 29.24014 171.77396 312
411.50909 31.32972 171.87636 309
425.94403 33.75777 172.02730 305
477.03845 42.38396 165.28120 444
485.80606 43.87188 168.00050 293
3478.33521 546.93512 55.15545 495
3653.95117 576.58417 217.13870 491
270.42178 7.92926 203.50159 314
398.78671 30.32555 171.75566 312
411.38708 32.49974 171.87062 309
425.81824 35.04835 172.01286 305
475.58307 43.73365 165.47844 445
485.66415 45.43765 168.01437 293
3477.92310 567.48090 55.02821 494
3569.67700 583.55060 217.45901 490
270.43723 8.21630 203.50363 314
398.63193 31.37376 171.74648 312
411.23514 33.68460 171.87796 309
425.66876 36.23820 172.00375 305
474.16034 45.02364 165.72176 446
3477.77148 587.50928 54.58055 494
270.43729 8.50426 203.50668 314
398.47821 32.47780 171.75066 312
411.06265 34.83999 171.86736 309
425.47083 37.52551 172.05171 305
472.79321 46.33278 165.98898 447
3477.11987 608.17609 54.70871 494
270.44794 8.79122 203.50099 314
398.34686 33.55785 171.75803 312
410.90353 35.96848 171.87071 309
425.30579 38.72956 172.01297 305
471.37079 47.63358 166.24786 448
3476.53418 629.27618 54.63819 494
270.44400 9.07884 203.50826 314
398.22217 34.61481 171.75592 312
410.76834 37.10633 171.89462 309
425.13046 39.99534 171.99013 305
469.95718 48.96756 166.48180 449
3475.82593 649.89746 54.02569 493
270.45157 9.37059 203.49832 314
398.08566 35.70193 171.75778 312
410.57623 38.27445 171.88356 309
424.95721 41.22359 172.02264 305
468.60385 50.24352 166.69939 450
3476.10767 670.30969 54.09101 493
270.54202 9.67987 203.47841 285
397.92551 36.75808 171.73755 312
410.43680 39.41748 171.88867 308
456.70645 49.27209 164.96489 303
467.27423 51.52921 166.92227 451
3475.64282 690.91168 53.88439 493
386.72992 35.42951 171.64055 316
397.71530 37.81274 171.75919 312
410.23114 40.54126 171.85223 308
456.48074 50.66475 164.96486 303
465.94275 52.78140 167.11958 452
3474.91821 712.11237 53.84474 493
386.54565 36.43371 171.64169 316
397.55505 38.87377 171.76431 312
410.06854 41.69826 171.84450 308
456.20450 52.14514 164.97195 303
464.60580 53.99845 167.37474 452
3475.02393 732.65057 53.45221 492
3616.06592 764.63770 103.46291 494
386.37799 37.42014 171.63664 316
397.40421 39.96863 171.76338 312
409.83746 42.86068 171.89104 308
455.94150 53.55081 164.93080 303
463.27054 55.26293 167.52625 453
3474.63745 753.22742 53.28217 492
3580.03516 778.47870 104.86319 414
386.24173 38.42042 171.63979 316
397.21204 41.00172 171.76836 312
409.64310 43.97137 171.86882 308
455.68906 54.93027 164.97061 303
461.85583 56.42030 167.80968 421
3473.79150 774.50153 53.01704 492
386.05038 39.40719 171.61548 316
396.99881 42.11543 171.72928 312
409.43094 45.13682 171.86948 308
455.41122 56.37563 164.99162 303
460.73828 57.68085 167.94246 297
3473.54199 795.18060 53.24128 491
385.87717 40.41396 171.65799 316
396.81070 43.16795 171.72420 312
409.23474 46.28569 171.88713 308
455.12320 57.81469 164.96727 303
460.51132 59.15812 167.92369 297
3477.66187 817.86560 52.28080 464
385.68063 41.38780 171.64125 316
396.63480 44.19250 171.72366 312
409.02072 47.38496 171.85966 308
454.77609 59.23721 164.98048 303
460.23593 60.64795 167.92029 297
3487.23218 840.78632 52.13890 406
385.50562 42.39779 171.63660 316
396.38693 45.25303 171.75041 312
408.78622 48.57380 171.85860 308
454.48862 60.61829 164.96794 303
459.97357 62.08837 167.89363 297
385.31100 43.35559 171.65207 316
396.17471 46.34622 171.73181 312
408.54150 49.68819 171.85542 308
453.02667 61.70982 165.20595 426
459.73682 63.51357 167.92908 297
385.09106 44.37091 171.63118 316
395.94620 47.38750 171.74556 312
408.29239 50.82744 171.87253 308
451.29642 62.74575 165.53645 427
459.43933 65.00368 167.91232 297
384.89142 45.34177 171.64398 316
395.71634 48.42192 171.75017 312
436.84781 60.12447 164.86595 308
449.60791 63.77247 165.79504 428
459.16675 66.46666 167.86719 297
384.67773 46.31813 171.63603 316
395.52509 49.51464 171.74501 312
436.57980 61.41982 164.89574 308
447.98441 64.78268 166.14711 429
384.42365 47.33704 171.61560 316
395.23630 50.53078 171.73280 312
436.24234 62.71199 164.87602 308
446.33270 65.75772 166.39616 430
384.19568 48.30275 171.61359 316
394.99939 51.60823 171.71359 312
435.94989 64.00300 164.88422 308
444.71246 66.72798 166.70543 431
383.98141 49.30902 171.60400 316
394.76523 52.64406 171.73834 312
435.61240 65.33656 164.86371 308
443.12967 67.68871 166.97937 432
383.74146 50.26007 171.62753 316
394.52518 53.66545 171.71867 312
435.26270 66.62444 164.88817 308
441.55737 68.61753 167.22771 433
383.48535 51.22924 171.61278 316
394.21649 54.71743 171.73254 312
434.88745 67.94191 164.84584 308
439.96936 69.54643 167.54373 434
383.23901 52.21554 171.63280 316
393.94226 55.76831 171.72864 312
434.50159 69.21658 164.88751 308
438.29535 70.46948 167.83813 420
382.98834 53.20184 171.60558 316
393.69232 56.82512 171.70035 312
434.16254 70.48250 164.84842 308
437.78705 71.67838 167.84697 301
382.73672 54.17506 171.62021 316
393.40533 57.82332 171.68042 312
433.74606 71.73140 164.85320 308
437.46622 73.03554 167.81552 301
382.46039 55.13598 171.59154 316
393.12653 58.87047 171.68480 312
433.17709 72.97981 164.93781 423
437.11749 74.37323 167.85178 301
382.18201 56.12081 171.58752 316
418.83694 69.25132 164.78574 312
431.48529 73.76453 165.25563 424
436.69830 75.64124 167.84543 301
381.90399 57.04841 171.61827 316
418.44962 70.45509 164.81006 312
429.80328 74.59276 165.56577 425
436.36691 76.96153 167.80786 301
381.61700 58.00835 171.58258 316
418.05051 71.62277 164.76476 312
428.18991 75.38960 165.81929 426
435.97736 78.25805 167.76239 301
381.32895 58.99468 171.58627 316
417.65448 72.76433 164.79353 312
426.59094 76.19021 166.13274 427
435.63977 79.60198 167.75952 301
381.00577 59.96528 171.57994 316
417.24274 73.95865 164.77248 312
425.00394 76.92922 166.45042 428
435.19391 80.88826 167.75458 301
380.73001 60.92616 171.57698 316
416.83072 75.15275 164.79893 312
423.43280 77.73792 166.75415 429
380.42902 61.85491 171.58000 316
416.44879 76.29708 164.79953 312
421.85718 78.44625 166.99162 430
380.10568 62.82598 171.56891 316
416.02240 77.45538 164.81116 312
420.34387 79.22552 167.26125 431
379.79242 63.75909 171.58742 316
415.58017 78.59973 164.82144 312
418.83890 79.98254 167.58101 432
379.44171 64.72216 171.56726 316
415.13235 79.78285 164.78452 312
417.49579 80.74508 167.80977 305
379.11972 65.64896 171.55937 316
414.71103 80.90462 164.78603 312
417.04407 81.93030 167.78828 305
402.22226 76.84806 164.70381 316
414.25998 82.08205 164.83556 312
416.65915 83.16030 167.78871 305
401.79327 77.90041 164.73540 316
412.94467 82.85289 165.05034 435
416.24979 84.28944 167.76691 305
401.37659 78.99986 164.70946 316
411.47754 83.56062 165.31192 436
415.80048 85.51334 167.75307 305
400.98355 80.07190 164.73830 316
410.06827 84.21359 165.58167 437
415.38116 86.68663 167.72502 305
400.52502 81.12241 164.68781 316
408.66769 84.93441 165.86038 438
414.90384 87.82203 167.72450 305
400.06171 82.20426 164.73637 316
407.28827 85.58041 166.12306 439
414.48175 88.99893 167.72203 305
399.61298 83.25881 164.69508 317
405.69333 86.16852 166.41820 421
414.04242 90.20947 167.71567 305
399.12234 84.30168 164.72049 317
404.13556 86.71813 166.71051 422
137.03458 66.98122 -35.54085 305
398.64322 85.34945 164.70241 317
402.55072 87.28514 167.00911 423
398.16458 86.39512 164.73309 317
401.02127 87.84389 167.31909 424
397.71207 87.46617 164.71922 317
399.50894 88.37069 167.58496 425
397.17700 88.46711 164.74730 317
398.56924 89.18799 167.74876 311
396.46655 89.38855 164.82219 426
398.12039 90.24308 167.73218 311
394.99435 89.90384 165.10826 427
397.62088 91.29588 167.70767 309
393.51181 90.41422 165.39322 428
397.13791 92.39929 167.68039 309
392.09991 90.93550 165.70576 429
396.67419 93.44770 167.69405 309
390.68137 91.40495 165.96916 430
396.17667 94.48692 167.68132 309
389.29343 91.92166 166.26442 431
395.68704 95.52840 167.66750 309
387.88501 92.36044 166.49757 432
395.21414 96.61436 167.65459 309
386.50589 92.87383 166.78403 433
394.71399 97.66238 167.66913 309
385.16241 93.34396 167.03217 434
394.18570 98.69624 167.64131 309
383.80304 93.78891 167.33051 435
382.43472 94.26620 167.58194 436
381.68854 95.07710 167.62851 315
381.16684 96.01389 167.61893 315
380.64890 96.93890 167.63130 315
380.09378 97.86421 167.63550 315
379.54825 98.83549 167.64427 315
379.01740 99.77010 167.63231 315
378.46658 100.68790 167.60051 315
377.92368 101.63712 167.62187 313
2577.06494 1592.04199 76.90990 470
2584.97607 1597.50879 123.77402 416
377.42001 102.54972 167.59999 313
2570.27368 1608.29285 76.82262 426
2579.62402 1614.83289 122.93755 349
376.86023 103.48238 167.58315 313
31030.72461 21434.95312 8325.14062 1000
376.31281 104.40150 167.61278 313
375.73941 105.33356 167.58356 313
39329.91406 45346.44141 7105.80811 1000
3738.02759 4274.79297 125.29921 395
3720.67188 4307.60400 126.34752 444
7191.18018 8699.17578 -1999.73987 1000
3706.37427 4344.37793 125.75066 425
3848.84888 4521.91943 217.03911 436
3691.44556 4381.00342 124.71186 428
3807.43262 4525.99609 216.80179 437
3678.19263 4417.12842 124.35717 423
3763.53833 4528.19727 216.72836 439
3665.45508 4457.64209 124.61586 413
3722.46436 4531.89746 216.50171 440
3656.22217 4503.00195 124.09631 402
3680.89136 4534.37646 216.42947 441
3648.53369 4549.47217 123.20716 391
3649.61719 4552.75195 216.30093 487
3647.67285 4607.03271 123.12212 362
3642.61108 4601.12451 216.81181 385
3652.69775 4674.05713 120.96059 361
3657.48657 4741.03467 120.59697 367
3662.65698 4808.27588 119.92461 366
3665.74292 4877.37256 118.18652 375
3672.45435 4950.54980 117.08250 368
3678.33398 5025.33301 117.12737 336
2558.02686 3529.00977 146.85576 491
2297.25098 4635.87988 133.05923 435
2275.05518 4661.87842 132.51428 275
13154.77832 31968.66016 -6066.12256 1000
2279.18286 5572.91064 214.49329 343
2225.89380 5531.57324 215.56441 465
2186.42578 5525.97266 214.84381 475
2146.48169 5522.33008 215.42096 475
2108.52979 5520.60986 215.55797 466
2070.93896 5521.70410 214.61275 438
2033.69336 5522.07812 215.06870 442
1997.10193 5525.18750 214.68102 419
1961.03027 5529.61963 214.39496 422
1991.14111 5623.81787 312.35245 293
1925.92395 5533.51416 214.70171 422
1929.15796 5548.51807 309.87314 498
1889.78064 5538.39307 215.27586 371
1894.02307 5554.63867 309.31329 498
1854.20166 5544.14062 215.36217 372
1859.12549 5561.36719 309.24823 498
1819.28772 5549.43115 214.25182 372
1822.81970 5563.26270 309.01636 498
1784.82129 5553.77148 215.74881 373
1788.97485 5570.29395 309.42358 499
1749.10071 5560.10449 214.11835 373
1755.57629 5582.84473 310.12518 499
1713.47632 5565.75781 214.36684 365
1720.95923 5589.26221 309.95523 499
1679.50757 5571.56299 215.27924 427
1685.92175 5596.74072 309.46619 499
1720.47766 5730.04297 408.74951 418
1643.74219 5579.10010 214.51523 427
1651.04822 5604.24365 310.06976 499
1663.81262 5655.30518 406.16699 499
1609.57129 5584.55811 215.51883 427
1648.36230 5740.09766 408.77103 263
1575.13184 5590.30078 214.15227 427
1599.57080 5690.83301 406.74960 499
1540.52551 5597.69824 215.23177 427
1576.82947 5756.14844 408.87970 395
1569.26086 5879.77002 215.06058 499
1532.74170 5887.63184 215.44336 499
1497.19409 5895.74414 213.86198 499
1401.80444 5622.12158 214.51776 447
1367.56543 5626.87500 213.97755 447
1332.48596 5633.60547 214.94955 447
1298.54041 5639.95459 214.85858 447
1279.88196 5738.18408 215.00684 487
1243.33240 5732.85840 215.07719 485
1209.20349 5743.74121 215.22450 482
1695.95007 12137.66504 2230.35669 1000
683.92273 4467.49805 215.25125 369
453.04132 3462.35010 158.40376 268
457.02066 3522.70972 215.25378 352
418.96158 3243.03345 161.65379 274
420.23047 3276.85986 214.90640 280
394.88824 3165.18579 163.57776 322
396.03336 3192.38965 215.16765 447
373.07190 3119.21533 164.65282 314
376.11243 3178.17798 215.73940 442
352.62677 3081.73022 164.70128 381
356.85760 3180.07812 215.58232 477
332.68579 3053.19336 165.53951 390
337.20282 3183.41846 215.40269 477
313.32916 3025.99951 166.00659 391
317.66742 3187.21118 215.55370 477
293.84412 3001.61206 166.54768 360
298.11801 3189.49878 215.01611 476
275.54782 2980.02759 166.93465 409
279.38684 3193.36035 215.49203 476
256.65662 2963.51489 167.10406 397
259.16922 3196.20581 215.42134 476
238.93416 2944.65918 167.17416 425
239.63895 3199.62012 215.01114 476
220.50749 2967.48315 166.99771 263
220.22836 3202.20264 215.32314 476
202.14542 3003.87158 166.33109 340
200.59119 3205.22168 215.06628 475
182.82430 3067.43286 164.72475 285
181.62267 3208.45190 214.94664 476
162.36215 3172.40039 163.54300 273
-10653.37598 59947.01953 -2805.95728 1000
-19405.04492 61663.14062 -4056.69189 1000
-21127.41797 59429.19531 -11305.80469 1000
-9934.49805 22478.91211 -3455.13306 1000
-20648.30273 40728.63672 -8909.90723 1000
129.32886 150.27637 167.32393 316
128.48654 149.56979 167.30795 316
127.65955 148.91449 167.30887 316
127.43541 149.25697 170.43597 312
126.85475 148.26141 167.33829 316
126.57768 148.60893 170.42757 312
125.99773 147.57114 167.33899 316
125.57824 148.15141 170.35785 440
-15988.38672 22389.72266 -700.62341 1000
124.86230 147.33820 167.19939 440
124.22939 148.21034 170.12453 431
123.55639 147.34245 166.96034 439
122.81892 148.33035 169.88402 430
-500.43683 986.75720 316.60724 385
-499.13992 985.09546 336.93582 385
122.10382 147.44786 166.68617 429
121.34315 148.44852 169.62805 429
-510.76047 987.92084 114.44349 442
-510.03653 986.91925 134.87820 443
-509.19147 985.75635 155.10826 482
-508.36023 985.08575 175.48965 482
-507.86887 984.17017 195.56071 483
-507.12482 983.07202 215.97636 499
-506.54929 982.34027 236.09085 499
-505.96378 981.39337 256.03879 499
-505.45709 980.94952 276.06989 499
-504.92950 980.12317 296.28116 491
-504.55533 979.56073 316.31369 490
-503.81830 978.82361 336.70789 490
120.63651 147.56882 166.41728 428
-516.50781 983.20490 114.44150 456
-516.17950 982.77667 134.99657 457
-516.01892 982.39667 155.05658 405
-515.98004 982.25824 175.27350 405
-516.02142 982.48932 195.63341 337
119.74426 146.97704 166.38988 314
118.91164 146.25053 166.39166 314
118.05785 145.56483 166.39066 314
-988.21521 1542.34009 118.90733 490
-988.04559 1541.92346 150.95097 490
-987.77570 1541.41223 183.38339 491
-987.30591 1541.22766 215.72443 491
-987.26678 1541.04114 247.56209 459
-987.24030 1540.66772 279.70901 458
-986.96417 1540.20862 312.00357 458
-986.78705 1540.42188 344.45575 458
116.91591 145.27055 166.23666 422
109.12003 154.96506 166.37141 310
115.38552 145.43457 165.91792 421
108.23923 154.17146 166.38425 310
-1446.66577 2068.73022 171.29417 328
-1447.15833 2069.09180 215.16280 328
-1446.97070 2069.44214 258.98810 398
-1447.73730 2070.10547 302.31641 398
-1448.10095 2070.03125 346.29575 398
113.81031 145.55647 165.63980 420
107.35828 153.39578 166.39467 310
112.20589 145.71614 165.32269 419
106.47016 152.59824 166.37297 310
110.62132 145.90511 164.98636 418
105.65419 151.79988 166.39943 310
109.03432 146.06831 164.64392 417
104.77190 151.01097 166.36723 310
107.39009 146.21642 164.33185 416
103.91711 150.24718 166.37883 310
105.71467 146.37007 164.01225 414
103.08084 149.42256 166.40532 310
104.03964 146.55640 163.65274 413
102.22714 148.63017 166.37881 310
102.68575 146.35005 163.44632 312
101.40279 147.79970 166.40915 310
101.89007 145.50098 163.43419 312
100.55031 146.93362 166.37927 310
101.12508 144.61511 163.43385 311
98.83073 147.10225 166.06581 411
100.35920 143.70648 163.50505 311
97.03694 147.26562 165.69487 410
88.69105 156.25203 166.34955 305
99.59010 142.81094 163.51263 311
95.36851 147.34918 165.39478 419
87.84449 155.32793 166.31493 306
98.88204 141.94180 163.51666 311
93.61503 147.39583 165.03830 418
86.95043 154.42232 166.35916 306
98.12901 141.03168 163.53174 311
91.89637 147.46735 164.76010 417
86.03222 153.50435 166.30757 306
97.37782 140.10548 163.60362 311
90.13693 147.52419 164.38774 416
85.18910 152.60205 166.33789 306
117.12672 118.51711 171.39836 316
88.32241 147.63873 164.04311 415
84.27228 151.67555 166.35815 306
116.50474 117.73859 171.42479 316
86.49690 147.70633 163.74173 414
83.40648 150.77856 166.34637 306
115.88042 116.99763 171.40208 316
84.69379 147.73900 163.35069 304
82.55519 149.82872 166.33725 306
115.22182 116.27357 171.40907 316
83.95670 146.69864 163.38655 304
81.69511 148.90860 166.31093 306
-21280.04883 20954.33984 2173.79004 1000
114.63536 115.47353 171.44211 316
83.24566 145.67805 163.40837 304
80.82416 147.99229 166.30928 306
113.97551 114.74667 171.45686 316
82.51984 144.63815 163.49588 304
78.98639 148.00648 166.00403 410
113.36113 113.96469 171.42351 316
81.77240 143.58887 163.50551 304
77.06026 148.06509 165.63956 409
112.75622 113.18356 171.46690 316
81.10187 142.56364 163.56900 304
75.09657 148.15660 165.26210 408
65.56999 156.91739 166.25127 301
112.15308 112.43401 171.45651 316
80.37705 141.48849 163.60532 304
73.05947 148.18439 164.89497 407
64.71980 155.83867 166.20509 301
111.55911 111.64627 171.46095 316
103.11431 119.26346 171.54767 312
71.05818 148.26572 164.55232 406
63.84032 154.81323 166.21956 301
110.96182 110.86913 171.48637 316
102.45650 118.42493 171.56009 312
68.99213 148.35620 164.13574 405
62.95207 153.77493 166.26561 301
110.37772 110.08483 171.44995 316
101.82917 117.58481 171.54169 312
66.88828 148.46892 163.73219 403
62.08125 152.65788 166.20065 302
109.78705 109.28331 171.50032 316
101.19136 116.73108 171.53836 312
64.77218 148.51382 163.36273 402
61.22851 151.64642 166.21642 301
109.20413 108.48857 171.48999 316
100.56343 115.88765 171.55463 312
63.77826 147.57692 163.31961 300
60.31798 150.56720 166.20384 301
108.60101 107.68511 171.47763 316
99.93441 115.05734 171.57138 312
63.06779 146.41313 163.34518 300
59.48629 149.50238 166.23341 301
108.05016 106.88125 171.49095 316
99.33900 114.16875 171.54756 312
62.37393 145.23717 163.36087 300
58.16014 148.80438 166.07753 399
107.47951 106.08263 171.51955 316
98.72632 113.32264 171.55103 312
61.73354 144.04695 163.44536 300
55.90173 148.89752 165.67001 398
106.89415 105.27492 171.50139 316
98.12057 112.47163 171.58289 312
88.13642 120.61967 171.67746 308
53.54215 148.98952 165.29074 397
106.35001 104.44137 171.51547 316
97.54472 111.61280 171.60074 312
87.49052 119.72347 171.67625 308
51.21420 149.09154 164.83238 396
40.28069 157.89125 166.12192 297
105.79462 103.66077 171.49623 316
96.93517 110.73911 171.58559 312
86.88718 118.74741 171.68944 308
48.82097 149.13426 164.40155 395
39.41497 156.71414 166.09880 297
105.24165 102.82957 171.53238 316
96.32117 109.85204 171.57895 312
86.20213 117.82603 171.69315 308
46.38717 149.25885 164.01955 393
38.49938 155.47592 166.13133 297
104.68092 102.00159 171.53773 316
95.72968 108.96341 171.61778 312
85.57390 116.86471 171.65129 308
43.92394 149.31287 163.52579 392
37.63385 154.24130 166.13417 297
104.16176 101.16452 171.54245 316
95.16506 108.09120 171.62494 312
84.97691 115.91783 171.70604 308
41.78731 149.18092 163.19031 296
36.73566 153.06311 166.08920 297
103.61405 100.35979 171.52696 316
94.60751 107.22565 171.60583 312
84.36346 114.95672 171.68146 308
41.11813 147.87082 163.22649 296
35.88058 151.80362 166.10666 297
103.07217 99.53209 171.55060 316
94.03420 106.31433 171.62463 312
83.70953 114.01863 171.70529 308
40.43218 146.49527 163.26294 296
35.03867 150.56105 166.09109 297
102.54300 98.65894 171.52182 316
93.44229 105.40116 171.61067 312
83.09924 113.07610 171.70604 308
71.30822 121.80963 171.77589 304
33.61214 149.70786 165.93718 388
102.02876 97.83942 171.56120 316
92.88699 104.50203 171.60283 312
82.52927 112.08068 171.68512 308
70.61673 120.80867 171.79250 304
30.89061 149.81406 165.47794 386
101.50902 96.98575 171.57262 316
92.32928 103.59746 171.63428 312
81.93933 111.13118 171.68570 308
69.95925 119.77802 171.83035 304
28.14570 149.95041 165.03337 385
101.02516 96.13737 171.55501 316
91.78380 102.70739 171.62396 312
81.32733 110.15675 171.72430 308
69.32774 118.69701 171.82358 304
25.31737 150.06601 164.58745 384
100.51046 95.29195 171.55505 316
91.25943 101.82896 171.62074 312
80.73460 109.21474 171.71605 308
68.68890 117.64664 171.80367 304
22.50656 150.15903 164.04449 383
10.63102 158.51984 165.89742 290
99.98914 94.46098 171.54947 316
90.74465 100.91421 171.62849 312
80.19421 108.20038 171.73708 308
68.10324 116.60736 171.84286 304
19.60344 150.27734 163.60492 384
9.75149 157.15034 165.89809 291
99.52280 93.57033 171.58408 316
90.19202 99.99801 171.64447 312
79.61835 107.20808 171.72873 308
67.47778 115.57584 171.80608 304
16.70634 150.32153 163.05930 383
8.83159 155.72939 165.88760 291
99.04671 92.72964 171.58128 316
89.66312 99.04475 171.63663 312
79.00304 106.23830 171.74715 308
66.86747 114.49006 171.81737 304
16.10055 148.78734 163.11864 285
7.87744 154.31970 165.82448 291
98.54958 91.88818 171.58620 316
89.16025 98.15980 171.63544 312
78.49153 105.26287 171.74072 308
66.21461 113.40060 171.81779 304
52.07445 122.89362 171.95818 300
6.99265 152.91193 165.84554 291
98.06107 91.00809 171.57091 316
88.60965 97.21545 171.63893 312
77.94037 104.26726 171.72466 308
65.65842 112.35101 171.85345 304
51.42842 121.71986 171.96129 300
6.10274 151.52917 165.81894 291
97.61051 90.12683 171.57785 316
88.10349 96.28842 171.67917 312
77.34813 103.29071 171.77313 308
65.05820 111.25906 171.83177 304
50.77606 120.55669 171.99394 300
4.45247 150.65131 165.64868 378
97.12568 89.27291 171.58183 316
87.59769 95.37888 171.67970 312
76.84560 102.26238 171.73569 308
64.43545 110.17694 171.87863 304
50.10810 119.35175 172.00276 300
1.23163 150.72806 165.15871 377
96.64277 88.38402 171.57028 316
87.13918 94.42367 171.64703 312
76.28256 101.26775 171.77502 308
63.85180 109.10313 171.88879 304
49.50908 118.22089 171.96376 300
-2.09511 150.76956 164.61331 376
96.21649 87.52428 171.57727 316
86.63501 93.49727 171.68684 312
75.74673 100.26992 171.78679 308
63.31894 108.04282 171.87932 304
48.84957 117.03908 171.98018 300
-5.43624 150.90138 164.13776 374
95.74682 86.60678 171.59805 316
86.13368 92.51907 171.70064 312
75.23968 99.25530 171.78194 308
62.71794 106.95100 171.86595 304
48.27596 115.83049 172.00362 300
-8.82749 150.95621 163.56897 373
95.30402 85.71984 171.58878 316
85.64145 91.57536 171.68958 312
74.70831 98.26223 171.78699 308
62.13842 105.85031 171.87622 304
47.63897 114.65659 171.99063 300
-12.32025 151.03494 162.96674 372
-25.51803 159.07278 165.39740 286
94.87011 84.87002 171.60213 316
85.17592 90.66917 171.69897 312
74.18391 97.21779 171.75073 308
61.59870 104.73074 171.87564 304
47.03495 113.50706 171.99336 300
29.93328 123.71326 172.15894 296
-26.38928 157.41772 165.39798 286
94.44778 83.95279 171.59343 316
84.70696 89.68730 171.68475 312
73.69614 96.20953 171.79568 308
61.03355 103.63186 171.90201 304
46.44075 112.27631 172.00261 300
29.26510 122.43685 172.14293 296
-27.22548 155.77026 165.39731 286
94.01110 83.08566 171.63806 316
84.27518 88.74866 171.69611 312
73.16461 95.16553 171.81123 308
60.49434 102.55585 171.88660 304
45.80773 111.08317 172.02263 300
28.61863 121.09912 172.16049 296
-28.13969 154.14244 165.34549 286
93.58389 82.18123 171.64236 316
83.77322 87.78136 171.71700 312
72.71826 94.15240 171.77489 308
59.97906 101.47404 171.89557 304
45.27278 109.91372 172.00757 300
28.00303 119.81506 172.18533 296
-29.00248 152.54401 165.40706 287
93.16343 81.26840 171.63120 316
83.36028 86.82606 171.71973 312
72.19668 93.10319 171.76817 308
59.45316 100.33343 171.87343 304
44.64263 108.66955 172.00966 300
27.36975 118.46432 172.18608 296
-31.02946 151.53574 165.14781 366
92.73998 80.34876 171.60909 316
82.88819 85.88188 171.71664 312
71.69832 92.08678 171.79103 308
58.94328 99.24136 171.88986 304
44.07395 107.48830 172.01686 300
26.73183 117.18845 172.17087 296
-35.03570 151.64818 164.53096 364
92.31736 79.46812 171.63013 316
82.45349 84.89893 171.69405 312
71.26682 91.02419 171.82037 308
58.42762 98.12967 171.88225 304
43.55064 106.27644 172.00630 300
26.12292 115.85118 172.15686 296
-39.10678 151.76442 163.92883 363
91.93219 78.56581 171.65068 316
82.03116 83.90639 171.73044 312
70.75635 90.00359 171.81944 308
57.89426 96.99811 171.90106 304
43.00035 105.04190 172.03305 300
25.50203 114.55776 172.16516 296
-43.32127 151.85347 163.32312 362
91.54630 77.63052 171.65582 316
81.61259 82.95103 171.73039 312
70.29134 88.94637 171.78455 308
57.41623 95.84360 171.90025 304
42.43021 103.87088 172.06070 300
24.88284 113.23434 172.17311 296
4.09698 124.29845 172.32986 292
91.13809 76.75365 171.63318 316
81.19210 81.99897 171.70435 312
69.83683 87.90921 171.82024 308
56.91020 94.74138 171.94543 304
41.88976 102.65847 172.04773 300
24.30874 111.89986 172.19627 296
3.37352 122.90603 172.36992 292
-67.35485 160.05466 164.97626 284
90.73064 75.83846 171.65472 316
80.76610 80.97334 171.70932 312
69.42829 86.87785 171.80591 308
56.40104 93.59904 171.95274 304
41.34836 101.39820 172.03282 300
27.24405 108.74930 172.89032 275
2.79585 121.41437 172.37091 292
-68.16184 158.19138 164.96880 284
90.37290 74.90229 171.65178 316
80.36143 80.03791 171.71530 312
68.94566 85.82285 171.81506 308
55.93029 92.47748 171.95720 304
42.35260 99.38221 172.40305 324
36.29613 102.48589 174.85776 323
19.76117 110.95390 175.64407 277
-68.98026 156.23753 164.97781 284
89.99142 74.00022 171.64890 316
79.91142 79.05365 171.73079 312
68.49892 84.77392 171.85342 308
55.46534 91.33408 171.95142 304
44.88444 96.64227 173.08028 325
38.93600 99.62942 175.55409 324
29.69125 104.27058 177.56616 276
14.16636 112.08817 178.94380 276
89.63085 73.06452 171.66563 316
79.53510 78.04334 171.73495 312
68.07316 83.70966 171.82524 308
54.95713 90.20812 171.95303 304
47.32213 94.01363 173.72845 326
41.54746 96.81773 176.16536 325
35.60560 99.82378 178.78024 323
20.10397 107.46030 180.01102 288
89.23841 72.15103 171.65932 316
79.13515 77.05937 171.73366 312
67.68848 82.66743 171.81689 308
55.16138 88.77867 172.08946 330
49.70223 91.42852 174.37665 328
44.09307 94.12763 176.77574 327
38.29873 96.96557 179.41797 325
19.50816 106.09980 180.05977 288
-6.69647 118.90513 180.22601 284
88.87347 71.20515 171.66589 316
78.75163 76.07384 171.76491 312
67.25616 81.59623 171.83681 308
57.33259 86.34943 172.72810 331
52.05772 88.89299 174.99666 329
46.56981 91.54991 177.39687 328
40.31911 94.49323 179.86356 292
19.01381 104.74930 180.02574 288
-7.36062 117.38910 180.23959 284
88.55314 70.27914 171.67232 316
78.39481 75.07939 171.75449 312
66.81841 80.51813 171.83182 308
59.43628 84.04865 173.34509 332
54.27573 86.43785 175.59872 330
48.93064 89.00153 177.95715 329
39.85437 93.30381 179.87643 292
18.47521 103.40015 180.06944 288
-7.92374 115.85057 180.24263 284
88.20052 69.32683 171.65686 316
77.98660 74.06690 171.76471 312
66.43786 79.45062 171.83760 308
60.74155 82.08947 173.76036 389
56.46619 84.05949 176.19664 331
51.24536 86.52206 178.52065 330
39.37381 92.02216 179.86139 292
-6.22950 113.25973 176.07062 284
-8.54414 114.30279 180.22520 284
87.82858 68.39544 171.68748 316
77.62733 73.07784 171.76186 312
66.01524 78.38188 171.87498 308
61.54796 80.43223 174.02992 390
58.33100 81.93417 176.70616 388
53.50236 84.10425 179.10593 331
38.93583 90.80338 179.85982 292
-15.07567 115.46324 174.74696 341
-15.09255 115.53579 179.40991 341
87.53229 67.47820 171.65073 316
77.25439 72.08732 171.77560 312
65.91741 77.20946 171.90004 379
62.30316 78.81545 174.32968 391
59.14518 80.24799 176.97501 389
55.66550 81.80334 179.62408 333
38.47826 89.54779 179.86804 292
6.90797 103.75117 178.40486 287
-19.77180 115.77000 178.79886 339
87.18488 66.55251 171.65369 316
76.90444 71.08877 171.75635 312
66.65736 75.61977 172.20361 380
63.03070 77.19810 174.59798 392
59.94431 78.59389 177.19147 390
55.87490 80.39608 179.71234 296
24.78469 94.13589 177.46982 319
13.49010 99.17162 179.55658 289
-24.55927 115.97564 178.19066 338
86.85497 65.56638 171.69260 316
76.56391 70.04744 171.77873 312
67.41954 74.02453 172.50197 381
63.81682 75.63622 174.87990 393
60.71258 76.98830 177.45827 391
55.49190 79.27143 179.72389 296
27.11456 91.56924 177.99805 335
19.38827 94.93494 180.61914 317
5.56896 101.02390 182.63220 287
-44.66280 122.87940 180.55533 280
86.55215 64.65058 171.68484 316
76.21114 69.08642 171.74411 312
68.21969 72.46816 172.79570 382
64.56516 74.04898 175.12622 394
61.48426 75.36463 177.72241 392
55.09914 78.09743 179.74710 296
29.26994 89.18552 178.46333 336
22.38817 92.09328 181.18259 319
12.16772 96.51199 183.67207 289
-5.83809 104.16569 185.51926 269
86.22292 63.71569 171.70871 316
75.87720 68.07729 171.77908 312
68.95165 70.97450 173.08600 383
65.27765 72.50884 175.42476 395
62.23544 73.81267 177.96426 393
54.67379 76.94913 179.74770 296
31.33833 86.80439 178.92183 337
24.94658 89.49815 181.64868 335
16.93034 92.89541 184.42398 317
4.25216 98.21531 186.85651 287
85.92097 62.76207 171.68344 316
75.50916 67.03906 171.79803 312
69.72469 69.44198 173.39804 384
66.03303 70.98589 175.64767 382
62.99508 72.20655 178.22771 394
54.32506 75.81318 179.75519 296
33.39358 84.47502 179.36044 339
27.15064 87.04821 182.10509 336
20.00866 90.00087 184.93852 318
10.92470 93.76791 187.76390 289
-6.87358 101.14973 189.90619 269
85.62173 61.82072 171.69429 316
75.21124 66.04346 171.75734 312
70.43369 67.95621 173.65681 385
66.80260 69.44370 175.96289 382
63.75744 70.67003 178.47217 395
53.91131 74.66924 179.73805 296
35.37652 82.21743 179.80257 340
29.21954 84.73483 182.51297 337
22.73792 87.32988 185.35738 335
14.46684 90.71004 188.23259 317
3.08054 95.35620 191.05382 288
85.30672 60.85158 171.67632 316
74.86730 65.03165 171.77933 312
71.15677 66.49524 173.93932 386
67.60213 67.91165 176.17870 383
64.49181 69.13373 178.69104 395
53.55318 73.52640 179.73941 296
37.28619 80.00932 180.24521 341
31.34558 82.39809 182.91864 338
24.99811 84.95234 185.73669 336
17.63407 87.91577 188.69609 318
8.71869 91.40266 191.72159 316
-7.71260 97.99605 194.34953 269
85.01981 59.88579 171.70398 316
75.33550 63.69272 171.99277 389
71.91327 65.03647 174.17569 387
68.36779 66.44730 176.44044 384
65.25213 67.66518 178.91844 396
53.22160 72.35214 179.76830 296
39.21911 77.83494 180.62392 342
33.31696 80.14472 183.31412 339
27.12592 82.59906 186.16202 337
20.61969 85.17361 189.11708 335
12.02532 88.54380 192.07515 317
1.97083 92.44159 195.23016 288
84.71541 58.94762 171.67621 316
75.98106 62.29067 172.26949 390
72.59424 63.59969 174.42540 388
69.09591 64.93954 176.72086 385
65.95781 66.17524 179.18179 397
44.88592 74.26186 178.17650 388
40.47283 75.97295 180.90672 374
35.34611 77.96519 183.67805 341
29.24016 80.27979 186.49216 338
22.87983 82.73602 189.42828 336
15.25902 85.69245 192.46660 318
6.28272 89.18223 195.68468 315
-8.53075 94.86006 198.71968 269
84.45615 57.99593 171.71373 316
76.69114 60.89489 172.51489 391
73.30083 62.19155 174.71602 389
69.85490 63.49338 176.96208 386
66.69501 64.69549 179.38281 398
45.71119 72.61752 178.42323 388
41.49203 74.19662 181.19408 375
36.96115 75.96260 184.02046 373
31.31032 78.04054 186.82066 339
25.09050 80.46055 189.76242 337
18.31602 82.99821 192.87941 319
9.61915 86.26551 195.99817 316
0.21096 89.86734 199.35902 314
84.18684 57.01930 171.72063 316
77.07094 59.64690 172.72586 420
74.01817 60.76776 174.96085 389
70.58290 62.07474 177.18340 387
67.39647 63.25172 179.57861 399
46.44697 71.01128 178.64124 389
42.48043 72.51185 181.43294 376
37.97974 74.13808 184.24625 374
33.26951 75.90767 187.20415 371
27.20702 78.14267 190.06081 338
20.76255 80.56092 193.18556 335
12.88085 83.50154 196.31671 318
3.74952 86.89612 199.70111 315
-9.17297 91.65300 203.14458 269
83.90224 56.05498 171.71802 316
77.38782 58.40022 172.85361 421
74.57872 59.45182 175.17526 419
71.28313 60.63338 177.44838 388
67.24667 62.13794 179.62788 300
47.24892 69.39178 178.87134 390
43.31784 70.84861 181.64799 388
38.99644 72.42474 184.44695 375
34.39935 74.11395 187.38164 372
29.34399 75.94245 190.38074 339
22.97699 78.20855 193.41077 337
16.02666 80.77853 196.61345 319
7.23029 83.98037 199.92520 316
-2.33340 87.47582 203.49445 314
83.64382 55.07903 171.69362 316
77.75521 57.17588 173.03667 422
74.93353 58.19600 175.31943 419
72.01107 59.26281 177.67284 417
66.94500 61.02721 179.61627 300
48.03181 67.79548 179.11717 391
44.13022 69.19492 181.82729 389
40.02020 70.66698 184.65762 376
35.44850 72.28340 187.61501 373
30.72775 73.99979 190.59648 370
25.17234 76.00552 193.69423 338
18.67640 78.31880 196.93111 335
10.54344 81.20686 200.21324 317
1.27126 84.49413 203.72476 315
83.38837 54.14290 171.69676 316
78.05293 55.99879 173.17047 422
75.23603 56.98167 175.47594 420
72.40520 57.97475 177.80026 418
66.65161 59.96547 179.63792 300
48.81428 66.24825 179.28427 392
44.93946 67.56362 182.06390 390
40.99655 68.99197 184.86978 387
36.52177 70.53394 187.79803 374
31.85437 72.19698 190.78726 371
26.90791 73.90703 193.90350 369
20.93057 76.01754 197.16470 336
13.71884 78.50507 200.43521 318
4.74601 81.65651 203.92308 316
83.13351 53.13461 171.70712 316
78.37504 54.78312 173.35982 423
75.59177 55.72338 175.64569 421
72.71766 56.72094 177.98207 418
66.38028 58.90045 179.63409 300
49.53596 64.68376 179.53380 393
45.74997 65.97530 182.23540 390
41.84259 67.32562 185.08574 388
37.59371 68.81429 187.99719 375
32.93602 70.38174 190.97740 372
28.10766 72.06087 194.08884 370
23.01658 73.82629 197.34964 367
16.51413 76.01370 200.64270 335
8.15430 78.92144 204.13106 317
82.86630 52.20068 171.73190 316
78.68978 53.60834 173.48186 425
75.91258 54.54065 175.77266 421
73.06567 55.46584 178.10320 419
66.10413 57.82651 179.62434 300
50.33179 63.15012 179.72569 394
46.55548 64.43305 182.45474 391
42.65957 65.71908 185.22989 389
38.62867 67.11145 188.18794 386
34.03154 68.64296 191.17085 373
29.27765 70.22478 194.22997 371
24.23353 71.89772 197.46146 368
18.84788 73.73084 200.83676 336
11.39353 76.23365 204.31422 318
82.64188 51.23330 171.73363 316
78.98693 52.38921 173.64461 426
76.28116 53.32723 175.93002 422
73.42477 54.23671 178.26819 420
65.85711 56.74169 179.66803 300
51.07802 61.64288 179.89940 395
47.33352 62.85433 182.66248 392
43.45548 64.11157 185.41168 390
39.45562 65.46281 188.34109 387
35.10332 66.87442 191.34552 374
30.38133 68.44246 194.39194 372
25.43225 70.06929 197.60722 369
20.34040 71.79749 200.98335 366
14.40190 73.72298 204.50050 334
82.40143 50.24943 171.73009 316
79.34361 51.21133 173.80260 427
76.60996 52.11348 176.06139 423
73.78878 53.03732 178.40152 420
65.56220 55.67810 179.65092 300
51.77001 60.12342 180.12073 395
48.09592 61.31066 182.84816 393
44.28379 62.53670 185.63048 391
40.30366 63.84116 188.49623 388
36.16346 65.17912 191.46338 375
31.53823 66.65565 194.52963 372
26.65009 68.25597 197.76959 370
21.58855 69.86768 201.09485 367
16.21155 71.63416 204.57164 364
82.23102 49.23485 171.73660 430
79.64841 50.06344 173.95099 427
76.95035 50.93059 176.20319 423
74.12714 51.82287 178.51146 421
65.30413 54.60062 179.63483 300
52.49590 58.66415 180.30566 396
48.87742 59.81749 183.03104 394
45.11298 61.00797 185.76160 391
41.16386 62.26295 188.67041 389
37.11888 63.49681 191.62042 386
32.61559 64.96874 194.71364 373
27.79786 66.43757 197.90446 371
22.78144 68.07030 201.22620 368
17.51864 69.69048 204.66109 365
82.51275 48.08994 171.88271 430
79.96950 48.91417 174.10304 428
77.28189 49.73196 176.35974 424
74.50178 50.60790 178.66258 422
65.09961 53.50441 179.67230 300
53.26504 57.18882 180.49037 397
49.61145 58.28867 183.16422 395
45.86037 59.48462 185.93501 392
42.02533 60.67070 188.79413 390
38.00580 61.87239 191.80345 387
33.69594 63.23018 194.85844 374
28.96014 64.70058 198.00468 372
24.02829 66.21128 201.30414 369
18.80145 67.82079 204.77596 366
82.81964 46.97805 172.02795 431
80.25815 47.75928 174.21283 429
77.58786 48.56564 176.48367 425
74.82935 49.41909 178.80182 423
57.30495 54.72459 178.07860 412
53.98307 55.71656 180.70801 398
50.38038 56.79909 183.36493 396
46.69357 57.94934 186.11946 393
42.85942 59.08500 188.96367 391
38.84428 60.33017 191.92967 388
34.73779 61.57009 195.00916 386
30.14205 62.97306 198.15141 373
25.23821 64.41006 201.44069 370
20.12210 65.96749 204.85797 367
83.12312 45.84190 172.17305 432
80.55875 46.63164 174.37506 429
77.94074 47.37268 176.61926 425
75.19349 48.18987 178.92990 423
57.80146 53.34636 178.22780 413
54.54054 54.31747 180.85640 411
51.09885 55.33966 183.56796 396
47.46572 56.44071 186.27846 394
43.62391 57.55449 189.14943 392
39.68557 58.70708 192.07718 389
35.62298 59.95037 195.08145 386
31.25582 61.22046 198.27885 373
26.41308 62.64779 201.49327 371
21.33654 64.13166 204.95488 368
15.12661 66.01817 208.47951 261
83.43844 44.73822 172.32909 432
80.89896 45.48544 174.49225 430
78.26130 46.22905 176.73587 426
75.49359 47.03843 179.04877 424
58.26808 51.99825 178.43056 414
55.03600 52.95047 181.00784 412
51.71075 53.93921 183.70280 409
48.22031 54.94255 186.46011 395
44.46999 56.03717 189.28816 392
40.55899 57.16209 192.21071 390
36.52434 58.33063 195.21043 387
32.35707 59.53329 198.38499 385
27.53856 60.92979 201.62909 372
22.56903 62.37507 205.03561 369
17.00834 63.95629 208.51106 334
83.74066 43.61991 172.46805 433
81.17944 44.36171 174.63206 431
78.55739 45.08865 176.89905 427
75.85540 45.86258 179.17152 425
58.73206 50.67641 178.56476 422
55.57607 51.61013 181.17209 412
52.21931 52.52572 183.85162 410
48.84562 53.52168 186.60623 407
45.23223 54.49240 189.40111 393
41.42459 55.59146 192.34813 391
37.40050 56.70765 195.37154 388
33.25377 57.91157 198.46361 386
28.70875 59.17646 201.74161 373
23.78921 60.57223 205.10175 370
18.39415 62.10939 208.56998 335
84.04148 42.51068 172.57289 433
81.51055 43.21367 174.76810 431
78.90631 43.94663 177.01537 427
76.20482 44.67127 179.29597 425
59.13338 49.37797 178.70453 422
56.05326 50.23961 181.31822 413
52.75414 51.13730 183.97290 411
49.40543 52.09315 186.73219 408
45.86023 53.04341 189.52176 406
42.23466 54.07891 192.47473 392
38.25999 55.16340 195.47820 389
34.17324 56.32256 198.57655 386
29.87381 57.48534 201.79919 373
24.98533 58.81867 205.16608 371
19.79566 60.27604 208.63916 339
84.34571 41.44024 172.70926 434
81.79343 42.09374 174.91954 432
79.23340 42.81007 177.14603 428
76.54440 43.53104 179.41330 426
59.58459 48.09119 178.80251 423
56.54757 48.92940 181.41751 421
53.32557 49.76725 184.08801 411
49.93503 50.71415 186.80186 409
46.46874 51.64484 189.64877 406
42.84460 52.60035 192.57358 404
39.11821 53.60908 195.58116 390
35.04863 54.73277 198.68840 387
30.85280 55.83739 201.92813 385
26.15413 57.08715 205.25883 372
21.13110 58.47515 208.72597 339
84.60448 40.33390 172.86185 435
82.12517 40.98561 175.01791 433
79.57475 41.68213 177.26775 429
76.87582 42.36294 179.51831 426
59.97876 46.80597 178.95134 424
57.01587 47.58889 181.56052 421
53.82146 48.41920 184.23152 412
50.48122 49.33503 186.96504 410
47.06188 50.20581 189.77786 407
43.44160 51.16967 192.66248 405
39.80263 52.13020 195.69041 402
35.96122 53.17463 198.75195 388
31.76992 54.22120 201.97726 385
27.34117 55.38557 205.33162 372
22.36251 56.74948 208.76337 370
84.92149 39.26521 172.98080 435
82.45599 39.88330 175.15331 433
79.86350 40.54460 177.39735 429
76.82434 41.32839 179.57217 304
60.40862 45.51982 179.07961 424
57.43521 46.29129 181.68340 422
54.35984 47.07052 184.33730 420
51.04190 47.96880 187.06192 410
47.61070 48.80241 189.86557 408
44.06316 49.71279 192.76477 405
40.42476 50.65969 195.76836 403
36.64833 51.66289 198.86258 400
32.68066 52.64595 202.03406 397
28.39089 53.77119 205.37944 384
23.59966 54.96508 208.81273 371
85.20004 38.19202 173.13684 436
82.74735 38.77591 175.30241 434
80.22805 39.43578 177.50568 430
76.68092 40.28915 179.57364 304
60.82890 44.26296 179.21069 425
57.87053 45.00611 181.77344 423
54.82208 45.75306 184.45049 420
51.61283 46.56759 187.21014 411
48.16613 47.44742 189.97495 409
44.65884 48.29921 192.86514 406
41.03569 49.20568 195.85416 403
37.27534 50.18000 198.94412 401
33.37460 51.15234 202.12314 398
29.36036 52.17313 205.40735 395
24.80561 53.30660 208.88017 372
85.48925 37.11189 173.23378 437
83.02803 37.71030 175.41743 435
80.51524 38.33661 177.61299 431
76.49422 39.30197 179.55873 304
61.27482 42.99836 179.31860 426
58.28619 43.72614 181.91389 423
55.26287 44.46598 184.58356 421
52.10739 45.21681 187.27959 412
48.76303 46.06260 190.08971 409
45.24710 46.91910 192.96838 407
41.63931 47.76194 195.94009 404
37.89493 48.68447 199.01070 402
34.05910 49.61118 202.15469 399
30.04653 50.63495 205.47350 396
25.88787 51.61964 208.89688 393
-186.98900 103.43270 208.97511 485
85.81720 36.02617 173.38953 437
83.34273 36.61386 175.51237 435
80.85736 37.18952 177.71736 433
76.34743 38.27355 179.57565 304
