# .PCD v.7 - Point Cloud Data file format
VERSION .7
FIELDS x y z rgb
SIZE 4 4 4 4
TYPE F F F U
COUNT 1 1 1 1
WIDTH 1407
HEIGHT 1
VIEWPOINT 6700.186035 -3923.673096 146.539658 -0.251767 -0.141442 0.028168 0.956982
POINTS 1407
DATA ascii
271.24081 -2.26531 203.50310 310
409.92285 1.53443 171.90280 309
424.23654 1.93867 172.00569 305
440.84097 2.39630 172.17833 301
460.19434 2.90711 172.39012 297
508.93176 4.25927 168.29839 288
268.01163 -2.07070 203.50858 314
271.28305 -1.96167 203.50929 310
409.96469 2.72252 171.90265 309
424.31516 3.19913 172.04327 305
440.87622 3.75884 172.20575 301
460.20477 4.37430 172.37675 297
509.00348 6.05521 168.32590 288
268.07074 -1.78323 203.50920 314
271.34329 -1.65809 203.50333 310
409.97568 3.90612 171.88011 309
424.34317 4.43806 172.04330 305
440.90945 5.12264 172.20802 301
460.28058 5.88145 172.36092 297
509.05569 7.81800 168.30016 288
268.12479 -1.49360 203.50665 314
271.39691 -1.34696 203.50192 310
409.99490 5.01931 171.88943 309
424.35944 5.68725 171.98964 305
440.88412 6.44559 172.16112 301
460.29425 7.35043 172.34752 297
509.16193 9.62863 168.26639 288
268.16721 -1.21642 203.50534 314
271.44208 -1.04095 203.50580 310
410.01895 6.18140 171.88559 309
424.34247 6.94536 172.04062 305
440.93161 7.83592 172.20172 301
460.25974 8.85132 172.35693 297
509.22470 11.40755 168.27026 288
268.21765 -0.92046 203.50745 314
271.48557 -0.72265 203.49850 310
410.03775 7.35734 171.85783 309
424.37198 8.20474 172.02074 305
440.93887 9.20414 172.16222 301
460.25003 10.29249 172.36815 297
268.25742 -0.63541 203.50476 314
271.53107 -0.42662 203.49672 310
410.01917 8.54414 171.86177 309
424.35898 9.45606 171.98721 305
440.90833 10.56467 172.16907 301
460.23163 11.77727 172.34921 297
268.30023 -0.34646 203.50890 314
271.56729 -0.11931 203.50879 310
410.01877 9.69245 171.86971 309
424.35699 10.71579 172.02177 305
440.86481 11.87684 172.19031 301
460.23401 13.24753 172.39467 297
268.34555 -0.05876 203.50850 314
271.60834 0.18701 203.49889 310
410.01749 10.85465 171.85889 309
424.31195 11.95890 172.03322 305
440.84814 13.23451 172.20062 301
460.19208 14.75762 172.37340 297
268.38028 0.23170 203.50146 314
271.65399 0.49994 203.50096 310
409.97641 12.05638 171.90517 309
424.27960 13.21835 172.01639 305
440.85141 14.57825 172.18684 301
460.15619 16.23365 172.33406 297
268.42462 0.51052 203.50439 314
271.68109 0.80167 203.50732 310
409.94662 13.20362 171.85265 309
424.24997 14.50369 172.01353 305
440.77536 15.98965 172.17430 301
460.14554 17.71514 172.35226 297
268.45801 0.79789 203.50969 314
271.72028 1.11617 203.50160 310
409.92657 14.36510 171.87114 309
424.23709 15.73887 172.02628 305
440.74500 17.28679 172.15271 301
494.44034 22.49229 166.06073 455
268.49222 1.08713 203.50038 314
271.75082 1.41914 203.50101 310
409.88623 15.49973 171.86281 309
424.16428 17.02124 172.01047 305
440.68494 18.68736 172.18494 301
493.18488 24.08189 166.24379 455
268.52640 1.37160 203.50584 314
271.78043 1.72019 203.50128 310
409.83377 16.67248 171.87624 309
424.10806 18.25916 172.01315 305
440.61487 20.04843 172.16730 301
491.95975 25.55225 166.43567 456
268.55832 1.65710 203.50806 314
271.80780 2.02832 203.49802 310
409.77026 17.86681 171.89761 309
424.03497 19.48104 172.00253 305
440.56653 21.39001 172.19638 301
490.72934 27.13338 166.68703 457
268.58087 1.94541 203.50229 314
271.83582 2.34048 203.50748 310
409.71573 19.02635 171.88672 309
423.97375 20.73212 172.00998 305
440.49466 22.74183 172.14653 301
489.43958 28.69708 166.86671 458
268.61014 2.22642 203.50371 314
271.86417 2.64755 203.50681 310
409.61115 20.18928 171.88885 309
423.91388 21.98870 172.01544 305
440.34967 24.07590 172.13904 301
488.20834 30.17391 167.09184 459
268.63565 2.51425 203.50491 314
271.88803 2.94684 203.50600 310
409.54123 21.32971 171.88380 309
423.80649 23.23322 171.99657 305
440.28412 25.41931 172.17566 301
487.02643 31.65745 167.27728 459
268.64917 2.79742 203.50218 314
271.90927 3.25743 203.49940 310
409.49588 22.49592 171.86743 309
423.74542 24.48628 171.98146 305
440.20569 26.80097 172.18922 301
485.82858 33.18749 167.46280 460
268.68027 3.08316 203.49850 314
271.92413 3.56570 203.50858 310
409.40411 23.65831 171.87370 309
423.61896 25.73072 172.02213 305
440.04172 28.11170 172.19240 301
484.57065 34.63419 167.64407 461
268.69736 3.36590 203.49957 314
271.93402 3.86254 203.50594 310
409.27979 24.81014 171.88158 309
423.52466 26.99628 171.98831 305
439.94400 29.45765 172.14563 301
483.37595 36.11662 167.90622 462
268.71576 3.64873 203.50684 314
271.95844 4.16920 203.50519 310
409.20001 25.99419 171.84248 309
423.41220 28.22954 172.00978 305
439.85040 30.83873 172.16382 301
482.21271 37.56579 168.04053 444
268.72867 3.93519 203.50363 314
271.97281 4.47394 203.50589 310
409.08151 27.12598 171.88075 309
423.29245 29.49406 171.97653 305
439.70230 32.18016 172.13611 301
481.89502 39.14403 168.07207 293
268.74542 4.21535 203.50679 314
271.97867 4.77460 203.49825 310
408.95004 28.30006 171.86754 309
423.11725 30.72398 172.01869 305
474.44556 39.53569 165.04799 300
481.72461 40.75080 168.07527 293
268.75256 4.50317 203.50734 314
271.98978 5.07662 203.50287 310
408.85339 29.44181 171.87770 309
423.01208 31.94609 172.02335 305
474.26648 41.11698 165.07886 300
481.66257 42.39268 168.03838 293
268.76648 4.78658 203.49940 314
271.98859 5.38368 203.50496 310
408.71661 30.58337 171.87686 309
422.87054 33.17143 171.97675 305
474.06729 42.65897 165.04489 300
481.47412 43.99780 168.02626 293
268.77051 5.07102 203.50009 314
271.99771 5.69241 203.49866 310
408.57584 31.73147 171.83746 309
422.68277 34.41756 171.98401 305
473.83578 44.18756 165.05049 300
481.31595 45.63829 168.04550 293
268.78613 5.35352 203.50188 314
271.99976 5.98574 203.49724 310
408.41882 32.87788 171.88194 309
422.57254 35.68378 171.99649 305
473.44147 45.74201 165.14888 449
481.20398 47.24683 167.98598 293
268.78787 5.63679 203.49817 314
271.99985 6.29128 203.50650 310
408.26303 34.06059 171.84993 309
422.35239 36.91856 171.97295 305
472.04330 47.06903 165.34570 449
481.03830 48.86230 168.01279 293
268.78729 5.91720 203.49911 314
272.09320 6.61096 203.47630 282
408.09491 35.18630 171.84506 309
422.19321 38.18068 171.96591 305
470.67380 48.30230 165.62000 450
480.87634 50.42609 167.98965 293
268.78897 6.20187 203.50113 314
395.62424 33.67735 171.75320 313
407.92520 36.30594 171.84451 309
422.02795 39.38599 172.01021 305
469.30209 49.58606 165.84503 451
268.78952 6.48479 203.50313 314
395.46146 34.72471 171.72786 313
407.72940 37.47580 171.85446 309
421.83813 40.64159 171.95959 305
467.86230 50.87655 166.06683 452
268.79648 6.75740 203.49834 314
395.29337 35.81203 171.72858 313
407.55939 38.65850 171.84859 309
421.63556 41.83615 171.99141 305
466.54437 52.18764 166.29370 453
268.78976 7.04889 203.50031 314
395.11420 36.89267 171.72755 313
407.35550 39.76722 171.85919 309
421.42877 43.05701 171.95091 305
465.24603 53.42900 166.50722 454
268.77740 7.32370 203.49983 314
394.94736 37.94226 171.75044 313
407.17520 40.90623 171.83337 309
452.74500 51.95086 164.96642 304
463.88925 54.67381 166.69753 455
268.77835 7.59662 203.49763 314
394.75269 38.97525 171.73685 313
407.00116 42.03292 171.81474 309
452.50226 53.38268 164.92618 304
462.59320 55.91861 166.88293 455
268.76328 7.88519 203.49791 314
394.58350 40.06763 171.74586 313
406.76581 43.21955 171.84579 309
452.19882 54.77274 164.97276 304
460.84491 57.02685 167.21419 424
268.75906 8.16291 203.50847 314
394.34772 41.10669 171.70737 313
406.58084 44.32655 171.84802 309
451.91074 56.19533 164.92586 304
459.03693 58.06714 167.50923 425
268.74304 8.43260 203.50751 314
394.15695 42.19139 171.72122 313
406.32779 45.47069 171.84558 309
451.63470 57.62995 164.94914 304
457.29657 59.12453 167.81747 426
268.73434 8.72079 203.50601 314
393.92343 43.25322 171.70839 313
406.08594 46.59869 171.81554 309
451.30624 59.00990 164.90820 304
456.37524 60.47914 167.90927 298
268.70969 8.99810 203.50609 314
393.72308 44.31610 171.72563 313
405.87827 47.69760 171.81863 309
450.97232 60.46748 164.94345 304
456.09027 61.89819 167.93611 298
268.69693 9.26504 203.49794 314
393.49536 45.32643 171.71538 313
405.62250 48.85165 171.82826 309
450.64011 61.87880 164.95947 304
455.81677 63.38216 167.88553 298
268.67178 9.54847 203.49991 314
393.26984 46.39769 171.72302 313
405.34424 49.97953 171.81834 309
450.33563 63.25941 164.91553 304
455.52206 64.80923 167.89207 297
268.65649 9.82575 203.49788 314
393.02875 47.43782 171.69704 313
405.13470 51.13669 171.79958 309
448.72958 64.30672 165.20103 431
455.22061 66.25214 167.84248 297
268.62912 10.10229 203.50060 314
392.79999 48.49471 171.67911 313
404.86230 52.21806 171.82985 309
447.08249 65.29304 165.49380 432
454.91586 67.72878 167.83188 297
268.61075 10.37656 203.50140 314
392.55258 49.53667 171.68497 313
404.56250 53.34976 171.80008 309
445.41934 66.25689 165.82536 433
454.60751 69.19101 167.84827 297
268.58691 10.64515 203.50641 314
392.28912 50.57810 171.66956 313
432.68304 63.62327 164.85217 308
443.81360 67.26050 166.05519 434
454.31561 70.64799 167.81940 297
268.55563 10.92374 203.49966 314
392.01639 51.65584 171.69917 313
432.33746 64.92667 164.84207 308
442.20383 68.20082 166.37436 435
268.52054 11.19472 203.49797 314
391.77536 52.68724 171.67137 313
431.96228 66.21031 164.83969 308
440.67606 69.14056 166.62614 436
268.48743 11.46086 203.50613 314
391.46429 53.70885 171.70486 313
431.63321 67.52659 164.81422 308
439.10196 70.09912 166.88504 422
268.45999 11.74133 203.50787 314
391.20602 54.74385 171.66133 313
431.25543 68.81322 164.87123 308
437.35709 70.93512 167.20435 423
268.42477 12.00429 203.50836 314
390.92822 55.81119 171.66298 313
430.81586 70.06036 164.81575 308
435.60474 71.76191 167.51266 424
268.38120 12.27826 203.50444 314
390.59076 56.82804 171.69745 313
430.45370 71.32334 164.86676 308
433.89636 72.59657 167.82634 426
268.34793 12.55586 203.50021 314
390.31537 57.87861 171.69377 313
430.02713 72.62997 164.83757 308
433.47723 73.90252 167.83125 301
268.38351 12.85430 203.48686 287
389.98529 58.91007 171.69560 313
429.55609 73.87065 164.87514 308
433.10944 75.17773 167.84026 301
379.24686 55.90000 171.57330 316
389.71805 59.92830 171.65733 313
428.85480 75.03086 164.93221 428
432.72333 76.50861 167.81969 301
378.96234 56.89911 171.54947 316
389.35043 60.93200 171.68108 313
427.30011 75.83158 165.23343 429
432.32303 77.80692 167.80566 301
378.67459 57.81974 171.55858 316
414.57809 72.18672 164.78722 312
425.67395 76.61634 165.50072 430
431.92856 79.14168 167.78439 301
378.36142 58.80709 171.56236 316
414.11975 73.32262 164.77942 312
424.08405 77.40076 165.78758 431
431.54364 80.38846 167.77403 301
378.05600 59.73351 171.56111 316
413.71933 74.53434 164.74966 312
422.52487 78.18192 166.07718 432
431.09763 81.73089 167.75571 301
377.73038 60.70898 171.56947 316
413.28387 75.69215 164.80830 312
420.98843 78.91615 166.38060 433
430.68585 83.01131 167.78589 301
377.41849 61.64067 171.56926 316
412.82736 76.87125 164.76163 312
419.43808 79.68945 166.67957 434
377.07794 62.56433 171.55873 316
412.41772 77.99420 164.77417 312
417.89539 80.39891 166.95175 435
376.74698 63.53822 171.52753 316
411.93814 79.15095 164.77376 312
416.40250 81.13850 167.16144 436
376.41626 64.48241 171.53812 316
411.49683 80.30839 164.80762 312
414.94662 81.88266 167.44812 437
376.03680 65.40450 171.52061 316
410.99475 81.44775 164.76657 312
413.46710 82.58974 167.68608 438
375.66620 66.35078 171.53491 316
410.51569 82.61729 164.78432 312
412.75443 83.59911 167.75200 305
375.32458 67.27870 171.53474 316
410.05115 83.76707 164.79568 312
412.30997 84.76919 167.76570 305
397.94785 79.26167 164.70912 317
409.14435 84.69042 164.92575 440
411.82364 85.96168 167.75394 305
397.50586 80.34966 164.66942 317
407.75586 85.34473 165.15280 441
411.38651 87.14995 167.72896 305
397.00546 81.43931 164.67438 317
406.24194 85.98299 165.44075 423
410.93411 88.31907 167.73730 305
396.57349 82.47250 164.70532 317
404.65451 86.57294 165.77597 424
410.44589 89.46615 167.75378 305
396.04871 83.51431 164.67111 317
403.09167 87.12566 166.06076 425
409.99857 90.64691 167.72935 305
395.55713 84.54178 164.66806 317
401.51010 87.66790 166.39233 426
409.51529 91.77743 167.73029 305
395.05753 85.61658 164.72263 317
399.97385 88.22134 166.64211 427
409.00235 92.98867 167.70988 305
19932.52344 10391.60059 5790.87500 1000
394.59100 86.64207 164.72501 317
398.42450 88.72225 166.97116 428
394.04517 87.65269 164.73064 317
396.95505 89.23729 167.22151 429
2089.28882 1009.01294 215.77515 487
2090.18213 1009.49072 250.23315 492
2090.41235 1009.62537 285.22491 486
393.53470 88.70812 164.69360 317
395.45587 89.73376 167.52785 430
2083.11304 1020.92334 215.47736 488
2086.32397 1022.79529 250.24181 447
393.02005 89.74234 164.69582 317
394.26202 90.43780 167.69234 311
392.45996 90.74036 164.73206 317
393.76639 91.52116 167.68967 311
391.06293 91.30372 164.98915 432
393.25461 92.52031 167.68881 311
389.64279 91.78270 165.29784 433
392.72705 93.58598 167.68643 309
388.22391 92.27019 165.57278 434
392.21750 94.64993 167.70387 309
386.83121 92.71934 165.82228 435
391.70380 95.68430 167.69138 309
385.43292 93.20774 166.08588 436
391.15979 96.69963 167.64149 309
384.10254 93.71022 166.32785 437
390.67459 97.76874 167.66914 309
382.76495 94.18079 166.61861 438
390.09970 98.79620 167.64503 309
381.42712 94.61559 166.82365 439
389.55087 99.83728 167.61861 309
380.06927 95.07816 167.10330 440
378.78952 95.52285 167.34895 441
377.46924 95.98030 167.57906 442
376.78317 96.83958 167.61824 315
376.20972 97.75006 167.63728 315
375.64566 98.70234 167.61342 315
375.11319 99.61041 167.63626 315
374.51996 100.55601 167.63420 315
373.97467 101.45235 167.61192 315
373.39194 102.36575 167.62816 315
372.77780 103.25101 167.62073 315
372.19687 104.19901 167.59358 315
371.58142 105.09951 167.57407 313
371.02719 105.99198 167.55612 313
370.37558 106.88973 167.56833 313
4235.27734 3139.92285 466.67599 293
4363.39404 3239.68872 560.01447 457
35572.27344 27720.57422 3895.38843 1000
4214.20361 3164.52832 466.35623 293
4330.23193 3255.94092 558.79980 458
4194.29590 3187.42627 466.33588 293
4296.47266 3270.50073 558.33081 458
4384.58350 3382.69580 566.93787 361
4219.64600 3290.83813 554.69604 425
4181.96582 3300.51758 553.16656 395
4188.90723 3348.45166 555.80115 403
4208.08691 3406.13428 559.40131 356
4246.79932 3482.71997 565.21075 343
4286.00879 3561.19482 569.96362 342
4321.34619 3637.24976 574.29291 340
4373.27148 3731.42822 581.58173 334
47742.19922 48457.11328 -2006.58557 1000
2798.07764 2819.12866 466.21378 493
28542.35156 41741.86719 5184.96729 1000
20823.71680 30768.69531 6954.18164 1000
3256.57056 4767.85986 772.98187 356
3255.65259 4833.65918 684.21509 401
3225.79907 4784.44043 772.47760 339
3214.23340 4833.99854 683.04169 430
15731.79590 25485.43164 -7256.39844 1000
3177.70801 4840.30518 680.40717 439
3142.63281 4850.97900 679.98914 427
3107.66846 4860.87793 679.91528 441
3073.87354 4872.79004 679.74677 439
3110.71924 4935.71826 779.33057 267
3127.19482 4826.95703 681.42249 442
3118.98486 4810.82080 771.46033 495
3136.79834 4840.03320 869.87024 338
3090.51929 4831.42822 680.31781 499
3085.55225 4824.52881 771.78760 495
3075.48608 4808.21387 862.34949 499
3052.31689 4835.73291 771.36584 496
3047.89380 4828.14648 863.23535 498
3022.63965 4855.32715 772.03943 498
3019.13599 4848.25488 863.45044 498
2995.48901 4875.42578 771.81659 498
2990.95703 4866.77148 862.83429 498
2964.18213 4890.57959 771.58588 498
2959.17480 4882.86621 863.22479 498
2937.48169 4915.36963 772.66553 498
2931.72559 4902.70703 864.17310 498
2909.49854 4936.00635 773.83716 498
2904.66895 4927.88135 865.64252 499
2880.21460 4955.32812 773.98383 257
2877.18188 4948.37354 865.24298 497
2840.95996 4956.83740 772.58490 360
2848.81836 4969.34033 866.38153 497
2871.06274 5012.06543 966.82513 497
2810.40796 4972.94238 772.25616 352
2819.42603 4989.34766 866.26715 497
2852.67017 5051.59814 969.40570 497
2779.40674 4989.22168 772.19257 416
2823.76880 5072.83154 971.20703 496
2751.26172 5007.69043 773.31946 416
2819.06689 5141.13135 979.37970 381
2721.07495 5026.11865 773.44446 416
2788.84375 5326.42383 802.49725 496
2703.59131 5234.35840 791.82318 350
2603.00293 5100.85840 774.91504 474
2572.95337 5119.75391 775.71716 474
2542.94019 5140.13916 775.91449 474
2515.12915 5160.22510 776.26050 473
2525.77612 5272.75537 786.90820 352
2492.39795 5285.45312 786.70398 432
2442.86816 5260.17432 878.40277 428
14887.64062 45459.98438 -1303.90369 1000
1503.01453 4321.61182 665.20569 498
960.41382 3613.02246 583.34650 337
927.32050 3559.34668 577.99646 338
893.44196 3506.36670 571.72034 340
872.06995 3511.00415 513.20416 339
862.13599 3455.67065 566.73694 341
841.01202 3463.41284 509.41464 340
831.38892 3406.52051 560.92157 342
811.90961 3421.56909 505.51541 340
801.12598 3357.81372 556.35413 344
782.20453 3375.72266 500.62912 331
772.82019 3313.57129 551.32123 357
754.47363 3332.69531 496.74509 338
746.61505 3284.79688 547.64026 394
728.06726 3300.83813 494.58624 355
722.82697 3262.20020 545.21204 408
703.57391 3276.32764 491.85614 372
698.64465 3241.28442 542.94171 420
680.10333 3255.64990 489.43210 376
676.22101 3223.02246 540.95990 428
686.58002 3300.72021 603.71686 456
657.25873 3236.70996 488.47964 383
653.51624 3207.43384 538.98694 442
667.98566 3311.99170 605.16656 456
634.57715 3219.59229 486.22638 396
631.90320 3194.83984 537.88586 447
648.24109 3323.69141 606.30127 457
613.10132 3205.51758 484.89948 404
609.69458 3182.74097 536.48444 440
628.57410 3335.70654 607.57660 456
591.44733 3192.02979 483.97055 407
588.52802 3171.14844 534.54816 443
608.59790 3347.44385 608.62909 456
570.03522 3177.96899 482.28290 402
567.65430 3159.34790 533.65790 435
589.53137 3358.93872 609.10040 455
549.36450 3174.26270 482.33087 290
546.87665 3150.25073 532.41833 426
569.17554 3371.17847 610.72144 455
530.88263 3191.52734 483.22284 290
526.31787 3141.21655 530.95660 431
549.97321 3382.72070 611.44751 452
512.58929 3207.91577 484.38739 290
506.32596 3134.50293 530.55219 363
-158.56905 17282.17188 1656.85901 1000
-1393.90625 2971.14185 498.61545 498
-1392.69421 2970.02979 554.68134 374
136.46954 151.84013 166.40184 314
135.56285 151.23096 166.41789 314
134.62610 150.60056 166.42664 314
-1192.15625 2321.28223 398.21042 494
-1190.32898 2317.87329 442.75986 498
-1190.15222 2317.30298 487.91443 374
133.72263 150.02441 166.40323 314
-1200.46924 2302.14673 576.92139 416
132.81747 149.35988 166.37634 314
-6363.21436 10484.49023 2069.80688 1000
131.90553 148.76178 166.37772 314
130.99724 148.12621 166.39668 314
130.10721 147.52209 166.42587 314
129.21179 146.82541 166.43703 438
128.32059 146.22208 166.41479 314
-13136.22754 19868.29883 6246.73535 1000
127.44395 145.57637 166.41383 314
124.98328 149.13138 168.56139 490
126.54503 144.91879 166.40565 314
124.13134 148.40945 168.55363 491
125.54364 144.41638 166.35788 433
124.13821 144.55188 166.05966 432
120.73681 149.27560 167.90192 491
122.64750 144.67760 165.80676 431
118.68722 150.15410 167.41339 312
121.13106 144.82477 165.54678 430
117.83085 149.39003 167.39871 312
117.14796 150.32291 170.51816 308
-965.96484 1638.27209 284.91159 400
119.63342 144.98300 165.24278 429
116.93972 148.69296 167.41306 312
-973.19708 1626.79773 317.80536 448
-970.45831 1622.92334 351.05246 485
-968.22168 1620.47852 384.28635 489
-967.05890 1618.77844 417.35220 455
118.15813 145.14812 164.98560 428
115.85928 148.20493 167.32442 437
-977.17358 1611.31677 450.65933 321
-973.30487 1605.59009 483.40527 448
116.58241 145.29170 164.68199 427
112.68300 150.49832 166.40353 310
115.01360 145.47618 164.37794 426
111.73260 149.74149 166.36826 310
113.44675 145.64137 164.07339 425
110.81905 149.02246 166.37521 310
111.87429 145.76242 163.74965 424
109.94080 148.19318 166.36499 310
110.24184 145.95213 163.46591 422
109.00506 147.42630 166.41623 310
109.31806 145.19325 163.45366 311
108.14729 146.63605 166.40903 310
108.45978 144.40199 163.44872 311
106.94103 146.26984 166.25859 421
107.60178 143.56227 163.43629 311
105.24356 146.43799 165.98358 420
106.81582 142.72548 163.47487 310
103.53175 146.59210 165.65411 419
95.92790 155.65895 166.37393 305
105.99548 141.85306 163.49178 310
101.83302 146.77565 165.33760 418
94.99200 154.81532 166.38168 305
105.17986 141.00516 163.54593 310
100.12599 146.96469 164.98703 417
94.04904 153.96179 166.37622 305
123.61260 118.04546 171.34172 315
98.28136 147.12759 164.63255 416
93.07913 153.09798 166.39207 305
122.90655 117.33076 171.34839 315
96.51602 147.28609 164.32779 425
92.15598 152.24957 166.34155 305
122.26249 116.63094 171.39009 315
94.79025 147.38126 163.99509 424
91.28217 151.36601 166.35275 305
121.57192 115.89679 171.36856 315
93.09608 147.40729 163.68167 423
90.34594 150.46649 166.34515 305
120.87711 115.18164 171.38658 315
91.40822 147.44254 163.41977 303
89.42747 149.60498 166.38011 305
120.18272 114.45436 171.40340 315
90.59221 146.41747 163.43542 303
88.52304 148.71199 166.31956 305
119.53970 113.75252 171.41315 315
89.76415 145.47124 163.47188 303
87.58334 147.79279 166.33847 305
118.85575 113.01604 171.39975 315
89.00689 144.46892 163.51064 303
85.89209 147.71533 166.06531 420
118.15666 112.26473 171.42447 315
88.19263 143.42776 163.53799 303
84.02268 147.76611 165.77972 418
117.50458 111.51645 171.42883 315
87.48503 142.43864 163.56949 303
82.21120 147.86797 165.40417 417
116.88935 110.76962 171.42224 315
108.89930 118.89924 171.48154 311
80.28630 147.91028 165.11443 416
71.82393 156.51675 166.27594 300
116.24524 110.03892 171.40135 315
108.18728 118.08297 171.50792 311
78.33917 147.98421 164.75793 415
70.89044 155.49246 166.27287 300
115.56732 109.27927 171.42897 315
107.49511 117.29453 171.49742 311
76.35467 148.06520 164.41899 414
69.94059 154.49535 166.25697 300
114.94541 108.51386 171.45607 315
106.81107 116.47537 171.48248 311
74.41281 148.13310 164.07152 413
68.98230 153.46985 166.27046 301
114.29478 107.77525 171.46381 315
106.14870 115.67151 171.48285 311
72.37893 148.20914 163.72154 412
68.04848 152.40118 166.23177 301
113.66002 107.01891 171.42604 315
105.45422 114.81790 171.51375 311
70.33472 148.33099 163.35188 411
67.15359 151.40233 166.22351 301
113.04781 106.23932 171.44086 315
104.77096 114.00937 171.52545 311
69.49599 147.28749 163.31438 299
66.22573 150.37857 166.25620 301
112.40587 105.47842 171.47678 315
104.08981 113.19807 171.51917 311
68.68967 146.16628 163.39919 299
65.25102 149.30223 166.23175 301
111.80028 104.68708 171.46053 315
103.42022 112.36947 171.53110 311
67.97419 144.95979 163.39677 299
64.02950 148.59779 166.14972 408
111.18523 103.91251 171.47287 315
102.79179 111.53867 171.53575 311
93.24277 120.18166 171.62387 308
61.87556 148.62468 165.76093 407
110.59561 103.10742 171.49341 315
102.15487 110.67191 171.52371 311
92.53328 119.25967 171.63364 308
59.69342 148.73564 165.43521 406
109.98344 102.30264 171.46609 315
101.48026 109.85645 171.53419 311
91.81638 118.37966 171.60562 308
57.45039 148.81046 165.00859 404
109.35195 101.50868 171.48296 315
100.83884 108.98444 171.55327 312
91.12724 117.46837 171.62044 308
55.18791 148.92419 164.60471 403
45.45593 157.38535 166.11768 296
108.76656 100.71566 171.51050 315
100.20718 108.12296 171.54161 312
90.46818 116.56985 171.65248 308
52.90464 148.99350 164.24692 402
44.55322 156.22534 166.11064 296
108.21240 99.93542 171.49876 315
99.56745 107.27435 171.54163 312
89.78451 115.61134 171.63148 308
50.54343 149.08669 163.83305 401
43.61355 155.03487 166.10352 296
107.61855 99.11394 171.47368 315
98.92242 106.41290 171.57608 312
89.11315 114.72368 171.63545 308
48.18410 149.15070 163.42145 400
42.63654 153.85170 166.10526 296
107.01965 98.32662 171.52795 316
98.30412 105.54626 171.59154 312
88.45180 113.78691 171.66508 308
46.59302 148.60307 163.24271 296
41.71642 152.63959 166.12604 296
106.47598 97.50364 171.50484 316
97.73290 104.67096 171.57629 312
87.74938 112.82890 171.63544 308
45.85006 147.28696 163.25684 296
40.79651 151.44266 166.14268 297
105.91807 96.67524 171.53369 316
97.12522 103.80047 171.56392 312
87.09110 111.88989 171.64804 308
75.68184 121.18015 171.73921 304
39.88974 150.21678 166.10432 297
105.34800 95.85486 171.53525 316
96.51684 102.92191 171.58858 312
86.47137 110.93245 171.65541 308
74.94894 120.20657 171.76630 304
38.26715 149.55309 165.96333 395
104.75173 95.03468 171.50191 316
95.89563 102.03144 171.58623 312
85.79428 110.01003 171.68665 308
74.27626 119.15290 171.80011 304
35.68675 149.63078 165.55229 394
104.22887 94.21581 171.52773 316
95.31789 101.13919 171.61649 312
85.19435 109.05487 171.67784 308
73.59811 118.13151 171.77313 304
33.00284 149.75101 165.09306 393
103.66684 93.37286 171.54305 316
94.71322 100.28786 171.58867 312
84.54070 108.09769 171.70442 308
72.87400 117.12414 171.77809 304
30.33662 149.87549 164.65622 392
103.12297 92.54001 171.54408 316
94.14604 99.35605 171.61293 312
83.90736 107.18380 171.68663 308
72.21984 116.08015 171.81529 304
27.65046 149.93420 164.19963 390
15.93214 158.83772 165.97417 290
102.60003 91.70327 171.53110 316
93.57121 98.45505 171.63586 312
83.31937 106.17448 171.72012 308
71.49883 115.03502 171.76816 304
24.82518 150.09224 163.76312 389
14.90618 157.52411 165.95023 291
102.05492 90.84431 171.55844 316
93.00998 97.59224 171.63478 312
82.68971 105.20980 171.71957 308
70.87745 113.97720 171.78944 304
22.02707 150.19908 163.28833 388
14.01448 156.17075 165.91055 291
101.53863 90.01254 171.55516 316
92.42249 96.64542 171.64485 312
82.06778 104.28497 171.69998 308
70.21437 112.91275 171.79854 304
56.45924 122.97121 171.91739 300
13.02886 154.77742 165.94742 291
101.01424 89.16798 171.54814 316
91.84089 95.75189 171.64822 312
81.45726 103.30520 171.72147 308
69.54473 111.88831 171.79305 304
55.70918 121.87647 171.91953 300
12.05023 153.39278 165.88736 291
100.47527 88.31491 171.54816 316
91.29202 94.84690 171.60809 312
80.85030 102.30285 171.70171 308
68.91354 110.80888 171.80299 304
55.07117 120.73974 171.90524 300
11.06150 152.03470 165.91861 291
99.95171 87.45315 171.58464 316
90.75812 93.96882 171.64764 312
80.28614 101.29930 171.72696 308
68.25745 109.76927 171.80457 304
54.32255 119.58929 171.95979 300
10.10817 150.66327 165.88724 291
-10990.24512 7891.52832 2957.48267 1000
99.47578 86.57159 171.54649 316
90.22527 93.01871 171.63249 312
79.67415 100.34533 171.74022 308
67.62965 108.72935 171.82590 304
53.61544 118.41568 171.91701 300
7.30281 150.55728 165.45728 385
98.97676 85.72543 171.55980 316
89.64173 92.10542 171.65648 312
79.10939 99.37332 171.71536 308
67.01745 107.65133 171.86024 304
52.93958 117.28814 171.94893 300
4.22726 150.62572 165.02917 384
98.45104 84.85889 171.56897 316
89.13011 91.17590 171.66493 312
78.55336 98.33398 171.76534 308
66.37730 106.57312 171.86778 304
52.29177 116.11024 171.92592 300
1.05413 150.71371 164.48705 382
97.97545 84.00211 171.55997 316
88.60390 90.27250 171.64101 312
77.98491 97.36599 171.72195 308
65.78373 105.48326 171.84161 304
51.58802 114.93261 171.94963 300
-2.09273 150.80348 164.00134 381
97.50443 83.14553 171.60519 316
88.09324 89.30103 171.68080 312
77.41924 96.32614 171.76375 308
65.13512 104.41612 171.84764 304
50.94288 113.79600 171.99892 300
-5.40380 150.91957 163.45840 380
96.98997 82.25265 171.58093 316
87.56563 88.41475 171.66501 312
76.85166 95.35072 171.75911 308
64.57358 103.32563 171.86696 304
50.32126 112.61003 171.96404 300
33.59568 123.42694 172.10492 296
-21.28490 159.12303 165.43326 286
96.55357 81.35883 171.57265 316
87.08078 87.43192 171.65749 312
76.26630 94.33491 171.74344 308
63.97730 102.26453 171.88033 304
49.67680 111.42445 172.00726 300
32.86048 122.18525 172.11888 296
-22.23872 157.47252 165.43443 286
96.08327 80.48231 171.59082 316
86.54207 86.49033 171.69728 312
75.76893 93.35203 171.74974 308
63.38352 101.13658 171.85574 304
48.99586 110.23684 172.00122 300
32.17988 120.86507 172.15262 296
-23.11847 155.87474 165.44882 286
95.60072 79.60435 171.58759 316
86.08314 85.55151 171.68073 312
75.20657 92.35160 171.79677 308
62.80577 100.06306 171.86728 304
48.37736 109.02599 171.97572 300
31.46455 119.61102 172.13937 296
-24.09124 154.24338 165.39377 287
95.14732 78.70863 171.60800 316
85.56478 84.58755 171.70618 312
74.70753 91.28534 171.79951 308
62.20921 98.96136 171.87558 304
47.77098 107.86668 172.00465 300
30.81245 118.24479 172.11966 296
-25.05778 152.60413 165.40088 287
94.67981 77.81391 171.61374 316
85.09191 83.66384 171.69640 312
74.15429 90.30683 171.80811 308
61.63431 97.88358 171.87814 304
47.14216 106.67783 171.97249 300
30.08517 116.97981 172.16679 296
-26.65829 151.44016 165.30743 372
94.24168 76.92667 171.62277 316
84.61523 82.71376 171.69669 312
73.64330 89.24070 171.77284 308
61.05784 96.75694 171.86656 304
46.50563 105.45376 172.00414 300
29.45168 115.71249 172.12880 296
-30.45486 151.50787 164.69150 371
93.81541 76.02169 171.63313 316
84.11935 81.77885 171.69385 312
73.14641 88.24515 171.78944 308
60.51978 95.65728 171.87180 304
45.89220 104.26980 172.02090 300
28.80879 114.36627 172.12012 296
-34.38637 151.63614 164.15346 370
93.37179 75.15672 171.62674 316
83.65402 80.77205 171.69019 312
72.62701 87.21159 171.76820 308
59.96307 94.53409 171.92238 304
45.34286 103.07746 172.00754 300
28.13992 113.07296 172.16420 296
7.73020 124.94214 172.35083 292
92.92831 74.24399 171.61674 316
83.18720 79.80814 171.69826 312
72.15367 86.16861 171.80524 308
59.45661 93.43021 171.92113 304
44.76752 101.86176 172.00565 300
27.49616 111.71701 172.14787 296
6.98678 123.51060 172.30554 292
92.53567 73.33627 171.63565 316
82.72520 78.85919 171.73393 312
71.60607 85.12859 171.80118 308
58.92877 92.30566 171.92067 304
44.16935 100.63263 172.01801 300
26.84139 110.39627 172.17633 296
6.27615 122.06572 172.33826 292
92.08057 72.43074 171.64713 316
82.29742 77.86756 171.72249 312
71.12128 84.07966 171.82655 308
58.38484 91.17622 171.88960 304
43.56643 99.43989 172.03589 300
31.90661 105.92849 173.38214 269
5.60820 120.59783 172.37120 292
-64.27966 159.51956 164.91159 284
91.65471 71.52291 171.64122 316
81.82694 76.93353 171.74081 312
70.67420 83.05972 171.79276 308
57.86179 90.03762 171.93187 304
44.88124 97.15479 172.46526 318
38.38700 100.75603 174.84988 317
22.38439 109.53815 175.64113 268
-65.23065 157.56418 164.96925 284
91.28026 70.58365 171.65681 316
81.42165 75.94178 171.69841 312
70.19804 82.00237 171.80760 308
57.34957 88.93600 171.89529 304
47.67003 94.17802 173.18672 319
41.34208 97.59689 175.55556 318
34.73230 101.14010 178.05434 316
15.10177 111.79440 178.59410 270
90.86988 69.70065 171.65036 316
80.93792 74.95513 171.72194 312
69.75159 80.95369 171.84309 308
56.80799 87.79319 171.91182 304
50.33400 91.29043 173.91496 320
44.13813 94.54814 176.24269 319
37.80926 97.95491 178.73912 317
22.74842 105.92734 180.01173 288
90.48228 68.76318 171.63177 316
80.52591 73.98326 171.75363 312
69.25894 79.92322 171.80788 308
58.59187 85.50957 172.45372 324
52.91003 88.46291 174.62451 321
46.90707 91.62697 176.93178 320
40.76061 94.86139 179.42702 318
22.12966 104.62524 180.00291 288
-3.71280 118.19759 180.25221 284
90.05949 67.87700 171.64107 316
80.11380 72.99405 171.71683 312
68.79849 78.81406 171.83395 308
60.77338 83.01391 173.11490 381
55.40879 85.78737 175.30917 323
49.53325 88.79007 177.59950 322
42.56664 92.40549 179.83090 292
21.56659 103.25649 179.97823 288
-4.42603 116.64877 180.18846 284
89.65865 66.91375 171.65637 316
79.71288 72.00111 171.71436 312
68.35440 77.80084 171.85901 308
61.59747 81.23804 173.41737 383
57.80824 83.15929 175.96675 324
52.11774 86.01305 178.20259 323
42.04297 91.18367 179.86711 292
20.97811 101.87968 180.04736 288
-5.02159 115.10137 180.22989 284
89.28179 66.00430 171.67934 316
79.26649 71.02815 171.76485 312
67.93022 76.71423 171.84578 308
62.41192 79.48265 173.75650 384
59.12614 81.13563 176.37872 382
54.61045 83.39346 178.85143 323
41.51433 89.91465 179.81970 292
-3.04092 112.30038 176.11855 291
-5.66373 113.54158 180.23477 284
88.94827 65.07349 171.68076 316
78.87886 70.03292 171.76656 312
67.44587 75.66425 171.85025 308
63.18507 77.76904 174.03050 385
59.92683 79.34949 176.65451 383
56.59502 81.00092 179.31874 381
41.02887 88.66242 179.85966 292
-12.66428 115.23272 174.64680 290
-12.66596 115.22129 179.29340 290
88.56429 64.12719 171.64557 316
78.46700 69.04173 171.76767 312
67.85612 74.18851 172.06563 375
63.97302 76.05436 174.36581 386
60.75711 77.63435 176.93051 384
57.47399 79.25456 179.61539 382
40.51242 87.48499 179.87190 292
8.43157 103.08091 178.23862 281
-17.44915 115.64140 178.67888 346
88.16879 63.21478 171.64972 316
78.07755 68.03304 171.76677 312
68.64931 72.52521 172.38582 376
64.79264 74.38725 174.63959 373
61.60500 75.89358 177.21449 385
57.64711 77.81859 179.69887 296
26.76101 92.57852 177.42763 329
16.21397 97.62317 179.60771 283
-21.99566 115.83415 178.17924 345
87.81995 62.27602 171.68982 316
77.71793 67.03657 171.75941 312
69.42809 70.90382 172.70845 377
65.61526 72.73282 174.96687 374
62.40404 74.20596 177.48779 386
57.15390 76.66879 179.72247 296
29.06005 89.88927 177.94957 330
21.36449 93.52659 180.53496 312
7.24397 100.21432 182.48087 281
-41.59116 123.12494 180.52492 280
87.50029 61.32981 171.68208 316
77.33843 66.03121 171.75960 312
70.20314 69.30070 172.97502 377
66.42918 71.07274 175.23111 375
63.21489 72.54960 177.74515 387
56.77666 75.51836 179.70094 296
31.36695 87.31268 178.49146 331
24.49772 90.47804 181.14514 329
15.07359 94.85221 183.68456 283
-6.29540 104.69887 185.04509 263
87.11095 60.40327 171.67165 316
76.91489 65.00733 171.77950 312
71.02465 67.71464 173.28755 378
67.26104 69.41971 175.54936 376
64.00653 70.90775 178.04626 388
56.35711 74.39886 179.71432 296
33.53245 84.79246 178.95375 332
26.84669 87.81583 181.59337 330
18.85150 91.44803 184.35950 312
6.14905 97.27350 186.72221 282
86.76628 59.44010 171.69864 316
76.54726 64.00574 171.75301 312
71.75095 66.18029 173.58551 379
68.06290 67.83480 175.84274 377
64.77517 69.31921 178.28577 389
55.91727 73.26929 179.71652 296
35.73476 82.30266 179.43945 333
29.19782 85.21422 182.04858 331
22.22822 88.39240 184.88005 313
12.89821 92.52840 187.61409 310
-6.71214 101.34768 189.57863 263
86.46815 58.48836 171.67645 316
76.20060 63.01006 171.78358 312
72.51112 64.65762 173.89789 380
68.83299 66.23685 176.08940 378
65.56589 67.70683 178.56047 390
55.51153 72.13107 179.72630 296
37.84905 79.89101 179.92458 334
31.44427 82.76095 182.50896 332
24.70161 85.69217 185.33115 330
16.44818 89.29939 188.16574 311
5.10345 94.35058 190.91725 282
86.11018 57.57481 171.67332 316
76.73229 61.58893 172.00537 384
73.24689 63.10329 174.15921 381
69.65604 64.67888 176.40446 379
66.31355 66.13392 178.80032 391
55.12507 70.99455 179.72472 296
39.90125 77.57073 180.35382 335
33.67773 80.25947 182.95615 333
27.05439 83.10566 185.74480 331
19.84190 86.25328 188.63631 313
10.40552 90.33214 191.55598 310
-6.95543 97.83616 194.06839 263
85.80043 56.58640 171.69041 316
77.32549 60.18959 172.24457 414
73.97374 61.61253 174.46814 382
70.40653 63.13604 176.63911 380
67.06639 64.58185 179.05260 392
54.71605 69.80032 179.72351 296
41.05428 75.66079 180.67397 369
35.80928 77.90733 183.38512 334
29.34831 80.61372 186.14030 332
22.49988 83.54102 189.05832 329
13.98123 87.14565 191.98691 311
4.09564 91.39914 195.10593 309
85.46227 55.62722 171.71004 316
77.64042 58.91574 172.47035 415
74.70885 60.15237 174.70004 383
71.21107 61.61567 176.91333 381
67.80662 63.06030 179.29210 393
46.35096 72.02517 178.19991 383
42.12549 73.79475 180.90155 370
37.41711 75.75617 183.69385 367
31.65001 78.19461 186.52354 333
24.94636 80.98280 189.35609 330
17.46478 84.13235 192.43736 312
7.87275 88.13274 195.47557 310
-7.06606 94.38938 198.52452 263
85.16792 54.68530 171.67278 316
77.97339 57.67010 172.61259 416
75.10699 58.82311 174.91769 414
71.93716 60.11018 177.16968 382
68.55849 61.51895 179.50812 394
47.19746 70.33013 178.40251 384
43.13141 71.96621 181.19232 382
38.52916 73.87453 183.94324 368
33.70969 75.87344 186.84894 366
27.29572 78.49473 189.71210 332
20.35002 81.34102 192.74503 329
11.59584 84.96517 195.85097 311
1.48915 89.09686 199.16489 308
84.84641 53.74911 171.69801 316
78.31026 56.38252 172.81581 418
75.45106 57.51155 175.05450 414
72.53787 58.71567 177.38179 412
68.73183 60.24678 179.63901 300
47.97565 68.65102 178.67300 385
43.95402 70.23351 181.40535 383
39.58521 72.00298 184.21773 369
34.85454 73.94371 187.09554 367
29.59829 76.08943 190.05333 333
22.84459 78.77009 193.06291 330
15.11447 81.87684 196.24184 312
5.38772 85.83417 199.47240 310
-7.05263 90.83075 202.97179 263
84.53248 52.78856 171.68532 316
78.63432 55.14661 172.96579 419
75.77884 56.25356 175.25789 415
72.90055 57.41378 177.54352 413
68.37762 59.18616 179.63316 300
48.80033 66.96125 178.88901 386
44.83724 68.53874 181.64581 384
40.69192 70.17498 184.42807 370
35.96956 72.04444 187.27988 368
31.07343 73.96484 190.29601 365
25.21128 76.30930 193.40211 331
18.21935 79.08560 196.51733 329
9.11015 82.70267 199.78281 311
-1.11237 86.75158 203.30942 308
84.23280 51.80360 171.69588 316
78.93916 53.85593 173.14702 420
76.13166 54.99237 175.42206 416
73.25459 56.10105 177.74150 414
68.03979 58.14449 179.60886 300
49.60846 65.33874 179.14099 387
45.69592 66.86005 181.85153 384
41.60003 68.43240 184.67485 382
37.07624 70.18462 187.52376 369
32.25282 72.09622 190.52084 366
27.18884 74.03513 193.62996 363
20.77405 76.56525 196.78441 330
12.72893 79.64547 200.09178 312
2.86168 83.50050 203.51440 309
83.96980 50.86206 171.70912 316
79.25658 52.62817 173.31627 420
76.48169 53.72189 175.57979 417
73.57854 54.81956 177.88855 414
67.76560 57.06466 179.63037 300
50.35773 63.69848 179.33144 388
46.49680 65.18067 182.02728 385
42.48816 66.72045 184.86832 383
38.19745 68.39110 187.73320 370
33.44810 70.19415 190.67563 367
28.41121 72.13651 193.79514 364
23.17829 74.10354 197.01341 362
16.12085 76.79169 200.35046 329
6.67956 80.43846 203.75188 310
83.66775 49.88975 171.71835 316
79.58672 51.40682 173.46329 421
76.81274 52.46513 175.75171 417
73.93330 53.52456 178.02141 415
67.40644 55.99361 179.64801 300
51.14369 62.10819 179.59575 389
47.27445 63.52599 182.24925 386
43.30834 65.02170 185.05316 384
39.23058 66.57245 187.91011 381
34.56495 68.29484 190.86714 368
29.64812 70.15617 193.93510 365
24.45316 72.10625 197.17651 363
18.63333 74.33433 200.51768 330
10.37609 77.38164 203.93477 312
83.41900 48.92101 171.71782 316
79.90247 50.20300 173.66173 422
77.12453 51.22560 175.89731 418
74.33108 52.26989 178.20619 416
67.09312 54.89831 179.63731 300
51.89706 60.52567 179.80045 390
48.10285 61.94410 182.45613 387
44.15376 63.36496 185.23666 385
40.12221 64.85250 188.13066 382
35.69856 66.50539 191.05751 369
30.82705 68.29379 194.15848 366
25.72458 70.19511 197.34979 364
20.38974 72.09834 200.69797 361
13.93278 74.49300 204.16675 313
83.14658 47.94886 171.73238 316
80.19568 48.98769 173.80051 423
77.49265 49.96874 176.06281 419
74.65858 50.98864 178.34250 416
66.81396 53.84457 179.65994 300
52.67051 58.95133 179.99799 390
48.90326 60.34710 182.65509 388
45.01534 61.69572 185.44785 386
40.98333 63.18858 188.29225 383
36.77822 64.69183 191.27847 381
31.98826 66.42167 194.27824 367
26.97508 68.22807 197.48085 365
21.71722 70.13943 200.83075 362
16.23931 72.15125 204.30084 359
-149.53702 53.02129 -42.44141 426
80.51552 47.82568 173.96887 423
77.78961 48.75608 176.19235 420
74.98814 49.75964 178.47510 417
66.50998 52.79375 179.64447 300
53.44363 57.42925 180.19502 391
49.72575 58.71708 182.85887 389
45.85593 60.07639 185.63739 387
41.83749 61.52799 188.44539 384
37.70404 63.00444 191.38702 382
33.18686 64.54448 194.47546 368
28.20032 66.36958 197.63875 366
23.02610 68.20963 200.94925 363
17.61728 70.11067 204.41322 360
83.42200 45.72018 171.97141 426
80.80918 46.63021 174.10867 424
78.16476 47.55687 176.33667 420
75.36827 48.50320 178.61140 418
66.23259 51.67096 179.63046 300
54.17046 55.89505 180.40814 392
50.48378 57.14255 183.07327 390
46.64955 58.48315 185.77960 387
42.75696 59.86496 188.60110 385
38.62755 61.30468 191.55084 382
34.34669 62.78043 194.63695 369
29.46817 64.48400 197.75291 366
24.31590 66.23938 201.04674 364
18.92726 68.09786 204.48663 361
12.34666 70.40954 208.02716 259
83.72005 44.55251 172.11607 427
81.13432 45.46334 174.28638 425
78.46464 46.37020 176.52216 421
75.69941 47.29572 178.78265 419
65.94475 50.61903 179.67036 300
54.76706 54.43413 180.58202 406
51.27721 55.61645 183.24283 391
47.48476 56.89425 185.98773 388
43.58579 58.20528 188.81474 386
39.53168 59.58046 191.70659 383
35.32721 61.04022 194.74562 381
30.64182 62.64371 197.88962 367
25.57499 64.37093 201.13736 365
20.28748 66.13634 204.59032 362
14.37988 68.14378 208.15735 329
84.01836 43.39623 172.27588 428
81.45808 44.26474 174.42517 426
78.82885 45.15249 176.63188 422
76.03313 46.08960 178.91779 419
58.57431 51.89482 178.15790 416
55.28375 53.00584 180.77386 407
51.88380 54.12130 183.43065 404
48.29533 55.32811 186.17468 389
44.43588 56.60565 188.98119 387
40.44666 57.95807 191.87984 384
36.22296 59.33325 194.91159 382
31.82490 60.80650 198.02599 368
26.80604 62.47786 201.25439 366
21.59803 64.20759 204.67125 363
15.90357 66.14069 208.22102 329
84.30079 42.24726 172.43895 428
81.75945 43.11608 174.56555 426
-115.47066 37.74876 -28.27694 422
76.39112 44.87038 179.03569 420
59.02418 50.54019 178.35049 417
55.83088 51.60534 180.90430 407
52.42463 52.69164 183.53954 405
48.93581 53.82474 186.31860 402
45.27982 55.03400 189.10110 388
41.28612 56.31230 192.00447 385
37.17074 57.65179 195.02391 383
32.85020 59.06086 198.16698 380
28.08210 60.63540 201.38118 367
22.90253 62.33617 204.72099 364
17.42181 64.10683 208.25935 333
84.60073 41.15681 172.59552 429
82.05966 41.93802 174.70863 427
79.47779 42.77914 176.93387 423
76.71532 43.63767 179.16370 421
59.42780 49.16956 178.49869 418
56.36265 50.15693 181.07198 408
52.99489 51.24031 183.70663 406
49.53521 52.32385 186.45837 403
45.95022 53.52217 189.25974 401
42.17813 54.72520 192.17232 386
38.09430 55.98426 195.12906 383
33.85281 57.40243 198.24521 381
29.25015 58.84326 201.48106 368
24.22915 60.47869 204.80469 365
18.88390 62.18493 208.35382 334
84.90484 39.99325 172.72768 430
82.39003 40.78558 174.86177 428
79.76892 41.61578 177.04973 424
77.05856 42.45019 179.29456 421
59.86321 47.82906 178.63597 418
56.84608 48.78107 181.19907 416
53.53456 49.82477 183.85837 406
50.11729 50.90588 186.57227 404
46.57016 52.02312 189.36845 401
42.89368 53.14942 192.29012 399
38.99345 54.36869 195.26433 384
34.76405 55.69574 198.37814 382
30.39898 57.06840 201.55658 379
25.47713 58.61925 204.92174 366
20.20440 60.27172 208.39195 363
85.20045 38.88962 172.86746 430
82.69882 39.67269 175.01160 428
80.11679 40.45056 177.21532 424
77.44367 41.27350 179.44270 422
60.30353 46.53448 178.76755 419
57.28557 47.41349 181.33368 417
54.07509 48.43224 184.02278 407
50.69605 49.43961 186.70938 405
47.14838 50.55561 189.51448 402
43.54093 51.64042 192.37602 400
39.78111 52.79814 195.38838 397
35.73934 54.04788 198.45995 383
31.42236 55.34554 201.66913 380
26.68967 56.84009 204.96097 367
21.50309 58.41191 208.45879 364
85.49649 37.77684 172.99918 431
82.99562 38.54045 175.13907 429
80.43374 39.27216 177.36058 427
77.66953 40.13256 179.53687 304
60.75465 45.17010 178.89740 420
57.69603 46.11710 181.48074 417
54.58860 47.03100 184.15619 415
51.22515 48.05048 186.81284 405
47.74493 49.05886 189.64215 403
44.11414 50.15173 192.51137 400
40.40636 51.30103 195.48659 398
36.56916 52.41844 198.55533 395
32.38792 53.67540 201.71968 381
27.88729 55.01042 205.06487 368
22.82876 56.55353 208.47099 365
85.77880 36.67200 173.16658 432
83.28058 37.40626 175.30544 430
80.76187 38.14867 177.47598 427
77.45259 39.11152 179.54710 304
61.14919 43.89472 179.04504 420
58.15719 44.78209 181.62833 418
55.05897 45.64528 184.27611 416
51.80626 46.59969 186.96191 406
48.33040 47.65749 189.74892 404
44.79375 48.69377 192.63603 401
41.04821 49.75652 195.57646 399
37.20906 50.90229 198.66064 396
33.26392 52.04044 201.80513 393
28.93422 53.29726 205.14798 379
24.07829 54.73335 208.51582 366
-63950.71875 18793.45898 9044.87402 1000
86.05829 35.58936 173.30093 432
83.59009 36.26567 175.41350 430
81.08968 37.00465 177.61801 428
77.22971 38.12559 179.54681 304
61.57511 42.56562 179.18074 421
58.58834 43.45639 181.75783 419
55.53846 44.32574 184.38843 416
52.35758 45.24435 187.09349 407
48.92243 46.20382 189.85875 404
45.35888 47.23720 192.70030 402
41.69151 48.25428 195.65804 399
37.87220 49.35176 198.72626 397
33.95342 50.45225 201.90532 394
29.86732 51.67737 205.15361 391
25.33551 52.94656 208.59723 367
86.35249 34.47669 173.40570 433
83.90079 35.17769 175.53371 431
81.37868 35.86888 177.72510 429
77.04331 37.11169 179.55675 304
61.97846 41.30405 179.31361 422
59.01455 42.12488 181.88640 420
55.94938 42.96772 184.48608 417
52.83125 43.83731 187.20786 415
49.52781 44.76837 189.95143 405
45.98918 45.78629 192.81837 403
42.32586 46.80881 195.73112 400
38.58936 47.84427 198.80690 397
34.64578 48.92661 201.92767 395
30.58214 50.07556 205.25461 392
26.36591 51.23602 208.62987 389
86.67156 33.40343 173.54788 434
84.20305 34.07410 175.68376 432
81.71946 34.75678 177.85945 429
76.84938 36.07912 179.58485 304
62.41977 40.01276 179.46449 423
59.48861 40.83540 181.98659 420
56.43929 41.64208 184.64429 418
53.30675 42.51556 187.31577 415
50.07060 43.39311 190.10315 406
46.57629 44.33055 192.89641 403
42.95837 45.31746 195.87282 401
39.22372 46.34278 198.85577 398
35.34365 47.39907 202.01506 396
31.32584 48.45676 205.30453 393
27.11180 49.64286 208.65166 390
86.94057 32.33275 173.68329 434
84.51279 32.96518 175.79935 432
82.02517 33.63947 177.99771 430
76.64929 35.04607 179.57559 304
62.84727 38.74421 179.60980 423
59.90534 39.53178 182.15340 421
56.90486 40.34274 184.74556 419
53.77365 41.16007 187.41853 416
50.62224 42.00748 190.18396 414
47.16912 42.91783 193.03720 404
43.58481 43.88237 195.96527 402
39.86308 44.83864 198.94583 399
36.01139 45.85740 202.09238 396
32.05918 46.94327 205.32248 394
27.87330 48.02212 208.70782 391
-188.48807 105.61312 208.65465 293
87.14377 31.29677 173.79077 455
84.82302 31.85759 175.93558 433
82.32540 32.52312 178.11627 431
76.47815 34.05542 179.58713 304
63.22029 37.48270 179.72636 424
60.32520 38.21534 182.26653 422
57.35232 38.98996 184.86105 419
54.26516 39.82705 187.50911 417
51.10526 40.63155 190.27650 414
47.76221 41.50390 193.09746 405
44.21153 42.38929 196.03067 402
40.54644 43.36525 199.05467 400
36.69299 44.39010 202.16086 397
32.76136 45.38084 205.38698 394
28.65820 46.44144 208.74625 392
-187.01683 102.49587 208.68944 485
87.18939 30.27338 173.83728 456
84.97440 30.84308 176.02008 454
82.67306 31.39233 178.20006 431
76.28171 33.02467 179.57669 304
63.67931 36.22656 179.86076 425
60.75362 36.98800 182.39513 422
