# .PCD v.7 - Point Cloud Data file format
VERSION .7
FIELDS x y z rgb
SIZE 4 4 4 4
TYPE F F F U
COUNT 1 1 1 1
WIDTH 1422
HEIGHT 1
VIEWPOINT 6859.491211 -3455.243408 142.163162 -0.731707 -0.125589 -0.055896 0.667613
POINTS 1422
DATA ascii
3170.43774 1077.78186 265.68030 353
378.98035 55.19392 171.57455 317
389.44867 59.10519 171.67517 313
429.05542 73.89523 164.84198 308
432.53531 75.17190 167.82056 301
3125.15918 1081.21936 264.74036 355
378.65445 56.12266 171.55450 317
389.08829 60.12423 171.67012 313
428.62741 75.14725 164.84106 308
432.16702 76.51906 167.84245 301
3080.36548 1084.66150 264.23578 356
3091.33179 1088.84692 314.74930 359
378.35770 57.09033 171.54250 317
388.78708 61.14667 171.65379 313
427.02866 75.94491 165.15878 428
431.77408 77.78403 167.82417 301
3038.26855 1088.86328 263.81424 367
3049.00195 1092.69250 313.30560 361
378.05511 58.02824 171.53259 317
413.97086 72.23560 164.75606 312
425.37314 76.75172 165.43115 429
431.33572 79.06828 167.81866 301
3006.23145 1096.17236 263.09750 366
3015.22900 1100.04333 312.31805 400
377.71704 58.97527 171.54483 317
413.56387 73.41785 164.76598 312
423.80490 77.50035 165.72438 430
430.91928 80.41463 167.79071 301
2977.48877 1104.99768 262.87216 378
2993.56348 1111.15417 311.80627 482
377.40768 59.94930 171.55273 316
413.09097 74.58184 164.78525 312
422.23843 78.30254 165.99420 431
430.50589 81.66782 167.75529 301
2952.22266 1114.31885 262.52023 365
2979.18335 1125.08386 311.53073 478
377.09671 60.89815 171.53421 316
412.66693 75.73384 164.80145 312
420.66003 79.04221 166.29070 432
430.11774 82.96816 167.77512 301
2929.61157 1124.45728 262.22324 392
2979.52954 1144.62878 312.34314 453
376.77667 61.81738 171.54315 316
412.23434 76.86155 164.78168 312
419.17413 79.82282 166.56166 433
2907.92383 1134.83008 262.34607 398
2980.25635 1164.88391 312.29034 452
376.39169 62.76407 171.51979 316
411.76608 78.04557 164.78867 312
417.60593 80.55508 166.81189 434
2887.28638 1145.22717 261.63583 410
2980.86719 1185.94971 312.42935 452
376.06946 63.74287 171.55334 316
411.33316 79.19382 164.77946 312
416.10739 81.30283 167.10379 435
2869.03711 1156.55615 261.89047 410
2980.77051 1206.22888 313.18677 451
375.72281 64.66843 171.55519 316
410.81293 80.35385 164.76064 312
414.64343 82.01569 167.33772 436
2851.39136 1168.39160 261.27200 416
3124.86279 1289.84131 318.74228 466
375.36148 65.61505 171.54126 316
410.34229 81.47360 164.80583 312
413.16315 82.73292 167.59340 437
2833.41943 1180.01709 261.28680 417
3006.94312 1258.74414 314.90948 357
375.01755 66.53612 171.51610 316
409.90735 82.60863 164.79059 312
412.11276 83.63277 167.79568 305
2816.45679 1191.48438 261.48410 417
2979.12476 1266.35217 313.68387 497
374.61047 67.45974 171.50909 316
409.37115 83.73962 164.81975 312
411.66257 84.79929 167.74455 305
2799.56909 1202.65552 260.96799 423
2973.90186 1284.45740 314.03223 497
397.26257 79.32095 164.68318 317
408.84250 84.85562 164.83388 439
411.18036 85.95660 167.73938 305
2783.29150 1214.78027 261.41077 424
2968.20923 1302.30835 313.74094 497
396.79950 80.41728 164.65775 317
407.40665 85.53259 165.06551 440
410.69943 87.13900 167.75017 305
2766.22461 1225.80798 261.25778 447
2945.26855 1312.66748 313.50650 338
396.34656 81.44640 164.65344 317
405.85538 86.13350 165.34561 422
410.22955 88.32043 167.72566 305
2750.94653 1237.70557 260.66574 456
2809.90747 1266.93018 309.29657 258
395.84872 82.48824 164.70570 317
404.26920 86.71803 165.70302 423
409.75980 89.48419 167.74780 305
2754.28735 1259.05554 260.74579 303
395.37335 83.56904 164.71123 317
402.64584 87.27965 165.97192 424
409.31177 90.61685 167.72731 305
394.81744 84.60402 164.71716 317
401.10071 87.78242 166.26675 425
408.80600 91.80231 167.71786 305
394.36475 85.64090 164.71219 317
399.54349 88.32664 166.58237 426
408.33578 92.93822 167.67805 305
393.83194 86.67579 164.70930 317
397.99500 88.85841 166.87726 427
393.28812 87.68050 164.70320 317
396.47766 89.38245 167.15425 428
392.80087 88.75523 164.72179 317
394.98267 89.94420 167.44327 429
392.24625 89.75961 164.71700 317
393.52640 90.46168 167.68845 311
391.72592 90.76566 164.73457 317
393.03223 91.53414 167.67255 311
390.55914 91.45423 164.90674 431
392.48071 92.54009 167.71902 311
389.14084 91.93108 165.19633 432
391.94278 93.56764 167.68567 311
387.71466 92.43273 165.44171 433
391.45065 94.65040 167.70889 309
386.31552 92.93071 165.73738 434
390.91168 95.64829 167.68457 309
384.89355 93.42291 166.01613 435
390.39069 96.69347 167.65454 309
383.53534 93.90083 166.23233 436
389.84064 97.73708 167.66397 309
382.15152 94.34006 166.52545 437
389.32452 98.76275 167.66048 309
380.86124 94.85167 166.78835 438
388.74551 99.83564 167.64650 309
379.51651 95.30881 167.02519 439
388.22809 100.84836 167.65010 309
378.18143 95.74579 167.25078 440
376.89505 96.19704 167.48074 441
375.92554 96.83998 167.64516 315
375.36697 97.76573 167.63026 315
374.78668 98.72150 167.62520 315
374.21658 99.64108 167.62834 315
373.64209 100.55368 167.61787 315
373.03299 101.48725 167.62741 315
372.47235 102.39684 167.59964 315
371.85196 103.31048 167.60181 315
371.26404 104.21225 167.57382 315
370.68436 105.14281 167.57301 315
370.06644 106.01241 167.56042 313
369.47345 106.93476 167.54929 313
368.84390 107.80242 167.55815 313
1852.41016 2870.88013 594.98334 401
1843.67786 2898.50806 432.02383 390
1330.76013 2416.90430 521.35913 342
1327.32751 2408.37817 564.63232 461
1323.21814 2441.42871 390.89096 440
789.56476 1957.90906 350.05658 383
788.09058 1952.92029 383.22531 442
787.32806 1948.78320 416.16873 482
786.30420 1944.98547 449.63235 482
785.30786 1941.06201 482.45129 499
784.31726 1937.56848 516.07037 491
779.31128 1966.42407 316.80081 340
-4906.32373 57291.92188 -9252.20117 1000
132.20303 152.55174 166.41159 314
131.27216 151.93803 166.38689 314
130.36438 151.33656 166.39442 314
130.53448 148.99911 166.95021 405
130.01622 147.71404 167.15408 470
129.20059 146.97374 167.21494 447
127.80582 149.11623 169.71576 399
-1177.69385 2156.45801 302.29590 416
127.90622 146.97792 166.99893 446
127.23473 147.99556 169.90208 487
-1187.22717 2141.87280 302.37411 498
-1187.17114 2141.37329 344.46698 494
-1187.66199 2141.71387 386.24606 465
126.55984 147.07745 166.78513 437
125.86481 148.04593 169.66389 438
-1206.66333 2141.66968 302.24756 376
125.10648 147.20340 166.52974 437
124.46696 148.15855 169.43237 437
123.96478 146.87427 166.38564 314
123.05726 146.25302 166.37817 314
120.88654 149.38547 168.68039 491
122.21487 145.56958 166.40736 314
119.89732 148.81932 168.67844 269
-1678.82947 2701.31128 381.49609 432
121.30289 144.87006 166.40550 314
-1693.71680 2687.70703 380.62497 461
119.87456 144.96854 166.12778 430
115.27415 151.37689 167.42426 312
118.39750 145.14420 165.86568 429
114.33197 150.63835 167.41759 312
-2125.59741 3207.01855 414.77753 481
-2125.83325 3207.67896 479.40872 481
116.85538 145.29237 165.57478 428
110.94064 153.28517 166.40135 310
115.34571 145.42984 165.32581 427
109.95806 152.55936 166.40065 310
113.79488 145.55281 165.00864 426
109.06528 151.77585 166.37617 310
112.21378 145.71567 164.70010 425
108.14202 151.07584 166.36877 310
110.65398 145.91028 164.43649 424
107.21226 150.30629 166.38866 310
109.04676 146.03780 164.08244 423
106.28732 149.50453 166.36745 310
107.39834 146.21556 163.78471 422
105.40056 148.76210 166.39061 310
105.77921 146.40700 163.45859 421
104.44218 147.97739 166.39197 310
104.78648 145.68983 163.45239 311
103.55543 147.16435 166.37894 310
103.93362 144.91162 163.41646 311
102.40839 146.73900 166.27844 420
103.07637 144.08377 163.46219 310
100.70493 146.89960 165.96486 418
102.23776 143.22890 163.46031 310
98.93838 147.06242 165.65277 417
91.18838 156.18382 166.38788 305
101.43258 142.31995 163.52005 310
97.21115 147.22035 165.33618 416
90.25467 155.31592 166.36923 305
100.63116 141.47003 163.52975 310
95.46062 147.32422 165.03297 426
89.25419 154.43178 166.34688 305
119.26719 118.60938 171.37445 315
93.80340 147.40192 164.71335 425
88.30069 153.58125 166.33510 305
118.60278 117.89272 171.38211 315
92.06941 147.49222 164.39391 424
87.39960 152.68228 166.36238 305
117.88432 117.17545 171.41562 315
90.34059 147.55899 164.10280 423
86.41339 151.83299 166.31696 305
117.18269 116.49514 171.42583 315
88.52622 147.62338 163.73413 422
85.48019 150.91748 166.30293 305
116.50035 115.72685 171.43903 315
86.72688 147.65762 163.40378 421
84.53486 150.02266 166.35349 305
115.81755 115.04113 171.42055 315
85.75641 146.90871 163.41190 303
83.65958 149.16579 166.32062 305
115.14246 114.28857 171.40874 315
84.96841 145.90553 163.43071 303
82.73520 148.21454 166.34785 305
114.45619 113.54818 171.42078 315
84.15285 144.86496 163.47658 303
81.23675 147.91081 166.15327 418
113.78667 112.77959 171.44107 315
83.36450 143.85976 163.46848 303
79.36359 147.93823 165.82304 417
113.11304 112.03815 171.45197 315
82.61557 142.85739 163.51181 303
77.44665 148.07353 165.47234 416
112.44214 111.28978 171.44347 315
104.34174 119.36265 171.52594 311
75.51025 148.11301 165.16367 415
66.78926 156.85071 166.26292 301
111.79124 110.56631 171.46750 315
103.66257 118.51562 171.53427 311
73.52551 148.19215 164.75581 414
65.80619 155.77625 166.25513 301
111.09927 109.77103 171.47235 315
102.97434 117.71293 171.51874 312
71.55009 148.24400 164.40562 412
64.85352 154.78708 166.25282 301
-24619.72656 24174.91602 2511.02979 1000
110.45492 109.04681 171.46251 315
102.26649 116.93709 171.51808 312
69.54754 148.31580 164.10133 411
63.90901 153.76982 166.24678 301
109.82362 108.25877 171.47495 315
101.56869 116.08725 171.53331 312
67.51125 148.42400 163.70413 410
63.01873 152.69756 166.24068 301
109.18774 107.47016 171.48590 315
100.85747 115.25228 171.56044 312
65.44228 148.48138 163.33736 409
62.02043 151.69560 166.22240 301
108.54071 106.72879 171.48067 315
100.17809 114.43867 171.55667 312
64.41964 147.57367 163.31120 299
61.11600 150.60599 166.20299 301
107.91896 105.92005 171.48735 316
99.52172 113.61380 171.58659 312
63.64149 146.42349 163.36609 300
60.19441 149.56410 166.25394 301
107.25011 105.14038 171.47789 316
98.84277 112.76888 171.56551 312
62.87511 145.24014 163.41014 300
59.02241 148.72504 166.14566 406
106.63269 104.37510 171.49130 316
98.14901 111.91043 171.54822 312
88.53827 120.51106 171.65419 308
56.76243 148.81743 165.78824 405
106.05375 103.58343 171.51711 316
97.53455 111.08810 171.57729 312
87.85152 119.58504 171.65277 308
54.52571 148.95810 165.39612 404
105.40220 102.77848 171.51476 316
96.86594 110.21133 171.59575 312
87.09834 118.72475 171.64308 308
52.27779 149.02811 164.97844 403
104.80016 101.97671 171.49742 316
96.21539 109.37435 171.60280 312
86.43645 117.76939 171.64522 308
49.95306 149.13840 164.62126 402
40.17291 157.51814 166.14328 297
104.18178 101.16342 171.54512 316
95.54558 108.53111 171.58788 312
85.71014 116.84430 171.68472 308
47.60810 149.22627 164.20766 400
39.23436 156.33768 166.07462 297
103.60397 100.37030 171.53459 316
94.93243 107.67246 171.61037 312
85.04940 115.92207 171.66835 308
45.26558 149.27989 163.76233 399
38.22817 155.11902 166.08870 297
102.99009 99.53579 171.53355 316
94.28721 106.77410 171.61412 312
84.36918 114.99171 171.68320 308
42.78384 149.37730 163.37778 398
37.31608 153.92065 166.09300 297
102.44363 98.75870 171.52692 316
93.64653 105.90736 171.62199 312
83.68205 114.06763 171.69508 308
41.30519 148.66188 163.18675 296
36.41510 152.71918 166.12706 297
101.84163 97.91453 171.54686 316
93.04473 105.05896 171.59906 312
83.02377 113.14419 171.68805 308
71.52632 122.37865 171.79666 304
35.46775 151.47592 166.13588 297
101.25135 97.09782 171.53433 316
92.40214 104.15295 171.62199 312
82.32576 112.21381 171.71153 308
70.76720 121.38526 171.81239 304
34.52880 150.28134 166.11481 297
100.68759 96.28683 171.53445 316
91.78623 103.25797 171.61520 312
81.64683 111.26775 171.70323 308
70.08462 120.36426 171.79057 304
32.70812 149.73892 165.90591 394
100.13068 95.46187 171.55640 316
91.16643 102.39126 171.62601 312
81.02645 110.30740 171.71971 308
69.37589 119.34666 171.80757 304
30.08090 149.90892 165.44473 392
99.53168 94.58928 171.55067 316
90.58315 101.50033 171.62329 312
80.37170 109.31097 171.74126 308
68.66553 118.32003 171.79810 304
27.40827 150.01083 164.97639 391
98.98274 93.77484 171.58949 316
89.97532 100.59051 171.64993 312
79.70918 108.36292 171.74702 308
67.99007 117.28959 171.82289 304
24.62548 150.07216 164.54260 390
98.43011 92.94965 171.59998 316
89.39249 99.70962 171.62814 312
79.09775 107.39362 171.72078 308
67.27267 116.26312 171.84554 304
21.84343 150.19806 164.12363 389
10.08377 159.01158 165.88058 290
97.91335 92.08656 171.57404 316
88.81193 98.78605 171.63618 312
78.44906 106.44375 171.73737 308
66.61109 115.21368 171.82439 304
19.05267 150.29285 163.59238 390
9.14009 157.64052 165.84798 291
97.33315 91.23706 171.56635 316
88.20911 97.90981 171.65813 312
77.84447 105.44881 171.72118 308
65.92111 114.13725 171.83228 304
16.22936 150.32581 163.16606 389
8.14394 156.26721 165.82390 291
96.80009 90.39574 171.57259 316
87.64232 96.98923 171.65604 312
77.22453 104.51559 171.75085 308
65.26450 113.11894 171.87047 304
51.39332 123.06476 171.98950 300
7.12509 154.91435 165.85988 291
96.28255 89.52408 171.58774 316
87.05047 96.08481 171.65918 312
76.55949 103.48974 171.76898 308
64.58631 112.02069 171.87416 304
50.68836 121.91939 171.96013 300
6.21616 153.48689 165.87402 291
95.74747 88.68125 171.61279 316
86.51079 95.15514 171.65309 312
75.98441 102.51596 171.74219 308
63.92328 110.97427 171.83701 304
49.94711 120.79485 171.97441 300
5.18299 152.12216 165.84026 291
95.22105 87.80488 171.59892 316
85.92099 94.24440 171.69353 312
75.39796 101.52245 171.74576 308
63.24697 109.94710 171.86884 304
49.25826 119.60780 172.01053 300
4.29828 150.70285 165.79810 291
94.72520 86.96802 171.62311 316
85.35982 93.34623 171.67723 312
74.76337 100.57620 171.77533 308
62.63155 108.86241 171.84924 304
48.53115 118.49306 171.96642 300
1.30434 150.70746 165.37773 383
94.18465 86.07588 171.59117 316
84.84084 92.39817 171.69223 312
74.20476 99.57345 171.75139 308
61.99512 107.78297 171.89819 304
47.82676 117.26928 172.01231 300
-1.89198 150.76572 164.86514 382
93.71198 85.19258 171.62714 316
84.27180 91.47640 171.70450 312
73.58067 98.54599 171.78180 308
61.34376 106.69190 171.89392 304
47.13354 116.15345 171.97209 300
-5.12459 150.84930 164.39716 381
93.17616 84.33381 171.61897 316
83.76566 90.52400 171.70323 312
73.02777 97.54764 171.75871 308
60.75327 105.61269 171.88261 304
46.47330 114.99192 171.97974 300
-8.42028 150.96042 163.85426 379
92.67963 83.47453 171.61278 316
83.23438 89.60126 171.72717 312
72.43639 96.56630 171.80376 308
60.11164 104.55786 171.90636 304
45.79502 113.80011 172.03497 300
29.02170 124.66578 172.14665 296
-55063.26562 35764.84766 11124.35449 1000
92.22341 82.58953 171.63666 316
82.71458 88.64948 171.73120 312
71.86425 95.56731 171.78114 308
59.52373 103.44498 171.89960 304
45.17605 112.59518 172.03607 300
28.29693 123.36694 172.18980 296
-27.51008 158.93332 165.36987 286
91.71294 81.70123 171.63960 316
82.19028 87.70054 171.70070 312
71.32414 94.54251 171.81082 308
58.90228 102.38454 171.91428 304
44.50435 111.44448 172.00075 300
27.61781 122.06988 172.13835 296
-28.39610 157.37355 165.30830 286
91.25299 80.81705 171.64847 316
81.63776 86.75885 171.69489 312
70.78285 93.51909 171.82069 308
58.30430 101.27757 171.92166 304
43.83494 110.25448 171.99828 300
26.88180 120.73097 172.18649 296
-29.36378 155.66252 165.34396 286
90.75700 79.93289 171.63472 316
81.16313 85.78641 171.70197 312
70.19976 92.47565 171.82829 308
57.69966 100.18644 171.94446 304
43.20673 109.03737 172.01991 300
26.17272 119.43723 172.16673 296
-30.33969 154.06419 165.34622 286
90.29994 79.04617 171.66348 316
80.64132 84.86388 171.72163 312
69.68609 91.45908 171.81717 308
57.08791 99.05332 171.90215 304
42.54203 107.83490 172.02773 300
25.50025 118.16517 172.15173 296
-31.27438 152.45567 165.31108 287
89.83772 78.12929 171.66660 316
80.16816 83.91811 171.71164 312
69.13319 90.42383 171.83501 308
56.56153 97.94162 171.91258 304
41.95176 106.66132 172.06079 300
24.82285 116.86078 172.15816 296
-33.52693 151.55156 165.04881 370
89.34650 77.21752 171.63885 316
79.65392 82.95532 171.72493 312
68.59744 89.43118 171.81592 308
55.96456 96.84619 171.91902 304
41.33928 105.42303 172.06956 300
24.11285 115.57379 172.16174 296
-37.38687 151.65219 164.48575 369
88.90109 76.33086 171.67162 316
79.15972 81.99914 171.72565 312
68.06970 88.38900 171.85072 308
55.37178 95.70687 171.93358 304
40.67766 104.22283 172.03099 300
23.43131 114.19883 172.16812 296
-41.41726 151.78000 163.97005 368
88.47111 75.42035 171.67990 316
78.67783 81.00017 171.74051 312
67.58407 87.36073 171.81642 308
54.86670 94.60184 171.93874 304
40.10938 103.05616 172.06137 300
22.80499 112.93955 172.19818 296
2.21688 124.63618 172.36308 292
88.02583 74.52640 171.64493 316
78.19542 80.01144 171.76665 312
67.08279 86.31979 171.82295 308
54.31834 93.51261 171.95432 304
40.14406 101.44080 172.21887 316
25.23429 109.81464 172.87125 268
1.51613 123.18816 172.39189 292
87.58083 73.61656 171.68497 316
77.73093 79.05049 171.75990 312
66.58454 85.24395 171.82567 308
53.73951 92.37505 171.94153 304
42.96141 98.33659 172.97400 317
36.49738 101.93074 175.36433 316
15.81102 113.38772 175.23648 269
87.15610 72.67264 171.65866 316
77.27826 78.06431 171.75621 312
66.08031 84.21181 171.85638 308
53.22961 91.24653 171.94153 304
45.77180 95.28075 173.78343 318
39.49609 98.74660 176.04578 317
29.37457 104.27686 177.90219 269
-70.55726 158.90187 164.89671 284
86.73902 71.78264 171.65686 316
76.80138 77.11674 171.77670 312
65.59360 83.17263 171.83617 308
54.33396 89.23056 172.35219 321
48.41275 92.40323 174.50819 319
42.34540 95.69286 176.77998 318
35.99259 99.11736 179.22716 316
18.39189 108.59638 180.07120 288
86.31098 70.86957 171.67160 316
76.36447 76.11078 171.74751 312
65.08653 82.10876 171.83394 308
56.73740 86.54976 173.07780 323
51.04771 89.57938 175.18149 321
45.06897 92.73756 177.46275 320
38.72407 96.12333 179.87827 292
17.78733 107.18126 180.03468 288
85.87791 69.92760 171.68398 316
75.90848 75.14071 171.78522 312
64.61922 81.08122 171.85408 308
59.06497 83.93947 173.75644 324
53.52298 86.84227 175.86792 322
47.76292 89.84717 178.11295 321
38.15812 94.87839 179.89580 292
17.16300 105.87453 180.02281 288
-8.78888 119.42782 180.29132 284
85.49744 69.01745 171.69583 316
75.48237 74.15805 171.77979 312
64.14182 80.01050 171.86057 308
60.43768 81.88669 174.22681 382
55.98051 84.22042 176.54729 323
50.32570 87.07646 178.78992 322
37.66097 93.63265 179.86337 292
16.57397 104.50048 180.05290 288
-9.53205 117.91786 180.28951 284
85.09715 68.09466 171.71106 316
75.07105 73.18975 171.79276 312
64.79197 78.35091 172.18062 372
61.28487 80.16949 174.52998 383
57.99788 81.79401 177.12079 381
52.82487 84.41424 179.40164 323
37.07743 92.40572 179.87100 292
-0.67982 111.53587 177.32700 293
-10.17292 116.35562 180.25050 284
84.67857 67.17384 171.68903 316
74.62897 72.18008 171.79594 312
65.58930 76.68581 172.48193 373
62.06822 78.43017 174.86758 384
58.86505 80.02216 177.42020 382
54.11476 82.43321 179.75311 296
36.58932 91.19627 179.88333 292
-9.78189 114.34216 175.90012 291
-10.84217 114.86450 180.26993 284
84.30531 66.23121 171.71259 316
74.18306 71.16308 171.78674 312
66.44006 75.02700 172.80910 374
62.82569 76.77960 175.17435 385
59.70517 78.34133 177.67334 383
53.63290 81.32197 179.72530 296
19.62065 97.99576 176.89975 283
2.38011 106.44983 178.04585 263
-16.03679 115.51950 179.60733 347
83.89920 65.30841 171.70436 316
73.79124 70.18543 171.78195 312
67.23259 73.38767 173.13734 375
63.63747 75.08543 175.45631 386
60.49823 76.59699 178.00519 384
53.15425 80.17974 179.73358 296
24.32731 94.09724 177.84000 312
10.89331 100.59186 179.54832 282
-20.46153 115.77525 179.05742 346
83.54478 64.32579 171.70280 316
73.35862 69.18175 171.78493 312
67.97196 71.75722 173.43948 376
64.39346 73.47834 175.73267 387
61.29187 74.94320 178.26649 385
52.70335 79.04581 179.78342 296
26.95788 91.30840 178.42705 329
18.41482 95.34385 180.83592 283
1.54295 103.41894 182.38208 263
83.12608 63.41833 171.72122 316
72.97060 68.18456 171.81158 312
68.74733 70.18185 173.76143 377
65.13055 71.82198 176.05780 388
62.08129 73.26037 178.50757 386
52.25418 77.92028 179.75127 296
29.23483 88.71486 178.93106 330
21.91384 92.08521 181.54488 312
9.78329 97.84638 183.62450 282
-46.93265 124.40257 180.58195 280
82.79907 62.48114 171.73846 316
73.08910 66.94745 171.94316 380
69.50041 68.58785 174.08386 378
65.89426 70.26051 176.29524 389
62.86800 71.64944 178.81946 387
51.79957 76.79060 179.75108 296
31.43163 86.15350 179.42740 331
24.71833 89.23825 182.04912 329
16.10511 93.24244 184.63954 311
0.46951 100.44338 186.67752 281
82.40124 61.52560 171.70839 316
73.80402 65.42691 172.22270 381
70.28312 67.04909 174.40147 379
66.63795 68.70689 176.58333 390
63.61752 70.02502 179.05742 388
51.32995 75.64764 179.78676 296
33.60136 83.69768 179.94542 332
27.04147 86.64514 182.56816 330
19.48410 90.06990 185.22615 312
8.73776 94.93527 187.79817 282
82.05344 60.57769 171.71602 316
74.51862 63.92234 172.54810 382
71.03771 65.51825 174.67662 380
67.37919 67.11209 176.88197 377
64.41609 68.44892 179.30229 389
41.72599 78.55805 177.93817 336
35.73393 81.29144 180.37152 334
29.33167 84.08778 182.99489 331
22.55161 87.16136 185.74162 329
13.63065 91.09064 188.47084 311
-0.48997 97.45621 190.95183 281
81.68983 59.62512 171.71773 316
75.19324 62.50106 172.82640 383
71.77118 63.98883 174.94371 381
68.17410 65.56848 177.14386 378
65.17660 66.89498 179.54935 390
43.06991 76.55000 178.33163 370
37.74678 78.91254 180.83018 335
31.55668 81.62453 183.45233 332
24.96327 84.54596 186.14462 330
17.10718 87.98428 188.96550 312
7.57781 92.19946 191.81689 309
81.33813 58.65945 171.70410 316
75.90533 61.04070 173.12521 384
72.47137 62.48937 175.24025 382
68.93758 64.01528 177.43710 379
65.13261 65.65668 179.65692 300
44.06910 74.76083 178.59943 371
39.56884 76.72205 181.25320 368
33.70512 79.23678 183.86926 333
27.24897 82.04337 186.58835 331
20.40560 84.99285 189.46048 328
11.17422 88.94270 192.28137 310
-1.39125 94.43694 195.15240 281
-50892.04297 22061.72266 3887.37720 1000
81.01060 57.71026 171.73288 316
76.40273 59.67776 173.38542 415
73.19037 61.04324 175.51680 382
69.70704 62.49741 177.68353 380
64.77330 64.62609 179.63324 300
44.96965 73.02096 178.84210 383
40.59616 74.86031 181.52438 369
35.83067 76.92967 184.29407 334
29.52700 79.58912 186.93298 332
22.84483 82.38590 189.78903 330
14.69473 85.83865 192.74596 312
5.04754 89.98242 195.75307 309
-21.52172 101.20618 197.99033 262
80.69314 56.77279 171.73213 316
76.68958 58.41586 173.53903 415
73.86094 59.61163 175.78372 413
70.47380 61.00292 177.96045 381
64.38713 63.56699 179.67209 300
45.76772 71.32066 179.10519 383
41.65469 73.02979 181.81805 370
37.05951 74.94031 184.53529 368
31.67547 77.19797 187.31369 333
25.18660 79.92668 190.18837 331
18.10579 82.83661 193.14522 313
8.72357 86.76152 196.14430 310
-2.29621 91.40211 199.35947 281
80.33775 55.79178 171.71054 316
76.99650 57.15914 173.73958 416
74.21211 58.29998 175.95418 414
71.17744 59.53611 178.20000 382
64.02174 62.49456 179.68224 300
46.59384 69.62312 179.37297 384
42.60721 71.29311 182.04520 382
38.12990 73.11913 184.81174 369
33.39563 75.02529 187.64240 366
27.49368 77.45712 190.48618 332
20.75728 80.24454 193.49734 329
12.35151 83.66016 196.53085 311
2.53162 87.70104 199.78600 309
-23.92044 98.54248 202.50536 252
80.04030 54.85148 171.76283 316
77.35149 55.92932 173.91611 417
74.56297 57.05415 176.10338 415
71.65688 58.20103 178.41200 412
63.68201 61.43155 179.66948 300
47.40698 67.97026 179.56000 385
43.44777 69.58819 182.29408 383
39.20372 71.29804 185.03444 370
34.52577 73.13959 187.87547 367
29.66431 75.15713 190.81068 364
23.16168 77.73798 193.78775 330
15.81539 80.68061 196.83519 312
6.33403 84.49229 200.05714 310
-4.01847 88.70336 203.53983 307
80.31124 53.66092 171.93025 421
77.62803 54.69314 174.07912 418
74.88908 55.80635 176.29295 415
72.03316 56.92400 178.58296 413
63.29598 60.37030 179.66685 300
48.16016 66.37397 179.82068 386
44.30602 67.90487 182.50475 384
40.21767 69.51968 185.26465 370
35.64173 71.33282 188.09236 368
30.82217 73.20725 191.00830 365
25.49254 75.33432 194.08278 332
18.61764 78.04878 197.19221 329
9.95052 81.45721 200.35852 311
0.03194 85.42082 203.81026 308
80.59247 52.43361 172.10133 422
77.94949 53.48383 174.24066 418
75.18772 54.56111 176.43484 416
72.39365 55.65013 178.70129 414
62.99102 59.28496 179.66145 300
48.92819 64.74542 180.04619 387
45.08085 66.23715 182.73628 385
41.09618 67.78958 185.47662 382
36.72711 69.46423 188.28134 369
31.99492 71.31116 191.18634 366
26.99469 73.28381 194.29718 364
21.08841 75.56949 197.44411 330
13.49401 78.53355 200.66721 312
3.90107 82.25961 204.02303 310
80.87272 51.23933 172.28409 423
78.27397 52.25657 174.41728 419
75.52213 53.31873 176.61597 417
72.72456 54.35039 178.89229 414
62.61538 58.24130 179.66370 300
49.69521 63.12950 180.25803 388
45.91879 64.59417 182.89270 386
41.96081 66.12014 185.67268 383
37.81755 67.66657 188.52678 370
33.11552 69.48427 191.43602 367
28.18262 71.33148 194.46967 365
23.09226 73.31740 197.66295 362
16.56858 75.78301 200.86221 329
7.63587 79.21529 204.22986 311
81.20123 50.07589 172.45982 424
78.56880 51.07652 174.60393 420
75.85119 52.07385 176.75775 417
73.06307 53.09859 179.04327 415
54.10430 60.19138 177.94626 391
50.50225 61.57562 180.46924 389
46.72911 62.97862 183.12117 386
42.79203 64.45748 185.86945 384
38.78219 65.94359 188.67947 382
34.21204 67.67902 191.60576 368
29.42869 69.47432 194.64410 366
24.32940 71.34679 197.75824 363
19.01961 73.31480 201.11194 330
11.20359 76.29155 204.43166 312
81.49184 48.90404 172.60973 424
78.89747 49.85155 174.74332 420
76.19386 50.83121 176.95236 418
73.40878 51.85549 179.16197 416
54.82990 58.70468 178.15761 392
51.24052 60.03143 180.72810 390
47.49949 61.39821 183.33163 387
43.62791 62.79908 186.05684 385
39.66250 64.28920 188.86382 382
35.32553 65.87153 191.79662 369
30.55605 67.63653 194.78065 366
25.57934 69.43828 197.90923 364
20.33872 71.34650 201.23906 361
14.48050 73.51218 204.63113 328
81.75208 47.76013 172.76965 425
79.20169 48.65358 174.91057 421
76.49031 49.62949 177.07825 419
73.74838 50.65638 179.35739 417
55.52922 57.17533 178.38921 393
51.99758 58.49114 180.94229 391
48.29112 59.81800 183.53452 388
44.49455 61.20320 186.23050 386
40.53358 62.63158 189.03317 383
36.40553 64.07023 191.96590 381
31.71995 65.78671 194.94762 367
26.78569 67.56600 198.09445 365
21.64840 69.40363 201.31488 362
16.23996 71.37878 204.77319 359
82.05138 46.61904 172.95174 426
79.50742 47.51766 175.05022 424
76.85285 48.43474 177.25290 420
74.07606 49.43615 179.48006 417
56.25139 55.71460 178.61418 407
52.70552 56.95359 181.10492 392
49.05417 58.23010 183.74066 389
45.29422 59.59633 186.41357 387
41.36732 60.97166 189.19992 384
37.31212 62.42155 192.14001 382
32.89478 63.98434 195.10956 368
27.99440 65.69306 198.20363 366
22.93698 67.47044 201.42026 363
17.57972 69.33936 204.82771 360
82.34193 45.46879 173.08290 426
79.81707 46.32255 175.20294 424
77.15585 47.26506 177.38637 420
74.20960 48.26077 179.56842 304
56.73669 54.33009 178.79131 408
53.45317 55.46751 181.32080 392
49.82866 56.73752 183.92459 390
46.09389 57.98062 186.62437 388
42.19338 59.36270 189.40297 385
38.20116 60.75233 192.25606 383
33.98849 62.20520 195.25853 369
29.21779 63.83396 198.33891 367
24.19425 65.61420 201.57391 364
18.94014 67.40276 204.96135 361
82.62673 44.31961 173.25887 427
80.11848 45.15585 175.37971 425
77.45783 46.05859 177.55257 421
73.94740 47.25401 179.56235 304
57.23928 52.92523 178.93643 408
53.97291 54.04209 181.48068 406
50.59565 55.17813 184.10634 391
46.88640 56.44889 186.76251 388
43.04966 57.74267 189.57843 386
39.07961 59.10251 192.44987 383
34.93004 60.49038 195.39229 381
30.39667 62.02130 198.48683 368
25.44148 63.71281 201.69046 365
20.23909 65.49389 205.04449 362
82.92939 43.18140 173.38611 428
80.43732 44.03015 175.51584 426
77.80092 44.88828 177.68318 422
73.68574 46.25868 179.60712 304
57.73861 51.57663 179.13976 409
54.52437 52.63310 181.64203 407
51.16771 53.75229 184.26096 404
47.69613 54.92641 186.97363 389
43.85918 56.16987 189.73007 387
39.93365 57.49776 192.58565 384
35.88210 58.85146 195.52260 382
31.51786 60.25911 198.57158 369
26.67451 61.91388 201.75708 366
21.57294 63.61442 205.11996 363
83.23396 42.05270 173.55867 429
80.72404 42.86100 175.68144 426
78.12698 43.73015 177.82805 422
73.44154 45.24435 179.56650 304
58.18504 50.23919 179.29095 417
54.99989 51.25298 181.79956 407
51.69939 52.34844 184.44086 405
48.29430 53.46186 187.13643 403
44.72123 54.60347 189.89514 388
40.79162 55.89736 192.72173 385
36.75293 57.18438 195.66542 383
32.56943 58.56052 198.73277 380
27.88315 60.12004 201.90538 367
22.80429 61.72518 205.15778 364
17.12164 63.59670 208.66309 330
83.49142 40.96842 173.70483 429
81.00631 41.74805 175.81335 427
78.41824 42.54895 177.97670 423
73.16872 44.27057 179.60793 304
58.60326 48.89191 179.44054 418
55.52216 49.87220 181.99403 408
52.22819 50.93077 184.56836 406
48.84454 51.99361 187.24469 403
45.35319 53.10557 190.01042 401
41.66971 54.30613 192.85892 386
37.66238 55.57516 195.81093 384
33.49182 56.91635 198.80908 381
29.01843 58.31823 201.99860 368
24.07310 59.88649 205.29048 365
18.57520 61.65459 208.67226 331
83.78246 39.84393 173.84160 430
81.33823 40.60144 175.94382 428
78.75439 41.43597 178.09657 424
72.92811 43.24229 179.61545 304
59.04298 47.60043 179.59648 418
55.99605 48.53220 182.13205 416
52.75740 49.51313 184.70015 407
49.42562 50.59534 187.37262 404
45.91536 51.64812 190.11542 402
-94.88757 29.61656 -11.40610 399
38.57173 53.96180 195.93945 384
34.42717 55.25307 198.93550 382
30.19525 56.60622 202.07242 379
25.30265 58.12713 205.34622 366
19.98273 59.73934 208.73251 335
84.06411 38.74428 173.98900 431
81.63008 39.48972 176.11823 428
79.07654 40.27353 178.24025 425
72.64226 42.23029 179.57556 304
59.45725 46.28138 179.73868 419
56.43133 47.19776 182.26562 417
53.29265 48.13707 184.84894 407
49.96981 49.17766 187.49310 405
46.52840 50.22372 190.24553 402
42.97263 51.30114 193.07751 400
39.25257 52.42492 196.00468 397
35.36095 53.63988 199.02675 383
31.13715 54.90351 202.19135 380
26.52206 56.32919 205.41437 367
21.33976 57.87338 208.78758 336
84.34623 37.64008 174.15134 431
81.89490 38.40967 176.23634 429
79.39407 39.15103 178.39722 425
72.42925 41.24185 179.59135 304
59.85907 44.99756 179.88849 420
56.90010 45.87706 182.39317 418
53.81970 46.75706 184.99820 408
50.54851 47.76069 187.62624 406
47.12125 48.78043 190.38324 403
43.54160 49.85429 193.19046 401
39.88577 50.92293 196.12270 398
36.12346 52.07661 199.15762 395
32.05842 53.24250 202.23711 381
27.74619 54.54521 205.50504 368
22.72868 56.04025 208.87097 336
84.65770 36.58785 174.30782 432
82.22964 37.28066 176.38577 430
79.69491 38.00566 178.54036 426
72.17485 40.18821 179.58778 304
60.27775 43.69882 180.03224 421
57.29477 44.56265 182.53966 418
54.26699 45.42656 185.12111 416
51.05607 46.38971 187.76984 406
47.67289 47.38641 190.51093 404
44.15279 48.36770 193.31967 401
40.51049 49.42985 196.22821 399
36.80123 50.56705 199.24960 396
32.89006 51.69786 202.33878 393
28.70531 52.88381 205.59567 379
23.95163 54.29115 208.94810 366
84.93154 35.48458 174.43254 433
82.49412 36.17672 176.52916 430
80.04036 36.88086 178.65918 427
71.94876 39.17878 179.57971 304
60.66280 42.39263 180.13666 421
57.72189 43.24684 182.68494 419
54.75638 44.08079 185.26454 417
51.59689 44.99964 187.89545 407
48.23987 45.95159 190.63187 405
44.74540 46.96556 193.42429 402
41.17293 47.98964 196.29732 399
37.42723 49.06606 199.29634 397
33.55111 50.16024 202.43810 394
29.56962 51.29726 205.62825 391
25.22692 52.52441 208.97458 367
85.20058 34.41070 174.56918 433
82.82211 35.08323 176.66156 431
80.34543 35.79984 178.76988 427
71.75763 38.16121 179.58130 304
61.07216 41.16332 180.29829 422
58.17346 41.95965 182.79895 420
55.18538 42.77563 185.36444 417
52.13393 43.66522 188.00720 415
48.83456 44.55934 190.74756 405
45.37600 45.54038 193.51448 403
41.80741 46.52751 196.42094 400
38.10553 47.53489 199.35286 398
34.26408 48.59546 202.44838 395
30.28323 49.72702 205.69739 392
26.17300 50.87048 209.00835 389
85.49972 33.36625 174.72403 434
83.09373 34.00682 176.79466 432
80.65024 34.68766 178.89090 428
71.51299 37.15237 179.58727 304
61.49242 39.88389 180.44141 423
-140.37793 38.17164 -26.43175 420
55.64006 41.45972 185.46861 418
52.55264 42.29611 188.10612 416
49.35873 43.19042 190.82057 406
45.95625 44.10214 193.63748 404
42.40965 45.09178 196.47772 401
38.73687 46.07047 199.45958 398
34.92274 47.08371 202.53854 396
30.98012 48.16991 205.73207 393
26.87096 49.28475 209.03659 390
85.77245 32.31519 174.83479 435
83.41484 32.93229 176.90512 432
80.93858 33.58964 179.01530 428
64.67339 37.88698 178.12146 426
61.86778 38.62695 180.55440 423
59.01538 39.39212 183.02567 421
56.05925 40.16377 185.58496 419
53.01447 41.00293 188.24300 416
49.89626 41.83600 190.95833 414
46.51500 42.69869 193.71986 404
42.98878 43.64242 196.58902 402
39.39542 44.59068 199.55183 399
35.57496 45.59232 202.60632 396
31.70979 46.66255 205.79428 394
27.61652 47.74699 209.07024 391
-188.23624 105.03624 208.99904 293
85.96954 31.25149 174.93633 455
83.69080 31.87318 177.04527 433
81.27979 32.51115 179.15556 429
65.08067 36.67824 178.24356 426
62.28429 37.40194 180.70654 424
59.45581 38.11529 183.17578 422
56.51427 38.88994 185.72156 419
53.50050 39.66972 188.33279 417
50.39397 40.48056 191.04327 414
47.12926 41.34611 193.81606 405
43.62817 42.21476 196.63585 402
39.99681 43.17030 199.62462 400
36.25845 44.11092 202.68031 397
32.39795 45.13347 205.82397 394
28.33353 46.16363 209.12784 392
-186.95117 101.91561 209.01421 485
86.02696 30.29650 175.02745 456
83.88916 30.83946 177.11243 454
81.58724 31.39501 179.26321 431
65.45688 35.46508 178.38406 427
62.68047 36.18075 180.82375 425
59.87105 36.88926 183.31029 422
56.93084 37.63061 185.82822 420
53.96494 38.35546 188.42178 418
50.84742 39.16399 191.12093 415
47.67144 39.96359 193.90392 413
44.20964 40.85076 196.74660 403
40.63297 41.75728 199.68350 401
36.91216 42.68946 202.74261 398
33.06296 43.64108 205.90427 395
29.06411 44.64874 209.15033 392
-187.20799 99.15025 209.03833 484
86.07564 29.29572 175.08783 456
83.92293 29.84618 177.18320 454
81.72620 30.37552 179.34814 452
65.83483 34.28592 178.51480 428
63.11056 34.96276 180.92206 425
60.25018 35.62751 183.42244 423
57.39328 36.32699 185.94621 421
54.41679 37.06831 188.53513 418
51.31833 37.84748 191.20503 416
48.15364 38.60176 193.97906 413
44.83336 39.43646 196.82478 404
41.26448 40.31117 199.78621 401
37.57994 41.19971 202.76112 399
33.73998 42.14126 205.93536 396
29.78318 43.09375 209.19775 393
-187.76849 96.61279 208.99818 484
86.12620 28.31072 175.13976 457
83.99123 28.85518 177.26578 455
81.76656 29.37075 179.41272 452
66.21676 33.08042 178.66388 428
63.51612 33.71361 181.07349 426
60.69769 34.40901 183.51311 424
57.79525 35.11598 186.03693 421
54.84763 35.78815 188.63133 419
51.81432 36.52406 191.31593 417
48.63926 37.28959 194.07286 414
45.40940 38.07203 196.90617 405
41.87429 38.89214 199.84213 402
38.25410 39.77915 202.87051 399
34.43158 40.67270 205.94444 397
30.53337 41.62249 209.22168 394
-188.22641 93.91357 208.99583 485
-190.41000 94.46372 216.12701 294
86.19481 27.32803 175.18983 457
84.02777 27.82832 177.31488 455
81.83100 28.36825 179.47487 453
66.60267 31.90124 178.77057 429
63.90615 32.51486 181.16595 427
61.12536 33.15651 183.63142 424
58.23835 33.81877 186.14989 422
55.28859 34.54842 188.77275 420
52.26774 35.20086 191.43355 417
-39.49784 9.18404 -4.65603 415
45.91943 36.70968 197.00720 412
42.48346 37.49405 199.87645 403
38.89277 38.32784 202.88957 400
35.13537 39.23991 206.00079 397
31.21733 40.13641 209.26357 395
-183.14168 89.92241 216.12807 295
-8084.28516 1927.11243 2062.69312 1000
86.25029 26.36891 175.26898 457
84.07342 26.86075 177.37170 455
81.88635 27.34657 179.50107 453
66.96861 30.73512 178.91502 430
64.27593 31.32466 181.31662 427
61.49507 31.95832 183.77109 425
58.64613 32.60343 186.24307 423
55.72923 33.26606 188.85107 420
52.75055 33.96490 191.48325 418
49.61448 34.63778 194.24625 415
46.42514 35.35196 197.06743 413
43.11530 36.12400 199.98950 403
39.51265 36.93798 202.93503 401
35.75563 37.78635 206.04491 398
31.89465 38.62232 209.27496 395
-183.16216 87.29240 216.10840 438
86.27725 25.38253 175.33000 458
84.15483 25.86908 177.41147 456
81.77690 26.39325 179.52434 308
67.36236 29.55287 179.05309 430
64.70423 30.14809 181.39693 428
61.93729 30.73801 183.85617 426
59.07853 31.37075 186.39111 423
56.20987 31.99647 188.94008 421
53.21560 32.67090 191.60249 419
50.10902 33.32347 194.29858 416
46.91977 34.03745 197.12465 414
43.68294 34.76936 200.02986 411
40.11900 35.54272 203.00911 401
36.43243 36.34401 206.08272 399
32.62712 37.16510 209.28073 396
-183.23683 84.56284 216.16251 438
86.32891 24.40315 175.37866 458
84.22283 24.87760 177.49106 456
81.61538 25.43550 179.51031 308
67.43215 28.46157 179.10693 451
64.98022 28.95704 181.50775 449
62.34019 29.53981 183.99362 426
59.53262 30.12978 186.45923 424
56.60466 30.76000 189.02968 422
53.65533 31.38230 191.68607 419
50.59153 32.05393 194.40683 417
47.46681 32.70057 197.19824 414
44.17118 33.38319 200.07732 412
40.76389 34.13422 203.08302 402
37.09930 34.88995 206.16618 399
33.30863 35.70502 209.35297 397
-183.34338 81.94186 216.12869 439
86.40901 23.46178 175.42018 458
84.25921 23.89057 177.50485 456
81.46889 24.46635 179.52753 308
67.51379 27.37203 179.13789 452
65.05928 27.87891 181.57780 449
62.49287 28.37844 184.03198 447
59.93510 28.91776 186.58859 445
57.09097 29.52370 189.13419 422
54.13480 30.10626 191.76332 420
51.06173 30.75080 194.46867 417
47.95579 31.38057 197.27933 415
44.68330 32.09255 200.14044 412
41.37910 32.77375 203.11890 410
37.72612 33.52400 206.16513 400
33.95878 34.27143 209.36398 397
-183.34251 79.18546 216.09602 424
-189.94980 80.60088 223.21829 322
86.47418 22.48432 175.47592 459
84.31481 22.91319 177.56677 457
81.35259 23.50833 179.51291 308
67.58612 26.24658 179.20125 452
65.11336 26.78202 181.59154 450
62.59545 27.27429 184.06271 447
59.99064 27.78773 186.59216 445
57.37303 28.31949 189.21959 443
54.57092 28.87054 191.87292 420
51.54415 29.48829 194.56178 418
48.44930 30.08956 197.31450 415
45.20963 30.77259 200.20241 413
41.90170 31.38732 203.16379 410
38.41685 32.10863 206.22343 401
34.64895 32.88008 209.41591 398
-183.31465 76.51409 216.17188 424
-187.18602 77.24763 223.20029 321
86.50542 21.52280 175.50604 459
84.41155 21.95711 177.62691 457
81.18484 22.56428 179.52686 308
67.65740 25.16107 179.26169 452
-91.39183 17.71116 -18.49928 450
62.66130 26.13706 184.11011 448
60.09593 26.66669 186.66650 445
57.45917 27.16820 189.23756 443
54.71416 27.67707 191.89622 440
51.92042 28.24853 194.63649 438
48.94878 28.83353 197.40733 416
45.75851 29.43563 200.25749 414
42.44411 30.05037 203.20540 411
39.06306 30.73341 206.26263 408
35.34052 31.42164 209.44662 399
-183.44736 73.85381 216.14963 424
-184.50885 74.01479 223.14352 321
86.57704 20.57845 175.59312 459
84.43630 20.97571 177.66232 457
81.06683 21.60586 179.51440 308
67.71915 24.07660 179.30051 453
65.25513 24.56117 181.72408 450
62.76352 25.00584 184.18193 448
60.15498 25.51947 186.67458 446
57.52908 26.02434 189.29532 443
54.81293 26.53041 191.92554 441
52.04689 27.06307 194.63344 438
49.17473 27.56402 197.47035 436
46.21774 28.11542 200.32109 414
42.96584 28.71115 203.28403 412
39.56025 29.35458 206.28195 409
36.00211 30.03870 209.45486 399
-182.13696 70.96104 223.02440 360
86.62080 19.58978 175.63101 460
84.53482 19.96930 177.72668 458
80.96886 20.61556 179.51128 308
67.80306 23.00677 179.35176 453
65.34557 23.45207 181.76381 451
62.84223 23.92386 184.20290 448
60.25436 24.36825 186.72401 446
57.63252 24.88321 189.30191 443
54.91311 25.34658 191.96875 441
52.16229 25.84884 194.69243 438
49.31907 26.38352 197.47981 436
46.38163 26.88215 200.32822 433
43.34451 27.44050 203.28673 431
40.11916 28.01512 206.35522 410
36.65668 28.63768 209.48917 400
-181.46829 68.14949 223.08632 360
86.69614 18.64574 175.68942 460
84.58276 19.03020 177.76015 458
80.84552 19.65445 179.53052 308
67.87542 21.93769 179.40355 453
65.39352 22.36893 181.78732 451
62.89067 22.81590 184.25626 449
60.34332 23.26395 186.78677 446
57.71027 23.70187 189.32356 444
55.01553 24.19638 191.99826 441
52.24404 24.65474 194.69777 439
49.39208 25.15504 197.51134 436
46.49252 25.67643 200.34489 434
43.45540 26.18995 203.32527 431
40.34704 26.72062 206.36620 428
37.15746 27.29008 209.49701 425
-180.89716 65.38680 223.00880 361
86.77043 17.69525 175.71288 460
84.66062 18.03195 177.80240 458
80.72127 18.69420 179.53709 308
67.91895 20.85146 179.40393 453
65.49152 21.29379 181.85638 451
62.97620 21.69321 184.29840 449
60.44371 22.10679 186.80460 446
57.78981 22.57064 189.39015 444
55.09831 23.04209 192.00879 442
52.32827 23.50224 194.75018 439
49.52733 23.95588 197.50623 437
46.58638 24.43474 200.40298 434
43.58729 24.94440 203.33466 431
40.48627 25.49013 206.38412 429
37.28370 26.02302 209.50241 426
-180.22989 62.61811 223.01978 361
86.84290 16.74438 175.76025 460
84.72853 17.06572 177.84645 458
80.61196 17.72513 179.55328 308
68.01780 19.76541 179.45030 454
65.57717 20.18532 181.85802 451
63.07024 20.58815 184.32784 449
60.53385 21.00175 186.86284 447
57.90913 21.41096 189.38902 444
55.20872 21.84478 192.06134 442
52.45876 22.31403 194.76965 439
49.62094 22.76086 197.53223 437
46.68351 23.22616 200.43503 434
43.68114 23.70836 203.34796 432
40.64180 24.20691 206.40884 429
37.43784 24.71831 209.51457 426
-179.61456 59.83951 223.02895 361
86.90694 15.79348 175.80740 461
84.78280 16.13525 177.90924 459
80.55276 16.76870 179.55362 308
68.06767 18.69390 179.51613 454
65.64346 19.10180 181.92882 452
63.15794 19.48313 184.34753 449
60.61369 19.87593 186.88461 447
58.00402 20.30193 189.45520 445
55.30383 20.72770 192.09435 442
52.55836 21.14724 194.77419 440
49.74242 21.56676 197.57448 437
46.80006 22.04020 200.45769 434
43.80310 22.49542 203.34799 432
40.74401 22.94893 206.42114 429
37.59258 23.44367 209.51572 427
-179.32614 57.21882 222.96663 383
86.96455 14.84028 175.85957 462
85.02354 14.62340 177.83275 459
80.43459 15.81054 179.54738 308
68.17154 17.66154 179.56322 454
65.72688 18.00465 181.94348 452
63.26803 18.38890 184.39543 450
60.69572 18.76345 186.93134 447
58.10519 19.15602 189.46458 445
55.39919 19.55211 192.09363 442
52.62982 19.98340 194.82832 440
49.82015 20.38524 197.57671 437
46.94547 20.81589 200.42722 435
44.33974 20.68782 203.06677 432
40.92930 21.72155 206.44223 430
37.77713 22.16951 209.54497 427
-179.32831 54.59778 222.99600 383
86.99995 13.89248 175.90985 463
84.93127 14.17280 177.97095 459
80.37186 14.85762 179.54085 308
68.27358 16.59836 179.59808 455
65.83546 16.90945 181.98239 452
63.33301 17.29914 184.42207 450
60.80213 17.62601 186.92760 448
58.17480 18.04115 189.52205 445
55.51918 18.38424 192.16405 443
52.75586 18.77181 194.81754 440
49.92126 19.18130 197.59746 438
47.06477 19.62556 200.46664 435
44.08597 20.05857 203.38358 433
41.06132 20.48135 206.41792 430
37.90811 20.91704 209.56621 427
-179.20845 51.96148 223.01355 383
87.08952 12.92620 175.93716 463
84.98306 13.25377 178.03595 460
80.29771 13.88747 179.52150 308
68.30774 15.52895 179.63498 455
65.92519 15.84972 182.02318 453
63.41021 16.19148 184.44577 450
60.89741 16.54982 186.99762 448
58.26936 16.90303 189.52493 445
55.62770 17.27337 192.16609 443
52.86026 17.62992 194.85661 440
50.02745 18.02927 197.63651 438
47.17828 18.40665 200.47861 436
44.21831 18.81796 203.41568 433
41.20554 19.19699 206.43140 430
38.03001 19.67113 209.57292 427
-179.27490 49.37900 222.91362 383
87.15420 12.00054 175.95485 463
85.07134 12.28526 178.05812 460
80.20633 12.90579 179.53412 308
68.40718 14.46877 179.65558 455
65.97236 14.78674 182.04279 453
63.52489 15.07195 184.50575 451
60.94856 15.42934 186.99422 448
58.39320 15.77862 189.58563 446
55.71061 16.12261 192.19505 443
52.98866 16.45246 194.86847 441
50.18507 16.84545 197.64520 438
47.29200 17.18055 200.50670 436
44.38370 17.58038 203.41161 433
41.30917 17.96078 206.42752 431
38.19946 18.36030 209.56728 428
-179.25609 46.73271 222.98737 383
87.19842 11.05763 175.99829 464
85.14050 11.33410 178.09315 460
80.15004 11.92859 179.53029 308
68.51524 13.38974 179.70111 455
66.09156 13.69746 182.09132 453
63.58757 13.99352 184.51360 451
61.08318 14.32646 187.02888 448
58.45491 14.61821 189.56757 446
55.82540 14.95709 192.19496 444
53.08369 15.32341 194.89215 441
50.29625 15.66413 197.69215 439
47.42384 16.01227 200.50589 436
44.51933 16.35640 203.45557 434
41.45654 16.76454 206.46127 431
38.36058 17.10136 209.56735 428
-179.23097 44.11967 222.94991 383
87.26579 10.13464 176.03407 464
85.22308 10.38423 178.12842 460
80.06194 10.97009 179.52527 308
68.56041 12.32535 179.71062 456
66.17158 12.63218 182.12042 453
63.69268 12.87984 184.57172 451
61.13689 13.20409 187.07439 449
58.57981 13.50703 189.61177 446
55.89611 13.79956 192.26231 444
53.20239 14.15021 194.95049 442
50.41980 14.44846 197.70799 439
47.56979 14.77592 200.54814 436
44.64628 15.12396 203.44357 434
41.59079 15.50269 206.48651 431
38.50854 15.85520 209.55743 428
-179.18987 41.53934 222.93867 383
87.36736 9.19529 176.07610 464
85.28843 9.42337 178.16125 461
80.01156 10.01330 179.55040 308
68.66610 11.28085 179.75131 456
66.24460 11.52684 182.13869 454
63.76228 11.81030 184.58560 451
61.25714 12.07270 187.08551 449
58.67062 12.39991 189.62468 447
56.04797 12.67583 192.25294 444
53.32486 12.95932 194.97316 442
50.55656 13.30981 197.74097 439
47.70491 13.62510 200.56747 437
44.78382 13.91712 203.46951 434
41.77661 14.28592 206.48434 431
38.64682 14.63242 209.57889 429
-179.19600 38.87485 222.95897 383
87.41856 8.25225 176.08913 464
85.36756 8.46636 178.17828 461
79.96480 9.05161 179.55078 308
68.73250 10.20412 179.79436 456
66.34826 10.45485 182.18456 454
63.85632 10.72578 184.63541 451
61.34696 11.01576 187.10132 449
58.75400 11.28930 189.65286 447
56.13703 11.55628 192.30307 445
53.42859 11.85100 194.96190 442
50.66315 12.10668 197.73238 440
47.85159 12.43824 200.59367 437
44.91481 12.69935 203.46977 434
41.89499 13.05474 206.48183 432
38.79068 13.37929 209.56932 429
-179.16574 36.29893 222.96838 384
87.47504 7.32876 176.12297 464
85.43722 7.53267 178.20375 461
79.91209 8.07647 179.54309 308
68.82381 9.14347 179.84682 456
66.44424 9.38862 182.21220 454
63.95627 9.63415 184.64192 452
61.47221 9.87744 187.15700 450
58.89285 10.13515 189.69016 447
56.28317 10.40534 192.30527 445
53.57373 10.69209 195.01918 442
50.83221 10.91918 197.77428 440
47.95578 11.22503 200.56813 437
