# .PCD v.7 - Point Cloud Data file format
VERSION .7
FIELDS x y z rgb
SIZE 4 4 4 4
TYPE F F F U
COUNT 1 1 1 1
WIDTH 1351
HEIGHT 1
VIEWPOINT 6831.118652 -3315.239746 145.744431 -0.784041 -0.122277 -0.069648 0.604547
POINTS 1351
DATA ascii
37.69474 -65.75944 189.86104 389
33.47387 -67.09634 192.69553 376
29.04605 -68.50644 195.64235 373
24.35184 -69.96387 198.71387 370
19.50504 -71.50816 201.90869 368
14.27028 -73.13943 205.24046 337
78.23009 -54.04315 173.89502 427
75.70309 -54.83444 175.97820 425
73.11275 -55.66437 178.11665 423
67.54108 -57.47056 179.68007 304
51.30714 -62.65905 179.20418 398
47.91735 -63.77987 181.69572 395
44.37045 -64.92137 184.30103 393
40.67653 -66.05518 186.97545 390
36.78914 -67.32854 189.72589 377
32.47020 -68.70604 192.53783 375
27.93542 -70.15047 195.45880 372
23.24991 -71.65424 198.57918 369
18.33110 -73.22870 201.74890 367
11.57502 -75.45819 205.04951 320
-25247.27344 -8189.70703 5126.55859 1000
77.95041 -55.09796 173.71620 426
75.39329 -55.92155 175.80135 424
72.77875 -56.80713 177.98679 422
67.82236 -58.45876 179.66664 304
50.63728 -64.04301 178.98985 397
47.17511 -65.19910 181.47043 394
43.62324 -66.39838 184.06874 392
39.91681 -67.59192 186.77310 390
35.80984 -68.91936 189.52417 376
31.44835 -70.40444 192.38306 374
26.89446 -71.85976 195.30881 371
22.12456 -73.45306 198.45499 369
16.26930 -75.34045 201.62123 337
8.52390 -77.84789 204.88741 319
77.68865 -56.19434 173.58055 426
75.09652 -57.07035 175.66331 424
72.47927 -57.93769 177.82579 421
68.07759 -59.42235 179.66681 304
50.00637 -65.47937 178.76447 396
46.49216 -66.63779 181.32121 394
42.88883 -67.84418 183.90694 391
39.07693 -69.16066 186.60892 378
34.78859 -70.55615 189.32077 375
30.40400 -72.03539 192.20148 373
25.80878 -73.57539 195.19171 370
20.36051 -75.40713 198.24580 338
13.69631 -77.60168 201.38284 320
5.40978 -80.42122 204.70905 318
77.39125 -57.29969 173.39804 425
74.82824 -58.20979 175.49040 423
72.15469 -59.07244 177.68588 421
68.37709 -60.40741 179.64758 304
49.30053 -66.89895 178.57149 395
45.78176 -68.14198 181.07370 393
42.11256 -69.33451 183.72400 390
38.13187 -70.71465 186.41217 377
33.80439 -72.19380 189.14345 375
29.32966 -73.75053 192.01440 372
24.29287 -75.46739 195.01286 340
18.21641 -77.50475 198.04970 337
10.77155 -80.06388 201.19702 319
2.19930 -83.01314 204.50151 316
77.08938 -58.44139 173.24287 424
74.52618 -59.32082 175.33684 422
71.66099 -60.34198 177.46025 392
68.64710 -61.36621 179.62936 404
48.64009 -68.34136 178.33025 394
45.08200 -69.58598 180.86609 392
41.33725 -70.86754 183.50941 379
37.16212 -72.34238 186.18733 376
32.81261 -73.85622 188.95169 374
28.16080 -75.49088 191.82913 341
22.27989 -77.56173 194.74580 339
15.87402 -79.78709 197.80544 320
7.71787 -82.61325 200.96944 318
-1.09267 -85.71313 204.30742 315
76.84693 -59.56190 173.07721 424
74.11295 -60.53025 175.18983 393
71.01460 -61.59988 177.22304 391
68.04548 -62.68834 179.45259 403
47.93281 -69.83785 178.11086 393
44.30487 -71.10652 180.65805 391
40.41553 -72.51235 183.30542 378
36.20940 -74.00394 185.97823 375
31.80415 -75.58920 188.79276 373
26.21697 -77.52592 191.59158 340
20.21366 -79.66188 194.49588 338
12.96848 -82.26845 197.51129 319
4.58520 -85.27863 200.71524 317
-4.56322 -88.48547 204.11981 314
76.56540 -60.69372 172.89931 423
73.49538 -61.79721 174.91420 393
70.33255 -62.90644 177.01701 390
67.40629 -64.01805 179.22267 402
56.08922 -68.11017 179.75471 300
43.57878 -72.63042 180.44431 390
39.52511 -74.09284 183.06229 377
35.23922 -75.68468 185.75877 374
30.07432 -77.52611 188.47002 341
24.28454 -79.62602 191.30447 339
18.04011 -81.86320 194.23611 321
10.00950 -84.80758 197.19135 318
1.31228 -87.98508 200.44983 316
-15.70126 -94.14143 203.57318 260
75.95634 -61.93352 172.66438 394
72.86796 -63.05101 174.68329 392
69.71379 -64.22372 176.75214 389
66.78020 -65.31923 178.97226 401
56.43583 -69.12696 179.74724 300
42.72392 -74.18820 180.23318 378
38.54384 -75.72654 182.81097 376
33.82035 -77.51781 185.45628 343
28.17618 -79.59212 188.16499 340
22.23878 -81.76564 190.97014 338
15.19177 -84.37953 193.86238 320
6.87557 -87.45013 196.93175 317
-2.59772 -90.95526 200.12088 289
75.36874 -63.17542 172.42029 393
72.23502 -64.37189 174.44144 391
69.03799 -65.57008 176.49283 388
66.09680 -66.65794 178.74670 400
56.78738 -70.21689 179.77161 300
41.85384 -75.81953 179.98711 377
37.44311 -77.45463 182.58798 344
31.98383 -79.53690 185.10530 342
26.20462 -81.66312 187.80995 339
20.13675 -83.99760 190.69466 337
12.25463 -86.91978 193.51717 318
3.67037 -90.18159 196.60353 316
-13.98238 -96.81388 199.30800 270
74.74731 -64.47385 172.12999 392
71.60553 -65.66756 174.15089 390
68.36570 -66.90681 176.26184 388
65.44688 -68.03625 178.56023 399
57.15499 -71.26209 179.77081 300
40.94754 -77.47075 179.73106 377
35.67761 -79.46710 182.21538 343
30.11572 -81.63014 184.74353 340
24.21568 -83.84769 187.48817 338
17.46650 -86.44375 190.31064 320
9.23997 -89.62830 193.16092 317
-1.50032 -93.72115 196.11627 289
74.13287 -65.76482 171.86092 391
70.98856 -67.00781 173.92534 389
67.70625 -68.29547 175.99353 387
64.79856 -69.42862 178.30237 398
57.48276 -72.25988 179.77321 300
39.29186 -79.39120 179.30540 344
33.92226 -81.49402 181.78429 342
28.17377 -83.69904 184.40283 339
22.20796 -86.07277 187.14615 337
14.52900 -89.01820 189.86993 319
5.95927 -92.41435 192.75398 290
-13.12327 -99.90725 195.07320 270
74.29978 -66.76473 171.80199 316
70.33925 -68.34016 173.63713 388
67.00549 -69.66664 175.73882 386
64.15269 -70.84592 178.09021 397
57.85118 -73.32586 179.74930 300
37.60385 -81.39876 178.92413 343
32.03934 -83.59723 181.36922 341
26.25801 -85.93838 184.03555 338
19.67635 -88.48191 186.72433 320
11.58484 -91.75050 189.47183 318
-0.39709 -96.49252 192.08360 289
74.66452 -67.70678 171.80568 316
69.69447 -69.71440 173.35800 387
66.33542 -71.05863 175.50072 385
63.46581 -72.25603 177.81888 396
58.23984 -74.37084 179.73418 300
35.85328 -83.43502 178.46248 342
30.18236 -85.73214 180.96796 340
24.20738 -88.15620 183.63118 337
16.85900 -91.13811 186.27264 319
7.06199 -95.07851 188.84146 290
-12.15569 -102.90115 190.79935 270
74.99767 -68.63799 171.79741 316
69.01962 -71.10212 173.08891 386
65.63865 -72.52853 175.23999 384
62.79316 -73.69057 177.55791 395
58.63726 -75.39632 179.74146 300
34.03685 -85.49354 178.07140 341
28.27415 -87.90386 180.55727 338
21.95685 -90.50330 183.18922 320
13.91006 -93.80568 185.74431 318
0.85536 -99.19533 188.02992 289
75.33377 -69.57489 171.79932 316
68.36577 -72.50063 172.78880 385
64.90860 -73.94868 174.96568 383
62.11113 -75.11584 177.33365 394
58.98842 -76.42772 179.73631 300
32.22989 -87.68256 177.60207 340
26.31352 -90.14442 180.10907 337
19.19436 -93.12486 182.68358 319
8.32053 -97.68655 184.87703 290
75.68211 -70.48831 171.78754 316
67.67938 -73.94447 172.53369 384
64.24172 -75.38159 174.70082 395
61.41122 -76.60609 177.08987 393
58.48993 -77.85328 179.55885 391
44.22343 -83.94916 179.86421 296
24.18787 -92.46574 179.64201 321
15.42184 -96.19862 181.96130 291
2.09454 -101.89559 183.91869 288
76.05416 -71.43929 171.81158 316
66.97917 -75.35432 172.24713 383
63.55850 -76.85815 174.39697 394
60.70327 -78.09023 176.82393 392
57.75760 -79.37393 179.26741 390
44.67880 -85.06846 179.86256 296
21.49990 -95.12479 179.07352 319
9.62344 -100.25996 180.98495 290
-27.17457 -116.22585 179.73938 337
76.43037 -72.32863 171.81487 316
66.31062 -76.81835 171.93318 382
62.92601 -78.31718 174.11110 393
59.99373 -79.62173 176.56949 391
57.03340 -80.91341 179.06601 389
45.13123 -86.16364 179.87642 296
16.71581 -98.68559 178.17451 291
3.42122 -104.58566 179.85559 288
-22.41961 -115.99225 180.30988 338
76.82677 -73.27318 171.79390 316
66.55766 -77.87090 171.90788 312
62.21158 -79.79921 173.86011 392
59.28554 -81.13179 176.27528 390
55.80632 -82.69779 178.65392 333
45.54083 -87.28555 179.83736 296
10.94596 -102.78297 176.98819 290
-17.86287 -115.74149 176.34087 339
-20.96863 -117.14461 180.42061 284
77.17516 -74.17880 171.81572 316
66.92392 -78.83706 171.85866 312
61.51218 -81.32851 173.56134 391
58.49414 -82.71988 176.00543 334
53.78437 -84.88354 178.12442 332
46.00353 -88.41395 179.84750 296
4.80849 -107.21271 175.84267 288
-13.40294 -115.53246 176.99367 341
-20.34885 -118.68301 180.41306 284
77.54781 -75.11567 171.77243 316
67.33829 -79.85283 171.86369 312
60.82480 -82.85749 173.26024 390
56.61259 -84.82403 175.43410 333
51.72075 -87.07382 177.57895 331
46.47036 -89.54388 179.86539 296
28.65596 -97.80105 180.00949 292
-2.48083 -112.25494 178.60197 284
-19.68525 -120.21906 180.41913 284
77.94591 -76.03926 171.76747 316
67.74650 -80.80746 171.85788 312
59.33246 -84.78093 172.79048 334
54.62193 -87.04755 174.87843 332
49.61269 -89.35726 177.02299 330
44.57118 -91.73823 179.35548 329
29.16764 -99.02680 179.98135 292
7.61389 -109.18298 180.15132 288
78.34566 -76.94739 171.80341 316
68.19036 -81.77889 171.85855 312
57.40625 -86.97723 172.15765 333
52.53925 -89.27637 174.25002 331
47.43518 -91.72784 176.44467 330
42.26178 -94.18147 178.82117 328
29.67237 -100.20643 179.96840 292
8.19014 -110.51182 180.17659 288
78.74720 -77.85080 171.79283 316
68.63016 -82.78127 171.88037 312
57.08701 -88.37535 171.94376 308
50.44579 -91.58092 173.64615 329
45.25410 -94.11851 175.83328 328
39.89201 -96.70829 178.25098 326
30.24289 -101.47101 180.01071 292
8.80244 -111.84053 180.13475 288
79.18146 -78.76421 171.77582 316
69.04495 -83.75975 171.84184 312
57.59013 -89.41050 171.95851 308
48.32826 -93.99776 173.00096 328
42.96320 -96.66299 175.23157 327
37.48114 -99.37667 177.62878 325
29.04231 -103.55405 179.68527 279
9.39772 -113.22393 180.12979 288
79.57321 -79.63526 171.78912 316
69.52170 -84.69317 171.87708 312
58.06692 -90.45290 171.94041 308
46.09124 -96.46317 172.35172 327
40.56845 -99.18884 174.61604 326
34.87215 -102.06339 177.01271 278
20.37909 -109.36514 177.98862 278
80.00474 -80.55553 171.75714 316
69.97251 -85.67470 171.83360 312
58.52093 -91.47262 171.95001 308
45.44086 -98.17641 172.07803 304
38.12498 -101.87461 173.93611 325
26.36395 -107.89459 175.12549 276
10.90467 -115.74657 176.09338 277
80.43742 -81.47771 171.78305 316
70.39609 -86.62401 171.86052 312
59.01182 -92.50040 171.96605 308
45.98527 -99.25890 172.06522 304
32.94706 -105.99429 172.65663 277
16.95014 -114.24818 173.08966 275
-55.70234 -151.87837 163.71034 367
80.86796 -82.37998 171.76410 316
70.89163 -87.59696 171.86259 312
59.51233 -93.54365 171.97183 308
46.53181 -100.37672 172.02644 304
31.45746 -108.28027 172.16010 300
13.76584 -117.57822 172.36282 296
-51.71995 -151.95399 164.29547 369
-46903.12500 -24750.66211 9975.68164 1000
81.28989 -83.25530 171.77649 316
71.33646 -88.53218 171.85524 312
59.99955 -94.55913 171.94002 308
47.07891 -101.49980 172.03719 304
32.02286 -109.47221 172.17699 300
14.37000 -118.85566 172.33031 296
-47.74924 -152.02986 164.85234 370
81.74741 -84.11875 171.75877 316
71.79379 -89.47920 171.86287 312
60.51306 -95.57163 171.92595 308
47.60890 -102.61115 172.03830 304
32.61019 -110.70247 172.15915 300
15.06401 -120.18204 172.31316 296
-44.96382 -152.64839 165.25044 286
82.15939 -85.03583 171.77277 316
72.27016 -90.43652 171.83675 312
61.05907 -96.65091 171.90263 308
48.17081 -103.72176 172.06445 304
33.18768 -111.90894 172.16722 300
15.69758 -121.50297 172.33284 296
-172.45554 -94.63255 -32.21056 286
82.61240 -85.91769 171.74530 316
72.77141 -91.40209 171.83426 312
61.57710 -97.64469 171.90425 308
48.71502 -104.78821 172.01471 304
33.83616 -113.06509 172.18668 300
16.39905 -122.80333 172.30226 296
-43.18956 -155.95135 165.21523 286
83.08689 -86.80001 171.73189 316
73.23019 -92.35911 171.80367 312
62.09846 -98.63108 171.92686 308
49.26757 -105.86982 172.03925 304
34.44128 -114.29728 172.13870 300
17.05558 -124.09337 172.28836 296
-42.29682 -157.64012 165.26106 286
83.54124 -87.69222 171.72739 316
73.76621 -93.29887 171.84517 312
62.62839 -99.67838 171.92354 308
49.86758 -106.98220 172.02066 304
35.05119 -115.43932 172.15976 300
-27.88540 -151.56488 162.81448 367
-41.42043 -159.27536 165.17288 286
83.99652 -88.56593 171.72430 316
74.24726 -94.22659 171.83105 312
63.17841 -100.67973 171.92250 308
50.47224 -108.05512 172.02202 304
35.70430 -116.65763 172.16690 300
-24.17458 -151.43237 163.40970 368
84.48323 -89.43501 171.71291 316
74.77007 -95.17776 171.81081 312
63.73051 -101.70581 171.93437 308
51.02727 -109.18166 172.03632 304
36.35397 -117.84317 172.13719 300
-20.63068 -151.39862 163.94301 369
85.00016 -90.27993 171.71837 316
75.27038 -96.09933 171.81572 312
64.27034 -102.69082 171.91808 308
51.60469 -110.24216 172.02783 304
36.99131 -118.97042 172.15381 300
-17.00239 -151.27188 164.54257 371
85.45840 -91.16856 171.72255 316
75.78499 -97.00139 171.82048 312
64.80238 -103.68851 171.87912 308
52.21667 -111.30930 172.00360 304
37.62107 -120.14317 172.14873 300
-13.55196 -151.22061 165.07057 372
85.93641 -92.02072 171.70595 316
76.34080 -97.94077 171.78186 312
65.38117 -104.67202 171.87723 308
52.82174 -112.38211 171.99402 304
38.31726 -121.30459 172.11737 300
-10.22241 -151.12401 165.63400 373
86.46365 -92.90797 171.70897 316
76.85697 -98.85011 171.80235 312
65.94376 -105.67992 171.86516 308
53.43812 -113.44004 171.99504 304
38.98214 -122.50276 172.12805 300
-8.79299 -152.29535 165.73892 291
86.94882 -93.73766 171.70366 316
77.39296 -99.79818 171.77480 312
66.52827 -106.64004 171.89044 308
54.09894 -114.54616 171.99590 304
39.65662 -123.65332 172.09862 300
-7.84385 -153.67575 165.75244 291
87.47649 -94.59629 171.69740 316
77.94817 -100.70797 171.77248 312
67.13053 -107.64375 171.89250 308
54.70850 -115.60146 171.97189 304
1.38293 -149.70006 163.01501 285
-6.93717 -155.09584 165.71472 291
87.98088 -95.44374 171.70207 316
78.47467 -101.61404 171.81357 312
67.69333 -108.60341 171.87555 308
55.36600 -116.64893 171.95595 304
2.69545 -150.86617 163.10138 378
-6.05040 -156.48457 165.76857 291
88.50107 -96.31758 171.72578 316
79.01824 -102.53634 171.76357 312
68.30131 -109.58939 171.88580 308
55.97445 -117.70254 171.95522 304
5.71112 -150.78906 163.61447 379
-5.12768 -157.89783 165.74857 290
88.99517 -97.16245 171.72102 316
79.60882 -103.42858 171.78214 312
68.91138 -110.59093 171.88809 308
56.60716 -118.75860 171.98242 304
8.75686 -150.70174 164.09755 381
-4.22550 -159.34824 165.76575 290
89.51547 -97.98285 171.71193 316
80.13828 -104.33316 171.79701 312
69.49713 -111.52518 171.88168 308
57.27074 -119.78032 171.99504 304
11.67719 -150.60777 164.61549 382
90.04743 -98.86102 171.69379 316
80.70678 -105.24199 171.77771 312
70.09456 -112.47662 171.86086 308
57.97123 -120.84675 171.97635 304
14.55118 -150.57719 165.07779 383
90.60509 -99.70286 171.68498 316
81.29929 -106.13484 171.78714 312
70.71668 -113.46185 171.88272 308
58.62913 -121.90208 171.97603 304
17.43252 -150.46002 165.54541 385
91.13027 -100.51214 171.69147 316
81.87395 -107.03165 171.75826 312
71.34638 -114.42469 171.85490 308
59.31236 -122.91907 171.96739 304
20.17216 -150.42804 165.98193 386
91.70398 -101.35381 171.67494 316
82.46021 -107.90310 171.77318 312
71.98615 -115.36543 171.83214 308
27.09543 -147.34901 163.28868 296
21.53587 -151.29883 166.12949 296
92.24113 -102.17391 171.65871 316
83.07950 -108.79041 171.74635 312
72.64118 -116.31416 171.82043 308
27.71611 -148.69858 163.20602 296
22.42261 -152.57249 166.10001 296
92.79843 -102.97980 171.65071 316
83.65369 -109.65888 171.72777 312
73.27081 -117.27036 171.84241 308
28.42573 -150.02757 163.19289 296
23.29270 -153.82971 166.13138 296
-21996.20703 -16255.57324 1600.82422 1000
93.38274 -103.81662 171.67769 316
84.25777 -110.58383 171.75000 312
73.92483 -118.22714 171.83157 308
30.97640 -150.01955 163.62093 387
24.15449 -155.08292 166.09018 297
93.91328 -104.61589 171.64471 316
84.85865 -111.45048 171.72484 312
74.57414 -119.15080 171.83505 308
33.57744 -149.89044 164.12810 389
25.09099 -156.27457 166.13060 297
94.52319 -105.45502 171.66093 316
85.48618 -112.29295 171.71727 312
75.24482 -120.09445 171.82361 308
36.11690 -149.80070 164.54332 390
26.01461 -157.51181 166.13701 297
95.09978 -106.23307 171.63568 316
86.10095 -113.18369 171.72681 312
75.87159 -121.02454 171.79189 308
38.59386 -149.70578 165.00726 391
26.92503 -158.74889 166.10423 297
95.66563 -107.03728 171.66614 316
86.72144 -114.03197 171.73621 312
76.57751 -121.96686 171.82007 308
41.03630 -149.64751 165.38885 392
96.26299 -107.86226 171.63100 316
87.37562 -114.89447 171.69781 312
48.86684 -145.25966 163.42961 300
43.44374 -149.52611 165.82996 394
96.85988 -108.64985 171.64799 316
87.99430 -115.74313 171.70784 312
49.56722 -146.45146 163.36064 300
45.78329 -149.49046 166.25591 301
97.43137 -109.43890 171.62810 316
88.63828 -116.58290 171.73080 312
50.29973 -147.63705 163.32330 300
46.66331 -150.59599 166.22119 301
98.07452 -110.22975 171.62199 316
89.28478 -117.41963 171.70451 312
51.02567 -148.80151 163.29498 300
47.53680 -151.68509 166.26242 301
98.65791 -111.01276 171.60400 316
89.91882 -118.28125 171.71936 312
52.73306 -149.18806 163.57170 398
48.43335 -152.77077 166.20778 301
99.28754 -111.82281 171.63690 316
90.57134 -119.11951 171.71452 312
54.91381 -149.10091 163.93518 399
49.30476 -153.81061 166.23274 301
-18033.18164 -15362.87598 6220.21289 1000
99.91326 -112.60246 171.60013 316
91.23536 -119.93298 171.69183 312
57.09137 -149.04662 164.34175 400
50.20625 -154.92090 166.21191 301
100.53136 -113.37511 171.60440 316
91.93212 -120.80811 171.65887 312
59.22578 -148.94212 164.74846 401
51.13251 -155.95496 166.22452 301
101.14314 -114.16245 171.61082 316
68.07856 -143.00134 163.58101 304
61.32582 -148.89503 165.15570 403
52.03665 -157.05341 166.25119 301
101.75932 -114.91344 171.57356 315
68.75813 -144.05331 163.53279 304
63.46873 -148.76733 165.53450 404
52.95148 -158.10799 166.21448 301
102.43281 -115.68934 171.61169 315
69.49194 -145.09259 163.49142 304
65.47927 -148.72067 165.90372 405
103.04634 -116.43185 171.59735 315
70.26668 -146.18370 163.43541 304
67.48911 -148.65121 166.24452 406
103.73000 -117.17519 171.58714 315
71.00578 -147.20895 163.38948 303
68.62440 -149.33592 166.33624 305
104.35713 -117.96026 171.57520 315
71.70995 -148.26540 163.37654 303
69.50661 -150.31116 166.35051 305
105.01955 -118.67918 171.56396 315
73.41572 -148.40240 163.68095 409
70.37321 -151.25972 166.33861 305
105.68546 -119.45199 171.57297 315
75.30019 -148.36615 164.04492 410
71.27148 -152.15956 166.31380 305
85.13303 -140.62477 163.71446 307
77.19560 -148.24385 164.35144 411
72.18892 -153.12355 166.36938 305
85.85155 -141.55534 163.68787 307
79.03523 -148.21375 164.73001 412
73.06530 -154.01973 166.32225 305
86.59163 -142.45724 163.61168 307
80.90510 -148.16112 165.07948 413
74.00652 -154.93114 166.32706 305
87.34319 -143.39743 163.60283 307
82.68694 -148.04594 165.40634 414
74.93185 -155.85307 166.34326 305
88.09097 -144.32278 163.57971 307
84.46719 -147.98349 165.74574 416
75.82034 -156.74643 166.34215 305
88.87132 -145.24081 163.51942 307
86.21825 -147.91783 166.03381 417
89.57300 -146.17810 163.52171 307
87.98532 -147.85728 166.36377 418
90.36676 -147.07100 163.45789 307
88.97300 -148.52501 166.43416 309
91.37061 -147.76758 163.53754 419
89.84782 -149.31674 166.40756 309
93.02870 -147.66876 163.84796 420
90.73820 -150.14479 166.42615 309
94.70027 -147.61694 164.18263 421
91.63938 -150.93854 166.42966 309
96.28209 -147.56995 164.46718 422
92.52431 -151.72346 166.44276 309
97.99253 -147.38225 164.81834 413
93.41991 -152.53770 166.44151 309
99.66019 -147.24757 165.13420 414
94.30840 -153.30365 166.42889 309
101.32520 -147.08430 165.48306 415
95.21713 -154.09326 166.43661 309
102.99001 -146.88678 165.76695 416
96.14902 -154.87358 166.47562 309
104.61752 -146.76086 166.10545 417
97.03812 -155.67101 166.47353 310
106.19201 -146.56076 166.40475 418
97.93143 -156.43275 166.45671 310
107.15963 -147.18729 166.45367 314
108.00414 -147.88390 166.45970 314
108.89273 -148.62247 166.47421 314
109.73328 -149.30621 166.45560 314
110.60307 -150.00572 166.48511 314
111.45976 -150.70233 166.48233 314
112.34531 -151.36693 166.49020 314
115.51753 -149.05876 167.46440 316
116.34189 -149.74046 167.46999 316
117.23461 -150.45122 167.44673 316
118.10843 -151.07617 167.43318 316
120.56718 -149.49992 168.19772 490
124.70451 -149.22469 168.87868 490
127.60849 -148.68491 169.45464 487
-24121.57031 -39625.43750 5598.08496 1000
-16996.16797 -39688.83203 -8365.95996 1000
-598.55829 -2072.36304 -75.55901 373
-576.81116 -2053.68799 -109.50486 355
-580.15845 -2063.07275 -73.87808 384
-557.10999 -2041.64966 -106.77840 410
-564.22968 -2060.29932 -72.66459 385
-559.80945 -2085.51929 -150.09616 375
-539.39850 -2031.72302 -104.28937 411
-549.30145 -2057.86133 -71.85563 379
-540.03772 -2072.40649 -146.76590 377
-522.26166 -2024.37048 -102.15600 440
-534.22510 -2057.30566 -71.33862 424
-518.76361 -2053.30347 -142.78975 432
-506.75098 -2020.07703 -100.77811 450
-549.56378 -2137.66431 -81.61176 469
-502.48654 -2046.70581 -140.98351 433
-491.34024 -2015.66797 -99.46487 451
-538.08319 -2148.85425 -82.55573 373
-485.76230 -2040.87720 -139.02502 434
-475.93259 -2011.13818 -98.37364 452
-528.09131 -2161.23315 -83.68856 358
-469.02905 -2032.69568 -136.86026 290
-460.81155 -2008.62878 -97.42624 449
-518.27747 -2175.94580 -85.27508 322
-450.73499 -2019.45764 -133.92421 302
-446.42111 -2006.85083 -96.49715 449
-506.39731 -2186.09814 -85.62791 385
-433.18848 -2008.16943 -131.59273 305
-432.49561 -2005.06506 -95.67685 450
-418.09464 -2002.20605 -129.44142 403
-418.15866 -2003.56030 -94.84419 449
-402.56516 -1997.65759 -128.20840 403
-404.31631 -2002.45020 -93.96702 450
-387.94962 -1993.75964 -126.88025 410
-390.38693 -2001.09424 -93.18635 456
-373.92978 -1990.59021 -125.32695 411
-376.97021 -2001.63440 -92.55390 393
-359.62976 -1988.12915 -124.63982 475
-363.71622 -2001.88940 -92.09685 394
-345.96692 -1985.88123 -123.75054 476
-350.86627 -2002.72253 -91.58975 393
-332.52646 -1984.20740 -122.91737 476
-337.76572 -2003.41760 -91.09437 394
-318.53256 -1982.81824 -121.68192 477
-324.65637 -2004.05383 -90.57771 394
-305.67126 -1981.43005 -120.90856 484
-311.53961 -2004.92822 -90.52027 401
-328.04025 -2065.33911 -63.81816 494
-292.32657 -1981.24878 -120.57560 484
-300.03159 -2011.42188 -90.89919 307
-314.14096 -2065.98242 -63.88496 494
-5476.02246 -21848.65820 -1627.16113 1000
-279.11917 -1980.06921 -120.11902 485
-300.40546 -2064.20483 -98.47056 494
-301.17044 -2066.59058 -63.63753 494
-265.98636 -1979.61658 -119.32503 485
-286.98444 -2064.79346 -97.88277 494
-298.06082 -2109.62329 -68.85531 294
-253.15259 -1979.42639 -119.06717 492
-274.60458 -2068.43799 -97.95925 297
-283.30893 -2103.99756 -67.50356 294
-240.57106 -1980.10303 -118.25692 492
-277.52182 -2138.52441 -108.45607 295
-285.27194 -2172.13672 -76.13870 284
-227.90535 -1980.31689 -117.82890 493
-282.52194 -2219.37402 -119.99296 472
-214.92299 -1980.55310 -117.50458 493
-268.58231 -2221.77319 -119.83933 471
-202.26363 -1980.99548 -117.29905 495
-221.68829 -2071.94507 -96.88854 496
-190.02879 -1981.88977 -116.80588 495
-208.58089 -2073.02661 -96.64309 496
-177.38348 -1982.35071 -116.55779 495
-194.30232 -2068.53760 -95.69326 496
-164.84506 -1983.09937 -116.07401 496
-181.29367 -2068.76807 -95.14017 496
-181.78703 -2071.81860 -60.63918 497
-193.34863 -2128.47119 39.47247 399
-152.21169 -1983.93188 -115.84704 496
-174.33220 -2099.47876 -99.63671 283
-173.27817 -2095.13184 -63.51868 283
-180.05945 -2132.59692 -32.30949 344
-177.49052 -2118.71948 40.18333 479
-139.47093 -1984.63904 -115.68421 496
-169.69951 -2148.27612 -106.75439 497
-168.08679 -2140.03979 3.03130 400
-164.13152 -2119.39575 40.25995 496
-127.35312 -1985.67505 -115.53915 496
-171.18192 -2232.15625 -118.65316 387
-156.54736 -2150.63232 -33.95619 497
-152.08022 -2128.10229 40.05454 446
-114.96862 -1986.26587 -115.41543 496
-156.99542 -2233.48560 -118.79379 387
-138.62163 -2127.36597 4.58480 395
-102.69076 -1986.99133 -114.95683 497
-143.28203 -2234.62524 -118.59319 387
-132.64241 -2171.04956 108.92982 498
-89.72971 -1987.69446 -114.77671 497
-129.10268 -2235.44824 -118.69361 387
-77.33967 -1988.41272 -114.52528 497
-85.41904 -2040.62061 -88.77952 498
-65.42367 -1988.73328 -114.78888 497
-72.97433 -2041.49707 -88.77803 498
-73.32732 -2044.23914 -55.07468 498
-52.57140 -1989.51660 -114.62664 497
-60.36798 -2042.07068 -88.83685 498
-60.20809 -2044.52405 -54.71918 498
-40.34286 -1989.96008 -114.21677 497
-55.46100 -2102.81470 -97.50064 268
-62.48502 -2155.31738 -68.80687 270
-28.05080 -1990.76599 -114.29467 497
-59.70419 -2240.10913 -117.51406 387
-18.82062 -2018.09204 -152.50691 453
-15.82647 -1991.53320 -113.87829 498
-42.30757 -2211.34302 -113.30903 392
-6.65641 -2018.33984 -152.22847 453
-3.56362 -1991.93408 -113.67649 498
-31.97473 -2242.39746 -117.42790 387
6.08912 -2019.01379 -152.30031 453
9.01388 -1993.16052 -113.53931 498
-18.17568 -2242.76270 -117.70466 387
18.56322 -2019.82910 -151.95627 453
21.25329 -1993.31543 -113.78465 498
-4.50927 -2244.03174 -117.59643 387
31.06593 -2020.51929 -152.23047 453
33.20888 -1994.20959 -113.86278 498
15.36582 -2182.94946 -108.43994 269
12.05752 -2218.36499 -76.29317 499
12.90946 -2208.91748 -38.07454 499
24.73116 -2088.25977 44.68429 375
22.62335 -2106.67944 78.42475 365
43.60717 -2018.96021 -151.74898 322
45.47473 -1995.03040 -113.49634 498
-163.19894 -1832.63306 -272.55862 387
56.16236 -2019.91467 -151.64742 322
58.00384 -1995.35742 -113.46873 498
37.39318 -2246.29663 -117.41407 387
68.46804 -2020.20984 -151.27696 322
70.28102 -1995.93738 -113.33588 498
51.31657 -2247.31470 -116.91592 387
81.03335 -2020.50330 -151.41943 322
82.43005 -1996.50464 -113.36030 498
65.16199 -2248.12988 -117.47959 387
93.66248 -2021.21008 -151.28656 322
94.99433 -1997.19543 -113.24465 498
78.46605 -2248.72900 -117.15039 387
105.95776 -2021.94812 -151.52563 322
106.94540 -1997.86450 -113.35103 498
92.70626 -2249.31421 -117.13486 387
118.31722 -2022.72144 -151.21732 322
119.48330 -1998.39050 -113.37749 498
106.17494 -2250.30151 -117.44877 387
130.44069 -2023.22058 -151.48602 322
131.63234 -1999.41943 -113.40559 498
120.02636 -2250.86597 -117.27300 387
142.84422 -2023.97278 -151.71651 322
143.93509 -2000.05579 -113.34412 498
134.17738 -2251.59229 -117.08923 387
155.55746 -2024.69165 -151.67809 322
156.37419 -2000.36182 -113.54901 498
147.72134 -2251.85498 -117.34128 387
167.90170 -2025.50793 -151.53918 322
168.30699 -2001.29419 -113.40691 498
161.81720 -2252.40625 -117.28835 387
180.31787 -2027.94568 -152.19791 453
180.89551 -2002.03821 -113.31966 498
175.97127 -2253.08887 -117.18933 387
192.60376 -2028.22168 -152.20705 453
193.25305 -2002.56506 -113.82944 498
189.49008 -2254.04810 -117.72263 387
205.27446 -2029.38831 -152.34944 453
205.49594 -2002.74854 -113.70638 498
204.45973 -2147.93286 -101.88014 383
204.32024 -2150.14966 -66.34276 383
217.97839 -2003.81506 -113.85483 498
217.12399 -2254.55884 -117.76470 387
230.01372 -2004.31689 -113.75037 498
230.92783 -2255.37427 -117.35207 387
242.18777 -2004.81262 -113.96595 498
245.15611 -2257.90356 -118.04073 378
254.71869 -2005.27637 -114.10038 482
258.65091 -2267.59595 -119.72958 324
267.38635 -2009.91492 -114.97798 482
279.73325 -2014.48975 -115.83618 481
292.39267 -2018.59119 -116.47877 481
305.00266 -2023.04321 -117.42313 480
317.38995 -2027.27087 -117.89738 455
330.16992 -2032.00757 -119.09213 454
342.74274 -2035.20471 -119.59901 396
1106.48572 -1246.73779 -63.09108 472
1108.76917 -1250.39758 -37.76785 425
1112.17981 -1254.71057 -12.69266 441
1112.39661 -1238.85254 -62.28514 496
1114.84949 -1242.30859 -37.31320 497
1117.43787 -1245.65637 -12.45211 495
1119.64856 -1248.63086 12.96337 496
1121.29883 -1234.98633 -62.72692 472
1124.51282 -1238.92896 -37.74149 426
1127.78882 -1243.92102 -12.95977 369
7502.37012 -8811.85938 2488.57764 1000
3709.31104 -2808.35327 -228.02473 297
3836.53101 -2910.49829 -166.72447 303
2443.03809 -1937.73682 -308.79373 297
3841.53052 -2877.84668 -166.22778 499
3745.12012 -2766.59448 -227.82332 297
3975.48364 -2946.10254 -177.44646 478
357.74414 -111.92563 167.55943 316
3755.20166 -2738.79468 -153.70682 390
358.45956 -111.00657 167.56296 316
3787.51562 -2728.16504 -154.25883 432
359.13663 -110.09360 167.57985 315
3822.99731 -2721.01562 -157.17432 424
359.88177 -109.19529 167.58572 315
3863.13843 -2716.29834 -159.24281 409
360.59564 -108.31851 167.61598 315
3908.11401 -2713.91797 -162.12453 395
361.26077 -107.41527 167.62274 315
3960.04443 -2716.44727 -166.21841 371
361.96899 -106.48353 167.59380 315
4033.00659 -2733.99438 -171.62190 340
362.63635 -105.58833 167.61087 315
4105.94385 -2749.71338 -177.41093 305
363.34131 -104.65633 167.58470 315
4195.23730 -2776.88354 -185.19374 329
364.02103 -103.73155 167.60693 315
4284.64648 -2801.13428 -191.29091 330
364.70966 -102.81769 167.61263 315
365.37177 -101.86847 167.61743 315
366.05667 -100.95353 167.63400 315
366.91705 -100.21013 167.54744 440
368.29282 -99.71627 167.32898 439
369.70227 -99.23440 167.07036 439
378.58810 -104.88028 167.63731 309
371.08316 -98.75502 166.86238 438
379.24081 -103.86317 167.64330 309
372.47745 -98.26106 166.62538 437
379.89807 -102.84639 167.65192 309
373.91003 -97.76102 166.35513 436
380.56296 -101.78317 167.67990 309
375.34070 -97.27847 166.11501 435
381.18073 -100.75134 167.66586 309
376.83759 -96.76610 165.88312 434
381.82104 -99.72665 167.69136 311
378.27380 -96.27124 165.63205 433
382.45605 -98.69640 167.68167 311
379.76404 -95.77197 165.35263 432
383.11221 -97.68180 167.68329 311
381.25064 -95.20830 165.06647 431
383.71637 -96.64504 167.67932 311
382.75552 -94.69161 164.80550 430
384.34454 -95.60792 167.68875 311
383.71515 -93.84877 164.70546 317
384.97708 -94.57153 167.69810 311
384.32535 -92.85664 164.73518 317
385.83963 -93.67207 167.61533 429
384.99539 -91.79591 164.71660 317
387.42743 -93.12017 167.39511 428
385.57751 -90.75997 164.70300 317
388.96039 -92.55854 167.12712 427
3062.79883 -1504.01562 -49.89755 487
3073.77563 -1509.34290 2.04947 473
386.18811 -89.76258 164.69164 317
390.59946 -92.01462 166.80771 426
400.15634 -97.00672 167.73303 305
386.79416 -88.72557 164.68475 317
392.16949 -91.46500 166.56078 425
400.76443 -95.81239 167.69807 305
387.44162 -87.64731 164.72081 317
393.81973 -90.90860 166.25479 424
401.34427 -94.68008 167.70224 305
388.03125 -86.60225 164.70070 317
395.44543 -90.31668 165.94025 423
401.93802 -93.53705 167.71892 305
388.62967 -85.57830 164.67516 317
397.13382 -89.74663 165.67955 421
402.51270 -92.37934 167.72115 305
389.20355 -84.50969 164.67656 317
398.81738 -89.16354 165.36111 420
403.11877 -91.19986 167.78998 305
389.78461 -83.44868 164.70793 317
400.53976 -88.57275 165.04675 419
403.66644 -90.06306 167.76814 305
367.42215 -71.69432 171.48421 317
401.99933 -87.82216 164.78050 313
404.21616 -88.84198 167.76216 305
367.88760 -70.77493 171.47975 317
402.62616 -86.69597 164.80891 313
404.74170 -87.71623 167.77354 305
368.36673 -69.87708 171.50902 317
403.20251 -85.57108 164.76811 313
405.81244 -86.78358 167.70081 417
368.80557 -68.92715 171.50848 317
403.75580 -84.42073 164.82227 313
407.46393 -86.09561 167.37062 436
369.28278 -67.98843 171.51720 317
404.35556 -83.29270 164.79388 313
409.02853 -85.33512 167.13618 435
369.68872 -67.04453 171.52466 317
404.89169 -82.13332 164.78975 313
410.57376 -84.56097 166.87206 434
370.13589 -66.10257 171.49722 317
405.45514 -81.01408 164.78624 313
412.16479 -83.83252 166.65387 433
370.59271 -65.13079 171.53696 317
405.98010 -79.82632 164.78438 313
413.75031 -83.03616 166.37682 432
423.41168 -87.01456 167.75671 301
371.04178 -64.20272 171.52223 317
406.52786 -78.69650 164.76224 313
415.32758 -82.28253 166.10280 431
423.94528 -85.76498 167.76566 301
371.44507 -63.22087 171.51181 317
407.06784 -77.50251 164.77126 313
416.94644 -81.43462 165.82959 430
424.48898 -84.45194 167.81177 301
371.86795 -62.27873 171.54211 317
407.62781 -76.33379 164.81419 312
418.57581 -80.64256 165.59525 429
424.96005 -83.18997 167.79602 301
372.28430 -61.32510 171.53410 317
408.11108 -75.21078 164.79927 312
420.23993 -79.85844 165.29294 428
425.50171 -81.88008 167.82379 302
372.71823 -60.41658 171.51802 317
383.14929 -64.32487 171.62949 313
421.90906 -79.04944 164.98317 427
425.99548 -80.61208 167.85020 302
373.13184 -59.42120 171.52179 317
383.57736 -63.33186 171.66208 313
422.98587 -77.96604 164.89709 308
426.49533 -79.26646 167.83127 302
261.85880 -17.69873 203.48914 293
383.98993 -62.28534 171.64540 313
423.51917 -76.71066 164.90428 308
427.02972 -77.97156 167.82761 302
261.98203 -17.41271 203.51025 314
384.41971 -61.29831 171.65681 313
424.05133 -75.46521 164.89519 308
427.45230 -76.66438 167.83253 302
4174.06689 -1418.44092 -62.67708 400
4185.80029 -1421.65039 5.62673 446
262.13730 -17.15105 203.50749 314
384.79553 -60.26889 171.66386 313
424.59808 -74.19108 164.87718 308
428.78674 -75.71954 167.65846 423
4184.89307 -1394.65601 -63.08781 388
262.28735 -16.88442 203.49991 314
385.20444 -59.19669 171.66840 313
425.09888 -72.92110 164.88228 308
430.56891 -74.80685 167.39767 422
262.44589 -16.61216 203.49780 314
385.58466 -58.17763 171.67307 313
425.61819 -71.68002 164.83075 308
432.36710 -73.97892 167.11546 421
262.58936 -16.35156 203.50691 314
385.99725 -57.13702 171.68669 313
426.07086 -70.38281 164.88129 308
434.18277 -73.05757 166.81728 420
262.73737 -16.07959 203.50510 314
386.37109 -56.11628 171.65842 313
426.58438 -69.10462 164.83121 308
436.01218 -72.18571 166.49799 419
262.88956 -15.80686 203.50191 314
386.75912 -55.05577 171.64839 313
427.05081 -67.86922 164.86049 308
437.88055 -71.29120 166.16415 418
263.03693 -15.53547 203.50876 314
387.11990 -54.02623 171.66455 313
427.55069 -66.57665 164.83360 308
439.72153 -70.31831 165.83914 432
449.09927 -73.27940 167.85010 298
5073.84375 -1506.32678 -37.21893 332
263.18106 -15.27045 203.50208 314
387.49634 -53.00758 171.67703 313
399.60419 -56.64822 171.78893 309
440.74939 -69.72144 165.67563 431
449.54343 -71.84959 167.90355 298
5040.82910 -1464.69983 -35.07686 382
263.32004 -14.99312 203.49876 314
387.86197 -51.95242 171.65897 313
399.97583 -55.56842 171.78496 309
443.04303 -68.33167 165.34860 430
449.96603 -70.36314 167.86411 298
5035.84766 -1430.73071 -35.44702 450
263.45569 -14.71816 203.49927 314
388.22293 -50.92073 171.68024 313
400.31604 -54.42437 171.81729 309
444.71790 -67.30235 165.06439 429
450.40555 -68.93200 167.90887 298
5037.36230 -1398.79749 -34.15850 469
263.60095 -14.44677 203.50465 314
388.54391 -49.86597 171.70717 313
400.71881 -53.31339 171.79320 309
445.59647 -66.02250 164.93288 304
450.84006 -67.48594 167.93925 298
5038.58008 -1366.25842 -33.55849 470
263.72824 -14.17698 203.50595 314
388.88190 -48.82563 171.70706 313
401.06146 -52.17191 171.78479 309
446.03687 -64.61850 164.98186 304
451.20248 -66.07350 167.90460 298
5041.24707 -1334.92834 -33.43380 472
263.86874 -13.90752 203.50267 314
389.24829 -47.77928 171.70607 313
401.41852 -51.06182 171.80736 309
446.49661 -63.22588 164.93900 304
451.57602 -64.58784 167.96765 298
5045.24707 -1304.58997 -34.30548 473
263.99997 -13.63425 203.50511 314
389.57584 -46.71523 171.70993 313
401.73895 -49.91268 171.79744 309
446.94379 -61.83062 164.97952 304
451.96765 -63.14463 167.94531 298
5047.77979 -1273.57788 -33.23959 474
264.12769 -13.36317 203.50601 314
389.86234 -45.67689 171.71841 313
402.10065 -48.79928 171.84119 309
447.36517 -60.40023 164.92615 304
453.53140 -62.02125 167.69121 424
5053.91504 -1243.19250 -33.81521 475
5160.67578 -1271.01221 45.05429 280
5188.19629 -1278.25391 128.53534 319
264.26770 -13.08334 203.50267 314
390.18967 -44.63634 171.72121 313
402.41098 -47.69862 171.83339 309
447.73038 -59.03922 164.94164 304
455.35706 -60.93161 167.40625 423
4008.71948 -1002.98175 -206.57729 476
5102.23193 -1222.76892 47.14360 497
5141.43896 -1232.83289 128.85399 347
264.39169 -12.80302 203.50931 314
390.49326 -43.57409 171.67557 313
402.73743 -46.51301 171.80864 309
448.14777 -57.57506 164.94098 304
457.19479 -59.83891 167.13364 422
5063.70459 -1182.90063 -32.44172 476
5106.17285 -1191.80554 47.28200 497
5097.15771 -1189.95825 130.50006 497
264.51688 -12.52799 203.50754 314
267.77100 -13.29980 203.48941 285
403.05685 -45.40879 171.82230 309
448.58105 -56.18912 164.94315 304
459.08093 -58.68089 166.85989 421
5071.29150 -1152.75793 -33.27705 477
5109.72900 -1161.12354 47.80396 498
5109.50928 -1160.72351 129.05716 497
264.64410 -12.25247 203.50389 314
267.85532 -12.99736 203.49940 310
403.41681 -44.26810 171.83476 309
448.92200 -54.77431 164.96341 304
460.95071 -57.59094 166.50574 420
5080.98975 -1122.54565 -33.04329 438
5117.89648 -1131.97681 47.81833 497
5119.97656 -1132.24524 130.17856 497
264.76389 -11.97877 203.50244 314
267.99673 -12.70049 203.50204 310
403.69226 -43.17339 171.84727 309
417.77051 -46.28752 171.95212 305
462.72186 -56.41069 166.23091 452
5090.98779 -1094.12622 -34.02179 439
5129.14014 -1102.77039 47.07638 496
5131.23242 -1103.06506 129.54601 496
264.88922 -11.70361 203.50209 314
268.11380 -12.40827 203.50667 310
404.01358 -41.99917 171.83458 309
418.10614 -45.10122 171.98288 305
464.09778 -55.06137 166.06796 451
5101.61084 -1064.07373 -33.55907 439
5134.98438 -1072.43860 46.72727 496
5137.88428 -1072.14954 129.06801 498
265.00064 -11.42412 203.50670 314
268.23022 -12.11426 203.49852 310
404.29724 -40.88834 171.81523 309
418.37268 -43.81908 171.97026 305
465.50031 -53.82430 165.81769 450
5116.48486 -1036.24207 -33.44247 379
5145.43115 -1042.38794 47.53361 496
5150.08984 -1042.76587 129.78296 496
265.12848 -11.14631 203.49962 314
268.35831 -11.81388 203.50661 310
404.58231 -39.75673 171.82239 309
418.71533 -42.64366 171.99896 305
466.88663 -52.50567 165.65038 449
477.36951 -54.61303 167.96828 293
5133.51611 -1008.52985 -34.45989 305
5163.72363 -1014.03571 47.15565 496
5160.60400 -1014.31592 129.98271 493
265.23376 -10.86977 203.50624 314
268.48077 -11.51229 203.49800 310
404.81879 -38.60021 171.84528 309
418.96979 -41.39718 171.96805 305
468.30515 -51.16719 165.39632 449
477.66431 -53.06419 167.99500 293
5154.38135 -981.37714 46.73706 307
5178.62012 -985.17853 129.51587 495
265.34756 -10.59959 203.50916 314
268.59207 -11.21684 203.50757 310
405.13193 -37.46029 171.82463 309
419.29211 -40.17729 171.99945 305
469.74548 -49.85531 165.23663 448
477.93091 -51.43257 168.01486 293
5159.83789 -950.84778 47.76513 363
5189.81934 -955.84198 129.21593 495
5272.61523 -971.79095 211.52579 495
265.46057 -10.31434 203.50729 314
268.70840 -10.91502 203.50342 310
405.40866 -36.30537 171.83861 309
419.53741 -38.91044 171.99409 305
470.70291 -48.45382 165.10461 300
478.18643 -49.80839 168.00945 293
5165.27393 -919.56488 47.73773 417
5202.24023 -926.10632 128.48126 495
5223.35742 -929.86407 212.28683 423
265.57907 -10.04487 203.50299 314
268.82834 -10.61735 203.50209 310
405.63501 -35.13756 171.85451 309
419.82721 -37.69077 171.96474 305
471.01849 -46.89035 165.08905 300
478.44937 -48.24272 168.05214 293
5172.31738 -890.12555 47.67939 417
5213.74268 -896.28149 128.68927 495
5231.42188 -900.00800 211.87846 423
265.68790 -9.76012 203.50998 314
268.94131 -10.31573 203.49860 310
405.90247 -34.03193 171.87152 309
420.10870 -36.47329 171.99010 305
471.32410 -45.35220 165.08203 300
478.78107 -46.60902 168.06398 293
5180.80811 -859.62769 47.65099 442
5364.16748 -890.68182 297.73602 479
265.79065 -9.47984 203.50687 314
269.05243 -10.01997 203.49921 310
406.14307 -32.85563 171.84552 309
420.35565 -35.25158 172.00656 305
471.66345 -43.82121 165.05930 300
478.99173 -45.03883 168.07812 294
5189.36279 -829.94720 46.48650 441
265.89450 -9.20282 203.50237 314
269.16278 -9.72451 203.50697 310
406.38589 -31.73344 171.86626 309
420.60226 -34.01764 172.00931 305
471.99741 -42.20848 165.06129 300
479.26550 -43.43455 168.04974 294
5199.46680 -799.08569 47.16416 470
13239.14844 -2085.67871 2160.41724 1000
266.00784 -8.91519 203.49843 314
269.26718 -9.42358 203.50560 310
406.60992 -30.59388 171.84875 309
420.83234 -32.78983 172.00041 305
472.22589 -40.66031 165.09654 300
479.49622 -41.79657 168.08891 294
5210.35059 -770.39551 46.87489 492
266.10275 -8.64270 203.50365 314
269.37000 -9.11563 203.49783 310
406.80014 -29.44340 171.87450 309
421.08578 -31.51172 171.98268 305
437.57275 -33.94535 172.17308 301
480.02045 -40.24757 168.07536 442
5221.94531 -739.47467 46.39181 492
266.20538 -8.35466 203.50098 314
269.47870 -8.82477 203.50534 310
407.03201 -28.29048 171.84961 309
421.33386 -30.32567 172.02147 305
437.81241 -32.61826 172.16364 301
481.59613 -38.79545 167.85928 441
5234.23242 -709.83398 45.50527 492
5412.80469 -735.23096 126.17034 354
266.29349 -8.08256 203.49863 314
269.57199 -8.51476 203.51071 310
407.26297 -27.12490 171.87708 309
421.54211 -29.06559 171.99208 305
438.02347 -31.28536 172.18573 301
482.96539 -37.37332 167.61400 460
5248.46436 -680.51331 45.89923 492
266.40182 -7.79628 203.50131 314
269.67572 -8.21744 203.50554 310
407.44769 -25.99174 171.88017 309
421.73990 -27.81720 171.97801 305
438.28635 -29.92173 172.16150 301
484.16037 -35.82261 167.41148 459
5260.73193 -651.28418 44.90784 492
5299.83643 -656.35394 128.39372 495
266.49561 -7.51460 203.50096 314
269.77295 -7.92587 203.50833 310
407.67996 -24.82913 171.88235 309
421.93436 -26.60239 172.02806 305
438.47266 -28.61745 172.17422 301
485.34402 -34.30535 167.26711 458
5269.20020 -619.70709 46.02878 491
5311.45508 -625.55298 127.59406 481
266.58624 -7.23881 203.50050 314
269.87000 -7.62508 203.50714 310
407.84567 -23.67542 171.86089 309
422.13351 -25.34176 171.99902 305
438.69708 -27.24697 172.18840 301
486.57077 -32.84898 167.08229 457
5280.23926 -590.31165 45.24427 489
5324.23438 -595.64032 128.22118 478
266.67810 -6.96266 203.50899 314
269.96078 -7.32106 203.49664 310
408.03528 -22.50052 171.89183 309
422.35049 -24.12187 172.03210 305
438.91489 -25.89713 172.14896 301
487.82321 -31.31112 166.91829 456
5293.47363 -559.40143 44.85509 488
5405.41162 -571.32031 126.42599 499
266.76306 -6.67465 203.50864 314
270.05417 -7.01881 203.50291 310
408.23483 -21.37167 171.86502 309
422.51471 -22.87512 172.00360 305
439.05734 -24.58667 172.19287 301
489.09729 -29.75655 166.73338 456
5307.91016 -529.12073 43.84656 428
5406.51514 -539.29572 125.72733 499
266.84619 -6.39318 203.50751 314
270.13391 -6.70834 203.50172 310
408.38971 -20.20517 171.84537 309
422.72821 -21.62723 171.98921 305
439.28900 -23.22215 172.18117 301
490.38687 -28.19674 166.54204 455
5436.08691 -510.91891 39.76114 467
5409.38916 -507.32397 126.25757 473
266.94077 -6.11545 203.50342 314
270.22903 -6.40547 203.50824 310
408.53632 -19.04172 171.85141 309
422.88168 -20.39004 172.00688 305
439.42722 -21.86506 172.15645 301
491.64932 -26.64169 166.31030 454
267.01782 -5.82343 203.50348 314
270.31671 -6.11109 203.49759 310
408.70355 -17.90382 171.84856 309
423.05652 -19.11311 171.99110 305
439.60919 -20.54823 172.17810 301
492.87430 -25.09880 166.11075 453
267.09698 -5.54528 203.49886 314
270.39807 -5.80104 203.50392 310
408.84610 -16.74440 171.87862 309
423.20343 -17.89773 172.01556 305
439.76920 -19.15837 172.17371 301
494.20462 -23.45394 165.96071 452
267.17719 -5.26600 203.50764 314
270.47562 -5.50555 203.50084 310
409.01282 -15.56568 171.85194 309
423.35065 -16.60943 172.01033 305
439.94016 -17.80763 172.15509 301
459.34915 -19.22684 172.35722 297
267.26038 -4.97357 203.50594 314
270.55508 -5.20058 203.50142 310
409.09384 -14.44375 171.87157 309
423.47757 -15.36655 172.04201 305
440.10416 -16.47380 172.19678 301
459.46747 -17.79823 172.33617 297
267.33411 -4.69199 203.50005 314
270.63986 -4.90343 203.50233 310
409.23230 -13.29508 171.89841 309
423.63654 -14.14884 172.04251 305
440.24252 -15.11666 172.19475 301
459.60913 -16.28120 172.37344 297
267.41489 -4.41245 203.50540 314
270.71735 -4.59154 203.50850 310
409.37576 -12.14388 171.89008 309
423.75333 -12.91637 172.01637 305
440.37985 -13.79628 172.20454 301
459.76419 -14.86639 172.33987 297
267.48755 -4.13818 203.50645 314
270.78571 -4.28379 203.50876 310
409.49698 -10.98476 171.89146 309
423.86914 -11.65247 172.04453 305
440.47186 -12.44338 172.17677 301
459.91251 -13.40628 172.37550 297
264.10535 -3.70704 204.42847 295
270.86472 -3.98086 203.50371 310
409.58273 -9.76969 171.85986 309
423.99435 -10.40519 172.03543 305
440.60858 -11.11435 172.14638 301
460.01627 -11.92472 172.37228 297
264.15936 -3.43813 204.44151 293
270.92874 -3.68656 203.50246 310
409.71835 -8.64757 171.86409 309
424.10083 -9.13319 172.00841 305
440.72638 -9.76227 172.16669 301
460.10602 -10.45287 172.40152 297
509.21185 -12.19388 168.29768 288
264.23590 -3.17636 204.43762 293
270.99161 -3.38066 203.49925 310
409.80899 -7.47424 171.88899 309
424.20010 -7.90261 172.02646 305
440.82547 -8.37324 172.16393 301
460.26440 -9.00378 172.38319 297
509.23120 -10.37846 168.26302 288
267.75684 -2.99289 203.50362 314
271.06387 -3.08062 203.50542 310
409.87662 -6.31167 171.90926 309
424.24191 -6.66678 172.02991 305
440.86923 -7.05938 172.16348 301
460.34253 -7.46629 172.40718 297
509.28894 -8.61917 168.30721 288
267.82767 -2.71370 203.50079 314
271.12509 -2.77688 203.50787 310
409.96793 -5.18606 171.86623 309
424.37073 -5.43991 172.01996 305
440.97058 -5.70545 172.15010 301
460.43854 -6.04982 172.39806 297
509.37613 -6.88669 168.31555 288
267.88312 -2.43489 203.50526 314
271.19705 -2.47271 203.50330 310
410.01685 -4.01703 171.87650 309
424.41962 -4.15289 172.00227 305
441.06018 -4.34779 172.18350 301
460.48712 -4.56434 172.37796 297
509.38290 -5.05558 168.28947 288
267.94708 -2.15431 203.50568 314
271.25375 -2.17031 203.49774 310
410.07559 -2.84902 171.90726 309
424.47635 -2.88027 172.01448 305
441.15756 -2.96841 172.20703 301
452.05276 -3.02792 173.95222 423
509.38901 -3.28812 168.28525 288
268.00247 -1.86204 203.50345 314
271.31732 -1.86005 203.50336 310
410.16272 -1.66401 171.87149 309
424.53232 -1.67490 172.04683 305
441.18832 -1.61083 172.19734 301
452.31244 -1.63295 173.89760 424
509.37625 -1.53678 168.31384 288
268.07080 -1.58207 203.50314 314
271.36029 -1.56211 203.49854 310
410.24670 -0.50770 171.89877 309
424.61212 -0.38138 172.00136 305
441.25656 -0.28816 172.17513 301
460.68103 -0.15430 172.39258 297
509.40475 0.20201 168.29915 288
268.12207 -1.30463 203.50322 314
271.41977 -1.25322 203.50577 310
410.25909 0.64113 171.88040 309
424.62991 0.84190 172.03624 305
441.27475 1.08627 172.18814 301
451.86517 1.21483 174.00607 427
509.52853 2.02183 168.28993 288
268.16876 -1.01102 203.50052 314
271.47983 -0.95214 203.50037 310
410.30371 1.77284 171.90776 309
424.72772 2.09993 172.02710 305
441.29578 2.39096 172.20946 301
460.77960 2.80071 172.37604 297
509.62326 3.79018 168.30138 288
268.22427 -0.73224 203.50534 314
271.52850 -0.65137 203.50728 310
410.31628 2.94939 171.88844 309
424.73996 3.34990 172.01503 305
441.37897 3.76509 172.17467 301
460.79797 4.27548 172.37402 297
509.72473 5.57546 168.29654 288
268.27246 -0.45200 203.50194 314
271.57217 -0.34887 203.50200 310
410.37204 4.14122 171.86775 309
424.74921 4.60155 172.01221 305
