# .PCD v.7 - Point Cloud Data file format
VERSION .7
FIELDS x y z rgb
SIZE 4 4 4 4
TYPE F F F U
COUNT 1 1 1 1
WIDTH 1373
HEIGHT 1
VIEWPOINT 4297.675293 -4102.062012 132.618835 0.000760 -0.112670 -0.011104 0.993570
POINTS 1373
DATA ascii
24.01064 -148.13988 163.26117 296
18.63077 -152.20921 166.08551 295
87.76096 -101.57938 171.69762 316
78.80855 -108.36142 171.76555 312
68.58359 -116.13355 171.88309 308
24.72124 -149.53154 163.21408 296
19.54205 -153.45461 166.11969 295
88.34550 -102.39677 171.72913 316
79.43758 -109.25484 171.78714 312
69.33326 -117.05796 171.88309 308
26.33122 -150.18040 163.40054 391
20.51912 -154.59845 166.09019 295
88.97936 -103.21386 171.69327 316
80.06924 -110.10658 171.77615 312
69.98833 -117.96068 171.83440 308
28.89544 -150.06879 163.80254 392
21.51982 -155.86928 166.12572 297
89.60255 -104.01233 171.68974 316
80.75412 -111.00305 171.78232 312
70.71860 -118.88789 171.87445 308
31.38866 -150.00671 164.23921 394
22.46619 -157.04929 166.11293 297
90.20361 -104.80230 171.68240 316
81.41119 -111.87261 171.76318 312
71.42752 -119.82111 171.87378 308
33.88604 -149.89143 164.66611 395
23.41928 -158.25871 166.09424 297
90.86915 -105.60643 171.67450 316
82.10376 -112.70134 171.75909 312
72.16713 -120.75758 171.82915 308
36.31470 -149.80608 165.13390 396
91.48480 -106.39471 171.68010 316
82.80081 -113.56007 171.77936 312
72.88393 -121.66358 171.84964 308
38.74007 -149.71915 165.56041 397
92.15494 -107.21663 171.66159 316
83.44711 -114.41406 171.76628 312
73.61906 -122.58800 171.85124 308
41.06311 -149.66461 165.91690 398
92.79352 -107.99304 171.68352 316
84.17239 -115.28649 171.72510 312
46.61444 -146.83893 163.36865 300
42.97050 -149.93878 166.23711 302
93.43864 -108.78619 171.64317 316
84.86375 -116.08804 171.71759 312
47.42767 -148.02081 163.30981 300
43.92973 -151.00136 166.18985 302
94.10115 -109.58569 171.68390 316
85.53572 -116.93957 171.74385 312
48.16518 -149.18672 163.29277 300
44.85037 -152.04840 166.20276 302
94.76576 -110.37722 171.64151 316
86.24845 -117.80115 171.72389 312
50.15679 -149.29500 163.60289 403
45.80437 -153.10335 166.26050 301
95.39548 -111.11886 171.65778 316
86.94660 -118.63175 171.74437 312
52.35094 -149.19086 164.02719 404
46.73767 -154.16635 166.23318 301
96.10504 -111.91380 171.64742 316
87.65978 -119.41417 171.73442 312
54.52638 -149.10593 164.35530 405
47.67311 -155.24146 166.20818 301
96.75478 -112.69654 171.62444 316
88.40383 -120.23213 171.73050 312
56.59510 -149.06581 164.74469 406
48.64732 -156.28116 166.22691 301
97.42993 -113.45520 171.61874 316
89.08934 -121.07143 171.71950 312
58.72515 -148.99538 165.13162 407
49.63889 -157.32343 166.23692 301
97.93400 -114.17455 171.60646 316
65.97209 -144.05710 163.54169 304
60.78707 -148.91676 165.52151 408
98.81775 -114.94762 171.62444 316
66.76701 -145.07892 163.49768 304
62.79921 -148.83611 165.88588 409
99.50291 -115.68578 171.60474 316
67.53632 -146.14182 163.47054 304
64.78770 -148.74377 166.19592 411
100.18745 -116.46929 171.61314 316
68.35062 -147.18330 163.41953 304
66.05981 -149.39069 166.29605 306
100.91508 -117.18513 171.58844 316
69.16508 -148.18100 163.40546 304
67.01151 -150.26196 166.35291 306
101.59767 -117.92773 171.62097 316
70.66410 -148.50293 163.55539 413
67.90874 -151.21355 166.30136 306
102.34715 -118.66725 171.59984 316
72.52701 -148.45366 163.92130 414
68.89492 -152.15532 166.31116 306
103.04978 -119.42637 171.56436 316
74.41534 -148.39748 164.26692 415
69.84335 -153.00861 166.32355 306
103.74751 -120.14254 171.56564 316
76.30277 -148.29715 164.61610 417
70.80838 -153.93114 166.34346 306
83.98857 -142.16914 163.66365 307
78.08227 -148.27043 164.92261 418
71.75928 -154.83180 166.35254 305
84.76876 -143.08260 163.59178 307
79.90338 -148.16716 165.24660 419
72.68802 -155.73395 166.36946 305
85.55642 -143.95934 163.57233 307
81.67365 -148.10812 165.58493 420
73.66192 -156.60382 166.33672 305
86.37495 -144.87447 163.57286 307
83.41112 -148.05679 165.90483 421
87.19868 -145.74237 163.52260 307
85.19056 -147.99651 166.20998 422
88.03107 -146.67281 163.50734 307
86.66154 -148.16917 166.43761 310
88.85643 -147.53609 163.44139 307
87.55991 -148.99147 166.44334 310
90.23102 -147.79552 163.62762 424
88.47699 -149.76184 166.41792 310
91.88198 -147.70532 163.96382 425
89.41975 -150.55299 166.43997 310
93.56271 -147.64380 164.26204 426
90.38235 -151.34236 166.45659 310
95.15040 -147.57462 164.55754 427
91.28718 -152.12230 166.40976 310
96.77085 -147.51050 164.85196 418
92.25678 -152.89507 166.41179 310
98.43739 -147.34094 165.15132 419
93.19697 -153.64133 166.44296 310
-17801.57812 -21689.67578 -5405.39746 1000
100.09721 -147.20129 165.46263 420
94.18015 -154.38452 166.42766 310
101.72462 -147.01347 165.80261 421
95.09885 -155.14017 166.47684 310
103.31425 -146.88530 166.06474 422
96.08125 -155.87076 166.44215 310
104.89436 -146.70683 166.39337 423
105.95485 -147.20612 166.43594 314
106.89874 -147.88057 166.48045 314
107.79054 -148.57338 166.45711 314
108.69721 -149.24225 166.48328 314
109.64761 -149.93851 166.45132 314
110.54739 -150.60564 166.44662 314
111.50002 -151.26515 166.44270 314
114.50836 -148.95784 167.43916 275
115.50956 -149.51283 167.45837 316
116.38741 -150.16045 167.47530 316
-5570.87598 -8325.14355 2752.83911 1000
117.31674 -150.82335 167.45972 316
119.73593 -149.21550 168.15930 274
120.78473 -149.64952 168.24786 489
124.04460 -148.63687 168.93941 489
124.88572 -149.36655 168.88194 488
126.88580 -148.21927 169.43394 441
127.72079 -148.86732 169.40906 395
-276.03043 -1930.33752 118.26336 384
-277.63712 -1936.62988 150.70639 315
-262.47824 -1927.55127 118.56811 499
-263.32550 -1930.94250 150.69174 499
-264.07941 -1934.20935 183.53703 499
-251.49121 -1933.88623 118.32982 458
-252.90108 -1939.67578 150.84491 405
228.96669 -1446.16699 121.43201 357
237.78122 -1438.12085 121.93356 469
237.71045 -1440.83447 145.13242 469
237.81650 -1443.67419 168.70526 469
237.87639 -1447.06335 192.36917 421
246.55537 -1436.15881 122.06355 497
246.56773 -1438.93188 145.39656 497
246.80345 -1441.71106 168.72160 377
246.55774 -1443.92004 192.49226 496
246.89214 -1451.68298 215.92590 494
255.30508 -1439.17493 121.85104 474
255.65068 -1442.64978 145.30655 430
255.49069 -1447.39856 168.63083 368
724.34143 -958.44672 127.01459 299
725.44733 -946.00787 127.88371 434
726.96637 -948.89868 145.31898 434
728.85876 -952.44684 162.48465 372
729.57660 -939.92578 128.12036 498
730.66370 -942.22168 145.37941 476
731.88373 -944.63690 162.88432 475
733.51593 -947.08148 180.47966 483
734.50415 -949.32361 197.85133 434
736.33441 -952.34485 215.53685 373
735.08838 -936.38495 128.15927 494
736.29248 -938.39209 145.39809 494
737.28510 -940.43604 163.02956 493
738.69305 -943.02563 180.30797 492
739.79144 -944.91882 197.87428 493
740.88477 -946.92096 215.55449 493
741.71600 -934.87360 128.05205 465
743.06531 -937.08856 145.18939 465
744.39471 -939.63824 162.90163 465
745.92828 -942.46313 180.28760 357
748.31836 -946.54431 197.80186 483
749.98883 -936.26221 127.33758 415
752.40900 -940.70673 144.76987 350
24367.97070 -42627.89844 215.94408 1000
232.41582 -11.20649 215.52225 1000
367.33817 -108.74305 167.62785 313
367.94391 -107.82048 167.61937 313
368.59259 -106.90276 167.61551 315
369.21216 -105.98706 167.60983 315
369.87021 -105.04131 167.61499 315
370.47995 -104.13183 167.64090 315
371.09698 -103.17233 167.62494 315
371.75848 -102.28017 167.66150 315
372.36096 -101.31754 167.62555 315
372.94540 -100.37360 167.67372 315
373.57846 -99.43179 167.66920 315
374.13382 -98.50724 167.68115 315
374.71564 -97.54508 167.64697 315
376.06903 -97.02841 167.45050 437
377.45529 -96.54313 167.18034 436
378.84451 -96.09261 166.93379 435
387.42209 -101.21039 167.64851 309
380.22357 -95.59062 166.68706 434
387.99713 -100.18091 167.67647 309
381.64151 -95.07926 166.44566 433
388.55533 -99.09322 167.67598 309
383.12949 -94.56981 166.17526 432
389.15082 -98.06609 167.68982 309
384.56409 -94.11194 165.89069 431
389.67624 -97.00984 167.68787 309
386.05115 -93.57481 165.63686 430
390.27249 -95.92464 167.72485 309
387.50406 -93.08275 165.35527 429
390.81241 -94.87849 167.70728 311
389.02829 -92.56818 165.06339 428
391.34970 -93.84884 167.71451 311
390.54852 -92.01787 164.76932 427
391.90793 -92.76141 167.71222 311
391.08252 -90.98816 164.76463 316
392.49072 -91.72312 167.74416 311
391.67731 -89.96342 164.77525 316
393.60159 -90.96081 167.58574 426
392.24295 -88.88718 164.74089 316
395.17599 -90.41597 167.30681 425
392.78043 -87.83870 164.75682 316
396.78116 -89.85220 167.01402 423
393.32343 -86.77591 164.73129 316
398.38806 -89.31541 166.72261 422
407.68076 -93.91066 167.75592 305
393.88199 -85.73357 164.74014 316
400.00928 -88.74908 166.40254 421
408.23233 -92.76779 167.75940 305
394.40375 -84.65379 164.75175 316
401.66550 -88.18547 166.09129 420
408.79251 -91.58900 167.75661 305
394.96313 -83.60427 164.73943 316
403.35141 -87.56432 165.80478 419
409.26910 -90.39591 167.75230 305
395.49167 -82.55177 164.71138 316
405.06766 -87.03024 165.44322 418
409.76935 -89.20226 167.80153 305
395.99326 -81.47538 164.69197 316
406.76654 -86.39783 165.10495 417
410.32138 -88.00668 167.77643 305
396.46750 -80.37117 164.71666 316
408.21695 -85.72815 164.85454 436
410.77826 -86.82317 167.79829 305
373.57217 -68.95122 171.55363 316
408.89001 -84.58530 164.85822 312
411.30139 -85.66730 167.83121 305
373.99237 -67.99422 171.52954 316
409.39999 -83.47205 164.83929 312
411.78104 -84.46131 167.80408 305
374.35870 -67.03687 171.53661 316
409.96933 -82.26415 164.83916 312
412.78400 -83.49009 167.66014 434
374.75250 -66.09209 171.54834 316
410.45685 -81.10854 164.82967 312
414.28317 -82.74239 167.45097 433
375.14285 -65.13828 171.57762 316
410.95212 -79.94916 164.81282 312
415.85092 -82.00917 167.18912 432
375.52728 -64.17405 171.55457 316
411.46774 -78.77336 164.83751 312
417.44946 -81.25044 166.88588 431
375.92746 -63.22455 171.55145 316
411.93839 -77.60479 164.84114 312
418.99332 -80.44055 166.59807 430
376.26019 -62.26138 171.58772 316
412.41101 -76.43971 164.83029 312
420.64047 -79.67170 166.31639 429
430.34402 -83.48858 167.78989 301
376.64478 -61.26662 171.55170 316
412.88361 -75.26206 164.81567 312
422.23212 -78.90670 166.05025 428
430.80939 -82.19432 167.78247 301
376.98932 -60.34497 171.55733 316
413.36557 -74.10564 164.83493 312
423.90869 -78.05900 165.77299 427
431.27472 -80.90510 167.83881 301
377.34064 -59.35598 171.59262 316
413.83084 -72.89039 164.80383 312
425.56842 -77.29538 165.44714 426
431.72745 -79.56164 167.80031 301
377.69830 -58.40578 171.58109 316
388.35229 -62.28180 171.68250 312
427.23340 -76.47943 165.15465 425
432.14255 -78.27483 167.84697 301
378.04791 -57.39608 171.57791 316
388.70288 -61.22610 171.67999 312
428.85181 -75.60481 164.88319 308
432.56540 -76.96247 167.86728 301
378.38281 -56.44852 171.60553 316
389.07214 -60.20616 171.71643 312
429.33063 -74.32236 164.91217 308
432.94998 -75.59902 167.82954 301
378.70114 -55.47021 171.60631 316
389.40100 -59.14558 171.71835 312
429.76779 -73.04810 164.90564 308
433.41840 -74.30292 167.89787 301
379.03503 -54.48005 171.57887 316
389.74664 -58.10526 171.68468 312
430.23599 -71.77409 164.88608 308
434.17252 -73.06857 167.80328 421
379.35327 -53.51411 171.60829 316
390.09534 -57.05328 171.68144 312
430.68909 -70.46790 164.88115 308
435.96667 -72.19101 167.47536 420
379.64334 -52.51402 171.60828 316
390.39661 -56.00943 171.72119 312
431.14182 -69.20286 164.84505 308
437.76208 -71.31124 167.15697 419
379.96426 -51.55674 171.61818 316
390.74146 -54.95338 171.69675 312
431.57242 -67.90487 164.84311 308
439.57336 -70.44140 166.89726 433
380.27689 -50.54001 171.59889 316
391.05734 -53.89724 171.69469 312
431.92569 -66.60139 164.89786 308
441.19357 -69.43719 166.57704 432
266.24875 -14.88004 203.49506 288
391.38077 -52.83705 171.70448 312
432.35608 -65.30219 164.84277 308
442.81552 -68.44167 166.32082 431
266.27994 -14.57918 203.50925 314
391.70267 -51.81688 171.73032 312
432.75946 -63.99759 164.88484 308
444.44910 -67.48578 166.02261 430
454.98282 -70.56938 167.91232 297
266.37360 -14.30289 203.50600 314
392.01337 -50.75619 171.70654 312
404.30334 -54.29580 171.86407 308
446.14618 -66.43627 165.76736 429
455.33008 -69.10904 167.90227 297
266.45941 -14.01637 203.49925 314
392.28949 -49.69452 171.69986 312
404.63229 -53.15835 171.84828 308
447.87216 -65.44412 165.44537 428
455.70245 -67.62936 167.91156 297
266.53775 -13.72947 203.50484 314
392.59280 -48.63676 171.73878 312
404.93860 -52.06909 171.87163 308
449.58881 -64.40407 165.19826 427
455.99991 -66.19129 167.89505 297
266.61349 -13.44982 203.50630 314
392.84991 -47.54037 171.75034 312
405.22150 -50.88470 171.85866 308
450.87439 -63.22741 164.99286 303
456.38452 -64.72194 167.92215 297
266.69409 -13.16683 203.50623 314
393.13361 -46.51651 171.70760 312
405.50696 -49.76919 171.83444 308
451.26285 -61.84455 164.94566 303
456.70410 -63.23854 167.94838 297
266.78085 -12.87322 203.50404 314
393.40289 -45.44580 171.72568 312
405.81891 -48.60611 171.82947 308
451.62930 -60.44814 164.98502 303
457.00723 -61.78492 167.96173 297
3656.58862 -885.31586 278.29852 478
266.85196 -12.59612 203.50995 314
393.67624 -44.38808 171.71387 312
406.06625 -47.46693 171.86421 308
452.00833 -58.96222 164.93985 303
457.29019 -60.28947 167.98918 297
266.93274 -12.30994 203.50771 314
393.93933 -43.30109 171.73897 312
406.36118 -46.36263 171.83809 308
452.36176 -57.54865 164.95290 303
458.50174 -59.03197 167.79031 422
266.99603 -12.01132 203.50940 314
394.16769 -42.21200 171.75960 312
406.64218 -45.19434 171.88300 308
452.70978 -56.17328 164.99449 303
460.36526 -57.99300 167.47220 421
655.86298 -104.43446 224.11334 1000
267.06494 -11.73174 203.49942 314
394.38901 -41.15056 171.76277 312
406.89536 -44.02791 171.84326 308
453.05032 -54.68734 164.97200 303
462.19629 -56.82878 167.18811 420
267.13760 -11.43761 203.49782 314
394.64731 -40.08165 171.72411 312
407.16321 -42.87059 171.86655 308
453.38916 -53.28023 164.99313 303
463.55835 -55.61381 166.96333 452
267.21103 -11.15726 203.49828 314
394.88840 -39.01135 171.75497 312
407.40833 -41.75869 171.85242 308
453.67075 -51.86951 164.97597 303
464.95145 -54.32775 166.80363 451
267.27292 -10.86493 203.50864 314
395.08835 -37.91479 171.76233 312
407.64594 -40.61051 171.84337 308
421.97610 -43.63323 171.98830 304
466.33224 -52.99806 166.52470 450
267.33908 -10.57592 203.50623 314
395.34955 -36.87557 171.72310 312
407.85394 -39.41475 171.85246 308
422.23761 -42.40675 172.01152 304
467.66968 -51.73615 166.35799 450
267.39450 -10.28193 203.49756 314
395.54694 -35.77093 171.73373 312
408.11630 -38.28108 171.89569 308
422.48502 -41.16591 172.00854 304
469.10745 -50.46463 166.10280 449
267.45630 -9.98812 203.50056 314
395.75128 -34.72546 171.75658 312
408.29245 -37.15260 171.87152 308
422.69754 -39.93241 172.03448 304
470.50290 -49.13601 165.90160 448
267.51727 -9.70160 203.49866 314
395.93976 -33.61904 171.73962 312
408.51114 -35.99865 171.86044 308
422.96002 -38.63424 172.00293 304
471.93362 -47.76611 165.70334 447
267.56747 -9.41204 203.50984 314
396.11633 -32.56391 171.77191 312
408.73987 -34.81968 171.89047 308
423.13815 -37.43269 172.02132 304
473.38962 -46.47819 165.46545 446
482.96472 -48.21227 168.02461 293
267.63239 -9.12415 203.50877 314
396.34467 -31.44235 171.75688 312
408.94968 -33.66968 171.86000 308
423.35638 -36.16354 172.02773 304
474.81818 -45.06105 165.18109 445
483.22830 -46.58978 168.03560 293
267.67545 -8.82574 203.49930 314
396.50140 -30.39977 171.77644 312
409.10492 -32.49102 171.88368 308
423.56427 -34.93447 172.00655 304
475.57651 -43.58411 165.13304 300
483.37903 -44.95070 168.03860 293
267.72910 -8.54225 203.49747 314
396.66092 -29.29166 171.74763 312
409.28482 -31.35940 171.87776 308
423.77875 -33.64700 172.01724 304
475.76868 -42.04863 165.12204 300
483.58713 -43.29639 168.04033 293
267.77692 -8.24598 203.50400 314
396.85693 -28.19417 171.74365 312
409.50244 -30.18806 171.89101 308
423.95404 -32.43942 172.03568 304
476.07239 -40.49562 165.12276 300
483.77264 -41.65831 168.12103 293
267.83051 -7.94879 203.50847 314
397.02127 -27.11139 171.75862 312
409.66608 -29.03543 171.86136 308
424.13229 -31.15079 172.00069 304
476.27188 -38.92714 165.11101 300
483.89832 -40.04476 168.08620 293
267.87244 -7.65838 203.50778 314
271.30295 -8.15239 203.48488 282
409.80099 -27.84017 171.85985 308
424.30746 -29.90996 172.01778 304
476.51715 -37.31799 165.10609 300
484.04880 -38.43142 168.08575 293
267.91412 -7.36026 203.50813 314
271.26141 -7.81989 203.50887 310
409.97440 -26.68964 171.89008 308
424.49698 -28.64668 172.02902 304
441.28510 -30.90913 172.20673 300
484.18518 -36.78426 168.14406 293
267.96414 -7.07833 203.50336 314
271.30716 -7.51173 203.50237 310
410.12207 -25.52599 171.87901 308
424.67508 -27.39771 172.01260 304
441.44965 -29.60576 172.19072 300
484.68002 -35.15047 168.11052 459
268.00342 -6.77757 203.49904 314
271.35196 -7.19605 203.50491 310
410.27969 -24.33581 171.89026 308
424.79855 -26.14989 172.03648 304
441.62823 -28.20541 172.19545 300
485.88101 -33.66535 167.88797 458
268.04395 -6.48916 203.50853 314
271.39142 -6.87990 203.50104 310
410.39261 -23.16452 171.86967 308
424.98047 -24.90067 172.06061 304
441.79810 -26.84410 172.17525 300
487.17981 -32.20651 167.69432 457
268.07336 -6.19677 203.49815 314
271.42947 -6.56334 203.50630 310
410.52362 -22.02519 171.88635 308
425.10117 -23.63860 172.01997 304
441.90671 -25.52429 172.16862 300
488.37009 -30.64379 167.51427 457
268.10757 -5.89042 203.50743 314
271.46936 -6.24285 203.50421 310
410.64941 -20.83783 171.91179 308
425.21170 -22.35849 172.04997 304
442.09634 -24.16044 172.17117 300
489.62582 -29.14941 167.29393 456
268.15164 -5.60270 203.50639 314
271.50711 -5.92672 203.50607 310
410.79984 -19.66500 171.91609 308
425.32565 -21.10970 172.02448 304
442.17615 -22.74813 172.20351 300
490.84674 -27.58395 167.11705 455
268.18015 -5.30692 203.50597 314
271.53735 -5.61473 203.49783 310
410.90506 -18.48833 171.86771 308
425.44989 -19.84027 172.03351 304
442.32162 -21.37856 172.17607 300
492.16281 -26.00507 166.96095 454
268.20425 -5.00820 203.49725 314
271.57178 -5.29805 203.50752 310
410.96875 -17.35282 171.91032 308
425.57996 -18.59028 172.02316 304
442.44531 -20.01646 172.18823 300
493.43143 -24.43924 166.70374 453
268.23535 -4.71438 203.50969 314
271.59512 -4.99129 203.50198 310
411.09338 -16.12906 171.87163 308
425.66626 -17.34856 172.06377 304
442.54782 -18.68345 172.20715 300
494.71149 -22.83302 166.48381 452
268.25671 -4.41827 203.50603 314
271.62988 -4.66566 203.50240 310
411.16348 -14.96117 171.91566 308
425.75806 -16.05298 172.03275 304
442.69214 -17.30322 172.20256 300
496.02853 -21.21549 166.28662 452
268.28854 -4.11939 203.50285 314
271.64902 -4.35270 203.49750 310
411.27023 -13.78330 171.89232 308
425.85690 -14.82036 172.04439 304
442.75061 -15.93021 172.22299 300
497.02695 -19.60164 166.15526 483
268.30280 -3.83021 203.50356 314
271.67435 -4.04096 203.50073 310
411.35037 -12.63020 171.89598 308
425.96228 -13.54258 172.01636 304
442.81216 -14.59150 172.20088 300
462.64423 -15.82178 172.41492 296
268.33179 -3.53772 203.50858 314
271.69379 -3.71681 203.50705 310
411.38870 -11.48722 171.88464 308
426.03778 -12.28207 172.06296 304
442.88666 -13.21479 172.22266 300
462.69531 -14.32069 172.40552 296
268.34219 -3.23838 203.49774 314
271.71597 -3.40365 203.50565 310
411.46219 -10.28786 171.90327 308
426.08929 -10.99660 172.04579 304
442.96866 -11.84122 172.22002 300
462.74957 -12.79449 172.38339 296
268.35812 -2.94655 203.51003 314
271.73172 -3.08107 203.49763 310
411.50217 -9.11300 171.91394 308
426.13745 -9.76324 172.03999 304
443.05862 -10.48982 172.20715 300
462.87656 -11.35654 172.41429 296
268.38376 -2.63949 203.50426 314
271.75009 -2.77576 203.50098 310
411.54501 -7.91974 171.91357 308
426.16989 -8.45330 172.06010 304
443.07260 -9.12837 172.19118 300
462.87759 -9.83030 172.36430 296
268.38849 -2.34947 203.50577 314
271.76883 -2.45504 203.49756 310
411.58447 -6.76025 171.89938 308
426.22653 -7.20255 172.06853 304
443.14273 -7.71632 172.23280 300
462.93726 -8.32671 172.38132 296
268.40457 -2.04652 203.50624 314
271.77420 -2.13343 203.50548 310
411.62308 -5.59998 171.90672 308
426.27216 -5.97481 172.05452 304
443.17041 -6.36145 172.19626 300
462.97330 -6.87425 172.42526 296
268.41348 -1.75352 203.49875 314
271.78137 -1.81244 203.49922 310
411.66382 -4.39165 171.88989 308
426.27692 -4.70758 172.06554 304
443.24414 -5.02553 172.21008 300
463.04459 -5.37965 172.37608 296
268.42651 -1.45413 203.50859 314
271.79700 -1.50753 203.51071 310
411.67822 -3.21755 171.89198 308
426.31683 -3.39892 172.04495 304
443.20761 -3.60719 172.20757 300
463.06107 -3.88874 172.40993 296
268.42447 -1.16137 203.50452 314
271.80505 -1.18097 203.49718 310
411.70999 -2.04111 171.88194 308
426.29776 -2.14156 172.06396 304
443.22903 -2.22859 172.18961 300
451.60770 -2.33654 174.48210 425
512.99695 -2.72114 168.26753 288
268.42780 -0.86245 203.50555 314
271.80511 -0.86749 203.50807 310
411.68008 -0.91047 171.87463 308
426.35895 -0.91529 172.01537 304
443.27982 -0.88400 172.19000 300
463.09705 -0.91799 172.38718 296
512.88562 -0.91044 168.30141 288
268.42923 -0.56987 203.49973 314
271.80704 -0.54681 203.50584 310
411.67130 0.29736 171.89589 308
426.35330 0.37748 172.04393 304
443.23123 0.47231 172.18671 300
463.03085 0.59588 172.42587 296
512.88910 0.90057 168.31804 288
268.43546 -0.26773 203.49980 314
271.80179 -0.22768 203.49706 310
411.66095 1.44231 171.87810 308
426.32184 1.66831 172.01048 304
443.25195 1.82641 172.20210 300
451.82047 1.94204 174.42177 422
512.93079 2.67468 168.31371 288
268.43475 0.02875 203.50389 314
271.80899 0.08138 203.49867 310
411.69479 2.62530 171.90881 308
426.27881 2.91879 172.01747 304
443.23608 3.21839 172.19276 300
463.06113 3.60530 172.38614 296
268.43463 0.32255 203.50494 314
271.80225 0.39512 203.49857 310
411.64557 3.80464 171.88846 308
426.28729 4.17774 172.04927 304
443.19626 4.60235 172.22679 300
462.99146 5.03803 172.41800 296
268.42480 0.61532 203.50978 314
271.79239 0.71297 203.50713 310
411.61157 4.98740 171.90617 308
426.23325 5.42796 172.05937 304
443.18405 5.98598 172.21169 300
462.95844 6.57464 172.40968 296
268.42072 0.91053 203.50792 314
271.78473 1.03228 203.50673 310
411.59421 6.15525 171.88432 308
426.19531 6.68290 172.04137 304
443.11554 7.35072 172.21452 300
462.90756 8.03940 172.39935 296
268.41559 1.21185 203.50705 314
271.77441 1.35604 203.50787 310
411.54776 7.36083 171.88359 308
426.14398 7.98655 172.01585 304
443.06256 8.70642 172.17871 300
462.83386 9.56621 172.39758 296
268.39401 1.50919 203.49919 314
271.76242 1.67437 203.49760 310
411.49896 8.52626 171.90173 308
426.07413 9.20335 172.05914 304
443.03876 10.09056 172.21347 300
462.82651 11.03711 172.37698 296
268.39130 1.80452 203.49948 314
271.76077 1.98182 203.50639 310
411.41354 9.66527 171.87024 308
426.01456 10.48407 172.05452 304
442.92017 11.41026 172.22632 300
462.69473 12.53895 172.42119 296
268.37683 2.09390 203.50073 314
271.73575 2.30529 203.50230 310
411.36234 10.85113 171.88673 308
425.96249 11.76728 172.02110 304
442.84979 12.79653 172.19893 300
462.65085 14.03688 172.37076 296
268.36023 2.38958 203.50293 314
271.72897 2.62528 203.50735 310
411.28354 12.05984 171.91235 308
425.88065 13.00988 172.05959 304
442.78146 14.14328 172.18242 300
462.57541 15.50721 172.41721 296
268.33820 2.68476 203.49800 314
271.70224 2.93722 203.50925 310
411.19110 13.21456 171.87918 308
425.81927 14.27277 172.02074 304
442.68079 15.52199 172.20570 300
496.78400 19.47794 166.16409 483
268.31998 2.98855 203.50975 314
271.68460 3.25088 203.49814 310
411.15704 14.36292 171.87935 308
425.69614 15.55467 172.03175 304
442.57999 16.88923 172.21954 300
495.53540 21.08880 166.35573 452
4952.22803 376.65903 297.98529 269
268.30240 3.28788 203.50031 314
271.65759 3.57406 203.50294 310
411.04837 15.57534 171.89021 308
425.62488 16.81914 172.02399 304
442.48688 18.23944 172.21001 300
494.24228 22.68165 166.55775 453
4922.56592 403.12622 296.53711 463
268.27725 3.58525 203.50995 314
271.63303 3.89449 203.50316 310
410.95367 16.73921 171.90173 308
425.51160 18.05140 172.04474 304
442.39221 19.60136 172.20428 300
492.97202 24.30060 166.75888 454
4903.26660 430.55133 297.16708 463
268.24762 3.87461 203.50706 314
271.60883 4.20662 203.49907 310
410.85370 17.90983 171.87048 308
425.38776 19.31616 172.01419 304
442.25748 20.97124 172.17586 300
491.74289 25.85099 166.93784 455
4888.11475 457.71930 296.65771 483
268.22266 4.17217 203.50491 314
271.57684 4.51796 203.49837 310
410.70944 19.07940 171.90126 308
425.26389 20.61290 172.03273 304
442.12726 22.35267 172.19411 300
490.49414 27.41981 167.16525 456
4875.68359 486.48404 296.29172 483
268.19632 4.45907 203.49893 314
271.55075 4.83048 203.49953 310
410.59698 20.22580 171.85857 308
425.14658 21.83852 172.03070 304
441.97977 23.73018 172.18398 300
489.22733 28.98138 167.37291 457
4865.99756 513.97375 296.18369 460
268.17249 4.76208 203.50467 314
271.51782 5.15647 203.50957 310
410.48376 21.41736 171.88058 308
425.02582 23.08515 171.99245 304
441.80759 25.08931 172.16302 300
487.99200 30.51198 167.58128 457
4858.96436 541.88684 295.69022 459
268.13202 5.05558 203.50407 314
271.48438 5.47290 203.50795 310
410.32339 22.55059 171.85352 308
424.89154 24.34955 172.00456 304
441.64813 26.46224 172.19443 300
486.78546 31.96450 167.76915 458
4852.80029 569.49988 296.24362 459
268.09598 5.34613 203.50066 314
271.44781 5.78309 203.50215 310
410.21225 23.74206 171.89047 308
424.73065 25.60015 172.03165 304
441.54572 27.79858 172.16020 300
485.54425 33.47539 167.89046 459
4848.39209 599.00201 296.49042 384
268.06656 5.63847 203.50066 314
271.40457 6.09526 203.50560 310
410.04904 24.91197 171.84962 308
424.54288 26.90262 172.03873 304
441.36536 29.13404 172.19078 300
484.31488 35.02230 168.09573 460
4846.39648 626.62543 295.63934 384
268.02768 5.93594 203.50230 314
271.36356 6.41132 203.49910 310
409.87683 26.05746 171.88594 308
424.41672 28.10388 172.00012 304
441.15411 30.54321 172.18066 300
484.02405 36.58052 168.14641 293
4850.79834 655.95978 295.90131 289
267.99249 6.23877 203.50221 314
271.32458 6.72826 203.49829 310
409.76517 27.25745 171.85570 308
424.24792 29.38546 172.03551 304
476.31815 37.11670 165.06114 300
483.88699 38.26554 168.11009 293
4898.73535 692.37585 297.26215 499
267.95236 6.52882 203.50757 314
271.28366 7.04642 203.50345 310
409.54779 28.37899 171.86057 308
424.06229 30.61374 171.98776 304
476.05487 38.67861 165.07268 300
483.74966 39.82972 168.06308 293
267.90363 6.81994 203.50822 314
271.23080 7.35738 203.50839 310
409.38559 29.56339 171.84605 308
423.83780 31.87014 172.01326 304
475.82172 40.24283 165.08047 300
483.56891 41.47844 168.02679 293
4964.48438 761.68280 298.53558 351
267.85422 7.11184 203.50624 314
271.18262 7.66927 203.49805 310
409.21960 30.70808 171.86493 308
423.67371 33.13052 172.01929 304
475.63333 41.79343 165.08823 300
483.35364 43.09524 168.01559 293
4896.21387 780.03656 296.89346 498
267.80658 7.40851 203.50809 314
271.13287 7.97698 203.50963 310
409.04425 31.91418 171.85005 308
423.46869 34.37880 171.97601 304
475.35773 43.36353 165.09152 300
483.19656 44.74140 168.03981 293
4888.53857 808.14075 296.96854 498
4945.53027 818.69916 376.70322 498
267.76321 7.70200 203.50082 314
271.13956 8.30506 203.49509 282
408.83023 33.02596 171.86230 308
423.23489 35.61916 172.00739 304
474.38876 44.79977 165.22006 446
482.98267 46.34577 168.02908 293
4934.03906 845.71539 376.14374 354
267.71689 7.99876 203.50710 314
396.04135 31.84256 171.72029 312
408.62543 34.22238 171.84325 308
423.04950 36.89338 172.01773 304
472.97382 46.15922 165.47974 447
482.73755 48.03630 167.96967 293
267.66043 8.28412 203.50551 314
395.83521 32.96339 171.74455 312
408.40973 35.38195 171.84738 308
422.81537 38.12615 171.98856 304
471.50037 47.52391 165.69945 448
4896.76318 898.92621 297.28091 498
267.60986 8.57521 203.50229 314
395.67938 34.03223 171.72360 312
408.21179 36.53924 171.88087 308
422.56589 39.38208 171.98683 304
470.09030 48.79433 165.91104 449
4847.44629 919.59180 296.02563 497
267.55219 8.87414 203.50426 314
395.46460 35.11336 171.71611 312
408.00851 37.68438 171.86333 308
422.34879 40.63328 171.99171 304
468.74359 50.13900 166.10161 450
267.49161 9.16060 203.50011 314
395.20911 36.18994 171.75024 312
407.74216 38.82494 171.86710 308
422.11310 41.89047 172.00865 304
467.33588 51.45656 166.31992 451
5012.75195 1013.59406 299.28040 497
267.44034 9.44933 203.49902 314
395.02512 37.28256 171.74385 312
407.52026 39.97507 171.82367 308
421.85532 43.10774 172.01166 304
465.97235 52.71717 166.57727 451
4824.91064 1002.50165 218.85152 463
267.37549 9.74441 203.49736 314
394.77063 38.34318 171.72258 312
407.27518 41.12949 171.83968 308
453.47995 51.48382 164.93677 303
464.57666 54.03375 166.75566 452
4822.91113 1032.33301 219.38777 463
267.30634 10.03578 203.49724 314
394.57098 39.40976 171.70422 312
407.03589 42.26147 171.84547 308
453.15561 52.91595 164.96031 303
463.21829 55.26741 166.98753 453
4820.34814 1061.11621 218.96039 462
267.24652 10.31815 203.50722 314
394.29965 40.45626 171.70168 312
406.74542 43.42696 171.85434 308
452.81726 54.38555 164.91512 303
461.73157 56.45617 167.23079 421
4818.34521 1090.63440 219.00119 462
267.18292 10.60520 203.50728 314
394.07315 41.53396 171.73373 312
406.48727 44.57661 171.82646 308
452.42023 55.81007 164.92984 303
459.85657 57.62321 167.49132 422
4815.67725 1119.32153 219.71664 462
267.11154 10.89707 203.50238 314
393.83237 42.60421 171.69211 312
406.22018 45.70832 171.85600 308
452.10013 57.18501 164.91396 303
458.02884 58.70644 167.82167 423
4813.39941 1149.12671 218.60817 462
267.04486 11.18098 203.50471 314
393.55289 43.70185 171.69058 312
405.94037 46.86432 171.81198 308
451.76941 58.61757 164.91895 303
457.06235 59.97971 167.92320 297
4810.20947 1178.82898 219.15276 462
4925.08643 1207.44592 298.70389 333
266.97696 11.47301 203.49986 314
393.29401 44.75735 171.72511 312
405.67044 47.99805 171.81142 308
451.41394 60.04638 164.96167 303
456.73947 61.46401 167.92763 297
4806.17285 1207.82764 219.12553 341
266.90283 11.75980 203.50102 314
393.02786 45.83312 171.71527 312
405.39841 49.17850 171.81946 308
450.99066 61.45754 164.93329 303
456.40002 62.93604 167.93330 297
266.82022 12.04604 203.50410 314
392.73071 46.87332 171.70441 312
405.06329 50.28040 171.84375 308
450.64767 62.88075 164.90787 303
456.06424 64.39560 167.87671 297
266.74033 12.34236 203.49763 314
392.42978 47.92228 171.69316 312
404.80020 51.43650 171.80429 308
449.16388 63.98836 165.16287 428
455.73038 65.87549 167.85468 297
266.67087 12.62442 203.50401 314
392.15213 48.98894 171.67162 312
404.48270 52.57393 171.81390 308
447.48331 65.02402 165.46123 429
455.36563 67.34691 167.83958 297
266.58316 12.91287 203.49768 314
391.85788 50.06164 171.71011 312
404.13449 53.69326 171.81932 308
445.78339 66.02377 165.73622 430
455.02911 68.75214 167.82098 297
266.49936 13.19373 203.50200 314
391.58710 51.12084 171.69867 312
432.51108 63.48951 164.87471 308
444.13913 67.04864 165.99846 431
454.69452 70.22496 167.81529 297
266.42239 13.47549 203.50426 314
391.27649 52.15110 171.69771 312
432.10886 64.84777 164.83839 308
442.49991 68.02741 166.32967 432
266.33279 13.76578 203.50238 314
390.91925 53.21042 171.68660 312
431.71146 66.13230 164.86485 308
440.84509 69.05888 166.59531 433
266.24411 14.05242 203.50627 314
390.62573 54.25012 171.70172 312
431.27563 67.43804 164.83881 308
439.25543 69.97916 166.84517 434
266.15350 14.32740 203.49913 314
390.30264 55.31585 171.68835 312
430.87195 68.68584 164.86499 308
437.41467 70.87451 167.15277 420
266.06949 14.61470 203.50056 314
389.93347 56.38033 171.66728 312
430.41946 69.98205 164.83752 308
435.60883 71.74950 167.44785 421
265.97195 14.89543 203.50769 314
389.60281 57.42241 171.67189 312
429.96722 71.27508 164.86198 308
433.83084 72.62067 167.75786 422
265.92844 15.18650 203.48743 287
389.25690 58.43531 171.65280 312
429.49945 72.58681 164.88055 308
433.11276 73.86282 167.81757 301
378.26151 55.67777 171.54092 316
388.91824 59.51791 171.64850 312
429.02661 73.84653 164.88388 308
432.69791 75.12202 167.81003 301
377.91998 56.67775 171.56775 316
388.53958 60.50843 171.65297 312
428.56079 75.14318 164.85754 308
432.25983 76.46930 167.80975 301
377.59384 57.64063 171.53152 316
388.20087 61.55942 171.63014 312
426.96490 75.96996 165.15685 426
431.81982 77.80547 167.81743 301
377.25577 58.61415 171.55580 316
413.55643 72.38262 164.76947 312
425.32416 76.80379 165.40242 427
431.39737 79.09342 167.79684 301
376.86945 59.58484 171.55028 316
413.11774 73.50761 164.74576 312
423.62964 77.57484 165.69530 428
430.96637 80.39832 167.77046 301
376.54016 60.53200 171.52425 316
412.61911 74.70325 164.75697 312
421.99698 78.41508 166.00941 429
430.46597 81.71127 167.75557 301
376.17480 61.50473 171.53064 316
412.18542 75.86355 164.75919 312
420.41440 79.17393 166.27045 430
430.00348 83.05408 167.72583 301
375.80865 62.43581 171.51405 316
411.69632 77.08605 164.77435 312
418.79062 79.98679 166.55786 431
375.42007 63.39230 171.53639 316
411.16803 78.20840 164.80086 312
417.22043 80.75738 166.84665 432
375.04797 64.39111 171.50601 316
410.67285 79.40404 164.76418 312
415.70914 81.48812 167.08752 433
51191.28906 21472.11328 -10759.05957 1000
374.65903 65.32072 171.50681 316
410.18649 80.57533 164.77177 312
414.11099 82.26931 167.38570 434
374.24890 66.30020 171.51562 316
409.69281 81.73847 164.76485 312
412.59357 82.97108 167.61890 435
373.82263 67.24110 171.53711 316
409.17331 82.85699 164.77579 312
411.45969 83.90894 167.79208 305
373.42734 68.18810 171.52896 316
408.62045 84.03979 164.76659 312
411.01599 85.12460 167.75775 305
396.22769 79.77737 164.68643 316
408.11026 85.17206 164.77815 312
410.48538 86.29433 167.74013 305
395.73944 80.81818 164.66483 316
406.60910 85.87952 165.06378 418
410.03610 87.48593 167.73842 305
395.23825 81.91715 164.66747 316
404.92902 86.49111 165.38776 419
409.48660 88.63404 167.74225 305
394.73032 82.97919 164.67169 317
403.22519 87.05612 165.72746 421
409.01498 89.82315 167.70349 305
394.21054 84.03311 164.65865 317
401.55475 87.65965 166.02394 422
408.48801 90.97572 167.68726 305
393.65100 85.09592 164.67393 317
399.91821 88.18762 166.32503 423
407.91760 92.18811 167.69423 305
393.08612 86.17411 164.70439 317
398.32901 88.77707 166.58675 424
407.39053 93.35226 167.66074 305
392.53979 87.18839 164.68271 317
396.72208 89.34373 166.92290 425
391.96964 88.23770 164.70569 317
395.11563 89.84404 167.18463 426
391.43152 89.27468 164.71097 317
393.55304 90.42973 167.47711 427
390.84442 90.33223 164.72377 317
392.21042 91.06394 167.68892 311
390.31381 91.37116 164.71661 317
391.70221 92.11000 167.67697 311
3782.64893 1931.97217 218.05045 434
388.95547 91.99960 164.92650 429
391.13800 93.16722 167.71332 311
387.48062 92.52218 165.24911 430
390.56711 94.22266 167.70276 311
385.99182 93.00969 165.52463 431
389.98907 95.30051 167.65691 309
384.54193 93.52399 165.77023 432
389.45929 96.35566 167.67160 309
383.10699 94.05637 166.06512 433
388.89328 97.40558 167.67447 309
381.64157 94.55727 166.29741 434
388.30182 98.43989 167.62196 309
380.27066 95.02465 166.55362 435
387.74069 99.49208 167.61208 309
378.83252 95.53677 166.81726 436
387.12378 100.53558 167.65553 309
29743.11914 17938.26953 -3174.61865 1000
377.45059 96.00685 167.04149 437
376.05762 96.47787 167.29153 438
374.69516 96.97344 167.54561 439
373.91904 97.76867 167.60156 315
373.32910 98.73919 167.60745 315
372.75696 99.67983 167.59067 315
372.14294 100.63792 167.58414 315
371.53955 101.55041 167.61078 315
370.87354 102.50192 167.61665 315
370.28787 103.42510 167.58667 315
369.64862 104.33537 167.58792 315
369.01044 105.28927 167.56671 315
368.35086 106.20184 167.59880 315
367.69760 107.11893 167.59387 313
367.09018 108.02296 167.54384 313
27007.90039 21437.42578 4171.20508 1000
22951.11523 20346.45312 -1777.56018 1000
48380.31250 47565.16797 -15556.15332 1000
4772.41455 4959.11426 217.46581 421
4717.47656 4960.68408 216.45012 422
4664.54736 4962.92334 217.90880 423
32844.35156 36890.95703 -7083.55957 1000
4612.18359 4966.04492 216.62759 489
3576.09302 3840.99927 134.00542 490
4588.61279 5001.92041 216.93463 446
4586.32031 5059.61670 217.50560 414
3231.73950 4952.52832 122.54938 483
766.66455 1035.90759 83.53173 498
766.95618 1036.49976 102.93300 486
767.39911 1037.13977 122.17532 486
767.70062 1037.99402 141.45351 450
768.34583 1039.04236 160.57239 450
768.99597 1040.52417 179.95694 394
769.94659 1042.42224 199.11488 324
762.16553 1043.09302 102.38627 327
761.79688 1042.13831 122.06998 397
761.52032 1041.72961 141.35898 452
761.51483 1041.60779 160.53896 452
761.43066 1041.63623 179.92912 488
761.56964 1042.06262 199.22673 488
761.64001 1042.12634 218.42941 499
761.91095 1042.80286 237.69040 499
762.07275 1043.15576 256.69699 486
762.36578 1043.96667 276.01459 486
762.84113 1044.52014 295.38815 450
763.18732 1045.62329 314.93231 449
757.51581 1050.44348 257.09210 327
757.10883 1049.08191 276.25607 396
756.74469 1048.60510 295.68320 451
756.54785 1048.56653 314.96454 451
3101.11890 5898.60986 116.59196 419
3049.75952 5885.03760 116.38187 430
2997.45337 5866.66260 117.99397 441
2948.76465 5856.39648 118.10489 433
2900.40259 5847.90186 117.96698 437
2856.31348 5845.38574 118.94794 415
2812.15186 5844.53711 118.06944 394
2826.97388 5876.04492 223.01160 478
2770.17139 5843.81934 119.60016 397
2784.50586 5875.82129 223.96198 479
2727.54883 5845.86133 118.72015 348
2738.16797 5869.15723 223.82835 479
2687.52222 5848.68799 119.83261 350
2696.22314 5870.98047 223.13329 480
2653.10254 5869.94434 119.96075 252
2653.14233 5870.34375 223.69228 481
2612.37183 5871.04443 118.51724 481
2613.51025 5875.99316 222.35466 481
2570.65649 5871.81689 119.05422 482
2571.60840 5875.95654 222.66533 482
2529.59277 5874.75488 118.91056 340
2530.98755 5875.64795 222.61420 482
2563.33496 5959.33496 327.28940 405
2529.51709 5981.82520 118.47784 339
2526.17041 5974.33984 222.88118 339
2526.70752 5976.44824 328.60373 479
1427.62817 3184.99805 108.71262 292
2529.98999 6095.02148 115.96491 338
2527.91162 6086.64893 223.62874 338
1375.36780 3103.89014 111.97559 308
1451.18030 3308.97729 162.55875 369
2457.82520 6016.24609 327.33185 494
1338.44580 3063.54614 112.77816 417
1428.82007 3311.83447 162.57051 468
1324.44324 3083.23169 112.30538 414
1407.00415 3314.17725 162.02235 468
1340.25513 3187.73315 54.29268 296
1311.56482 3107.35840 111.87222 412
1385.06970 3316.14233 162.65686 469
1316.31238 3181.88330 54.94209 296
1299.48621 3132.81055 111.39581 411
1362.76123 3317.74780 162.59628 469
1299.15942 3194.74829 54.58046 370
1286.90613 3160.38354 110.38233 405
1340.98730 3320.14966 162.17896 469
1287.37415 3226.77661 52.58215 357
1274.73291 3188.72021 110.29682 410
1319.09082 3321.57275 162.96158 471
1277.02014 3262.47900 51.46521 351
1262.63257 3217.64917 109.22978 402
1296.60803 3324.89819 162.50618 470
1267.17322 3299.82007 49.50988 345
1251.28589 3250.88062 107.96377 391
1274.79358 3326.29077 162.74165 470
1259.18359 3346.51270 47.24613 321
1241.03796 3289.12402 107.21391 377
1253.93762 3329.86743 162.68617 452
1232.10681 3331.99414 105.85475 362
1236.65564 3347.66113 162.24663 455
1227.82983 3391.18481 104.23981 316
1234.31470 3492.13062 101.23324 303
1240.96802 3600.04639 97.04822 301
1249.30225 3713.51172 93.81081 300
258.52893 1541.91199 65.71362 422
258.43375 1542.59082 90.99031 422
258.50998 1543.32520 116.45642 422
258.35782 1543.95459 141.70204 422
258.68539 1544.47278 166.83243 422
258.48419 1545.37000 192.24936 422
258.63809 1546.09082 217.43199 358
258.31659 1546.75537 243.01756 357
258.43021 1547.74512 268.22067 357
249.13704 1543.34302 65.58112 367
249.08511 1543.48792 90.68389 367
249.06177 1543.81335 116.17793 429
249.21036 1544.32397 141.42691 429
249.15338 1544.44922 166.93114 429
248.98643 1544.73071 192.20357 429
249.02008 1545.51050 217.30588 429
248.97749 1545.71619 242.88336 429
248.93080 1546.07544 268.02579 429
-7223.90234 63598.80469 6539.32324 1000
-415.53162 3001.33813 932.76801 1000
-251.80560 2044.90173 45.00035 411
-264.97110 2044.56812 113.74666 440
-265.27792 2044.57312 148.32408 481
-264.97983 2045.32764 182.63156 499
-265.53363 2046.41248 216.74998 492
-265.78299 2048.00488 251.56528 462
-25712.01562 57559.64062 3314.47803 1000
127.33109 148.06866 169.58458 485
126.08338 148.01785 169.42317 441
124.37132 148.62254 169.05110 489
120.26344 148.88081 168.34612 489
117.40823 151.13139 167.44170 316
116.48025 150.48677 167.39870 316
115.57916 149.82266 167.41583 316
114.68997 149.14149 167.41631 316
111.53337 151.67671 166.38631 314
110.57337 150.97360 166.40387 314
109.67303 150.28494 166.39507 314
108.76142 149.63286 166.37326 314
107.85215 148.93991 166.36409 314
106.90038 148.20457 166.36563 314
106.03842 147.49763 166.38676 314
105.14282 146.76689 166.37268 314
103.84211 146.57300 166.20169 423
96.10757 156.32027 166.37016 309
102.20140 146.73160 165.92545 422
95.15047 155.54803 166.38440 310
100.61337 146.91425 165.60979 421
94.18761 154.79825 166.38902 310
98.92630 147.08904 165.27240 420
93.24307 154.05838 166.39117 310
97.27863 147.23000 164.95979 419
92.25546 153.23648 166.39206 310
95.67502 147.33461 164.66676 428
91.31734 152.45865 166.33502 310
94.05723 147.42323 164.36729 427
90.36541 151.69623 166.33682 310
-12085.24609 14444.96973 1144.74316 1000
92.39860 147.44864 164.06340 426
89.47692 150.90187 166.36382 310
-24361.95508 28510.20703 -8569.69238 1000
90.77025 147.53342 163.75006 425
88.50531 150.06795 166.35481 310
89.05253 147.58105 163.46718 424
87.59368 149.26099 166.32428 310
88.08518 146.89708 163.40970 307
86.65393 148.46262 166.33899 310
87.25732 145.96861 163.44545 307
85.65101 147.73643 166.33203 423
86.41182 145.06262 163.43576 307
83.92024 147.79466 165.99887 422
85.62241 144.17749 163.49484 307
82.21388 147.88460 165.69933 421
73.63658 157.02748 166.24002 305
84.82188 143.24060 163.50371 307
80.40665 147.95056 165.34927 420
72.72212 156.13120 166.27357 305
84.03018 142.31552 163.54169 307
78.64613 147.99977 165.06578 419
71.74442 155.24387 166.29279 305
83.23891 141.35703 163.61366 307
76.78500 148.06329 164.69519 418
70.81165 154.31842 166.27902 305
103.05824 119.31357 171.52603 316
74.94364 148.13809 164.37018 416
69.83213 153.38112 166.29338 306
102.35093 118.57471 171.54628 316
73.12222 148.22438 164.00859 415
68.89288 152.43835 166.28708 306
101.65562 117.80820 171.53882 316
71.20264 148.30563 163.70390 414
67.97374 151.51854 166.23854 306
100.93164 117.06481 171.55417 316
69.26282 148.35178 163.33197 413
67.00214 150.58472 166.25912 306
100.22636 116.32741 171.53403 316
68.37541 147.40361 163.34985 304
66.07548 149.66725 166.25607 306
99.56203 115.56739 171.56480 316
67.58949 146.36124 163.37146 304
65.14615 148.72264 166.24585 306
-19953.33789 19447.44531 -707.54718 1000
98.86996 114.77204 171.55849 316
66.79449 145.34491 163.37772 304
63.39018 148.60034 165.95877 410
98.17043 114.00924 171.58171 316
66.04041 144.23743 163.40511 304
61.37301 148.63545 165.59265 409
97.51922 113.24458 171.56181 316
89.13523 121.02827 171.66354 312
59.30559 148.73373 165.21072 408
49.59719 157.73518 166.12079 301
96.83537 112.48363 171.56964 316
88.42220 120.18148 171.67616 312
57.20458 148.85744 164.88826 407
48.66480 156.65976 166.14316 301
-11412.91016 10675.41211 212.66510 1000
96.15412 111.69779 171.59709 316
87.71423 119.35294 171.63490 312
55.10334 148.89876 164.46643 406
47.68304 155.65076 166.13864 301
95.47133 110.89236 171.57779 316
87.00596 118.48269 171.66057 312
52.94329 149.00830 164.11710 405
46.77464 154.56664 166.13147 301
94.85263 110.11255 171.58156 316
86.29455 117.63287 171.66225 312
50.78654 149.05519 163.69891 404
45.82700 153.48700 166.12366 301
94.16721 109.29688 171.63155 316
85.59436 116.79865 171.66986 312
48.59215 149.14285 163.30266 402
44.86780 152.36089 166.15356 301
93.54844 108.50417 171.63200 316
84.92834 115.94913 171.67091 312
47.42371 148.26639 163.25214 300
43.95557 151.34424 166.14992 301
92.87199 107.73796 171.61711 316
84.24155 115.09305 171.69925 312
46.69097 147.06876 163.28403 300
42.96428 150.21867 166.15361 301
92.22505 106.92661 171.61101 316
83.55421 114.24654 171.71178 312
45.92439 145.93416 163.28178 300
41.72139 149.41396 166.02940 400
91.59948 106.10603 171.63866 316
82.84875 113.36176 171.68944 312
72.95172 121.61546 171.80119 308
39.38264 149.51079 165.66676 398
90.97138 105.27995 171.65433 316
82.18594 112.50296 171.72646 312
72.18445 120.68494 171.80789 308
37.00132 149.60440 165.25777 397
90.32647 104.48737 171.62527 316
81.53510 111.63300 171.71512 312
71.52126 119.73990 171.78302 308
34.53087 149.70015 164.77415 396
23.38970 158.73322 165.99632 297
89.70927 103.63877 171.67007 316
80.83804 110.74107 171.73108 312
70.80870 118.80000 171.79770 308
32.06382 149.77504 164.39090 395
22.46501 157.54437 166.00111 297
89.11018 102.81984 171.65192 316
80.21266 109.89772 171.73521 312
70.07569 117.86044 171.80669 308
29.56199 149.92281 163.91096 394
21.50790 156.30476 166.05066 297
88.50058 101.99364 171.65804 316
79.54942 108.99868 171.71832 312
69.40138 116.93954 171.80881 308
27.02995 149.96149 163.46585 392
20.54885 155.08669 166.04749 295
87.87639 101.20377 171.66766 316
78.92898 108.10169 171.71565 312
68.69043 115.97981 171.81700 308
24.70103 149.91187 163.07674 296
19.58401 153.88704 165.99577 295
87.28725 100.35294 171.66043 316
78.25233 107.24516 171.72444 312
68.02521 115.02403 171.85112 308
23.98881 148.50876 163.14780 296
18.60509 152.60667 166.03395 295
86.69462 99.52627 171.65616 316
77.63383 106.30635 171.76442 312
67.30819 114.09141 171.85094 308
55.53192 122.90700 171.92247 304
17.62897 151.44911 165.97977 295
86.10024 98.67457 171.66476 316
77.02232 105.43925 171.76865 312
66.67862 113.11343 171.84840 308
54.79672 121.91529 171.91702 304
16.47064 150.35977 165.90727 391
85.51409 97.82703 171.69719 316
76.35722 104.53937 171.73483 312
65.97581 112.15846 171.84631 308
54.06815 120.82556 171.96622 304
13.69733 150.40567 165.51135 389
84.96603 96.99326 171.70264 316
75.75311 103.65195 171.74957 312
65.32941 111.17781 171.86172 308
53.37257 119.80972 171.92526 304
10.94930 150.50000 165.02008 388
84.37206 96.15926 171.69975 316
75.15397 102.72753 171.74731 312
64.67549 110.16884 171.83220 308
52.69043 118.76840 171.96991 304
8.13345 150.55293 164.58504 387
83.80679 95.27058 171.68221 316
74.51734 101.78620 171.77805 312
64.00739 109.19375 171.83743 308
51.94789 117.69966 171.94119 304
5.21612 150.63847 164.06003 386
-8.01718 159.95886 165.63397 290
83.24004 94.43750 171.72401 316
73.92770 100.87070 171.77000 312
63.39587 108.24324 171.84457 308
51.27663 116.65881 171.96066 304
2.31168 150.68814 163.57286 384
-8.98666 158.55482 165.60095 290
82.65352 93.59258 171.68440 316
