# .PCD v.7 - Point Cloud Data file format
VERSION .7
FIELDS x y z rgb
SIZE 4 4 4 4
TYPE F F F U
COUNT 1 1 1 1
WIDTH 1398
HEIGHT 1
VIEWPOINT 5725.464844 -3975.484131 149.174377 -0.042015 -0.136984 0.002352 0.989679
POINTS 1398
DATA ascii
472.77026 -47.04590 165.34944 447
482.16693 -48.78556 167.98853 293
266.93994 -8.76638 203.49852 314
270.32837 -9.35625 203.49692 310
408.08453 -33.89378 171.85498 308
422.58093 -36.44772 171.98264 304
474.17838 -45.65950 165.13184 446
482.46997 -47.16808 168.03406 293
267.04926 -8.46146 203.49969 314
270.44537 -9.04318 203.49936 310
408.34143 -32.72565 171.89792 308
422.84552 -35.24889 172.02007 304
474.78442 -44.16565 165.10686 300
482.70874 -45.51171 168.08910 293
267.15875 -8.16307 203.50859 314
270.56012 -8.72999 203.49982 310
408.61215 -31.55252 171.86504 308
423.09964 -33.96116 172.04057 304
475.09921 -42.58575 165.13213 300
482.96378 -43.89058 168.09798 293
267.25803 -7.87146 203.49863 314
270.65549 -8.41691 203.50333 310
408.81985 -30.42700 171.86209 308
423.32159 -32.69140 172.04234 304
475.40973 -40.96676 165.12476 300
483.18823 -42.24541 168.07820 293
267.36310 -7.56942 203.50833 314
270.76883 -8.08854 203.51039 310
409.02390 -29.21911 171.89738 308
423.58124 -31.48942 172.03685 304
475.65894 -39.41195 165.10808 300
483.41049 -40.60489 168.10492 293
267.46982 -7.28208 203.49954 314
270.87381 -7.77667 203.50816 310
409.26266 -28.08409 171.86252 308
423.79276 -30.19641 171.99834 304
475.92224 -37.82090 165.09195 300
483.58884 -38.97076 168.07535 293
267.57233 -6.97798 203.49745 314
270.97128 -7.46416 203.49937 310
409.46136 -26.90504 171.86403 308
424.02496 -28.94522 172.03160 305
440.87820 -31.33052 172.18469 301
483.75909 -37.35195 168.14633 293
267.66861 -6.68692 203.49750 314
271.07394 -7.14183 203.50357 310
409.70160 -25.73492 171.88954 308
424.25372 -27.68978 172.00491 305
441.12280 -29.95354 172.19191 301
484.23956 -35.76603 168.10678 460
267.77264 -6.38570 203.50401 314
271.18109 -6.82611 203.50508 310
409.90964 -24.55492 171.91104 308
424.45016 -26.44060 172.00835 305
441.28973 -28.57504 172.16095 301
485.44916 -34.23332 167.89195 459
34406.09375 -4367.11084 4772.15625 1000
267.86087 -6.09031 203.50368 314
271.26855 -6.50037 203.50336 310
410.07291 -23.39166 171.86314 308
424.66989 -25.16231 172.05240 305
441.55447 -27.22494 172.22345 301
486.66718 -32.70575 167.74220 458
267.95551 -5.79337 203.50391 314
271.36838 -6.18977 203.50362 310
410.26468 -22.22290 171.87988 308
424.87106 -23.90871 172.02419 305
441.75635 -25.84524 172.20305 301
487.95316 -31.19297 167.58441 457
268.04822 -5.49670 203.50644 314
271.45547 -5.86596 203.50221 310
410.44992 -21.04365 171.88725 308
425.03806 -22.66970 172.04518 305
441.93793 -24.50354 172.18900 301
489.15948 -29.65051 167.37132 456
268.13782 -5.19819 203.50899 314
271.55576 -5.54506 203.50209 310
410.62103 -19.87906 171.90163 309
425.23105 -21.36185 172.01323 305
442.08539 -23.10071 172.17137 301
490.46066 -28.13862 167.21461 455
268.22485 -4.90489 203.50327 314
271.64365 -5.22819 203.50797 310
410.78629 -18.69312 171.88824 309
425.37405 -20.11606 172.02411 305
442.26846 -21.78053 172.21100 301
491.70645 -26.52773 167.00961 455
268.31140 -4.60254 203.50731 314
271.73318 -4.91139 203.50916 310
410.94434 -17.53302 171.90878 309
425.57745 -18.86167 172.01520 305
442.47644 -20.37243 172.17313 301
492.99353 -25.00600 166.81644 454
268.39722 -4.30622 203.50961 314
271.81583 -4.60166 203.50386 310
411.09116 -16.34494 171.88992 309
425.72675 -17.60944 172.04135 305
442.63629 -19.06368 172.20280 301
494.24518 -23.43200 166.57693 453
268.47974 -4.00451 203.50586 314
271.89240 -4.27605 203.50108 310
411.21259 -15.20519 171.90367 309
425.87009 -16.31781 172.06049 305
442.78497 -17.64298 172.23494 301
495.53992 -21.79609 166.41940 452
268.55316 -3.71062 203.51031 314
271.98175 -3.95636 203.50011 310
411.35684 -14.01899 171.91640 309
425.99921 -15.10387 172.06244 305
442.94217 -16.31896 172.21744 301
496.75964 -20.14798 166.18199 483
268.62836 -3.41018 203.50951 314
272.05109 -3.63439 203.49831 310
411.47214 -12.84887 171.90938 309
426.13528 -13.79089 172.02879 305
443.05276 -14.91224 172.19200 301
462.91040 -16.24049 172.39348 297
268.71536 -3.11191 203.50555 314
272.13385 -3.31463 203.50424 310
411.61069 -11.65282 171.89586 309
426.24118 -12.52880 172.06073 305
443.17300 -13.53863 172.21413 301
463.00034 -14.74262 172.42935 297
268.78397 -2.81726 203.50079 314
272.21152 -3.00872 203.49774 310
411.72897 -10.50125 171.91545 309
426.40277 -11.29836 172.02405 305
443.28894 -12.22044 172.19720 301
463.15259 -13.27598 172.37219 297
268.85599 -2.52140 203.50983 314
272.28360 -2.68267 203.50699 310
411.83972 -9.30231 171.90216 309
426.50900 -10.02316 172.05299 305
443.45288 -10.81779 172.20027 301
463.29062 -11.76391 172.39963 297
268.93027 -2.22100 203.49911 314
272.35248 -2.36018 203.50760 310
411.94916 -8.18050 171.92581 309
426.60245 -8.73736 172.07230 305
443.56345 -9.49210 172.21735 301
463.39645 -10.26077 172.40848 297
268.99326 -1.92994 203.50888 314
272.42337 -2.04206 203.50224 310
412.06009 -7.00444 171.89046 309
426.68231 -7.50389 172.04475 305
443.63208 -8.11431 172.23189 301
463.48209 -8.79125 172.38330 297
269.06064 -1.62291 203.49825 314
272.49280 -1.73033 203.50003 310
412.12271 -5.82482 171.89217 309
426.77322 -6.21916 172.06258 305
443.73941 -6.70317 172.23181 301
463.53326 -7.30599 172.40880 297
269.13583 -1.32407 203.50385 314
272.55429 -1.41211 203.50548 310
412.22141 -4.62797 171.88409 309
426.85294 -4.96450 172.03256 305
443.82336 -5.37926 172.19662 301
463.64774 -5.81564 172.38725 297
269.19785 -1.02926 203.50462 314
272.61932 -1.08808 203.49831 310
412.30383 -3.46287 171.90248 309
426.91302 -3.69667 172.03970 305
443.88779 -3.96369 172.19173 301
463.74380 -4.29220 172.41562 297
269.24899 -0.73993 203.50824 314
272.68317 -0.77790 203.50848 310
412.36246 -2.28708 171.89168 309
427.00232 -2.41846 172.02965 305
443.93036 -2.59953 172.20752 301
451.73102 -2.70497 174.62410 422
269.31992 -0.43494 203.50439 314
272.73575 -0.45351 203.50362 310
412.41150 -1.12572 171.92145 309
427.08646 -1.16764 172.04245 305
444.03009 -1.24976 172.19864 301
463.82816 -1.32333 172.42485 297
513.73108 -1.59729 168.32320 288
3569.05811 -15.61688 108.81587 416
269.37833 -0.13547 203.50092 314
272.79047 -0.13095 203.50114 310
412.47281 0.06864 171.91243 309
427.10065 0.10509 172.04466 305
444.07645 0.14703 172.18781 301
463.92661 0.14702 172.40660 297
513.79144 0.22557 168.27869 288
3584.51416 4.84548 52.82087 431
3555.63184 5.16527 108.72217 400
269.43454 0.15977 203.49918 314
272.85477 0.18667 203.50763 310
412.53577 1.25760 171.88380 309
427.15509 1.37673 172.05855 305
444.10458 1.50078 172.22240 301
451.52325 1.56731 174.62820 426
3569.51343 25.54858 52.98092 432
3548.72144 25.28856 108.53956 389
269.48242 0.45393 203.50769 314
272.90671 0.49577 203.50854 310
412.57300 2.40377 171.88370 309
427.21881 2.62877 172.06653 305
444.15692 2.85322 172.23869 301
464.00363 3.09790 172.40005 297
3545.52832 45.43547 54.28644 301
3545.56152 45.28727 109.06298 312
269.54160 0.75726 203.50073 314
272.95581 0.81531 203.50664 310
412.57382 3.58705 171.92345 309
427.20874 3.87577 172.03642 305
444.16309 4.23680 172.21501 301
463.97830 4.62777 172.40218 297
3520.69897 65.93563 55.29683 318
3543.47266 65.50970 108.66517 459
269.58694 1.04686 203.50255 314
273.09708 1.14516 203.47974 281
412.61716 4.76112 171.89394 309
427.24332 5.12851 172.06772 305
444.22095 5.58331 172.24033 301
464.04028 6.12912 172.39763 297
3509.08130 85.59563 55.99405 421
269.63666 1.34879 203.50748 314
399.82538 5.53365 171.79022 313
412.61502 5.94610 171.89569 309
427.28281 6.40131 172.06001 305
444.18631 6.93090 172.20413 301
464.01788 7.61064 172.41542 297
3498.22754 105.02153 56.48987 421
269.68240 1.64600 203.50876 314
399.85321 6.62225 171.75775 313
412.64273 7.10456 171.90720 309
427.26538 7.67370 172.04723 305
444.19928 8.31279 172.21764 301
464.02304 9.10629 172.39784 297
3489.82397 125.04508 56.91318 429
269.73462 1.93997 203.49812 314
399.86157 7.68511 171.80492 313
412.63675 8.28585 171.89409 309
427.27759 8.91498 172.02773 305
444.21011 9.65935 172.21112 301
464.03394 10.53238 172.41022 297
3482.92847 144.47456 57.44049 430
269.76993 2.23765 203.50601 314
399.87662 8.81701 171.78365 313
412.62122 9.43332 171.91844 309
427.29825 10.19752 172.06711 305
444.21674 11.02474 172.23433 301
464.00409 12.06761 172.40570 297
3477.30103 164.91103 57.64384 491
269.81790 2.53577 203.50514 314
399.88544 9.89811 171.77432 313
412.65964 10.60581 171.88274 309
427.26761 11.42547 172.01743 305
444.14172 12.43262 172.21432 301
463.96307 13.51214 172.37634 297
3471.83130 183.80144 57.75204 494
269.84763 2.82548 203.49950 314
399.87192 10.97049 171.76459 313
412.61734 11.78519 171.91469 309
427.26016 12.68047 172.01654 305
444.13614 13.74807 172.18578 301
463.91513 15.00591 172.41316 297
3468.06519 203.72218 58.14321 495
269.88889 3.12350 203.50269 314
399.82968 12.06493 171.76051 313
412.62045 12.94331 171.90611 309
427.23294 13.97489 172.04326 305
444.08209 15.14956 172.22261 301
497.04330 18.79181 166.34126 483
3463.49878 223.45331 58.04256 495
269.92682 3.41980 203.49744 314
399.79608 13.16904 171.78029 313
412.54849 14.14123 171.88737 309
427.19888 15.24521 172.04373 305
444.06070 16.49115 172.19254 301
496.10721 20.41603 166.53572 452
3459.93066 242.80864 58.07324 495
3534.69653 248.94144 108.68636 499
269.96326 3.70697 203.50099 314
399.76263 14.27803 171.75667 313
412.51691 15.30647 171.91908 309
427.11435 16.46844 172.05624 305
444.00818 17.88579 172.21404 301
494.85031 22.00297 166.75026 453
3455.48047 262.75378 58.17857 497
3534.53442 269.04276 109.27690 499
269.99939 4.00901 203.50729 314
399.72263 15.34283 171.77922 313
412.51651 16.48262 171.88460 309
427.09390 17.75295 172.06058 305
443.96194 19.21840 172.21075 301
493.58542 23.56207 166.97325 453
3453.24829 282.43796 57.83890 497
3533.44092 289.49521 108.67451 499
270.02512 4.30414 203.50041 314
399.69778 16.46419 171.75604 313
412.46378 17.60890 171.91547 309
426.99982 18.98603 172.05254 305
443.85379 20.56665 172.21690 301
492.29230 25.12916 167.16493 454
3450.08350 302.50687 58.28477 497
270.05734 4.59028 203.50087 314
399.67664 17.54762 171.76599 313
412.40250 18.77850 171.91713 309
426.94775 20.24542 172.03560 305
443.82431 21.94508 172.21892 301
491.07306 26.62169 167.36630 455
3447.91650 322.07404 58.27149 497
270.08459 4.89057 203.51021 314
399.58881 18.61279 171.79877 312
412.31195 19.96138 171.88126 309
426.86801 21.53212 172.02650 305
443.70612 23.28187 172.19786 301
489.81448 28.18270 167.60323 456
3447.17847 341.63824 58.44104 497
3645.51147 362.95126 105.34559 499
270.09973 5.17901 203.49883 314
399.56476 19.71697 171.78333 312
412.23471 21.15265 171.90875 309
426.82217 22.77438 172.04922 305
443.61304 24.63626 172.21678 301
488.59042 29.70924 167.75607 457
3445.57153 361.34644 58.14779 497
3535.77026 371.54544 108.60644 499
270.13467 5.47805 203.50319 314
399.44690 20.79584 171.75282 312
412.17325 22.29847 171.89830 309
426.71356 24.00105 172.00929 305
443.53531 26.00733 172.23093 301
487.37650 31.21043 167.93690 458
3444.16309 381.74988 57.70230 496
3529.85791 391.52557 108.67595 498
3572.20483 396.61902 218.03499 440
270.15469 5.76455 203.50082 314
399.39978 21.86177 171.78622 312
412.10950 23.45968 171.88112 309
426.63382 25.27579 172.03795 305
443.42053 27.34466 172.22240 301
486.21356 32.72527 168.16498 294
3444.04883 401.70956 57.77905 496
3565.06787 417.17554 217.57207 483
270.16568 6.06563 203.50662 314
399.30173 22.94895 171.76939 312
412.00717 24.61253 171.91859 309
426.48849 26.49999 172.01160 305
443.28488 28.73970 172.17805 301
486.13669 34.36155 168.11287 294
3443.77588 421.44894 57.74401 496
270.18607 6.35021 203.50520 314
399.20618 24.04453 171.78270 312
411.88428 25.80321 171.87508 309
426.40833 27.78534 172.05385 305
478.48511 34.90591 165.13260 300
486.09760 35.95599 168.14540 294
3442.91895 441.88358 58.12528 496
270.20816 6.64200 203.50316 314
399.16409 25.13326 171.75755 312
411.79718 26.95124 171.91423 309
426.31094 29.03501 172.06126 305
478.35678 36.49862 165.13841 300
486.03119 37.62093 168.11172 294
3442.25562 461.48645 57.69363 496
270.21860 6.94304 203.51006 314
399.05176 26.21608 171.74709 312
411.68381 28.10554 171.89738 309
426.15991 30.24678 172.05289 305
478.17346 38.02218 165.13612 300
485.95111 39.19300 168.05338 293
3442.19849 481.94650 57.83076 496
3540.46362 496.78378 107.58057 498
270.22821 7.22927 203.50537 314
398.93228 27.28744 171.78432 312
411.59317 29.26925 171.91466 309
426.01523 31.54250 172.03323 305
477.98465 39.62909 165.13943 300
485.79239 40.86360 168.03897 293
3441.62524 501.63635 57.00567 495
3492.38135 509.39792 109.28946 497
270.24039 7.52069 203.50224 314
398.83234 28.39081 171.76146 312
411.46005 30.43738 171.88190 309
425.91428 32.73398 172.01198 305
477.84967 41.15339 165.07458 300
485.71634 42.44114 168.01549 293
3440.76709 522.19006 57.57041 495
3509.15332 532.67267 108.35538 353
270.25586 7.81375 203.50305 314
398.72177 29.45559 171.78604 312
411.30301 31.56669 171.86278 309
425.72995 33.98546 171.99889 305
476.80856 42.59134 165.25183 445
485.57730 44.04367 168.06511 293
3440.62646 542.28961 57.25965 495
270.26111 8.10038 203.50876 314
398.60034 30.50937 171.76520 312
411.19241 32.73153 171.86234 309
425.58682 35.22326 172.01488 305
475.31961 43.91134 165.50819 445
485.39883 45.68732 168.00435 293
3439.49707 561.91382 57.20723 495
270.26291 8.38529 203.49829 314
398.45599 31.58427 171.75171 312
411.02783 33.89902 171.86885 309
425.44370 36.51578 172.04625 305
473.94934 45.25096 165.76620 446
3439.33374 582.31647 56.86378 494
270.27142 8.67910 203.50267 314
398.30423 32.66101 171.75131 312
410.87473 35.03401 171.88069 309
425.26447 37.70147 172.04716 305
472.55002 46.55326 165.97441 447
3438.90894 603.06134 56.80046 494
270.27469 8.97360 203.50058 314
398.16934 33.76610 171.76662 312
410.72208 36.20206 171.89944 309
425.10754 38.99642 172.00142 305
471.15198 47.88509 166.24030 448
3438.21167 622.99316 56.42154 494
270.26932 9.25857 203.50810 314
398.00714 34.81230 171.77635 312
410.54846 37.33351 171.89560 309
424.91483 40.18062 171.99600 305
469.72952 49.19512 166.43887 449
3437.44092 643.78864 56.12662 494
270.26569 9.54319 203.50845 314
397.84155 35.89584 171.73819 312
410.36896 38.48309 171.89211 309
424.73410 41.45877 172.01791 305
468.38574 50.48088 166.71442 450
3436.73438 663.46490 56.52021 493
270.29236 9.83345 203.50375 285
397.67023 36.97296 171.75609 312
410.19217 39.65314 171.88542 309
456.46823 49.50866 164.94084 303
467.02783 51.70161 166.88028 451
3436.04028 684.36188 56.28979 493
386.48663 35.62874 171.63243 316
397.50671 38.04438 171.76035 312
410.00192 40.75703 171.86249 309
456.23511 50.89993 164.93492 303
465.66406 52.96077 167.15479 452
3435.34473 704.44037 55.91158 493
386.35995 36.62779 171.62578 316
397.36285 39.08025 171.74741 312
409.83188 41.90958 171.86432 309
455.94678 52.31687 164.94762 303
464.33139 54.21031 167.34280 452
3435.45508 725.23376 55.72779 493
386.20331 37.62826 171.65356 316
397.17801 40.15190 171.74184 312
409.63531 43.08173 171.88986 308
455.68149 53.77636 164.94945 303
463.05963 55.43715 167.51299 453
3434.54028 746.01489 55.51583 432
386.01077 38.62562 171.64285 316
396.99142 41.23114 171.71919 312
409.42517 44.21354 171.87688 308
455.39572 55.20603 164.97379 303
461.50870 56.64394 167.82243 421
3434.39502 766.25372 55.41386 432
3574.52661 799.38379 104.48518 494
385.82825 39.59285 171.64233 316
396.79407 42.27580 171.72731 312
409.23138 45.34715 171.84567 308
455.13568 56.61946 164.92854 303
460.43103 57.92099 167.95940 297
3434.97314 787.01978 54.30454 432
385.64520 40.57281 171.65143 316
396.57269 43.36182 171.76591 312
408.97052 46.46279 171.88324 308
454.79379 57.99286 164.97673 303
460.16971 59.35303 167.94473 297
3434.23779 808.06775 54.21603 431
385.43497 41.58449 171.61511 316
396.39377 44.41105 171.71950 312
408.76202 47.62524 171.85413 308
454.53336 59.38786 164.94785 303
459.94217 60.85918 167.91817 297
3434.90967 829.07245 53.80223 431
385.27795 42.57089 171.65286 316
396.18942 45.48196 171.75027 312
408.51331 48.73733 171.84251 308
454.23270 60.86508 164.94080 303
459.66312 62.30529 167.93124 297
3442.60791 852.18073 53.68769 406
385.05093 43.56599 171.60469 316
395.92453 46.54196 171.72069 312
408.27393 49.86184 171.84253 308
452.70319 61.90764 165.19112 426
459.38635 63.77173 167.87614 297
384.84314 44.56286 171.64075 316
395.72845 47.59943 171.74802 312
408.05750 50.98880 171.86641 308
451.00610 62.91312 165.52859 427
459.10474 65.21770 167.91026 297
384.63699 45.53845 171.63351 316
395.49991 48.65194 171.73111 312
436.58508 60.31276 164.85341 308
449.29764 63.93239 165.85413 428
458.85492 66.65365 167.85201 297
384.40222 46.52565 171.60173 316
395.24930 49.66434 171.72073 312
436.30087 61.63107 164.84700 308
447.66888 64.92606 166.15652 429
384.21344 47.52217 171.60916 316
395.02658 50.72194 171.70282 312
435.99335 62.90892 164.88020 308
446.01035 65.90583 166.43002 430
383.94940 48.48915 171.63345 316
394.75067 51.74998 171.72646 312
435.64240 64.23801 164.83531 308
444.41669 66.89201 166.72630 431
383.73303 49.47763 171.61240 316
394.49310 52.83944 171.71356 312
435.31552 65.52003 164.85960 308
442.83267 67.88393 166.96550 432
383.47278 50.45147 171.63359 316
394.21103 53.85557 171.69769 312
434.95947 66.82793 164.84673 308
441.21841 68.79115 167.27199 433
383.23843 51.42678 171.58772 316
393.97839 54.91415 171.73628 312
434.57394 68.10928 164.86938 308
439.64828 69.74598 167.54970 434
382.98062 52.41105 171.59160 316
393.70480 55.93605 171.69646 312
434.20612 69.35601 164.86377 308
437.98700 70.59370 167.79921 420
382.71667 53.37140 171.60577 316
393.42230 56.98112 171.68912 312
433.84045 70.66734 164.87860 308
437.47296 71.87541 167.85844 301
382.43433 54.34277 171.60497 316
393.09949 58.03002 171.72139 312
433.42593 71.92123 164.85666 308
437.11191 73.18985 167.86011 301
382.18820 55.28028 171.57790 316
392.85104 59.07170 171.71779 312
432.79861 73.10114 164.94920 423
436.74634 74.51231 167.82323 301
381.91507 56.25867 171.57755 316
418.56512 69.42274 164.75883 312
431.15335 73.91618 165.24448 424
436.43121 75.83572 167.80408 301
381.60980 57.25383 171.59402 316
418.17807 70.59648 164.80679 312
429.50034 74.75223 165.52002 425
436.01422 77.12065 167.81505 301
381.32306 58.20530 171.56529 316
417.73206 71.74475 164.80234 312
427.89578 75.55751 165.83611 426
435.62961 78.47037 167.81656 301
381.03241 59.13192 171.57672 316
417.37527 72.91998 164.80132 312
426.23392 76.31316 166.16074 427
435.24585 79.74953 167.80022 301
380.74634 60.12788 171.57425 316
416.96323 74.10870 164.76874 312
424.65652 77.08818 166.44627 428
434.86761 81.02796 167.77632 301
35422.19531 13614.61328 -7285.32715 1000
380.42050 61.04762 171.56917 316
416.50400 75.27631 164.77692 312
423.07443 77.85649 166.69997 429
380.13306 61.99753 171.57567 316
416.08469 76.45071 164.80347 312
421.57452 78.61176 166.97984 430
379.78357 62.97190 171.59215 316
415.70996 77.60128 164.79590 312
420.04266 79.37808 167.28484 431
379.48840 63.92006 171.55441 316
415.25082 78.77702 164.81621 312
418.51425 80.12874 167.53329 432
379.15735 64.83699 171.57256 316
414.80759 79.90550 164.78665 312
417.14499 80.90954 167.77022 305
378.80972 65.82043 171.54681 316
414.35840 81.05093 164.83174 312
416.70068 82.11308 167.76262 305
401.93909 76.98279 164.68712 316
413.91522 82.20767 164.79782 312
416.32779 83.27109 167.78807 305
401.48749 78.08900 164.68826 316
412.60275 82.96769 165.04144 435
415.90170 84.45605 167.79285 305
401.03366 79.12488 164.68669 316
411.16599 83.68979 165.33127 436
415.42062 85.61115 167.72871 305
400.61209 80.20791 164.68829 316
409.74512 84.37682 165.55487 437
414.99680 86.81462 167.71899 305
49201.55469 22489.51172 6421.54346 1000
400.15604 81.26954 164.73608 316
408.31415 85.07484 165.82581 438
414.53687 87.98228 167.73032 305
399.74686 82.33775 164.72208 316
406.95834 85.74631 166.10397 439
414.11331 89.17435 167.73451 305
399.26575 83.40672 164.70956 317
405.36520 86.30763 166.40759 421
413.64337 90.33326 167.72328 305
398.81641 84.41701 164.69633 317
403.78723 86.85202 166.72710 422
413.17905 91.49701 167.71423 305
398.29965 85.47485 164.74057 317
402.21722 87.40778 167.00688 423
397.85281 86.53154 164.75208 317
400.67664 87.95415 167.33221 424
397.35605 87.54623 164.75412 317
399.14590 88.47813 167.60103 425
396.82852 88.59694 164.71777 317
398.20419 89.30506 167.72589 311
396.13205 89.54391 164.78540 426
397.73886 90.35294 167.72841 311
394.64722 90.03710 165.13345 427
397.26587 91.41920 167.73289 309
393.19513 90.56345 165.42122 428
396.76620 92.49765 167.71941 309
391.72131 91.04726 165.66983 429
396.27942 93.54546 167.71851 309
390.29169 91.55351 165.98396 430
395.82587 94.61118 167.68727 309
388.90979 92.02299 166.26021 431
395.33807 95.68134 167.67206 309
387.53107 92.53109 166.53548 432
394.83414 96.69158 167.66231 309
386.14914 92.98611 166.77518 433
394.27502 97.76147 167.64537 309
384.80841 93.47765 167.05835 434
393.81174 98.80459 167.63113 309
383.44855 93.92756 167.27969 435
382.09399 94.40849 167.54018 436
381.26810 95.17609 167.65051 315
380.77875 96.09564 167.61896 315
380.24731 97.03461 167.62964 315
379.73505 98.01079 167.63651 315
379.16376 98.91762 167.64438 315
378.62543 99.86951 167.63460 315
378.07440 100.80670 167.60883 315
377.52032 101.70486 167.62408 313
376.99893 102.61934 167.61217 313
376.41992 103.57362 167.59087 313
2539.50195 1609.75940 78.44985 359
375.90991 104.50629 167.61214 313
2523.33765 1618.84558 78.66680 495
2529.51489 1623.77051 124.26038 495
375.30063 105.42099 167.58464 313
11928.88379 10227.75293 -3407.42407 1000
3671.69067 4302.95459 126.69145 399
3653.30762 4333.64600 125.66341 457
3638.51807 4368.34863 124.84136 434
3624.37378 4405.02783 125.01408 428
3609.02515 4441.68408 125.48013 423
3699.21729 4561.12109 216.12120 439
3596.88599 4482.53320 125.00073 413
3657.89795 4562.25732 215.53671 438
3586.22559 4525.55859 123.70389 399
3614.89941 4565.19824 215.81880 341
3577.31274 4571.95361 122.92493 396
3582.46680 4579.40332 215.58937 486
3575.99316 4628.39404 123.15941 364
3571.79395 4623.98242 216.01979 391
3579.30493 4693.99170 121.15144 361
3584.51733 4761.75684 120.49949 367
3587.41064 4830.54590 119.62990 366
3592.04199 4899.31494 119.63393 375
3595.64087 4970.63867 117.12390 368
3601.40967 5045.04639 116.57964 366
2485.72656 3561.08887 147.53984 437
2202.50195 4663.18018 129.54950 464
2152.60767 5553.94092 211.45287 472
2112.51978 5548.50928 211.18187 470
2074.04761 5545.23975 211.50969 460
2035.94250 5545.48389 212.08391 434
1999.10254 5545.88867 212.05928 407
1961.96826 5547.63721 211.25903 415
1925.35583 5551.33105 211.73615 367
1889.66479 5556.56787 212.34352 369
1923.66797 5665.44385 308.88010 496
1856.06140 5568.35010 210.75313 270
1855.30286 5563.06299 306.30737 496
1821.87866 5575.25488 211.10410 498
1820.37830 5571.08496 305.76697 498
1787.33032 5583.13330 211.81848 498
1785.53613 5577.38330 306.31046 498
256.20197 118.20950 226.56630 1000
1752.14807 5589.25244 212.09039 498
1749.49670 5578.38916 306.56149 499
1717.84265 5595.54834 210.79593 498
1714.05261 5585.59180 306.18787 499
1683.03589 5602.25146 211.76300 499
1679.81702 5592.37744 306.47275 499
1647.88538 5608.37305 210.67088 499
1646.24329 5604.08691 305.34271 499
1613.22607 5614.69434 211.55959 499
1611.11060 5610.79590 306.33029 499
1644.13782 5742.70850 404.11078 498
1578.20117 5623.36572 212.15312 499
1577.20093 5618.23047 305.44199 499
1599.42017 5713.53906 403.11508 498
1541.52734 5622.70361 210.80333 267
1562.71265 5710.37207 306.72644 499
1556.91162 5691.08545 401.99667 396
1504.79675 5621.85059 211.70854 267
1524.36243 5704.35547 402.92398 498
1469.81311 5626.62891 210.84456 317
1490.91968 5893.40576 210.97742 499
1335.09363 5670.91162 211.81825 264
1295.84033 5650.43311 210.80682 323
1260.88647 5656.61182 210.52081 404
1226.07056 5662.60449 210.89484 404
1194.28235 5688.71680 211.17670 490
1168.99792 5748.73242 210.48152 487
1132.53955 5748.55273 211.38565 491
1092.18616 5719.60400 305.39267 354
624.37402 4461.34619 139.48810 466
626.09503 4475.37793 212.33089 275
385.36337 3425.46729 157.01257 271
388.42398 3495.20630 213.71928 273
355.54025 3225.57861 160.70113 309
358.50958 3288.30957 212.97121 282
334.44824 3167.66553 161.24097 323
335.51642 3199.86475 213.58418 373
313.82941 3133.36353 162.60429 358
315.80930 3186.37231 213.80147 437
294.43985 3098.10986 162.99257 367
296.35428 3186.93164 213.38947 477
274.72272 3069.77368 163.47151 392
276.35205 3190.21802 213.65715 477
255.26376 3044.67993 163.81592 387
256.92960 3192.65210 213.54678 476
236.91557 3019.47290 164.36481 394
238.04602 3196.19775 213.15984 476
218.97888 2997.50415 164.74864 401
217.75513 3198.98389 213.39745 476
200.82022 2976.54736 164.80933 404
198.51260 3201.81299 213.63437 475
182.57045 2957.59277 165.68591 400
178.88353 3204.49756 213.61932 475
163.92749 2969.50000 165.09418 338
159.11447 3207.80640 213.08900 475
145.29785 3011.52441 163.95514 337
139.17487 3210.55225 213.14642 475
125.15876 3067.51270 163.58463 317
120.23589 3212.89600 213.36111 476
104.26307 3122.23779 162.50435 307
223.23694 23.86098 214.47006 1000
-6104.19141 26415.57031 -1142.70605 1000
129.00085 150.19450 167.30804 316
128.17821 149.55562 167.31548 316
127.30080 148.89912 167.34596 316
127.11943 149.16956 170.44205 312
126.50517 148.19591 167.35281 316
126.27123 148.54279 170.40562 312
125.63873 147.56522 167.34154 316
125.19133 148.21130 170.34276 439
124.44044 147.34621 167.16440 440
123.83599 148.24409 170.11261 431
123.12858 147.33406 166.94173 430
122.41391 148.35979 169.85304 430
121.68994 147.47005 166.69194 429
120.94502 148.49432 169.60460 429
120.22509 147.59201 166.40425 428
119.35614 146.93176 166.39658 314
118.53725 146.25226 166.38933 314
117.72836 145.54832 166.39537 314
-547.03394 983.79883 256.65765 319
-545.71490 982.72852 277.28326 390
-544.63422 981.15973 297.59854 390
-543.88232 980.19318 318.07413 447
116.46703 145.31352 166.20909 422
108.79205 154.93846 166.40567 310
-554.62390 981.45862 112.22883 483
-554.05511 980.38147 132.93297 484
-553.30554 979.66547 153.86359 498
-552.70599 979.02374 174.29877 499
-552.34137 978.58350 195.06482 499
-551.77936 977.89380 215.52098 489
-551.10010 977.32172 236.06760 489
-550.73462 976.74744 256.68790 489
-550.50970 975.92328 277.05240 489
-550.09918 975.57800 297.50433 455
-549.74670 975.07654 318.17697 455
114.93826 145.46704 165.90601 421
107.88801 154.13248 166.40224 310
-563.43469 980.05798 112.13258 332
113.37342 145.61922 165.62128 420
106.98724 153.37317 166.36726 310
-1032.93286 1537.92444 116.96724 446
-1032.63879 1537.71204 149.73199 446
-1031.92102 1537.25586 182.46315 446
-1031.97217 1537.07996 214.82930 446
-1031.51868 1536.45837 247.43875 446
-1031.13281 1536.10913 280.42178 446
-1031.07739 1535.69592 312.59149 446
-1030.46338 1535.55347 345.19220 484
111.83985 145.75250 165.27542 419
106.14806 152.56796 166.38419 310
110.19867 145.91278 164.97116 418
105.26886 151.77560 166.36006 310
108.62781 146.08167 164.64088 417
104.39637 150.99220 166.40512 310
106.94723 146.24426 164.31647 415
103.55008 150.21858 166.40932 310
105.30249 146.41484 163.94890 414
102.70310 149.40030 166.37141 310
103.63593 146.58363 163.64552 413
101.85616 148.58076 166.37971 310
102.28238 146.36034 163.41791 312
101.03021 147.77226 166.38695 310
101.48771 145.51669 163.44482 312
100.16045 146.93872 166.36441 310
100.69978 144.65590 163.46948 311
98.40128 147.14616 166.05795 411
99.98393 143.72435 163.47923 311
96.62809 147.32645 165.71399 420
88.37405 156.23282 166.31522 305
99.18509 142.84691 163.51979 311
94.93720 147.39270 165.36755 419
87.45002 155.28555 166.34930 306
98.46693 141.93999 163.53049 311
93.21369 147.45538 165.07376 418
86.53382 154.43996 166.35487 306
97.71983 141.04494 163.54349 311
91.46051 147.48080 164.72337 417
85.67312 153.53645 166.32379 306
96.98251 140.14612 163.59666 311
89.73496 147.55704 164.41833 416
84.77385 152.63022 166.34726 306
116.72650 118.53218 171.41110 316
87.90871 147.62877 164.04120 415
83.92189 151.69684 166.34421 306
116.08436 117.80214 171.43657 316
86.12454 147.73015 163.68820 414
83.02651 150.80577 166.32616 306
115.46701 117.05933 171.42937 316
84.26624 147.74617 163.36732 304
82.17702 149.87460 166.34697 306
114.84293 116.29810 171.44333 316
83.52077 146.71973 163.41867 304
81.30897 148.89677 166.33994 306
114.17889 115.56541 171.46280 316
82.79663 145.69122 163.44156 304
80.43512 147.98671 166.33250 306
113.59203 114.76527 171.43146 316
82.10238 144.65753 163.47639 304
78.62658 148.00291 165.96550 410
112.97055 114.02245 171.45660 316
81.38339 143.63187 163.52174 304
76.68124 148.07112 165.63892 409
112.35706 113.24244 171.43661 316
80.67017 142.60056 163.55423 304
74.66160 148.14249 165.29199 408
65.21930 156.90575 166.25761 301
111.74804 112.47623 171.45863 316
79.99553 141.54338 163.59277 304
72.70736 148.21593 164.89635 407
64.36170 155.88840 166.21809 301
111.11381 111.70908 171.45267 316
102.68441 119.32468 171.55315 312
70.62058 148.30273 164.54150 406
63.48114 154.78171 166.21333 301
110.50214 110.95148 171.44785 316
102.06351 118.47460 171.53275 312
68.56104 148.41518 164.12653 405
62.58789 153.75711 166.21173 301
109.90847 110.14236 171.45482 316
101.42155 117.63783 171.55843 312
66.47537 148.48502 163.72536 403
61.67630 152.67136 166.25000 302
109.32739 109.35906 171.46565 316
100.79192 116.81851 171.56798 312
64.36410 148.56551 163.36267 402
60.79827 151.61072 166.19702 302
-9506.57715 8488.31445 1910.91528 1000
108.74939 108.56133 171.48123 316
100.15730 115.98283 171.54898 312
63.33254 147.63844 163.28694 300
59.93988 150.54800 166.23331 302
108.16764 107.77608 171.47678 316
99.50646 115.10525 171.58742 312
62.67113 146.47696 163.37262 300
59.09216 149.50217 166.20601 302
107.56654 106.98213 171.50685 316
98.92733 114.23979 171.54135 312
61.95045 145.29066 163.41177 300
57.72050 148.78865 166.05676 399
106.99389 106.19308 171.50244 316
98.31341 113.38800 171.58359 312
61.27240 144.06847 163.41733 300
55.51521 148.89099 165.70161 398
106.43400 105.35754 171.51836 316
97.67163 112.55860 171.60086 312
87.72269 120.69549 171.63463 308
53.15576 148.99284 165.24596 397
105.87078 104.54849 171.52626 316
97.07668 111.67714 171.55766 312
87.07204 119.73720 171.64009 308
50.85546 149.04681 164.83891 396
39.86188 157.88756 166.08470 297
105.33505 103.73995 171.50302 316
96.47088 110.78875 171.58989 312
86.41501 118.83074 171.66434 308
48.44323 149.14668 164.39627 394
39.00099 156.69162 166.12906 297
104.78763 102.92255 171.51988 316
95.87406 109.91190 171.59584 312
85.81998 117.88698 171.64836 308
45.98087 149.22816 163.99640 393
38.07858 155.48915 166.10387 297
104.24516 102.12700 171.53348 316
95.31349 109.07800 171.59924 312
85.15591 116.96739 171.66325 308
43.56435 149.33559 163.52809 392
37.26892 154.28033 166.11824 297
103.67365 101.26798 171.53229 316
94.73502 108.17507 171.58191 312
84.55292 116.00554 171.67775 308
41.30825 149.22018 163.14954 296
36.37166 153.00523 166.12962 297
103.12101 100.46068 171.53339 316
94.12517 107.28263 171.61235 312
83.91117 115.03461 171.69075 308
40.63713 147.89232 163.19261 296
35.52243 151.80257 166.09207 297
102.62393 99.61249 171.54210 316
93.55946 106.39079 171.59451 312
83.27854 114.11951 171.72327 308
40.02706 146.57481 163.26305 296
34.62735 150.57224 166.08905 297
102.09280 98.79851 171.52597 316
93.01233 105.52900 171.59349 312
82.68901 113.17243 171.68962 308
70.88110 121.90880 171.78326 304
33.22432 149.76089 165.96315 388
101.55973 97.93911 171.56720 316
92.42030 104.61230 171.62027 312
82.07708 112.17905 171.71857 308
70.21261 120.87125 171.79755 304
30.53602 149.84319 165.50208 386
101.04154 97.10863 171.54010 316
91.87727 103.71439 171.65236 312
81.45293 111.20629 171.69046 308
69.53352 119.80119 171.82027 304
27.78820 149.98140 165.05777 385
100.54077 96.25803 171.57642 316
91.33527 102.83464 171.63937 312
80.88461 110.25336 171.71841 308
68.92896 118.79523 171.80069 304
24.97346 150.10934 164.57919 384
100.03169 95.43553 171.57927 316
90.75359 101.88937 171.63162 312
80.28784 109.25797 171.73643 308
68.26279 117.74097 171.80582 304
22.10097 150.21873 164.03897 383
10.23947 158.50777 165.84036 290
99.51463 94.57970 171.57828 316
90.22440 100.99007 171.63867 312
79.72041 108.32949 171.71844 308
67.65267 116.68623 171.84236 304
19.17117 150.28537 163.56279 384
9.33738 157.10472 165.87471 291
99.02534 93.73167 171.55081 316
89.68233 100.07501 171.66406 312
79.13309 107.30049 171.75522 308
67.00464 115.61893 171.83591 304
16.29728 150.31833 163.07066 383
8.34852 155.75871 165.86922 291
98.53416 92.87830 171.57147 316
89.17108 99.18239 171.65228 312
78.57082 106.36256 171.75977 308
66.42549 114.54284 171.86514 304
15.62425 148.88011 163.10922 285
7.47829 154.37729 165.87463 291
98.01903 92.00919 171.55791 316
88.62795 98.24072 171.67831 312
77.99546 105.38506 171.75909 308
65.79000 113.47786 171.85707 304
51.64053 122.94993 171.95589 300
6.56947 153.02022 165.83347 291
97.56120 91.13532 171.57437 316
88.14397 97.31158 171.63956 312
77.44830 104.38486 171.72977 308
65.19865 112.45264 171.82063 304
50.97317 121.78438 171.98659 300
5.67491 151.55437 165.83463 291
97.10388 90.27114 171.56436 316
87.59918 96.39137 171.67867 312
76.86748 103.39942 171.74603 308
64.60796 111.36584 171.83205 304
50.35445 120.57967 171.95470 300
4.03770 150.64366 165.65077 378
96.62841 89.41448 171.60788 316
87.12556 95.45882 171.67467 312
76.33042 102.39522 171.75378 308
63.97974 110.28941 171.83388 304
49.70285 119.44643 171.98010 300
0.85220 150.76234 165.19128 377
96.13853 88.50606 171.61531 316
86.62154 94.51716 171.68646 312
75.81908 101.39788 171.78442 308
63.39015 109.22918 171.86154 304
49.07281 118.29790 171.98019 300
-2.39657 150.82095 164.65981 376
95.69841 87.63295 171.58388 316
86.10529 93.58126 171.67122 312
75.28294 100.34719 171.74611 308
62.83889 108.13213 171.85304 304
48.39635 117.07862 172.01025 300
-5.75879 150.92863 164.08521 374
95.21608 86.78667 171.58752 316
85.62701 92.64206 171.70107 312
74.75797 99.36974 171.78722 308
62.22487 107.01546 171.87407 304
47.79358 115.95705 172.00143 300
-9.20127 151.01193 163.52551 373
94.75784 85.86747 171.62289 316
85.14423 91.73227 171.67676 312
74.18449 98.34850 171.75034 308
61.66901 105.92868 171.90384 304
47.18398 114.72417 171.98500 300
-198.04187 120.11176 -42.22861 372
-25.90515 159.10313 165.40002 286
94.34971 84.98440 171.62228 316
84.65357 90.80158 171.71259 312
73.67219 97.36458 171.78363 308
61.11117 104.86323 171.88712 304
46.56774 113.59033 171.98846 300
29.52844 123.77831 172.15063 296
-26.80159 157.49342 165.39539 286
93.90455 84.12798 171.63176 316
84.22065 89.83970 171.71959 312
73.16129 96.34313 171.76331 308
60.59709 103.78435 171.86475 304
45.93587 112.35169 172.01828 300
28.82506 122.45659 172.17459 296
-27.69206 155.79453 165.32941 286
93.43443 83.20188 171.59937 316
83.71315 88.87048 171.69270 312
72.68226 95.27912 171.77773 308
60.03621 102.66124 171.90234 304
45.35121 111.20599 172.04134 300
28.17462 121.19295 172.13313 296
-28.52127 154.19228 165.36134 286
93.03925 82.33842 171.61153 316
83.26729 87.93508 171.71022 312
72.19559 94.28911 171.81242 308
59.50194 101.56583 171.90717 304
44.79833 110.01376 172.03395 300
27.53951 119.87701 172.17807 296
-29.45786 152.54970 165.35136 287
92.60543 81.40321 171.60326 316
82.82944 86.93750 171.72614 312
71.71266 93.22567 171.79573 308
58.95259 100.46904 171.89668 304
44.20508 108.76952 172.02663 300
26.90567 118.53726 172.19719 296
-31.43445 151.52646 165.14616 366
92.16770 80.52667 171.63383 316
82.38199 86.00227 171.68881 312
71.18591 92.19720 171.80852 308
58.42607 99.35480 171.91714 304
43.62646 107.57109 172.06021 300
26.29075 117.25006 172.16431 296
-35.39314 151.65892 164.53030 364
91.79377 79.62231 171.65630 316
81.90039 85.04456 171.71425 312
70.73268 91.17528 171.81514 308
57.87061 98.20644 171.90800 304
43.05703 106.39850 172.03314 300
25.65578 115.91896 172.19467 296
-39.52171 151.74377 163.97917 363
91.35324 78.71406 171.62976 316
81.49289 84.04786 171.73349 312
70.22417 90.13380 171.83585 308
57.37321 97.12544 171.89827 304
42.51878 105.17584 172.04449 300
25.02294 114.62560 172.19525 296
-43.69441 151.86401 163.29456 362
90.98996 77.79561 171.64294 316
81.06865 83.07954 171.70314 312
69.80893 89.13431 171.82231 308
56.89964 95.99887 171.91226 304
41.92965 103.95057 172.01913 300
24.41886 113.27628 172.16489 296
3.60366 124.42281 172.38669 292
90.56855 76.87745 171.63998 316
80.63335 82.13641 171.73517 312
69.31874 88.04668 171.81998 308
56.35984 94.86946 171.92528 304
41.37226 102.71730 172.02332 300
23.84059 111.96612 172.17519 296
2.99391 122.95474 172.37816 292
-67.79906 160.12143 164.96201 284
90.17966 75.96883 171.63307 316
80.19151 81.15735 171.75285 312
68.85820 87.04620 171.82487 308
55.86658 93.72206 171.95087 304
40.83005 101.49752 172.04068 300
27.70189 108.33774 173.08589 275
9.97608 117.51705 173.76749 275
-68.61449 158.15912 164.91325 284
89.77129 75.06902 171.65625 316
79.77132 80.19829 171.74503 312
68.43838 85.96082 171.80208 308
55.38408 92.58950 171.93727 304
42.41196 99.23808 172.50180 324
36.38581 102.32882 175.02214 323
20.34763 110.52976 175.82918 277
-69.41200 156.25053 164.92876 284
89.43288 74.15288 171.63617 316
79.36089 79.21852 171.75117 312
67.95313 84.94336 171.85916 308
54.89269 91.48965 171.91623 304
44.94480 96.48980 173.23398 325
39.05524 99.44379 175.67609 324
30.13269 103.90446 177.75752 276
14.75823 111.63482 179.10089 276
89.03342 73.24304 171.67523 316
78.95788 78.18997 171.73248 312
67.54825 83.88868 171.85899 308
54.42739 90.36765 171.97264 304
47.37462 93.85377 173.85463 326
41.65181 96.67459 176.27626 325
35.69835 99.63942 178.93231 323
19.67321 107.55132 179.99852 288
88.68975 72.32111 171.67764 316
78.57492 77.20237 171.75395 312
67.10151 82.82765 171.82307 308
55.14973 88.66293 172.22917 330
49.73900 91.24336 174.51736 328
44.13772 93.97429 176.91747 327
38.37584 96.80764 179.48366 325
19.10615 106.17667 180.05095 288
-7.08380 118.94198 180.22401 284
88.30148 71.38560 171.66277 316
78.19883 76.24388 171.75418 312
66.68495 81.72509 171.83949 308
57.28029 86.22530 172.87964 331
52.07944 88.75087 175.13232 329
46.62657 91.39790 177.50609 328
39.84981 94.62334 179.85147 292
18.59138 104.81637 180.02696 288
-7.68831 117.46680 180.25058 284
87.97167 70.47241 171.66452 316
77.77639 75.24828 171.77397 312
66.27184 80.69560 171.84207 308
59.43174 83.94185 173.44598 332
54.30178 86.35511 175.69267 330
48.96455 88.83112 178.08189 329
39.38857 93.35928 179.85933 292
18.01076 103.44205 180.04016 288
-8.33482 115.93687 180.24527 284
87.60808 69.53190 171.66324 316
77.40595 74.25523 171.77202 312
65.85847 79.59885 171.82803 308
60.68197 82.02477 173.86284 389
56.45469 83.98090 176.31630 331
51.24232 86.39346 178.62886 330
38.91318 92.15907 179.88907 292
-7.01318 113.47144 176.01984 284
-8.96475 114.39817 180.25285 284
87.24681 68.59606 171.69223 316
77.03977 73.23708 171.74480 312
65.44699 78.54927 171.82805 308
61.43986 80.37090 174.19002 390
58.29459 81.82558 176.79056 388
53.50139 84.04189 179.19914 332
38.44588 90.90457 179.87021 292
-15.39945 115.54835 174.72835 341
-15.39642 115.49812 179.41229 341
86.89592 67.65840 171.67801 316
76.67771 72.25959 171.78183 312
65.78070 77.16079 172.05235 379
62.24203 78.74445 174.44319 391
59.09008 80.17133 177.03456 389
55.67838 81.71594 179.70522 333
37.93167 89.66296 179.89433 292
7.04663 103.56223 178.54803 287
-20.02821 115.75662 178.85909 339
86.59372 66.72781 171.67061 316
76.30993 71.25983 171.75450 312
66.58715 75.56731 172.33147 380
63.00416 77.14085 174.71519 392
59.85044 78.51080 177.30667 390
55.33767 80.51625 179.72020 296
24.77299 94.04912 177.55226 319
13.62329 98.98194 179.70554 289
-4.27483 106.87015 181.17311 269
86.22536 65.77836 171.66205 316
75.97905 70.22868 171.78525 312
67.35093 73.99233 172.64679 381
63.70644 75.55045 175.02042 393
60.64046 76.90635 177.61127 391
54.94757 79.40247 179.72255 296
27.14298 91.46989 178.06244 335
19.40285 94.87884 180.71114 317
5.70219 100.85091 182.70024 287
-45.00850 122.87077 180.52255 280
85.93728 64.80856 171.68861 316
75.60660 69.26193 171.76155 312
68.07646 72.47188 172.92102 382
64.49447 74.02313 175.28180 394
61.41031 75.32623 177.85394 392
54.53790 78.23094 179.75935 296
29.27359 89.10393 178.59032 336
22.38022 92.02052 181.23871 319
12.33637 96.33327 183.76093 289
-5.39454 103.90733 185.61786 269
85.58280 63.87357 171.67046 316
75.26561 68.22944 171.78838 312
68.82384 70.91600 173.21080 383
65.18606 72.46154 175.52339 395
62.20383 73.73948 178.11334 393
54.12571 77.13830 179.75153 296
31.30850 86.69972 179.02722 338
24.91697 89.40076 181.79150 335
16.91851 92.79505 184.48567 317
4.47010 98.00496 186.94173 288
85.27246 62.92969 171.69914 316
74.92242 67.22170 171.75836 312
69.58786 69.43165 173.48181 384
65.92915 70.94270 175.79279 382
62.95913 72.19241 178.35150 394
53.76191 75.95955 179.72253 296
33.36552 84.41792 179.49129 339
27.11406 87.01363 182.19519 336
19.96422 89.93916 184.97916 318
11.07357 93.58940 187.77611 289
-6.39985 100.82016 190.02573 269
85.00542 61.98194 171.68188 316
74.60934 66.22096 171.76804 312
70.33341 67.92372 173.77716 385
66.69728 69.41775 176.05205 383
63.71396 70.61352 178.58052 395
53.38388 74.81103 179.77773 296
35.33613 82.17669 179.88235 340
29.21706 84.63461 182.62518 337
22.77697 87.23810 185.46815 335
14.48218 90.64511 188.31445 317
3.28522 95.21906 191.13182 288
84.70763 61.04702 171.72026 316
74.49315 65.11948 171.84816 388
71.02288 66.50067 174.05096 386
67.46632 67.93376 176.28694 383
64.40883 69.15019 178.80786 396
53.00477 73.69067 179.76526 296
37.23945 79.97717 180.33665 341
31.29711 82.33659 183.00916 338
24.95446 84.88783 185.82890 336
17.65250 87.81701 188.74232 318
8.82784 91.33197 191.75104 316
-7.27749 97.75857 194.42375 269
84.41147 60.08467 171.69772 316
75.16199 63.69012 172.13826 389
71.74196 65.04421 174.31293 387
68.20362 66.42104 176.58284 384
65.16479 67.63430 179.02769 396
43.85833 75.97967 178.05232 376
39.14589 77.84780 180.73416 342
33.31916 80.13456 183.41763 340
27.15190 82.55335 186.21413 337
20.60505 85.08202 189.16817 335
12.11191 88.45339 192.15263 317
2.15245 92.35551 195.32005 288
84.10204 59.12628 171.69513 316
75.82233 62.33022 172.36673 390
72.44958 63.60346 174.58344 388
68.99270 64.97212 176.79837 385
65.88588 66.15775 179.28694 397
44.78239 74.27238 178.30984 388
40.37355 75.96460 181.02484 374
35.24687 77.92628 183.75735 341
29.21638 80.22949 186.54480 338
22.89403 82.73100 189.48586 336
15.27073 85.62586 192.50787 318
6.31151 89.07226 195.73039 315
-8.01761 94.64091 198.75690 269
83.81950 58.15462 171.69891 316
76.52630 60.92318 172.64952 391
73.18445 62.20178 174.81354 389
69.70876 63.50005 177.07356 386
66.56997 64.66005 179.50699 398
45.60265 72.63458 178.52287 388
41.38428 74.22518 181.29506 375
36.87457 75.94929 184.10539 373
31.28590 78.02599 186.91638 339
25.07498 80.37608 189.81995 337
18.32851 82.92937 192.87694 319
9.64275 86.21317 196.00766 316
0.33893 89.73066 199.40610 314
-26.82462 100.02995 202.17320 257
83.53223 57.19198 171.71959 316
76.93894 59.68068 172.83627 420
73.89409 60.81767 175.05014 389
70.42786 62.08519 177.31290 387
66.95755 63.38620 179.64578 300
46.38800 70.99992 178.76352 389
42.37849 72.46622 181.52612 376
37.88589 74.14831 184.29784 374
33.21618 75.86358 187.24072 371
27.20215 78.08698 190.13219 338
20.74794 80.51669 193.17259 335
12.89748 83.45170 196.37878 318
3.83915 86.76505 199.70502 315
-8.75024 91.43820 203.16243 269
83.26629 56.22811 171.72812 316
77.27618 58.42274 173.00595 421
74.46970 59.46468 175.27087 419
71.17677 60.63935 177.53506 388
66.67984 62.28584 179.61626 300
47.17117 69.41503 178.95831 390
43.24921 70.79158 181.72726 388
38.96329 72.39026 184.55055 375
34.32237 74.05746 187.42369 372
29.27479 75.87817 190.47180 339
22.99333 78.17799 193.50784 337
16.04183 80.74368 196.65726 319
7.26719 83.89436 199.93088 316
-2.24741 87.42096 203.54230 314
83.00812 55.26502 171.72865 316
77.57879 57.23887 173.16525 422
74.79089 58.21140 175.43564 419
71.90570 59.26984 177.80217 389
66.34622 61.23711 179.63193 300
47.89803 67.80697 179.20094 391
44.05617 69.17378 181.92097 389
39.92366 70.64111 184.76869 376
35.39036 72.29396 187.65976 373
30.68540 73.98289 190.68617 371
25.20377 75.97125 193.74188 338
18.65741 78.24126 196.90709 335
10.58030 81.18896 200.19891 317
1.38447 84.45164 203.75055 315
82.76096 54.34286 171.71185 316
77.89989 56.03370 173.33937 422
75.11849 56.98367 175.59123 420
72.27375 58.01751 177.94048 418
66.07532 60.17497 179.63705 300
48.71191 66.27167 179.38831 392
44.84839 67.59697 182.11339 390
40.93230 68.98734 184.93813 387
36.46372 70.51321 187.86015 374
31.77076 72.18450 190.86925 371
26.89013 73.91205 193.99432 369
20.94718 75.94187 197.14272 336
13.77114 78.51692 200.46880 318
4.81097 81.60119 203.91377 316
82.49207 53.36633 171.69708 316
78.24167 54.83252 173.48413 423
75.47440 55.77869 175.75385 421
72.59121 56.73222 178.08250 418
65.78230 59.07194 179.62355 300
49.43793 64.72335 179.62202 393
45.65864 65.98838 182.32422 390
41.71503 67.33767 185.16302 388
37.49002 68.82492 188.04041 375
32.91492 70.41181 191.02347 372
28.03786 72.07285 194.11305 370
23.02119 73.78026 197.38795 367
16.55908 76.01180 200.71130 335
8.22198 78.85981 204.13333 317
82.24735 52.39775 171.71521 316
78.55247 53.63696 173.62547 424
75.76749 54.57117 175.89949 421
72.95020 55.50596 178.20490 419
65.52787 58.00135 179.63501 300
50.19159 63.15635 179.84163 394
46.42591 64.43615 182.53474 391
42.55132 65.76528 185.36180 389
38.56634 67.10573 188.24940 376
33.95898 68.64309 191.21539 373
29.20409 70.23564 194.31734 371
24.25893 71.93746 197.54065 368
18.86702 73.71626 200.87541 336
11.43073 76.18990 204.31552 318
82.00458 51.39904 171.72549 316
78.83617 52.47305 173.78827 426
76.13577 53.32731 176.05878 422
73.28590 54.27658 178.35689 420
65.21912 56.96691 179.64374 300
50.91682 61.64104 180.03093 395
47.21048 62.88476 182.74133 392
43.35619 64.16622 185.53929 390
39.40290 65.48631 188.39920 387
35.07760 66.89075 191.35664 374
30.31963 68.43432 194.43451 372
25.40192 70.07652 197.63542 369
20.27320 71.74512 201.00934 366
14.47236 73.71317 204.52090 335
81.77908 50.45502 171.75224 429
79.18192 51.27512 173.95258 427
76.46766 52.15202 176.20195 423
73.63963 53.05827 178.48314 421
64.94615 55.88577 179.64690 300
51.65106 60.15916 180.21129 395
47.98004 61.33522 182.89844 393
44.18701 62.59101 185.68365 391
40.23412 63.82604 188.57210 388
36.13138 65.21038 191.51889 375
