# .PCD v.7 - Point Cloud Data file format
VERSION .7
FIELDS x y z rgb
SIZE 4 4 4 4
TYPE F F F U
COUNT 1 1 1 1
WIDTH 1366
HEIGHT 1
VIEWPOINT 6103.231445 -4103.049805 140.674805 0.169508 -0.125676 -0.002962 0.977478
POINTS 1366
DATA ascii
26.67274 -158.19287 166.08649 297
94.24564 -105.32365 171.67030 316
85.42410 -112.48621 171.74820 312
75.39433 -120.59328 171.79105 308
39.58510 -149.69414 165.15640 396
94.83503 -106.15202 171.65663 316
86.06923 -113.33337 171.71786 312
76.13624 -121.52937 171.82884 308
42.00404 -149.56601 165.57303 397
95.48405 -106.93407 171.65607 316
86.73454 -114.20568 171.74086 312
49.24186 -145.42268 163.40689 300
44.33609 -149.52071 165.95836 399
96.09916 -107.77464 171.64813 316
87.43903 -115.08326 171.73120 312
49.95591 -146.66321 163.40321 300
46.27627 -149.78975 166.20428 302
96.76172 -108.54337 171.63179 316
88.12377 -115.92116 171.73317 312
50.73920 -147.83519 163.32631 300
47.16203 -150.86342 166.23637 302
97.39722 -109.35833 171.64709 316
88.80505 -116.78646 171.71548 312
51.47536 -148.97627 163.28749 300
48.09636 -151.93732 166.26619 302
98.04479 -110.11434 171.60596 316
89.47331 -117.60452 171.72452 312
53.40270 -149.20015 163.58920 403
49.03721 -152.97928 166.24960 301
98.67297 -110.89870 171.62456 316
90.17415 -118.45058 171.69930 312
55.59619 -149.10239 164.00681 404
49.94571 -154.02744 166.24669 301
99.34212 -111.70995 171.60246 316
90.87705 -119.25481 171.71230 312
57.73147 -149.02502 164.39024 405
50.90235 -155.09305 166.25447 301
99.97912 -112.47295 171.58939 316
91.57893 -120.12221 171.70851 312
59.81787 -148.95450 164.73724 406
51.84621 -156.17609 166.26582 301
100.67107 -113.26616 171.61748 316
92.26115 -120.94429 171.67206 312
61.92027 -148.87610 165.14285 407
52.77853 -157.22687 166.23680 301
101.32307 -113.99717 171.59346 316
69.26654 -143.87032 163.54865 304
63.95261 -148.77686 165.50040 408
101.97143 -114.77457 171.60419 316
70.00471 -144.87578 163.47401 304
65.97836 -148.72127 165.86446 410
102.68196 -115.55129 171.60878 316
70.79027 -145.91193 163.46381 304
67.96138 -148.65749 166.20543 411
103.35338 -116.31654 171.60045 316
71.57685 -146.95621 163.43886 304
69.21958 -149.26151 166.31102 306
104.01742 -117.04671 171.57536 316
72.33495 -148.01952 163.40108 304
70.14108 -150.17171 166.34769 306
104.72059 -117.82800 171.55211 316
73.81968 -148.39612 163.56465 413
71.04699 -151.09332 166.35245 306
105.41815 -118.55195 171.56947 316
75.68244 -148.33430 163.94316 414
72.01087 -152.02605 166.34087 306
106.11851 -119.30167 171.54289 316
77.55477 -148.27260 164.29033 416
72.95705 -152.95277 166.36211 306
86.32417 -141.01675 163.70537 311
79.38168 -148.16946 164.61118 417
73.85048 -153.82364 166.34929 306
87.13190 -141.92960 163.63750 307
81.18192 -148.13925 164.93050 418
74.83759 -154.74736 166.35527 306
87.90789 -142.88080 163.64635 307
82.97832 -148.04642 165.25323 419
75.75910 -155.65205 166.36688 305
88.66983 -143.77576 163.59695 307
84.77349 -147.95647 165.60664 420
76.69336 -156.56384 166.33827 305
89.51491 -144.68045 163.54358 307
86.49812 -147.89841 165.88612 421
90.30340 -145.58664 163.56091 307
88.23971 -147.86954 166.19276 422
91.11399 -146.52751 163.51376 307
89.65695 -148.08643 166.40038 310
91.89611 -147.39810 163.48196 307
90.59422 -148.87053 166.43207 310
93.27501 -147.64001 163.68649 424
91.52735 -149.68660 166.44621 310
94.90593 -147.59181 163.94931 425
92.41730 -150.47867 166.44276 310
96.55532 -147.51337 164.29980 426
93.34946 -151.28500 166.45732 310
98.22931 -147.37628 164.62329 417
94.23652 -152.06267 166.47261 310
99.93542 -147.21448 164.95525 418
95.21999 -152.85197 166.46568 310
101.57287 -147.05171 165.24368 419
96.09856 -153.59964 166.44182 310
103.18051 -146.87878 165.58690 420
97.04955 -154.40501 166.44521 310
104.81593 -146.71065 165.85976 421
98.01088 -155.15242 166.44185 310
106.41879 -146.54501 166.17355 422
98.96408 -155.91589 166.46088 310
107.91904 -146.46977 166.43852 314
108.80320 -147.20958 166.45384 314
109.71392 -147.89912 166.45494 314
110.59412 -148.57477 166.47079 314
111.50082 -149.28101 166.44633 314
112.42746 -149.96681 166.45950 314
114.95853 -148.40456 167.19402 440
116.29749 -148.44203 167.40404 441
117.27006 -148.98224 167.44505 316
116.83412 -149.61284 170.47180 287
118.13363 -149.69585 167.45775 316
117.93133 -150.02296 170.52002 312
120.01019 -148.99893 167.89848 489
118.84569 -150.67651 170.52545 312
120.84940 -149.70782 167.82950 489
-669.47589 -1302.94397 138.29755 401
-657.27997 -1302.32568 138.72507 489
-658.06268 -1303.42029 164.28616 489
-658.67767 -1304.39880 190.00850 464
-659.43176 -1305.47266 215.94687 489
124.11349 -148.70631 168.55142 489
-649.04718 -1307.54272 138.74963 486
-649.94330 -1308.81238 164.45152 485
-650.96460 -1310.43042 190.12079 449
-652.88269 -1313.29565 215.93587 389
124.97368 -149.42879 168.55099 489
-644.20990 -1318.16064 138.51811 392
-976.88422 -1977.54773 177.45721 283
-957.29651 -1972.47754 178.05075 494
-959.38519 -1976.63123 215.83746 492
-961.44000 -1979.51465 253.27055 495
-947.66650 -1984.05896 178.11313 429
-1266.74573 -2596.13403 215.34494 409
-1248.96338 -2602.69019 215.16931 480
-12369.16797 -33300.88281 -964.44257 1000
-3690.46875 -20372.47266 4334.41553 1000
1941.01025 -21439.95312 -141.23456 1000
1433.57446 -12274.12793 1836.98071 1000
14683.75977 -51012.83594 12571.05469 1000
22058.83789 -58732.37891 -6998.66406 1000
15427.31348 -36704.27344 -1087.35938 1000
31382.43555 -57447.48828 7733.71436 1000
6992.50098 -7944.72412 -1169.33142 1000
33554.77734 -32484.56250 -10683.07324 1000
361.56696 -111.14249 167.61772 313
362.29028 -110.22619 167.60150 315
362.96234 -109.37637 167.61670 315
363.64685 -108.44030 167.60068 315
364.33755 -107.53772 167.60768 315
365.01468 -106.61417 167.62714 315
365.69751 -105.70315 167.62640 315
366.37244 -104.78177 167.60733 315
367.00494 -103.87906 167.60217 315
367.64185 -102.91185 167.65094 315
368.30600 -101.98883 167.62758 315
368.96274 -101.07542 167.65436 315
369.57089 -100.11359 167.65776 315
370.21622 -99.17123 167.65103 315
371.49435 -98.59284 167.47346 438
372.87808 -98.15687 167.20825 437
374.23477 -97.64816 166.95088 436
382.82370 -102.91829 167.63564 309
375.66559 -97.14439 166.71655 435
383.44553 -101.88103 167.68513 309
377.12286 -96.69073 166.44688 434
384.09332 -100.86315 167.68486 309
378.53922 -96.19776 166.23473 434
384.65479 -99.81145 167.69940 309
380.01498 -95.67025 165.94156 433
385.27094 -98.74424 167.67502 309
381.44427 -95.18275 165.71088 432
385.87466 -97.70192 167.72040 309
382.93207 -94.66118 165.39728 431
386.49973 -96.67652 167.69485 311
384.42435 -94.11557 165.15144 430
387.12903 -95.61263 167.70772 311
385.98416 -93.60989 164.86501 429
387.69257 -94.55733 167.71251 311
386.98233 -92.79684 164.75189 317
388.30170 -93.52713 167.74188 311
387.63242 -91.78045 164.75136 317
389.05612 -92.51608 167.70697 427
388.20850 -90.70824 164.74477 317
390.59586 -91.99807 167.41719 426
388.82751 -89.70525 164.71031 317
392.17746 -91.43720 167.12088 425
389.37241 -88.63072 164.72638 317
393.79205 -90.90957 166.84674 424
403.47440 -95.85438 167.72705 305
389.98199 -87.62103 164.74081 317
395.39600 -90.32066 166.55518 423
404.06082 -94.66310 167.71164 305
390.56815 -86.56370 164.69456 317
397.05838 -89.79879 166.25972 422
404.67218 -93.50528 167.74078 305
391.13373 -85.46934 164.70961 317
398.74997 -89.16486 165.93909 421
405.22852 -92.34135 167.73711 305
391.72861 -84.41424 164.72313 317
400.43332 -88.61529 165.64719 420
405.77133 -91.16233 167.78046 305
44713.84766 -21347.24219 -9629.38574 1000
392.29288 -83.34728 164.68504 317
402.12106 -87.99822 165.32985 419
406.30554 -89.99245 167.77823 305
392.86115 -82.32008 164.70622 317
403.80997 -87.41254 164.99747 418
406.84924 -88.82975 167.78261 305
393.40244 -81.22019 164.66907 317
405.12442 -86.62336 164.81010 313
407.38159 -87.65869 167.77094 305
370.74014 -69.72454 171.52090 316
405.66583 -85.45938 164.78995 313
407.91470 -86.49100 167.79201 305
371.15466 -68.80708 171.53477 316
406.26532 -84.32349 164.80499 313
408.79025 -85.43877 167.73930 436
371.61685 -67.84380 171.51759 316
406.80533 -83.13354 164.79877 313
410.31122 -84.67435 167.48480 435
372.04224 -66.88954 171.54765 317
407.33920 -81.97196 164.83379 312
411.89767 -83.94915 167.19424 434
372.46609 -65.93573 171.53024 317
407.86777 -80.81047 164.82848 312
413.42737 -83.18737 166.95982 433
372.88000 -64.97961 171.54443 317
408.39420 -79.68880 164.81461 312
415.03326 -82.43336 166.70999 432
373.30103 -64.00137 171.52577 317
408.92224 -78.48815 164.79323 312
416.59711 -81.62003 166.45549 431
426.55856 -85.68587 167.79675 301
373.70270 -63.04112 171.53798 317
409.48853 -77.33705 164.77757 312
418.19794 -80.82416 166.14853 430
427.06390 -84.40851 167.80988 301
374.11862 -62.09567 171.55078 317
409.96777 -76.19476 164.77850 312
419.83554 -80.03103 165.86420 429
427.56534 -83.10104 167.83733 301
374.51636 -61.13197 171.53230 317
410.47995 -74.97961 164.81886 312
421.51126 -79.27074 165.59248 428
428.09369 -81.74367 167.80920 301
374.92279 -60.17051 171.53125 317
410.99890 -73.78292 164.77820 312
423.17905 -78.40725 165.33752 427
428.58618 -80.43970 167.81885 301
375.28726 -59.21446 171.53870 317
385.78983 -63.10560 171.64395 313
424.86679 -77.57854 165.01663 426
429.03445 -79.15520 167.85345 301
375.66119 -58.23420 171.57648 317
386.20691 -62.06384 171.68539 313
425.95547 -76.55107 164.90324 308
429.49039 -77.85089 167.82596 301
376.05176 -57.25597 171.55362 317
386.60971 -61.02321 171.64568 313
426.45773 -75.29012 164.88884 308
429.96500 -76.55843 167.84669 301
376.40906 -56.28124 171.57375 317
387.02423 -60.01612 171.68118 313
426.90677 -73.98195 164.88486 308
430.41653 -75.24514 167.89787 301
376.78250 -55.31237 171.55890 317
387.40161 -58.94845 171.69182 313
427.44348 -72.70110 164.87146 308
431.80795 -74.21485 167.67610 422
264.42963 -16.41234 203.49608 293
387.74771 -57.90792 171.66673 313
427.91348 -71.43713 164.84787 308
433.62265 -73.35059 167.38751 421
264.51123 -16.11270 203.50890 314
388.15649 -56.86040 171.65823 313
428.42728 -70.11921 164.88724 308
435.46848 -72.49136 167.04645 420
264.63638 -15.83236 203.49905 314
388.49405 -55.80307 171.69749 313
428.87457 -68.85948 164.84583 308
437.28073 -71.53959 166.75557 419
264.76608 -15.55321 203.50821 314
388.83640 -54.78090 171.68513 313
429.35535 -67.54869 164.87805 308
439.12692 -70.67424 166.42465 418
264.89633 -15.26047 203.50813 314
389.20547 -53.72638 171.68385 313
429.77496 -66.27306 164.86922 308
440.76743 -69.72224 166.17453 432
265.01483 -14.97012 203.50928 314
389.58234 -52.68283 171.70959 313
430.24051 -64.95460 164.84869 308
442.40738 -68.66476 165.89056 431
452.08835 -71.58045 167.86974 297
265.13782 -14.69102 203.50743 314
389.89609 -51.64709 171.71376 313
402.10580 -55.21200 171.81706 309
444.14459 -67.67294 165.63712 430
452.50598 -70.14709 167.90144 297
265.24982 -14.40622 203.49844 314
390.22495 -50.58173 171.67625 313
402.44724 -54.07549 171.79282 309
445.84119 -66.65100 165.32933 429
452.92584 -68.69240 167.86195 297
265.36627 -14.10993 203.50182 314
390.56845 -49.49949 171.72072 313
402.78659 -52.95280 171.84494 309
447.57892 -65.59386 165.07755 428
453.32443 -67.22839 167.89606 298
265.48950 -13.81712 203.50838 314
390.87537 -48.45266 171.70979 313
403.16357 -51.82425 171.82288 309
448.35156 -64.32706 164.98154 304
453.68353 -65.82209 167.94859 298
11320.46777 -3068.90234 1156.42883 1000
11143.92676 -3021.11230 2466.58179 1000
265.60294 -13.52515 203.50542 314
391.18478 -47.39202 171.72711 313
403.49878 -50.69277 171.85257 309
448.76144 -62.90561 164.99312 304
454.05341 -64.33201 167.92586 298
265.71069 -13.24170 203.50977 314
391.52817 -46.29372 171.68935 313
403.78122 -49.54365 171.85367 309
449.22070 -61.51135 164.98257 304
454.44385 -62.83406 167.91942 298
265.82346 -12.95446 203.50873 314
391.82724 -45.27253 171.72276 313
404.13071 -48.41272 171.83929 309
449.58585 -60.09142 164.99191 304
454.78806 -61.38225 167.92960 298
265.92850 -12.66250 203.50159 314
392.11298 -44.19961 171.70117 313
404.44754 -47.26511 171.81525 309
450.04160 -58.66568 164.97887 304
456.51456 -60.29612 167.66379 423
266.03577 -12.36722 203.50073 314
392.41330 -43.14496 171.74594 313
404.77646 -46.12601 171.81488 309
450.41757 -57.23321 164.97643 304
458.35306 -59.18669 167.37115 422
266.13815 -12.07732 203.49916 314
392.70709 -42.07239 171.72896 313
405.07620 -44.99530 171.86177 309
450.77881 -55.83173 164.99805 304
460.14890 -58.03325 167.10355 421
266.24121 -11.77875 203.49733 314
392.94296 -40.96696 171.70732 313
405.35532 -43.86115 171.85562 309
451.13129 -54.38726 164.95915 304
462.08051 -56.93140 166.82100 420
266.34204 -11.48750 203.50200 314
393.22604 -39.90915 171.72469 313
405.66675 -42.69788 171.86604 309
451.49197 -52.94636 164.95949 304
463.50519 -55.62652 166.58864 452
266.44693 -11.20102 203.49887 314
393.51190 -38.83165 171.71825 313
405.93109 -41.51261 171.87289 309
420.13797 -44.62300 171.99144 305
464.85678 -54.41069 166.36034 451
266.54807 -10.90720 203.50536 314
393.76270 -37.74463 171.71101 313
406.19110 -40.40728 171.85251 309
420.40866 -43.39646 172.00827 305
466.30371 -53.08580 166.16583 450
266.64371 -10.60453 203.50858 314
394.01129 -36.68947 171.71404 313
406.45450 -39.24452 171.88290 309
420.73373 -42.14950 171.97473 305
467.62616 -51.75223 165.92119 449
266.73914 -10.31731 203.49814 314
394.24933 -35.60238 171.76146 313
406.75995 -38.09500 171.83411 309
420.99130 -40.91302 171.99042 305
469.05148 -50.46360 165.76212 449
266.82660 -10.02324 203.50691 314
394.50360 -34.53138 171.76144 313
407.00287 -36.89321 171.87993 309
421.28937 -39.66416 172.01187 305
470.50146 -49.15430 165.54364 448
480.45007 -51.07992 167.99138 293
266.90860 -9.72230 203.50055 314
394.73471 -33.47484 171.76486 313
407.23068 -35.76181 171.87964 309
421.51743 -38.44460 171.97623 305
471.88611 -47.76529 165.29329 447
480.75595 -49.44159 168.04437 293
266.99738 -9.42398 203.49844 314
394.96890 -32.35952 171.75783 313
407.47928 -34.63486 171.85689 309
421.80313 -37.18372 172.02328 305
473.31235 -46.43863 165.10368 300
480.99832 -47.76095 168.02882 293
267.09149 -9.12928 203.50421 314
270.48346 -9.71818 203.47960 282
407.73105 -33.45009 171.87784 309
422.02420 -35.92023 171.99049 305
473.62436 -44.86364 165.08501 300
481.25098 -46.19014 168.08650 293
267.17712 -8.84022 203.51010 314
270.52582 -9.38829 203.49805 282
407.94312 -32.30259 171.89371 309
422.29276 -34.70709 172.02368 305
473.86371 -43.31295 165.10260 300
481.43744 -44.54068 168.03406 293
2068.74561 -309.12244 124.02924 309
267.26129 -8.53185 203.49774 314
270.57858 -9.07634 203.49960 310
408.19110 -31.14901 171.85544 309
422.53412 -33.42702 171.99446 305
474.16150 -41.70010 165.06905 300
481.70212 -42.92341 168.06409 293
2059.20337 -295.99191 124.48994 480
2064.22217 -296.64944 154.80238 438
2072.41968 -297.97839 185.17595 299
267.34509 -8.24677 203.49829 314
270.66754 -8.75120 203.50412 310
408.38550 -29.96340 171.84630 309
422.71832 -32.20446 172.00571 305
474.44363 -40.18042 165.09381 300
481.93555 -41.31488 168.07365 293
2060.37695 -284.76483 124.60174 491
2063.86353 -285.20801 154.67790 491
2067.58618 -285.96289 185.38806 485
2071.28076 -286.42630 216.16595 496
267.42316 -7.94929 203.49986 314
270.75101 -8.43252 203.50920 310
408.57318 -28.81865 171.90118 309
422.96704 -30.90767 172.02946 305
474.67178 -38.58036 165.09854 300
482.10706 -39.68744 168.07249 293
2071.02637 -274.83487 124.14629 343
267.49881 -7.65094 203.50018 314
270.83347 -8.12331 203.50462 310
408.77478 -27.62870 171.88753 309
423.18091 -29.70469 172.01915 305
439.77603 -32.03412 172.18697 301
482.34015 -38.10682 168.08893 460
267.58289 -7.34891 203.50607 314
270.90552 -7.80071 203.50523 310
409.00162 -26.49421 171.86801 309
423.39093 -28.42307 171.99643 305
440.05136 -30.70094 172.19518 301
483.56134 -36.57683 167.95261 460
267.64746 -7.04806 203.50746 314
270.98578 -7.47639 203.50731 310
409.14975 -25.30582 171.89420 309
423.58945 -27.16580 172.04163 305
440.23804 -29.34233 172.19559 301
484.80765 -35.03804 167.76517 459
267.71729 -6.75111 203.49966 314
271.06705 -7.15558 203.50224 310
409.31299 -24.14104 171.87859 309
423.78882 -25.91414 172.04558 305
440.43307 -27.97566 172.21181 301
485.98312 -33.57093 167.61304 458
267.80170 -6.45393 203.50250 314
271.13861 -6.83441 203.50441 310
409.54788 -22.98552 171.87604 309
423.92365 -24.66307 172.03860 305
440.60580 -26.58969 172.19930 301
487.25278 -32.05499 167.43518 457
267.86395 -6.15504 203.50349 314
271.21030 -6.51728 203.50194 310
409.68774 -21.79940 171.85933 309
424.11371 -23.43022 171.99785 305
440.82693 -25.27416 172.18130 301
488.48947 -30.49126 167.23047 456
267.93298 -5.84577 203.50455 314
271.27359 -6.20001 203.50266 310
409.82700 -20.63514 171.87837 309
424.28168 -22.14406 172.05338 305
441.01971 -23.86088 172.21346 301
489.72913 -28.95326 167.03564 456
267.99927 -5.55739 203.50650 314
271.34579 -5.88191 203.49780 310
410.01135 -19.45732 171.88309 309
424.47314 -20.85275 172.04385 305
441.19962 -22.54801 172.20197 301
490.99350 -27.41545 166.82588 455
268.06274 -5.24894 203.49889 314
271.41119 -5.56424 203.50845 310
410.11612 -18.30801 171.89003 309
424.64456 -19.63189 172.03647 305
441.36551 -21.15500 172.16125 301
492.26083 -25.86931 166.65926 454
268.11951 -4.95100 203.49944 314
271.48315 -5.23811 203.50464 310
410.29932 -17.11329 171.88771 309
424.74915 -18.39342 172.00691 305
441.52866 -19.78986 172.19130 301
493.59589 -24.28918 166.42157 453
268.17673 -4.64735 203.50656 314
271.53687 -4.91830 203.50220 310
410.38913 -15.96358 171.89040 309
424.91843 -17.08044 172.00624 305
441.65216 -18.43646 172.20039 301
494.86041 -22.67958 166.27791 452
268.23422 -4.34844 203.50432 314
271.59512 -4.59672 203.51025 310
410.53580 -14.75241 171.88863 309
425.01025 -15.86867 172.03621 305
441.78986 -17.10302 172.16455 301
496.19513 -21.06549 166.02818 451
268.29282 -4.05401 203.50186 314
271.66403 -4.28202 203.49728 310
410.65573 -13.57652 171.91289 309
425.16449 -14.59231 172.03284 305
441.91696 -15.71694 172.20595 301
461.55820 -17.03587 172.41528 297
268.34729 -3.74855 203.50447 314
271.71469 -3.95984 203.50845 310
410.74698 -12.43326 171.88730 309
425.28937 -13.30634 172.00708 305
442.05975 -14.31680 172.17250 301
461.69946 -15.54576 172.39168 297
268.39948 -3.45432 203.50659 314
271.76212 -3.63575 203.50342 310
410.86032 -11.24591 171.87968 309
425.40686 -12.06685 172.03912 305
442.18689 -12.98295 172.16922 301
461.79538 -14.01720 172.38820 297
268.45126 -3.15271 203.50204 314
271.81540 -3.31606 203.50697 310
410.95840 -10.10736 171.89995 309
425.47546 -10.76036 172.03305 305
442.28256 -11.62736 172.17296 301
461.89166 -12.54436 172.37984 297
268.50583 -2.84253 203.50839 314
271.86530 -2.98895 203.50127 310
411.05331 -8.90011 171.91080 309
425.55707 -9.52288 172.04343 305
442.34818 -10.26914 172.19032 301
462.03549 -11.09634 172.35475 297
268.55661 -2.54586 203.49973 314
271.91681 -2.66856 203.50482 310
411.10788 -7.71797 171.89233 309
425.67725 -8.27481 172.05312 305
442.43390 -8.87238 172.19066 301
462.10153 -9.60261 172.39392 297
268.58951 -2.24754 203.49858 314
271.96359 -2.35174 203.50053 310
411.21176 -6.53427 171.91850 309
425.74481 -6.96927 172.04201 305
442.54941 -7.51969 172.22072 301
462.19208 -8.12301 172.38991 297
268.64261 -1.93871 203.50758 314
272.00540 -2.02524 203.49736 310
411.29266 -5.36353 171.90253 309
425.81940 -5.73968 172.01830 305
442.62808 -6.13325 172.20024 301
462.25537 -6.62222 172.35635 297
268.68286 -1.63651 203.50140 314
272.05692 -1.69801 203.50977 310
411.36188 -4.19321 171.89192 309
425.85803 -4.47234 172.01781 305
442.66003 -4.75136 172.22282 301
462.37201 -5.11818 172.39227 297
511.89456 -5.99920 168.31822 288
268.72293 -1.33150 203.50055 314
272.09674 -1.37382 203.50514 310
411.39764 -3.03544 171.90138 309
425.93408 -3.16900 172.03331 305
442.74487 -3.36978 172.20920 301
462.42734 -3.60362 172.39957 297
511.91595 -4.19504 168.29759 288
268.76056 -1.04039 203.49892 314
272.12924 -1.05192 203.50998 310
411.42764 -1.82964 171.89444 309
426.00848 -1.91242 172.02353 305
442.78152 -2.00934 172.19838 301
451.84665 -2.10715 174.30995 425
511.92508 -2.40526 168.26598 288
268.80225 -0.73904 203.50931 314
272.16620 -0.74195 203.50053 310
411.48920 -0.68829 171.89563 309
426.00693 -0.64311 172.00592 305
442.82666 -0.64010 172.18874 301
462.49207 -0.69168 172.42476 297
511.88818 -0.62921 168.28983 288
268.82458 -0.42926 203.50259 314
272.19373 -0.40876 203.50931 310
411.52701 0.52725 171.87164 309
426.05786 0.60253 172.03926 305
442.86984 0.71303 172.22197 301
452.27740 0.77039 174.28252 425
511.98138 1.16431 168.26561 288
268.86182 -0.13253 203.50934 314
272.23819 -0.08685 203.50539 310
411.54300 1.69904 171.90442 309
426.10779 1.88318 172.05327 305
442.90002 2.07646 172.17349 301
452.05698 2.17454 174.28809 422
512.04193 2.94400 168.31509 288
268.89264 0.17394 203.49922 314
272.27042 0.23660 203.51050 310
411.55951 2.86179 171.87398 309
426.10986 3.12599 172.04539 305
442.93671 3.47193 172.20647 301
462.60342 3.85591 172.38564 297
512.13110 4.74992 168.25005 288
268.92657 0.46961 203.50035 314
272.29239 0.55197 203.51067 310
411.59851 4.07276 171.90630 309
426.09351 4.41545 172.03117 305
442.95346 4.81821 172.19429 301
462.59155 5.30959 172.37784 297
268.94113 0.77686 203.50418 314
272.32559 0.87420 203.51093 310
411.59448 5.22711 171.90349 309
426.12207 5.68539 172.01878 305
442.94513 6.18169 172.17313 301
462.58780 6.82092 172.41612 297
268.97586 1.07402 203.49916 314
272.34146 1.19312 203.50633 310
411.59998 6.39266 171.86954 309
426.09940 6.95342 172.02747 305
442.95233 7.55696 172.16920 301
462.61777 8.32076 172.37871 297
268.99637 1.37416 203.50748 314
272.37006 1.52968 203.50154 310
411.57639 7.56130 171.91974 309
426.10800 8.19474 172.02690 305
442.93256 8.92651 172.20686 301
462.57248 9.75639 172.38499 297
269.01828 1.67738 203.50609 314
272.38821 1.85232 203.49661 310
411.56802 8.73811 171.88371 309
426.12350 9.48750 172.05444 305
442.92963 10.29760 172.18719 301
462.57675 11.28931 172.41507 297
269.04117 1.98546 203.49928 314
272.40683 2.16828 203.49741 310
411.52835 9.90014 171.89670 309
426.07434 10.71314 172.01950 305
442.89252 11.64379 172.20052 301
462.54282 12.78366 172.40273 297
269.05188 2.28862 203.50378 314
272.42328 2.49655 203.49995 310
411.50656 11.11712 171.88788 309
426.07053 11.98102 172.01541 305
442.84192 13.00444 172.18079 301
462.47833 14.24776 172.36195 297
269.07916 2.58349 203.50406 314
272.44626 2.81630 203.50023 310
411.47351 12.26647 171.91711 309
426.02606 13.29905 172.05577 305
442.82327 14.40968 172.19579 301
462.42453 15.72166 172.40442 297
269.08365 2.89209 203.50760 314
272.45901 3.13867 203.50537 310
411.42990 13.46684 171.86824 309
425.96313 14.49561 172.02588 305
442.78134 15.76646 172.19107 301
496.63315 19.74161 166.09444 452
269.10513 3.19083 203.49886 314
272.46255 3.45828 203.50369 310
411.41797 14.61382 171.87389 309
425.90555 15.79016 172.00314 305
442.67593 17.14169 172.17787 301
495.34235 21.38392 166.36491 452
269.11624 3.48730 203.50768 314
272.47519 3.77745 203.51033 310
411.30740 15.81311 171.91371 309
425.84772 17.02502 172.02396 305
442.58719 18.52180 172.16983 301
494.08191 22.99447 166.57996 453
269.12238 3.79484 203.50201 314
272.51666 4.10237 203.49352 281
411.29898 16.97520 171.88701 309
425.75104 18.31946 172.04903 305
442.55487 19.90693 172.21808 301
492.81296 24.52977 166.79222 454
269.13046 4.09708 203.50597 314
272.57483 4.43228 203.47693 280
411.21976 18.16377 171.87480 309
425.72000 19.58405 172.02040 305
442.47235 21.26008 172.20349 301
491.52103 26.06426 166.95525 455
269.13187 4.39209 203.49901 314
398.47101 18.01398 171.78180 313
411.13635 19.34467 171.91245 309
425.64075 20.85077 172.05432 305
442.37045 22.62763 172.21860 301
490.29123 27.62715 167.21936 456
269.13412 4.70047 203.50743 314
398.38303 19.08247 171.76779 313
411.05515 20.47803 171.89558 309
425.52332 22.07291 172.05219 305
442.26624 23.93868 172.16682 301
489.01682 29.18986 167.37239 457
269.13892 4.99254 203.50726 314
398.33710 20.18160 171.76324 313
410.96106 21.65005 171.88907 309
425.45163 23.38194 172.01730 305
442.16766 25.33651 172.19731 301
487.79535 30.66722 167.58292 457
269.14050 5.29113 203.50110 314
398.23691 21.29877 171.76700 313
410.89017 22.82560 171.89850 309
425.31870 24.62729 172.04951 305
442.01459 26.69267 172.16655 301
486.60464 32.17576 167.76448 458
269.13269 5.58996 203.50757 314
398.10992 22.34134 171.74684 313
410.74164 24.01450 171.88333 309
425.18414 25.87287 172.02669 305
441.90854 28.02154 172.16415 301
485.34521 33.69626 167.99829 459
269.13065 5.90153 203.50089 314
398.02499 23.44309 171.77362 313
410.64603 25.17487 171.89616 309
425.06415 27.12593 171.99199 305
441.79385 29.43689 172.20627 301
484.45050 35.22828 168.09682 294
269.11823 6.19892 203.50748 314
397.90402 24.53509 171.74899 313
410.52127 26.36672 171.89738 309
424.98962 28.37807 172.00279 305
441.66705 30.76399 172.16310 301
484.36786 36.87307 168.13388 294
269.11517 6.50116 203.50949 314
397.82300 25.64541 171.74348 313
410.39679 27.50280 171.88181 309
424.80347 29.65300 172.02721 305
476.70328 37.40738 165.10794 300
484.20709 38.50515 168.06187 294
269.10928 6.79520 203.50208 314
397.69800 26.71851 171.77811 313
410.26590 28.70416 171.87563 309
424.70087 30.89929 172.04236 305
476.54526 38.95900 165.12930 300
484.15488 40.10905 168.09680 293
269.09845 7.09966 203.50484 314
397.54541 27.80758 171.73599 313
410.12143 29.85085 171.87108 309
424.51654 32.17351 171.98593 305
476.29233 40.53911 165.10008 300
484.03415 41.75021 168.08525 293
269.07748 7.38967 203.50433 314
397.39511 28.91772 171.72649 313
409.96591 30.99911 171.88858 309
424.38214 33.44636 171.98738 305
476.09506 42.04948 165.07344 300
483.88995 43.36901 168.01694 293
269.06281 7.69449 203.50142 314
397.28323 30.00104 171.74437 313
409.85419 32.16477 171.89336 309
424.20123 34.64400 172.00674 305
475.67648 43.62050 165.09457 445
483.68533 45.02921 168.03589 293
269.04507 7.99106 203.50098 314
397.16095 31.06206 171.73851 313
409.65091 33.34349 171.84583 309
424.01093 35.94525 172.03250 305
474.25674 44.97228 165.34319 446
483.57861 46.61926 167.99449 293
269.03561 8.28489 203.50070 314
396.97012 32.15664 171.74931 313
409.52286 34.51659 171.89078 309
423.87372 37.19435 172.01266 305
472.78912 46.32179 165.62712 447
483.35281 48.22844 168.00261 293
269.01587 8.58246 203.50525 314
396.81677 33.24379 171.77028 313
409.35226 35.64788 171.86971 309
423.67953 38.40343 172.00020 305
471.41013 47.66231 165.83994 448
268.99683 8.88456 203.50015 314
396.64389 34.33008 171.72090 313
409.13977 36.84205 171.86253 309
423.49249 39.69833 172.02803 305
470.02463 48.93054 166.10745 449
268.96494 9.17987 203.50146 314
396.47870 35.38681 171.76164 313
408.98489 37.96216 171.87904 309
423.26736 40.91589 172.01141 305
468.57657 50.26547 166.31128 450
268.93887 9.48152 203.50987 314
396.30148 36.49425 171.71431 313
408.77295 39.11266 171.86232 309
423.07477 42.18160 171.97415 305
467.24344 51.50106 166.51651 451
268.91925 9.77492 203.50970 314
396.09949 37.57417 171.72470 313
408.56653 40.26511 171.86850 309
454.69220 50.38335 164.95251 304
465.89728 52.81480 166.78537 451
268.87683 10.07220 203.50592 314
395.90622 38.61997 171.73543 313
408.34439 41.45769 171.83487 309
454.41217 51.81017 164.92696 303
464.47122 54.08663 166.98064 452
268.85629 10.37046 203.50211 314
395.71289 39.74265 171.72078 313
408.17087 42.59209 171.83521 309
454.14651 53.27840 164.93752 303
463.19080 55.34470 167.20746 453
268.81851 10.66290 203.50064 314
395.49362 40.80587 171.74602 313
407.96472 43.73607 171.86060 309
453.85709 54.70268 164.93877 303
461.63422 56.52744 167.42053 421
268.79068 10.95819 203.49947 314
395.32227 41.88327 171.74188 313
407.73135 44.91165 171.82985 309
453.55331 56.10696 164.96747 303
459.82193 57.64676 167.76050 422
268.74417 11.24571 203.50201 314
395.07065 42.93224 171.71773 313
407.45355 46.03322 171.83798 309
453.26328 57.50901 164.97845 303
458.47943 58.83554 167.94165 297
268.71301 11.54549 203.50893 314
394.85178 44.02145 171.73698 313
407.23334 47.17527 171.83952 309
452.93341 58.98306 164.94003 303
458.24866 60.33281 167.89621 297
268.66599 11.83912 203.50423 314
394.62048 45.08477 171.69814 312
407.01279 48.33525 171.84473 309
452.59668 60.40924 164.96382 303
457.93683 61.76848 167.88896 297
268.62717 12.13050 203.50761 314
394.37338 46.16270 171.69388 312
406.72253 49.48650 171.85367 309
452.23544 61.80819 164.97470 303
457.70288 63.28132 167.92021 297
268.60815 12.43287 203.49538 288
394.13666 47.22422 171.73465 312
406.48535 50.65594 171.81029 309
450.96475 62.93705 165.14011 427
457.39960 64.75175 167.91859 297
383.08109 45.21751 171.62250 316
393.92041 48.31131 171.69482 312
406.19833 51.74819 171.82678 309
449.24854 63.97354 165.47523 428
457.10596 66.24017 167.88589 297
382.84933 46.20860 171.59102 316
393.65558 49.34774 171.71165 312
405.94119 52.91759 171.81517 309
447.57486 64.98740 165.77850 429
456.74698 67.68192 167.89566 297
382.56641 47.22331 171.62576 316
393.37112 50.40670 171.68896 312
434.32913 62.60022 164.87546 308
445.87427 65.99302 166.03070 430
456.44293 69.13007 167.87027 297
382.33279 48.21099 171.62086 316
393.13605 51.49457 171.71182 312
433.99667 63.86308 164.84030 308
444.22757 66.96809 166.34476 431
382.07318 49.18450 171.60881 316
392.85495 52.53837 171.68024 312
433.60202 65.19556 164.83919 308
442.62924 67.95428 166.64699 432
381.82376 50.20601 171.58499 316
392.54724 53.59919 171.70294 312
433.25140 66.48791 164.84688 308
441.00690 68.95721 166.88066 433
381.52930 51.15543 171.58504 316
392.28314 54.63304 171.70871 312
432.90170 67.77418 164.85030 308
439.36057 69.91455 167.18092 434
381.28702 52.17614 171.58293 316
391.97147 55.66921 171.71480 312
432.45697 69.05684 164.85258 308
437.63797 70.79814 167.45903 420
381.01147 53.16536 171.60144 316
391.68610 56.73615 171.70551 312
432.09760 70.37504 164.85336 308
435.84445 71.67391 167.78433 421
380.71933 54.12073 171.56570 316
391.36304 57.79732 171.67332 312
431.65320 71.68375 164.82906 308
435.26755 72.88075 167.87166 301
380.40332 55.08253 171.57512 316
391.09006 58.86073 171.69962 312
431.24524 72.95782 164.85611 308
434.93094 74.22323 167.85831 301
380.13089 56.09471 171.56198 316
390.75479 59.89840 171.69325 312
430.62665 74.20754 164.89536 424
434.55154 75.58068 167.80186 301
379.80347 57.04554 171.58136 316
416.29214 70.40616 164.78459 312
428.96869 75.03315 165.23738 425
434.12601 76.87544 167.83740 301
379.52405 58.04674 171.55933 316
415.91309 71.56984 164.79012 312
427.32590 75.80273 165.55113 426
433.77020 78.23724 167.80318 301
379.21152 59.03852 171.56084 316
415.45712 72.79094 164.75050 312
425.62787 76.63619 165.79918 427
433.35092 79.54564 167.80156 301
378.90234 59.97715 171.55446 316
415.06512 73.97050 164.77278 312
424.02527 77.44180 166.12204 428
432.90192 80.86124 167.76031 301
378.53220 60.96378 171.56584 316
414.65323 75.13339 164.81035 312
422.41208 78.17302 166.39912 429
432.49765 82.15473 167.77901 301
378.24057 61.91374 171.55173 316
414.20267 76.32422 164.77658 312
420.85995 78.98178 166.68945 430
377.89349 62.89790 171.53731 316
413.74814 77.47556 164.79225 312
419.28500 79.76558 167.00246 431
377.54904 63.85675 171.56294 316
413.27484 78.69541 164.80901 312
417.70007 80.52994 167.25269 432
377.16263 64.81348 171.52519 316
412.79874 79.83148 164.79010 312
416.17615 81.26570 167.52019 433
376.82312 65.77254 171.53308 316
412.35571 81.00093 164.76942 312
414.68842 82.00952 167.76869 305
376.45444 66.70492 171.52919 316
411.85574 82.17912 164.78362 312
414.25046 83.19595 167.80571 305
399.47559 78.05953 164.69566 316
411.37906 83.35918 164.80971 312
413.81967 84.38414 167.74362 305
398.98581 79.12719 164.70512 316
410.17667 84.16727 165.00481 436
413.33954 85.57160 167.76445 305
398.56561 80.20690 164.69711 316
408.74280 84.90836 165.24400 437
412.87662 86.76800 167.75215 305
398.10214 81.29671 164.67767 316
407.29767 85.57383 165.51677 438
412.41245 87.98152 167.73999 305
397.62067 82.39999 164.67474 316
405.71521 86.20002 165.86711 420
411.91986 89.19057 167.72993 305
397.10928 83.45880 164.68053 317
97.10114 46.69042 -26.97830 421
411.45175 90.35857 167.69189 305
396.59576 84.53582 164.68050 317
402.40594 87.35777 166.48619 422
410.99127 91.55544 167.70979 305
396.11111 85.59106 164.70752 317
400.78085 87.91268 166.78706 423
395.59317 86.63877 164.70825 317
399.23129 88.44021 167.09610 424
2884.18140 1339.40894 118.98631 422
395.05435 87.71870 164.72815 317
397.63309 88.97947 167.40288 425
2860.47925 1348.70361 119.39426 469
394.58496 88.76206 164.73648 317
396.08411 89.52327 167.68369 426
2882.56445 1380.23254 69.40896 430
2844.08789 1360.53540 120.51369 469
394.01587 89.80663 164.72505 317
395.44098 90.56223 167.71010 311
2861.94409 1389.72998 70.17633 431
2828.08472 1371.95667 120.57973 470
393.02887 90.61649 164.86909 427
394.89487 91.62776 167.68123 311
2842.20044 1400.00696 70.97346 431
2813.90771 1385.10925 120.99313 451
391.52216 91.13871 165.16847 428
394.41171 92.65742 167.71204 309
2820.31250 1409.67212 71.68481 475
2800.73999 1398.10669 121.17458 460
390.05542 91.63927 165.44647 429
393.91116 93.75777 167.70738 309
2802.86548 1420.63550 71.69708 318
2789.09424 1412.61060 120.63313 393
388.59082 92.12583 165.77133 430
393.37445 94.83816 167.69202 309
2778.51001 1426.77649 73.32166 324
2780.30225 1427.98584 120.99782 389
387.14133 92.67106 166.02121 431
392.86395 95.89214 167.65784 309
2758.79346 1436.64417 73.43276 434
2771.44849 1444.26245 121.13607 300
385.70404 93.12007 166.31735 432
392.35132 96.95612 167.68480 309
2745.66284 1449.24109 73.73339 434
2910.79736 1544.82788 115.02191 311
384.31012 93.64062 166.56007 433
391.81155 98.01020 167.63434 309
2730.98120 1462.34924 74.20995 434
2916.73511 1570.47107 114.34919 432
382.90558 94.11915 166.82701 434
391.29156 99.10817 167.65421 309
2718.29346 1474.63867 74.17480 494
381.50574 94.62717 167.12265 435
2706.62842 1488.35181 74.89935 496
380.12872 95.06002 167.38719 436
2695.27319 1502.66553 75.01768 497
378.77536 95.53358 167.61519 437
2684.48633 1517.30762 74.48869 497
2819.38306 1600.10669 116.70192 272
378.14633 96.46382 167.65192 315
2674.53809 1531.01428 74.91924 497
2738.20703 1571.07825 119.34809 498
377.63187 97.45270 167.62968 315
2664.19751 1545.43750 74.80141 496
2729.95728 1587.72961 119.51627 498
377.05313 98.39126 167.64278 315
2654.20166 1560.75647 74.57416 497
2722.23584 1603.77283 120.07037 498
376.49249 99.32289 167.63049 315
2644.67065 1575.56226 74.82946 496
375.91513 100.28458 167.63438 315
2635.62817 1591.15759 75.02209 496
375.35400 101.22699 167.62567 315
2627.53296 1606.68555 75.09345 496
374.78149 102.20836 167.60535 315
2618.65088 1622.39099 74.80280 465
2784.05298 1733.90247 116.00961 497
374.19781 103.15084 167.62471 315
2610.73877 1638.57031 74.51199 464
2684.53467 1688.57751 118.73629 355
373.61777 104.09025 167.59070 313
2603.86377 1654.36584 74.23116 464
2671.02319 1701.51135 119.39199 497
2712.08789 1730.37012 217.11954 327
373.04086 105.04836 167.59595 313
2595.91797 1671.14246 74.25559 463
2662.73315 1718.41382 119.49002 497
2694.15088 1739.93799 217.08450 496
372.41675 105.95116 167.55557 313
2588.28345 1687.25330 74.25058 463
2694.48804 1763.35059 167.51682 404
2688.01636 1758.49878 216.64400 396
371.82736 106.88412 167.55823 313
2580.40479 1703.96045 73.70284 463
2714.94556 1800.51160 266.93210 339
2572.81567 1720.26941 73.64879 463
2585.74463 1751.95813 24.23213 457
2564.90674 1736.88269 73.66994 462
2716.64014 1849.01038 114.93178 496
2577.55225 1767.87109 23.85223 457
2557.73560 1753.26770 73.57092 462
2633.05176 1809.55652 118.50372 495
2568.17603 1784.28162 23.45405 457
2549.39795 1769.96301 72.87860 462
2586.20190 1797.59277 119.44092 495
2560.01709 1800.74182 23.13276 457
2542.19604 1786.22864 72.84594 462
2548.69434 1814.36414 23.77630 332
2534.13281 1803.16504 73.26584 387
2538.43604 1829.89368 23.82489 332
2527.22485 1820.48303 72.35693 387
2528.96240 1844.58325 23.69339 332
2519.98096 1837.65149 72.79736 387
2652.61890 1943.92505 216.73782 486
2518.62061 1860.19409 23.64173 332
2512.37891 1854.89453 71.91801 387
2568.87915 1901.04626 216.60495 315
2582.72827 1912.24988 266.51535 326
2508.59766 1874.98315 23.47758 332
2505.52246 1872.58276 71.52873 387
2498.14478 1890.56689 22.96520 332
2497.78052 1890.33081 71.90358 386
2488.62573 1905.81543 22.64353 332
2490.82471 1907.71252 71.23386 386
42904.94922 35919.38281 5716.60547 1000
2478.54736 1921.40833 22.47318 332
2483.53906 1925.08228 71.24008 386
2468.07178 1936.32275 22.27316 332
2475.92236 1942.93384 70.47643 385
2459.02832 1952.25220 21.98545 431
2470.31689 1961.73804 70.35172 294
2449.79541 1968.67627 22.17173 431
2465.46216 1981.69617 69.46504 294
2440.88672 1985.04895 22.18740 431
2458.04175 2000.65808 69.27587 413
2431.88184 2000.78284 21.14389 431
2450.66187 2017.97729 69.23048 405
2572.91357 2128.78296 113.07236 490
2422.74512 2018.04736 20.92275 430
2413.46924 2034.09692 20.77591 430
2404.86255 2050.55615 20.28934 430
2400.76636 2071.92383 19.73354 400
2402.47925 2099.66846 18.81051 307
14309.84766 19487.82227 -3752.09131 1000
24471.89062 41021.38672 4124.14746 1000
8254.36719 18127.42188 557.06299 1000
1260.54883 2384.74365 5.36811 478
1245.95984 2390.81055 5.31743 466
1247.19653 2394.19141 47.58521 467
14691.20410 38232.39844 -5130.75049 1000
1179.26770 5322.34375 -133.38531 448
1148.33203 5345.45020 -134.39154 438
1119.57056 5369.14062 -136.01476 421
1090.14343 5395.31250 -137.55316 421
1059.83325 5422.05762 -138.08846 415
1029.98975 5453.23633 -140.05783 404
1002.27759 5489.06885 -141.65096 389
972.58673 5531.04395 -144.41339 376
945.46002 5587.72070 -147.96129 350
920.07336 5658.61768 -151.72716 346
892.70349 5728.66553 -157.30408 355
865.33246 5803.30225 -161.65813 354
837.50922 5878.09912 -165.91348 356
425.70844 4143.02441 -120.41085 463
426.23022 4157.27832 -52.87248 347
400.56573 4152.60449 -120.77327 377
52.27188 2527.72363 -328.57022 1000
-273.40170 5045.83105 -111.97707 444
-680.46393 5844.41211 -166.18375 351
-712.16394 5813.85352 -165.55266 464
-745.56775 5794.39893 -164.41216 480
-779.41010 5777.50928 -162.99660 487
-811.74225 5758.12109 -162.14128 488
-845.13507 5743.38037 -161.69325 491
-879.46399 5723.95410 -161.29533 491
-912.34058 5709.04443 -160.21002 493
-946.00677 5695.29834 -159.29465 495
-964.90790 5788.11426 -68.87792 314
-979.97498 5683.91553 -159.70938 476
-988.53247 5722.74170 -65.57307 499
-1013.44489 5673.46191 -159.76678 477
-1023.01849 5715.09180 -66.40265 499
-1047.66052 5662.89355 -159.55009 478
-1057.28174 5708.02393 -66.96622 499
-1103.38159 5687.92627 -167.57317 499
-1091.25122 5693.35889 -66.68373 499
-1117.31665 5645.68750 -160.00879 447
-1126.28748 5686.21924 -66.15362 499
-1152.51465 5638.42578 -159.22672 447
-1162.94604 5681.47949 -65.52394 499
-1186.33667 5630.52588 -159.90831 447
-1197.60388 5675.09668 -66.06786 499
-1220.84314 5622.22461 -158.90866 447
-1232.46899 5667.14600 -66.12616 499
-1253.05823 5748.36084 26.99529 499
-1255.64551 5614.80664 -159.14000 447
-1266.96497 5658.91650 -65.87248 499
-1289.42773 5740.19873 25.99956 499
-1290.52356 5607.01514 -160.13654 447
-1324.36816 5731.98486 27.41721 499
-1325.61011 5598.22021 -160.31270 447
-1360.57935 5726.18066 26.12290 432
-1360.08118 5590.72266 -160.42976 447
-1476.18518 5863.63965 -178.47107 499
-1511.90308 5854.78369 -178.84535 499
-1463.95691 5567.29785 -160.20892 479
-1513.59509 5728.35791 -72.68279 447
-1499.42847 5558.21680 -161.03320 479
-1533.58606 5551.33838 -160.30927 479
-1568.71069 5542.67725 -160.60887 479
-1603.64539 5535.36621 -161.53630 392
-1655.03613 5571.67676 -165.35295 470
-1702.92456 5601.26807 -167.90958 443
-1726.12756 5560.16260 -69.22469 437
-1646.84204 4223.61719 -82.97583 340
-1471.77747 3321.19336 -87.31291 296
-1441.59912 3212.15210 -77.67297 296
-1447.43677 3224.97510 -19.72979 302
-1415.16602 3114.47705 -70.12517 300
-1514.25793 3302.78125 -25.86658 490
-1386.62000 3015.48340 -62.02807 297
-1394.59546 3031.72021 -6.71839 311
-1374.22937 2949.54224 -56.04663 327
-1382.63367 2965.46655 -2.12874 355
-1372.03906 2903.72925 -52.74692 330
-1390.92334 2937.16895 -0.86203 454
-1373.68677 2863.85596 -50.55570 332
-1406.83264 2922.82495 -1.24686 472
-1377.60938 2829.17236 -48.32641 408
-1426.81128 2917.45459 -1.31553 472
-1382.81750 2799.28418 -46.18047 352
-1447.20471 2910.86377 -1.05974 472
-1388.63074 2770.01123 -44.68053 417
-1467.76733 2905.18677 -2.13181 471
-1394.74707 2742.01587 -42.38433 423
-1487.95691 2899.91675 -2.64969 471
-1401.17969 2715.37744 -41.55984 433
-1508.12488 2893.43774 -2.37573 470
-1409.37537 2690.24707 -40.18097 438
-1528.59436 2887.50513 -2.94327 470
-1416.59473 2666.13574 -38.27469 439
-1549.48474 2881.87915 -3.30310 470
-1428.32532 2647.74243 -37.65898 488
-1570.36755 2876.11011 -3.39837 470
-1481.41870 2696.35742 -43.50572 283
-1594.33215 2875.26709 -4.82566 358
124.39124 148.66719 168.36893 489
120.54875 150.37631 167.40207 316
120.26630 148.90218 167.68156 490
119.42613 150.12242 170.50661 312
118.82843 149.05370 167.37827 316
118.52721 149.45268 170.49883 312
117.94493 148.41293 167.40337 316
117.57441 148.88361 170.45580 439
116.81711 148.09837 167.29263 439
115.46086 148.04327 167.04933 438
113.04271 149.39507 166.38704 314
112.16544 148.71596 166.40981 314
111.26804 148.02094 166.36755 314
110.40100 147.28926 166.39153 314
109.55108 146.60800 166.39478 314
108.46162 146.10117 166.33101 421
106.91547 146.26619 166.01251 420
99.50014 155.29861 166.38527 310
105.29594 146.41110 165.69058 419
98.57262 154.50980 166.40276 310
103.68233 146.59880 165.39513 418
97.62227 153.73947 166.38385 310
102.01010 146.78961 165.07909 417
96.70782 152.95772 166.37874 310
100.34159 146.92265 164.72607 416
95.82320 152.15955 166.38438 309
98.63316 147.11974 164.37651 415
94.92754 151.38495 166.40108 309
96.94274 147.26309 164.03891 414
94.00356 150.59761 166.35336 309
95.30137 147.35759 163.71077 423
93.09264 149.79507 166.39351 309
93.62666 147.39136 163.41939 422
92.22170 148.95787 166.36513 309
92.78379 146.59036 163.43771 307
91.33086 148.17450 166.33472 309
92.00524 145.67987 163.47951 307
90.24862 147.54893 166.27667 421
91.20020 144.74318 163.46629 307
88.55018 147.62364 165.99568 420
90.47863 143.82341 163.53842 307
86.81911 147.66663 165.66412 419
78.21149 156.69049 166.27069 305
89.69495 142.92453 163.57805 311
85.02801 147.77031 165.33553 418
77.28694 155.76422 166.28612 305
88.90092 142.02686 163.56885 311
83.22988 147.78992 165.02069 416
76.41526 154.82353 166.31856 305
88.16573 141.10938 163.59013 311
81.43040 147.88300 164.69391 415
75.49303 153.93483 166.30235 305
108.17014 119.42315 171.49301 315
79.63141 147.95737 164.33165 414
74.56269 152.99484 166.27446 305
107.49038 118.63454 171.49757 315
77.76263 148.00908 163.97675 413
73.65003 152.11038 166.26837 305
106.82497 117.90535 171.48283 316
75.84276 148.08588 163.61850 412
72.71808 151.16772 166.29372 305
106.13535 117.17288 171.50024 316
74.09423 148.03696 163.29813 303
71.84860 150.24028 166.29144 305
105.47478 116.39685 171.51221 316
73.32350 147.02267 163.34297 303
70.95245 149.26022 166.25517 305
104.82241 115.63374 171.49406 316
72.57157 145.99374 163.41542 303
70.03938 148.35912 166.26880 409
104.12363 114.87953 171.51717 316
71.78728 144.93175 163.40219 304
68.05791 148.42273 165.92355 408
103.51752 114.08694 171.53986 316
71.08847 143.83791 163.44731 304
66.03978 148.51074 165.56960 407
102.86200 113.32582 171.53531 316
70.35244 142.81119 163.47049 304
64.00138 148.56786 165.19643 406
54.35344 157.26465 166.19437 301
102.20683 112.57585 171.52443 316
93.66056 120.21134 171.61455 312
61.88241 148.63782 164.81082 405
53.45969 156.21436 166.17349 301
101.56197 111.78898 171.55429 316
92.96866 119.39149 171.59377 312
59.75910 148.73639 164.44063 404
52.49879 155.12637 166.19171 301
100.94633 111.01625 171.53172 316
92.30432 118.52671 171.60291 312
57.63029 148.83957 164.00891 402
51.57782 154.07674 166.17921 301
100.31885 110.22843 171.56891 316
91.63351 117.67143 171.60741 312
55.44982 148.86826 163.59679 401
50.72435 152.97121 166.18127 301
99.69853 109.41143 171.53831 316
90.96676 116.86874 171.64426 312
53.28177 148.93069 163.19806 300
49.80753 151.92227 166.19679 301
99.07191 108.61382 171.57355 316
90.27631 116.00362 171.65923 312
52.53570 147.76294 163.24406 300
48.91484 150.86139 166.17935 301
98.46072 107.80994 171.55586 316
89.61916 115.11194 171.66055 312
51.80544 146.56516 163.30380 300
48.02277 149.74852 166.15450 301
97.82422 107.00363 171.55539 316
88.95882 114.27599 171.64032 312
51.06388 145.38280 163.33141 300
46.35157 149.23981 165.93831 397
97.23672 106.19427 171.60117 316
88.36460 113.39738 171.66444 312
78.21801 121.60278 171.71147 308
43.97187 149.35135 165.53345 396
96.64188 105.39955 171.57199 316
87.67894 112.55716 171.63470 312
77.56015 120.64623 171.72926 308
41.57278 149.44804 165.10333 395
96.03608 104.60445 171.60126 316
87.04890 111.69388 171.67183 312
76.86163 119.74232 171.77202 308
39.19156 149.53270 164.67513 394
28.28129 158.16107 166.06235 297
95.44377 103.76968 171.62035 316
86.42816 110.78294 171.68263 312
76.20507 118.79465 171.75638 308
36.70232 149.61429 164.28812 392
27.34918 156.87090 166.07916 297
94.87106 102.93167 171.61858 316
85.79561 109.92133 171.66208 312
75.49073 117.84160 171.74806 308
34.13856 149.70482 163.81430 391
26.44320 155.65141 166.02480 297
94.29131 102.11824 171.59909 316
85.18175 109.04501 171.66177 312
74.86954 116.91759 171.78255 308
31.59847 149.84950 163.33334 390
25.54816 154.40817 166.06769 297
93.71338 101.29453 171.61198 316
84.58411 108.15343 171.70277 312
74.17473 115.96751 171.76630 308
29.88789 149.20723 163.13023 296
24.64600 153.19359 166.08551 297
93.13149 100.44901 171.63388 316
83.96190 107.25455 171.68863 312
73.55515 114.97557 171.80334 308
29.19652 147.85524 163.20651 296
23.76265 151.93199 166.04185 297
92.58907 99.62976 171.63094 316
83.36485 106.38447 171.68272 312
72.86948 114.04819 171.76794 308
60.88635 122.85087 171.88765 304
22.83757 150.65788 166.08231 297
92.03844 98.78149 171.61755 316
82.75140 105.48608 171.68176 312
72.25156 113.05739 171.76593 308
60.22496 121.77341 171.87125 304
20.85594 150.22731 165.79861 385
91.47767 97.92458 171.65108 316
82.15485 104.57633 171.71155 312
71.62317 112.10468 171.76891 308
59.52628 120.76812 171.88266 304
18.01792 150.31839 165.29224 387
90.89792 97.07680 171.65826 316
81.56496 103.65435 171.71822 312
70.95056 111.14391 171.82597 308
58.81142 119.65668 171.87297 304
15.25322 150.39685 164.81320 386
-4920.21191 3625.98682 424.60532 1000
90.38032 96.22752 171.63718 316
80.97804 102.74218 171.71883 312
70.34529 110.16608 171.82138 308
