# .PCD v.7 - Point Cloud Data file format
VERSION .7
FIELDS x y z rgb
SIZE 4 4 4 4
TYPE F F F U
COUNT 1 1 1 1
WIDTH 1406
HEIGHT 1
VIEWPOINT 5865.301270 -3995.406006 146.039520 0.001959 -0.131896 -0.011220 0.991198
POINTS 1406
DATA ascii
412.48291 4.62449 171.89575 309
427.08582 4.95858 172.03297 305
444.01022 5.32230 172.19914 301
463.81409 5.76750 172.40703 297
269.51227 1.81404 203.50874 314
399.68060 5.43046 171.79669 313
412.46161 5.81256 171.88080 309
427.12064 6.23229 172.02463 305
444.03442 6.71665 172.19440 301
463.82855 7.26644 172.39049 297
269.55063 2.12001 203.50443 314
399.71603 6.53398 171.77969 313
412.48398 6.98455 171.87637 309
427.10974 7.47061 172.04797 305
444.02301 8.04219 172.20218 301
463.79968 8.73506 172.37254 297
269.57822 2.41424 203.50403 314
399.69736 7.63105 171.76234 313
412.48471 8.13998 171.89337 309
427.13657 8.75268 172.05040 305
444.00195 9.40473 172.18166 301
463.78851 10.21682 172.38428 297
269.61282 2.70887 203.50066 314
399.67197 8.71256 171.75528 313
412.47430 9.33390 171.89864 309
427.11310 9.98380 172.06564 305
444.00623 10.79835 172.18083 301
463.81403 11.65880 172.37123 297
269.64407 3.00286 203.50520 314
399.70084 9.78156 171.79520 313
412.42862 10.47560 171.91252 309
427.09900 11.23602 172.02119 305
443.98007 12.11957 172.21608 301
463.73483 13.17878 172.41907 297
269.67606 3.30168 203.49936 314
399.64902 10.88515 171.78894 313
412.41809 11.65910 171.92575 309
427.03650 12.51124 172.06076 305
443.95227 13.50572 172.19810 301
463.70074 14.67607 172.39709 297
269.69302 3.59474 203.50803 314
399.66122 11.97120 171.77469 313
412.38940 12.79310 171.89442 309
426.97565 13.75840 172.04114 305
443.91449 14.84279 172.18294 301
497.30252 18.30574 166.30995 483
269.72433 3.88291 203.50133 314
399.61905 13.05594 171.79602 313
412.36093 14.00371 171.90778 309
426.93292 15.03194 172.01985 305
443.81921 16.18418 172.21138 301
496.52362 19.96184 166.40862 451
269.74487 4.18110 203.50757 314
399.56696 14.18741 171.75293 313
412.32632 15.16373 171.87547 309
426.90152 16.28024 172.04950 305
443.78833 17.59360 172.17612 301
495.26389 21.50223 166.63881 452
269.76205 4.47380 203.50131 314
399.49844 15.23879 171.75110 313
412.24512 16.29432 171.90346 309
426.84763 17.55570 172.05548 305
443.73618 18.93876 172.22722 301
493.94473 23.10858 166.85236 453
3411.36475 266.02243 112.42380 374
269.77921 4.76106 203.50320 314
399.44635 16.32498 171.76361 313
412.22290 17.44991 171.88838 309
426.76459 18.75869 172.04437 305
443.64548 20.31190 172.18604 301
492.72162 24.70410 167.00291 454
3394.66211 284.55103 112.58067 457
269.80441 5.05915 203.50096 314
399.39130 17.41701 171.75818 313
412.16681 18.65864 171.87889 309
426.70938 20.01615 172.06583 305
443.52072 21.61995 172.22122 301
491.42896 26.21562 167.27968 455
3431.31738 307.55536 58.78109 428
3380.47119 302.30325 113.61072 458
269.82010 5.35589 203.49739 314
399.32855 18.50864 171.78481 313
412.04669 19.78764 171.92122 309
426.64774 21.29084 172.06436 305
443.42963 23.00986 172.21692 301
490.20700 27.74889 167.45335 455
3412.67285 325.46399 60.11606 406
3366.54980 320.52048 114.20026 459
269.83368 5.64994 203.50702 314
399.29733 19.57498 171.76736 313
412.00061 20.98492 171.88335 309
426.50995 22.52516 172.02867 305
443.36700 24.37164 172.19350 301
488.94220 29.24704 167.66425 456
3388.83789 342.66846 60.47173 473
3355.67896 339.08896 113.92425 480
269.83447 5.94102 203.50645 314
399.19589 20.66081 171.75777 313
411.90567 22.11794 171.87636 309
426.44263 23.77041 172.02159 305
443.25580 25.73360 172.19133 301
487.76599 30.80387 167.87466 457
3378.52759 360.93918 61.20839 474
3346.84106 356.76132 114.66032 481
269.84219 6.23611 203.50565 314
399.10941 21.77375 171.75699 313
411.83188 23.30880 171.90103 309
426.32202 25.07022 172.04871 305
443.14178 27.06799 172.17401 301
486.55273 32.27691 168.02841 458
3367.44873 378.83035 61.84522 474
3338.04956 375.34299 114.87329 481
269.85852 6.51976 203.50667 314
399.00906 22.85715 171.78290 313
411.72409 24.42553 171.90384 309
426.23935 26.26294 172.01973 305
443.00024 28.38589 172.18861 301
485.77591 33.80428 168.17162 294
3357.57202 397.47488 62.20480 488
3331.36499 394.09409 114.81932 459
269.86108 6.81933 203.50676 314
398.91843 23.94440 171.74416 313
411.58627 25.59703 171.86914 309
426.09198 27.51173 172.05014 305
442.90204 29.79115 172.18597 301
485.70892 35.45825 168.08997 294
3350.18262 415.64618 62.29354 488
3324.92432 412.63101 114.72459 460
269.86694 7.11354 203.49831 314
398.85059 25.03396 171.77945 313
411.47961 26.75328 171.86258 309
425.96140 28.76071 172.02205 305
478.01874 35.98458 165.09200 300
485.66052 37.03981 168.13760 294
3342.62451 434.25342 62.01091 489
3319.80078 431.20471 114.68195 459
269.87173 7.39629 203.50363 314
398.72742 26.10440 171.75723 313
411.40182 27.91280 171.89503 309
425.87097 30.02356 172.03342 305
477.86496 37.58285 165.06850 300
485.57309 38.73062 168.10855 294
3336.03613 452.87823 62.50619 487
3314.35205 449.77490 114.79917 459
269.86597 7.69287 203.50462 314
398.62305 27.15527 171.76401 313
411.22302 29.06470 171.91161 309
425.72919 31.25477 172.03812 305
477.69058 39.12698 165.13312 300
485.45007 40.30600 168.08876 293
3329.79736 470.86383 62.39274 489
3309.02417 467.89005 115.01499 461
269.86630 7.98382 203.50504 314
398.48816 28.23935 171.78093 313
411.09073 30.23772 171.90384 309
425.56665 32.49674 172.01271 305
477.51688 40.71655 165.09492 300
485.28754 41.93321 168.05933 293
3323.49707 489.39816 63.03378 489
3305.65112 486.59995 114.82693 385
269.86023 8.27778 203.49992 314
398.34314 29.30658 171.74934 313
410.99014 31.38329 171.89403 309
425.40726 33.78936 172.04660 305
477.17908 42.22538 165.13217 444
485.15240 43.55967 168.06485 293
3317.16943 508.19150 62.82810 339
3302.68579 506.10788 115.08962 385
3476.91821 534.02716 162.92281 262
269.86005 8.56193 203.50960 314
398.21307 30.41265 171.78020 313
410.80719 32.53531 171.86261 309
425.23105 35.02450 172.02040 305
475.70023 43.56656 165.34410 445
484.99539 45.16294 168.05252 293
3307.06494 526.18439 62.96402 340
3300.34375 524.64862 114.42704 384
3486.57935 556.28027 162.89958 340
269.85764 8.85684 203.49782 314
398.09979 31.45938 171.73912 313
410.68140 33.69889 171.87453 309
425.08936 36.23559 172.03471 305
474.32303 44.93676 165.63875 446
484.85922 46.80943 167.99197 293
3298.70190 544.06799 63.21124 341
3297.44214 543.92108 114.30363 384
3356.33789 554.25073 164.82504 499
269.84857 9.13971 203.50899 314
397.92899 32.55079 171.74721 313
410.50946 34.87032 171.86194 309
424.92810 37.45795 171.99149 305
472.88278 46.24496 165.83524 447
3291.43237 562.17029 63.95182 342
3292.59229 561.95605 115.06909 426
269.83069 9.43585 203.50279 314
397.78516 33.61585 171.75632 313
410.36261 35.97720 171.87196 309
424.70877 38.73483 172.00214 305
471.49039 47.53364 166.07483 447
3284.85889 579.75134 64.09502 342
3291.19067 581.50690 115.10959 425
269.82736 9.72520 203.49821 314
397.62796 34.70117 171.73193 313
410.15234 37.16194 171.87057 309
424.54456 39.97406 172.00357 305
470.09430 48.84316 166.28889 448
3278.98071 598.41278 64.32938 342
3290.16943 600.04688 114.44607 425
269.80515 10.00641 203.50575 314
397.47946 35.74718 171.75407 313
409.99329 38.28787 171.88028 309
424.33185 41.20020 172.03683 305
468.74472 50.11674 166.52705 449
3273.00000 616.43597 63.74597 442
3355.08423 632.76178 111.98383 499
269.80206 10.29968 203.50972 314
397.30515 36.83005 171.73663 313
409.80969 39.41661 171.84561 309
456.07645 49.09294 164.95538 304
467.35312 51.43193 166.76286 450
3269.32080 635.39258 63.99994 441
3352.45068 652.13129 112.65125 498
269.77267 10.59031 203.50952 314
397.12698 37.90582 171.76753 313
409.63147 40.59363 171.85725 309
455.80292 50.49364 164.95688 304
466.00293 52.70765 166.99895 451
3266.63843 654.10773 64.14835 441
3345.17383 670.55310 112.47076 498
269.79474 10.88341 203.48793 285
396.94818 38.95098 171.74258 313
409.39917 41.74725 171.85468 309
455.53195 51.91697 164.95074 304
464.68442 53.97207 167.17975 452
3264.62012 673.43134 64.03733 441
3383.26538 699.41565 110.43336 353
3403.84497 704.00659 216.63017 352
385.74582 37.52315 171.65089 316
396.74854 40.04673 171.75304 313
409.20032 42.84782 171.85774 309
455.29813 53.34092 164.98210 303
463.30557 55.18477 167.41956 453
3261.71729 691.78522 63.61388 441
385.55338 38.54585 171.64328 316
396.57068 41.11855 171.75360 313
408.99536 43.98372 171.86931 309
455.03458 54.74353 164.92737 303
461.93225 56.41341 167.64174 420
3260.02295 711.11975 63.32380 441
385.37271 39.52550 171.63139 316
396.33997 42.14038 171.73885 312
408.77090 45.13267 171.84839 309
454.73343 56.18092 164.94260 303
460.08755 57.46884 167.92422 422
3257.76782 729.66663 63.73528 441
385.19809 40.49789 171.64032 316
396.13928 43.20170 171.76155 312
408.57462 46.27382 171.85915 309
454.39221 57.62902 164.96710 303
459.77554 58.93825 167.93942 297
3254.87549 749.27740 63.72942 441
3359.46558 774.86139 111.26485 282
384.98828 41.51725 171.63103 316
395.90707 44.28275 171.74812 312
408.31946 47.42702 171.83018 309
454.09525 59.00401 164.93243 303
459.51523 60.39434 167.92754 297
3252.63208 768.45502 63.33062 441
3298.56714 779.75586 113.04594 497
384.76920 42.48313 171.61046 316
395.68335 45.31517 171.75674 312
408.07697 48.54272 171.82433 309
453.74646 60.45588 164.94386 303
459.20117 61.81634 167.89702 297
3250.14014 787.63678 62.87564 440
3296.59399 799.30328 112.68256 497
384.59085 43.47054 171.63641 316
395.47748 46.41122 171.73573 312
407.80853 49.68724 171.86400 309
453.01224 61.74413 165.08121 425
458.95700 63.28722 167.90916 297
3248.25928 806.12030 62.96882 440
384.33524 44.47450 171.62228 316
395.23810 47.46603 171.72403 312
407.57990 50.80606 171.82599 309
451.27032 62.77381 165.38232 426
458.62796 64.74412 167.87691 297
3245.38452 825.79346 62.98804 440
384.15717 45.46742 171.61093 316
394.98157 48.51738 171.73552 312
407.29489 51.93172 171.84641 309
449.63510 63.74138 165.65013 427
458.37653 66.19936 167.86308 297
3243.50317 844.43903 62.48730 440
383.92935 46.44378 171.63065 316
394.73273 49.55756 171.72176 312
435.81918 61.31326 164.84784 308
447.94525 64.73719 165.98280 428
458.04636 67.68940 167.86256 297
3240.58154 864.26984 62.77108 440
3321.03638 887.22815 216.77681 319
3340.21948 892.71503 322.69016 407
383.69409 47.44223 171.59009 316
394.47815 50.61419 171.71025 312
435.50534 62.61910 164.86365 308
446.27118 65.78601 166.27203 429
3238.32007 883.06555 62.13288 440
383.42065 48.38467 171.58870 316
394.23642 51.65463 171.72946 312
435.15338 63.90053 164.88008 308
444.68912 66.74526 166.52612 430
3236.58618 902.61786 62.16487 439
383.19339 49.38714 171.59566 316
393.98077 52.69769 171.70502 312
434.81232 65.18712 164.84061 308
443.07816 67.71988 166.81877 431
3234.16528 921.83441 61.62088 439
382.94540 50.38551 171.61470 316
393.69183 53.75570 171.70726 312
434.46838 66.48114 164.82924 308
441.45663 68.67118 167.06708 432
3231.16602 941.23297 62.12590 439
382.68170 51.35104 171.61623 316
393.43668 54.79189 171.70671 312
434.10071 67.76921 164.88298 308
439.86334 69.59722 167.32294 433
3229.40894 961.17664 61.11525 439
382.44217 52.31839 171.60088 316
393.15656 55.79123 171.69452 312
433.70914 69.02998 164.85997 308
438.16974 70.54199 167.62395 420
3227.09741 980.83691 61.03745 439
382.15744 53.29010 171.61975 316
392.85806 56.87540 171.69284 312
433.32272 70.33083 164.84816 308
436.94647 71.53543 167.86153 301
3224.57056 1000.26099 60.95667 438
381.89151 54.25204 171.61853 316
392.57632 57.87022 171.72295 312
432.94296 71.59283 164.83582 308
436.56699 72.85650 167.84692 301
3222.06421 1019.84613 60.77107 438
381.59076 55.22157 171.61623 316
392.28760 58.94352 171.68857 312
432.47046 72.89901 164.89462 308
436.21463 74.17059 167.79950 301
3220.10815 1039.55603 60.63460 438
381.29703 56.21062 171.61165 316
391.93973 59.95653 171.68770 312
431.33313 73.89482 165.06226 423
435.81097 75.49277 167.79764 301
3217.48096 1058.90234 60.30651 438
381.02692 57.15831 171.60631 316
417.58307 70.32375 164.79099 312
429.63846 74.67152 165.37144 424
435.48468 76.75533 167.83093 301
3215.26562 1079.06799 60.55339 437
380.72519 58.09590 171.57626 316
417.17630 71.52715 164.75186 312
427.99478 75.45575 165.66721 425
435.10822 78.08051 167.81519 301
3212.43335 1098.81262 60.42828 437
380.42889 59.05339 171.58061 316
416.77960 72.68466 164.81306 312
426.40021 76.30760 165.96106 426
434.66440 79.37606 167.77869 301
3218.60791 1121.57422 59.67530 411
380.10062 60.03536 171.57722 316
416.38290 73.88243 164.76472 312
424.75598 77.04749 166.28259 427
434.28226 80.72271 167.79430 301
379.78613 60.97503 171.56256 316
415.93558 75.03851 164.76106 312
423.17838 77.81814 166.55135 428
379.47125 61.95622 171.55481 316
415.52072 76.22166 164.76929 312
421.59512 78.61658 166.82988 429
379.13391 62.89050 171.54715 316
415.09250 77.35839 164.80751 312
420.05142 79.33122 167.11638 430
378.84659 63.87101 171.54358 316
414.65405 78.54287 164.82484 312
418.55551 80.08624 167.40048 431
378.47247 64.78613 171.56943 316
414.18936 79.69323 164.77728 312
417.03491 80.82137 167.68530 432
378.14212 65.71816 171.53990 316
413.71341 80.82265 164.78796 312
416.05228 81.80682 167.77782 305
401.28983 76.81703 164.69894 317
413.24405 81.99210 164.78316 312
415.67548 82.99480 167.76961 305
400.85120 77.86814 164.70088 317
412.54584 83.04287 164.86212 435
415.22379 84.17355 167.79350 305
400.38815 78.93977 164.70398 317
411.13324 83.71139 165.13542 436
414.77393 85.35573 167.75616 305
399.96997 80.03372 164.70107 317
409.67383 84.43710 165.42314 436
414.35721 86.55689 167.74257 305
399.50943 81.09335 164.70450 317
408.24963 85.14360 165.64545 437
413.89456 87.69247 167.71693 305
399.05817 82.14244 164.68553 317
406.82281 85.80949 165.94366 419
413.46460 88.86696 167.71773 305
398.57474 83.20677 164.72940 317
405.18878 86.35365 166.25494 420
412.97446 90.04237 167.69611 305
398.09619 84.27849 164.68802 317
403.57587 86.93822 166.54648 421
412.49274 91.23235 167.68379 305
397.62384 85.33233 164.71220 317
401.98856 87.49245 166.85773 422
397.09845 86.35789 164.73160 317
400.46695 88.04705 167.15558 423
396.64502 87.39726 164.74783 317
398.90234 88.54900 167.45404 424
396.09290 88.43326 164.72139 317
397.48184 89.14308 167.73930 311
395.61856 89.46725 164.74821 317
397.00101 90.23933 167.73178 311
42124.33984 21849.43555 8013.87207 1000
394.34558 90.15589 164.94897 426
396.49841 91.26509 167.72083 311
392.86398 90.65634 165.27003 427
395.98364 92.32624 167.71320 309
391.41498 91.13025 165.54889 428
395.52454 93.37038 167.71114 309
389.99689 91.64989 165.81171 429
395.00143 94.46012 167.65953 309
388.57358 92.13715 166.10666 430
394.51300 95.47398 167.67006 309
387.15912 92.62145 166.35986 431
394.02576 96.53165 167.66432 309
385.75095 93.10807 166.67067 432
393.48523 97.58999 167.67557 309
384.37625 93.59789 166.90523 433
392.99396 98.63220 167.66107 309
382.99042 94.05418 167.15726 434
381.63318 94.55914 167.45509 435
380.45624 95.10449 167.63081 315
379.92108 96.01237 167.62730 315
379.41022 96.97595 167.62706 315
378.85165 97.94372 167.62155 315
378.29324 98.88559 167.65007 315
377.75128 99.79318 167.61839 315
377.19818 100.72442 167.61948 315
376.65884 101.67943 167.61723 315
376.08142 102.57064 167.61163 313
375.51245 103.50811 167.61734 313
374.96451 104.44381 167.60703 313
374.36237 105.37232 167.57428 313
2254.25806 1797.49951 38.25242 425
2240.41089 1807.03503 39.09119 496
2245.15186 1810.94299 83.04903 477
37194.51562 34411.31250 -6439.26074 1000
40585.94531 48623.47266 -11287.66406 1000
33256.95703 40802.85547 8878.68457 1000
3255.54004 4783.22705 30.20591 351
3232.64600 4810.42969 29.89766 495
3205.03442 4832.40088 30.41571 371
3242.67578 4961.69629 26.29137 458
3109.73486 4807.67773 33.08963 397
3064.83887 4799.03174 33.50544 280
3050.31152 4840.50879 32.39447 425
2994.61401 4912.08545 25.54879 384
2991.38892 4978.85352 24.09234 376
2992.89062 5052.68750 21.76763 317
2990.10254 5122.14600 19.45784 356
2987.29272 5192.70264 18.83793 354
2985.80908 5264.99219 15.19950 369
2017.79456 3750.71387 7.79493 492
2023.00464 3762.22485 75.55391 426
1682.14685 4820.39160 -36.34605 439
1654.32874 4837.05957 -36.36663 346
1541.92639 5719.17432 17.70687 429
1503.26367 5705.95361 17.84506 490
1465.22070 5699.62500 17.95540 477
1426.66858 5694.08301 18.81476 461
1390.46826 5690.87109 20.19141 462
1353.14673 5688.49316 19.25538 431
1317.77100 5687.33008 20.34744 403
1280.90417 5687.63330 19.60337 410
1246.23828 5689.77002 20.64581 410
1250.81653 5721.29541 114.02458 337
1211.19763 5692.07666 20.39711 355
1214.27771 5716.13916 115.22949 499
1176.01550 5695.73291 21.45741 356
1179.63000 5719.32324 115.19043 499
1139.31873 5697.65820 20.73800 357
1144.76221 5723.91650 114.51149 499
1105.44617 5701.11816 21.11722 357
1108.56885 5721.66357 114.23172 499
1069.11816 5703.92871 20.77553 358
1073.16248 5725.81543 115.62778 499
1035.04883 5709.16992 20.13295 358
1039.11353 5734.09619 114.22844 499
1000.08130 5712.78174 21.52432 358
1003.31299 5739.07666 115.20900 499
964.51379 5716.63428 21.67236 358
967.87012 5743.01758 115.22183 499
930.21478 5720.13721 20.84029 358
932.44342 5746.57324 115.55193 499
946.08228 5855.54102 210.16188 496
894.78589 5722.69189 21.08085 358
908.49426 5836.24316 210.13716 495
860.21014 5727.53809 21.62551 349
872.91327 5843.14648 210.09171 493
836.71948 5850.32031 209.82764 281
684.07947 5742.67773 21.21324 391
649.26495 5746.92480 21.45488 391
614.74854 5751.21924 21.72962 390
579.91571 5753.74951 21.74940 390
549.57703 5836.28516 17.81391 490
512.29700 5828.64600 18.86684 491
2749.16016 51104.48047 6889.47852 1000
198.95688 1464.50317 -101.26286 1000
89.91026 4493.86084 -9.93855 478
-2631.36670 42788.71094 -4768.35547 1000
-33.38366 3553.62598 37.87118 287
-44.32515 3414.42432 44.27800 283
-56.19661 3302.64722 50.27150 290
-68.85994 3218.66382 53.67014 341
-70.68801 3240.56421 105.84629 331
-91.51928 3246.85986 -1.03491 293
-84.26114 3173.70630 56.59478 364
-87.67574 3212.12817 107.57796 454
-104.96788 3189.39453 2.42996 334
-99.93278 3136.00293 57.65123 370
-107.10193 3202.51050 107.26202 473
-120.40926 3150.75269 5.60479 341
-115.50444 3104.34326 59.95937 390
-126.64990 3204.49902 107.54651 473
-135.57971 3114.44995 7.13369 347
-131.46255 3077.39771 60.67369 400
-146.69881 3205.04907 106.87524 473
-151.39792 3083.51685 9.05310 361
-147.10426 3052.40967 61.98854 401
-166.28488 3206.56421 107.12045 472
-167.34003 3056.13965 10.84793 368
-163.45309 3027.50391 63.24764 402
-186.48331 3208.62891 106.62695 472
-184.75084 3047.28442 11.54073 296
-179.23637 3004.94092 64.24088 408
-206.49176 3209.80005 106.58910 472
-204.48769 3052.82739 11.21691 296
-194.60982 2983.43579 64.84561 410
-226.33342 3211.02808 107.07494 472
-224.20305 3057.02661 10.70509 296
-210.33388 2963.70532 66.42237 406
-246.49216 3211.88867 106.60822 472
-243.65749 3062.01660 10.09679 296
-230.71803 2975.35254 65.64904 328
-267.36090 3213.85962 105.99725 471
-274.26569 3131.42578 4.91929 267
-257.07901 3024.16577 63.04227 310
-287.58395 3214.98169 106.57967 471
-286.80020 3091.58008 59.18077 309
-310.17407 3232.19312 105.20270 385
-26722.15430 55520.94531 -13174.25586 1000
124.72752 148.92618 167.81236 490
123.00348 149.55048 167.37038 316
122.72785 149.85210 170.48289 312
122.13164 148.86359 167.38089 316
121.90255 149.20166 170.47963 312
121.30916 148.20375 167.38902 316
120.99274 148.60582 170.41652 438
120.25304 147.79553 167.30019 439
119.65104 148.58507 170.23857 438
118.88042 147.76186 167.04355 438
118.19666 148.71284 170.00262 429
117.48092 147.84155 166.81552 427
115.94289 147.98856 166.49826 426
114.84246 147.64732 166.40511 314
113.97641 146.95898 166.40088 314
113.12646 146.24286 166.36937 314
112.09948 145.76436 166.28764 420
110.55586 145.91522 165.97968 419
103.19810 154.82747 166.37711 310
108.98086 146.04773 165.68791 418
102.28188 154.04776 166.36742 310
107.33527 146.23203 165.38676 417
101.44939 153.24960 166.38235 310
105.73377 146.36545 165.06268 416
100.51614 152.42267 166.39490 310
104.11037 146.52663 164.69507 415
99.66365 151.62022 166.38705 310
102.42649 146.73257 164.35361 414
98.79986 150.85547 166.36046 310
100.73967 146.88199 164.02988 413
97.92161 150.02699 166.39476 310
99.01292 147.07756 163.65373 412
97.08784 149.20947 166.36580 310
97.48512 146.94606 163.39458 312
96.20973 148.40793 166.35835 310
96.72068 146.06276 163.45287 311
95.35568 147.60719 166.38770 310
95.94418 145.21928 163.47189 311
93.87981 147.41185 166.13815 420
95.18222 144.28836 163.48239 311
92.17372 147.48482 165.84669 419
94.43082 143.38757 163.54208 311
90.45569 147.51746 165.49356 418
82.43396 155.94389 166.28662 305
93.66507 142.48959 163.53316 311
88.70310 147.59337 165.21085 417
81.50116 155.02972 166.30125 306
92.94482 141.55663 163.57457 311
86.94456 147.66138 164.84581 416
80.60382 154.10909 166.31235 306
92.16820 140.67368 163.61320 311
85.13285 147.73311 164.53909 415
79.70626 153.20389 166.27931 306
112.12880 119.17754 171.44383 316
83.35825 147.82436 164.18243 414
78.80949 152.30310 166.30492 306
111.47044 118.44350 171.45351 316
81.50614 147.86354 163.82944 413
77.96491 151.33632 166.32187 306
110.83625 117.65060 171.49075 316
79.58498 147.95218 163.46480 412
77.09725 150.40211 166.31499 306
110.17285 116.93343 171.46043 316
78.42335 147.34384 163.37311 304
76.19321 149.50160 166.32297 306
109.55393 116.13632 171.49591 316
77.67770 146.28395 163.36270 304
75.32358 148.53638 166.26439 306
-1798.86499 1922.89331 77.70004 456
-1799.11206 1923.29199 123.03476 456
-1799.25024 1923.85510 168.98155 456
-1799.45679 1923.65710 214.65848 489
-1799.68054 1923.82251 260.27570 489
108.90519 115.41432 171.48026 316
76.97608 145.25459 163.43864 304
73.86746 148.20311 166.09895 409
-1303.98694 1436.66895 43.05328 499
-1304.54871 1437.87634 77.54581 499
-1305.94678 1438.49292 111.95944 499
-1306.39893 1439.62915 146.46768 499
-1307.68018 1440.22778 180.54251 499
-1308.71228 1441.41125 215.25708 487
-1309.75891 1442.33032 249.86157 487
-1310.76843 1443.09021 284.53088 431
108.25204 114.63213 171.49808 316
76.25809 144.23682 163.49127 304
71.86613 148.27596 165.72002 408
-775.19360 930.94507 193.13538 335
-773.94141 929.84357 215.49738 336
-773.35168 929.29828 237.94319 404
-772.48639 928.52026 260.22433 404
-771.90729 928.04095 282.60577 404
107.64010 113.86761 171.48329 316
75.49712 143.18892 163.52148 304
69.87521 148.36705 165.33653 407
59.91784 157.39510 166.23235 301
-778.29816 922.54419 58.53395 497
-778.18732 922.36365 81.21824 498
-778.05786 922.11688 103.69256 498
-777.75494 922.06830 126.30144 499
-777.60486 921.67590 148.56900 483
-777.67596 921.76941 171.07266 484
-777.62463 921.71417 193.15637 484
-777.55914 921.75531 215.74979 484
-777.19684 921.77313 238.05563 445
-777.44141 921.60889 260.40326 445
-777.51318 921.81909 282.66586 445
107.03670 113.07021 171.48613 316
74.78152 142.13657 163.54567 304
67.83155 148.39853 164.99188 405
59.00063 156.34752 166.20503 301
106.38699 112.27519 171.51422 316
97.92223 119.85820 171.57382 312
65.73543 148.46474 164.60078 404
58.10464 155.29044 166.22234 301
105.79501 111.52351 171.51163 316
97.23547 119.01213 171.59251 312
63.65969 148.58127 164.20221 403
57.20903 154.26414 166.20230 301
105.16840 110.72258 171.50256 316
96.57669 118.20830 171.60921 312
61.49577 148.67026 163.78899 402
56.35081 153.16254 166.20029 301
104.57589 109.91656 171.50577 316
95.96172 117.31446 171.61235 312
59.32094 148.72502 163.43304 401
55.46353 152.08760 166.18106 302
103.94833 109.15978 171.51042 316
95.29317 116.48061 171.58397 312
58.00238 148.07501 163.29475 300
54.55457 151.01987 166.19037 302
103.34822 108.33411 171.51926 316
94.66992 115.64838 171.62025 312
57.29461 146.94228 163.30606 300
53.63937 149.93750 166.20796 302
102.78806 107.53326 171.55190 316
94.04123 114.75527 171.61360 312
56.59795 145.72809 163.37923 300
52.62713 149.02045 166.17216 398
102.19599 106.71274 171.55630 316
93.41055 113.92318 171.62921 312
55.89199 144.54086 163.37376 300
50.29327 149.07851 165.70560 397
101.60028 105.92715 171.52879 316
92.78191 113.05161 171.60989 312
82.71915 121.11765 171.67914 308
47.97512 149.15750 165.30173 395
101.03545 105.12691 171.56996 316
92.14053 112.17699 171.61031 312
82.06080 120.19440 171.70665 308
45.58770 149.26048 164.90865 394
34.27304 158.27644 166.05428 297
100.46564 104.32008 171.57880 316
91.56757 111.33176 171.63776 312
81.42071 119.25773 171.73163 308
43.12900 149.39279 164.44766 393
33.34283 157.06836 166.09891 297
99.89005 103.45927 171.58067 316
90.92210 110.45279 171.61514 312
80.75298 118.32989 171.73869 308
40.68127 149.43297 164.00992 392
32.45858 155.84076 166.05894 297
99.36530 102.63425 171.56252 316
90.34714 109.56544 171.63080 312
80.14272 117.41492 171.72798 308
38.14682 149.58890 163.54216 391
31.57693 154.65219 166.09641 297
98.78442 101.83047 171.54878 316
89.75488 108.65268 171.63329 312
79.48015 116.46158 171.72191 308
35.76178 149.54871 163.13489 296
30.66364 153.35397 166.08745 297
98.22029 101.00940 171.56198 316
89.13039 107.78699 171.65636 312
78.82038 115.48799 171.72835 308
35.04848 148.22060 163.15863 296
29.80856 152.12749 166.05829 297
97.67275 100.15051 171.56902 316
88.58572 106.88458 171.64328 312
78.24152 114.53710 171.71477 308
34.37478 146.84419 163.24878 296
28.92367 150.87086 166.11127 297
97.14060 99.31668 171.57309 316
88.01276 105.97648 171.65564 312
77.61416 113.58838 171.74237 308
65.70214 122.28503 171.87151 304
27.66428 149.96404 165.95775 386
96.60651 98.48347 171.58218 316
87.41389 105.08823 171.64592 312
76.96606 112.58939 171.73366 308
65.03475 121.24512 171.87112 304
24.91344 150.05774 165.50652 385
96.07470 97.64620 171.60747 316
86.86303 104.16883 171.68259 312
76.35281 111.66614 171.74670 308
64.32298 120.19702 171.82521 304
22.04015 150.17897 165.05832 384
-53272.42188 37998.06641 186.22955 1000
95.57366 96.76553 171.60446 316
86.30261 103.27863 171.66487 312
75.74458 110.67472 171.73587 308
63.66375 119.09853 171.84808 304
19.26887 150.29396 164.55525 385
95.03307 95.95458 171.61201 316
85.71749 102.36479 171.66025 312
75.13327 109.67717 171.78505 308
63.03511 118.05345 171.86420 304
16.40501 150.35287 164.06032 384
4.03852 158.90640 165.76151 290
94.49683 95.06145 171.59445 316
85.18088 101.49024 171.68510 312
74.53021 108.71634 171.77153 308
62.40730 116.99876 171.86923 304
13.47817 150.40973 163.60239 383
3.09865 157.50829 165.79312 290
94.01142 94.24492 171.63376 316
84.61270 100.56453 171.67848 312
73.99237 107.73052 171.78952 308
61.76365 115.98490 171.84912 304
10.55203 150.49998 163.09718 381
2.18757 156.12715 165.81158 291
93.52215 93.34116 171.59543 316
84.07038 99.64490 171.67416 312
73.38079 106.73943 171.79558 308
61.12897 114.91494 171.90701 304
9.42997 149.24542 163.01877 285
1.21905 154.72929 165.78003 291
93.02565 92.47539 171.61601 316
83.54843 98.69186 171.71638 312
72.81805 105.77077 171.80873 308
60.51147 113.85343 171.90283 304
46.23756 123.21055 171.97684 300
0.31013 153.33362 165.77444 291
92.52212 91.64854 171.60318 316
82.99765 97.76942 171.71234 312
72.22015 104.73557 171.78491 308
59.88636 112.73243 171.91469 304
45.60384 122.04390 171.98459 300
-0.61650 151.94179 165.78680 291
92.00639 90.74149 171.63139 316
82.47507 96.84400 171.72917 312
71.69740 103.76228 171.79318 308
59.28300 111.66049 171.90288 304
44.90528 120.85618 172.01799 300
-1.95807 150.82961 165.61502 377
91.52253 89.88687 171.62012 316
81.97031 95.90133 171.70459 312
71.09783 102.75443 171.82265 308
58.69136 110.58637 171.88489 304
44.26686 119.69560 172.01889 300
-5.24900 150.88478 165.09544 375
91.07236 89.00838 171.65758 316
81.47805 94.98266 171.69589 312
70.54706 101.77777 171.82887 308
58.08602 109.54987 171.92581 304
43.61502 118.52851 172.01161 300
-8.60510 150.92807 164.63040 374
90.57544 88.11420 171.63205 316
80.96359 94.03214 171.70920 312
70.02438 100.76539 171.78647 308
57.45227 108.45248 171.91356 304
42.96363 117.33101 172.03618 300
-11.99248 151.07144 164.05630 373
90.10740 87.25324 171.65994 316
80.45129 93.11336 171.73914 312
69.48817 99.71799 171.80043 308
56.91963 107.35374 171.91055 304
42.34816 116.13909 172.03226 300
-15.45438 151.14925 163.46097 372
89.62974 86.34838 171.65236 316
79.95701 92.16077 171.71689 312
68.95198 98.72517 171.81076 308
56.33175 106.23484 171.90277 304
41.67193 114.97749 172.03207 300
-19.08278 151.26517 162.89253 370
-32.52415 159.33241 165.22992 286
89.21572 85.49006 171.65211 316
79.47022 91.22031 171.75735 312
68.39169 97.72878 171.83119 308
55.71487 105.15312 171.95135 304
41.07252 113.75832 172.02859 300
23.87162 123.88785 172.16650 296
-33.42628 157.68317 165.24974 286
88.75158 84.58492 171.67639 316
78.95748 90.23896 171.76222 312
67.89559 96.69772 171.80573 308
55.18787 104.05347 171.95387 304
40.47741 112.56238 172.02774 300
23.25585 122.56650 172.18932 296
-34.38764 155.97855 165.30234 286
88.30730 83.66628 171.65120 316
78.47619 89.28857 171.72021 312
67.36620 95.65627 171.85962 308
54.59758 102.94345 171.93356 304
39.86071 111.38283 172.08194 300
22.53563 121.32581 172.18446 296
-35.27077 154.38748 165.30588 286
87.84700 82.80247 171.67468 316
78.04205 88.35068 171.77002 312
66.85905 94.65528 171.84143 308
54.05240 101.87037 171.97244 304
39.27564 110.21859 172.06099 300
21.88917 119.96763 172.20111 296
-36.11203 152.70619 165.29579 287
87.42544 81.87556 171.69148 316
77.54626 87.38245 171.76512 312
66.34849 93.61447 171.84630 308
53.52082 100.75097 171.96390 304
38.65041 109.00855 172.06874 300
21.23640 118.64925 172.20586 296
-38.18681 151.71971 165.07809 364
87.00788 81.00500 171.65961 316
77.10385 86.38894 171.77979 312
65.85283 92.58943 171.85378 308
52.95583 99.61258 171.93205 304
38.06283 107.76917 172.06200 300
20.62429 117.35132 172.24184 296
-42.26377 151.76984 164.47816 363
86.58179 80.09725 171.66492 316
76.64677 85.45055 171.76328 312
65.38503 91.52002 171.84329 308
52.46968 98.50019 171.94794 304
37.51989 106.58449 172.09540 300
19.98233 116.00419 172.23621 296
-46.46020 151.94370 163.82230 361
86.15698 79.18919 171.66394 316
76.19059 84.45969 171.78674 312
64.85628 90.46696 171.84305 308
51.90760 97.37797 171.95621 304
36.93151 105.36593 172.06972 300
19.36930 114.73920 172.22090 296
-1.50394 125.81371 172.37270 292
85.74358 78.27161 171.67212 316
75.71131 83.48655 171.78880 312
64.40512 89.44617 171.85570 308
51.37656 96.28320 171.97835 304
37.57968 103.49971 172.37598 323
21.13813 112.17278 172.71161 274
-2.22732 124.40391 172.37688 292
85.30743 77.35096 171.69934 316
75.29903 82.50996 171.74763 312
63.89881 88.40392 171.88991 308
50.91156 95.14388 171.94586 304
40.16985 100.68433 173.06516 323
30.91620 105.43638 174.89139 276
14.12762 114.14993 175.59161 276
-74.41659 159.86322 164.93471 284
84.89746 76.44423 171.70345 316
74.85362 81.52819 171.77455 312
63.42860 87.33810 171.85779 308
50.40634 93.97918 171.99503 304
42.70848 97.89722 173.74623 324
36.89939 100.86658 176.22462 323
24.07353 107.38732 177.55219 277
-75.33726 157.93143 164.87411 284
84.50872 75.49213 171.69028 316
74.43843 80.55582 171.77448 312
62.98460 86.31786 171.87975 308
50.72421 92.46408 172.20531 327
45.15231 95.21817 174.45834 325
39.45828 98.05512 176.82446 324
33.25029 101.22482 179.38446 276
14.92295 110.39684 180.09369 288
84.12167 74.56866 171.68558 316
74.00921 79.57558 171.80392 312
62.56136 85.25761 171.85535 308
52.95673 89.96571 172.85892 329
47.56907 92.64623 175.08542 327
41.99752 95.35220 177.49112 326
35.61592 98.55502 179.87740 292
14.30764 109.04066 180.07196 288
83.75072 73.68295 171.68246 316
73.60149 78.60110 171.78322 312
62.07485 84.17361 171.87483 308
55.14985 87.56557 173.50769 330
49.89503 90.11349 175.68172 328
44.47692 92.77557 178.05646 327
35.04297 97.31854 179.87909 292
13.73248 107.68623 180.08664 288
-12.58331 120.45754 180.27434 284
83.34496 72.72376 171.70793 316
73.18461 77.58829 171.77563 312
61.76688 83.03377 171.91759 376
57.23794 85.23580 174.09853 331
52.11989 87.70772 176.30632 329
46.83325 90.20775 178.68150 328
34.56402 96.06464 179.89255 292
13.18270 106.32085 180.06186 288
-13.22132 118.92674 180.28214 284
82.98193 71.80113 171.72052 316
72.76697 76.58765 171.77950 312
62.56089 81.42313 172.21956 377
59.28422 82.97163 174.72559 332
54.27350 85.32735 176.91556 330
49.16232 87.73178 179.22990 329
34.06800 94.83046 179.88745 292
-2.76406 112.15943 177.52669 285
-13.85790 117.39457 180.28780 284
82.58720 70.89130 171.69720 316
72.40331 75.58588 171.77689 312
63.35189 79.79912 172.53137 378
60.15495 81.28043 174.99786 389
56.41730 83.02427 177.48669 331
51.34358 85.36841 179.77162 296
33.53129 93.63643 179.88708 292
-13.44160 115.44511 175.91599 342
-14.47953 115.85289 180.33791 284
82.24348 69.95890 171.72156 316
72.01491 74.61507 171.78810 312
64.10500 78.20180 172.86299 378
60.90049 79.66531 175.30667 390
57.81764 81.09255 177.85649 388
50.88359 84.24454 179.74300 296
15.61121 100.33771 176.72348 289
-0.56984 107.68494 178.13161 269
-17.96409 115.65512 179.87488 341
81.86376 68.99352 171.71962 316
71.59230 73.61478 171.81873 312
64.90589 76.65217 173.16150 379
61.67658 78.07339 175.59518 391
58.61692 79.43834 178.11682 389
50.46202 83.12965 179.77344 296
21.57408 96.04537 177.91353 290
7.91727 102.20047 179.61525 287
-22.60251 115.86887 179.34547 339
81.53031 68.06796 171.71829 316
71.22362 72.60673 171.80376 312
65.63266 75.07027 173.45352 380
62.40038 76.49795 175.88553 392
59.35062 77.82880 178.38545 390
50.02195 81.99476 179.75945 296
24.51655 93.25043 178.57774 319
14.31822 97.75642 180.73486 289
-1.82479 104.87563 182.39767 269
81.16229 67.14368 171.74553 316
70.85897 71.61860 171.82332 312
66.36946 73.55015 173.77693 381
63.12026 74.97101 176.15166 393
60.12886 76.28549 178.63365 391
49.62809 80.84526 179.77484 296
26.78927 90.71882 179.05240 335
19.26818 94.03500 181.62778 318
6.58156 99.50396 183.74144 288
-50.81272 124.42418 180.61356 278
80.82028 66.19932 171.70787 316
70.64315 70.53323 171.88400 385
67.14324 72.02897 174.04881 382
63.86938 73.43983 176.36850 394
60.88407 74.67580 178.91371 392
49.20117 79.68305 179.75691 296
28.84020 88.39626 179.54390 337
22.18387 91.21614 182.14636 319
13.06856 95.15205 184.72784 289
-2.92451 101.92870 186.70575 269
80.51974 65.20917 171.73701 316
71.35918 69.09222 172.15923 385
67.86608 70.52781 174.30225 383
64.54880 71.90145 176.66432 395
61.64362 73.18059 179.13316 393
36.79406 83.55466 177.42641 340
30.90007 86.05750 179.96617 338
24.62522 88.65335 182.62589 335
16.84838 91.96934 185.32416 317
5.41250 96.79570 187.82889 288
80.18282 64.29942 171.75526 316
72.02721 67.63461 172.43826 386
68.60274 69.08321 174.62126 384
65.25904 70.43686 176.92589 396
62.38151 71.62533 179.40105 394
38.66369 81.43707 177.89192 341
32.83697 83.82051 180.43004 339
26.77440 86.32703 183.10118 336
19.85311 89.19570 185.82210 319
11.30864 92.65328 188.59766 316
-3.89055 98.94820 191.00362 269
79.84433 63.34729 171.71750 316
72.73656 66.22701 172.70853 387
69.28855 67.60733 174.86566 385
65.96703 68.94198 177.15350 397
63.09713 70.14385 179.64644 395
40.49158 79.29307 178.30377 342
34.77792 81.56784 180.85750 340
28.83656 83.99271 183.47659 337
22.51544 86.58262 186.25806 335
14.46628 89.85231 189.04018 317
4.23390 93.99205 191.90094 288
79.50964 62.37227 171.76410 316
73.40559 64.82495 173.01553 388
70.02273 66.15278 175.16545 386
66.67823 67.52579 177.39815 398
62.87777 69.02010 179.68665 300
42.08169 77.28110 178.70726 375
36.67850 79.45611 181.23830 341
30.83973 81.76170 183.88115 339
24.70451 84.24384 186.66447 336
17.49583 87.04794 189.49704 318
8.90985 90.52529 192.42673 316
-4.69358 95.93962 195.24313 269
79.22398 61.45002 171.74585 316
74.06465 63.45203 173.28476 389
70.71471 64.75494 175.38655 387
67.35185 66.05118 177.63548 399
62.53231 67.93204 179.66061 300
43.00621 75.57529 178.99617 376
38.56871 77.31748 181.67949 342
32.85369 79.60638 184.29015 340
26.79189 81.96418 187.02592 337
20.41515 84.42523 189.93987 335
12.14326 87.65442 192.88063 317
3.10040 91.19345 195.99147 314
-20.54089 100.48612 198.43312 268
78.90234 60.47754 171.75896 316
74.69131 62.09433 173.54022 390
71.41383 63.34209 175.64804 388
68.03261 64.67929 177.87990 400
62.19160 66.87289 179.65765 300
43.96796 73.90410 179.23486 377
39.65659 75.55713 181.93912 375
34.73378 77.45135 184.64815 341
28.85851 79.67582 187.34367 338
22.58874 82.10116 190.22887 336
15.24935 84.95450 193.20216 318
6.48031 88.33645 196.34428 315
-5.47370 92.91467 199.50874 269
78.62265 59.50837 171.72893 316
75.34305 60.73289 173.76790 391
72.10691 61.95090 175.92192 389
68.71703 63.25379 178.10797 386
61.86949 65.81868 179.67468 300
44.75045 72.24754 179.48593 389
40.63921 73.82755 182.18788 375
36.20866 75.53274 184.92723 373
30.84547 77.54414 187.68312 339
24.77823 79.83727 190.57204 337
18.21229 82.30953 193.57440 319
9.78375 85.51090 196.66071 317
0.57941 88.94282 199.95264 314
78.49852 58.49090 171.78415 424
75.79889 59.50040 173.97885 420
72.76855 60.59991 176.15079 390
69.44751 61.82010 178.38049 387
61.50453 64.75287 179.70621 300
45.51768 70.67787 179.73085 389
41.57321 72.12339 182.39558 376
37.21485 73.79274 185.14249 374
32.61971 75.44427 188.01062 371
26.86490 77.63176 190.91483 338
20.57990 79.94638 193.91563 336
12.92615 82.76691 196.95006 318
4.04699 86.03307 200.24196 315
-6.11096 89.82852 203.75200 270
78.80875 57.31796 171.95364 425
76.14016 58.28298 174.16338 421
73.36113 59.28643 176.36528 419
70.14314 60.46010 178.60701 388
61.20988 63.71663 179.67340 300
46.31936 69.12574 179.94740 390
42.50768 70.47895 182.63646 388
38.19707 72.07138 185.38071 375
33.68272 73.71885 188.23041 372
28.90364 75.44500 191.20755 339
22.72208 77.68893 194.17546 337
16.01784 80.12391 197.26663 319
7.38028 83.28326 200.49030 316
-1.87093 86.61697 203.96167 314
79.08978 56.15979 172.16525 425
76.44519 57.11195 174.31781 422
73.70991 58.08995 176.55243 419
70.82386 59.10080 178.82210 389
60.90940 62.64511 179.66438 300
47.03633 67.56248 180.15529 391
43.26082 68.89044 182.85437 389
39.21268 70.32677 185.59204 376
34.74179 71.92712 188.45428 373
30.12372 73.61899 191.40141 371
24.86691 75.44748 194.44540 338
18.46824 77.75138 197.51575 335
10.59454 80.52847 200.73544 317
1.62610 83.72202 204.19417 315
79.37908 54.98474 172.30225 426
76.75925 55.89586 174.45444 422
73.99377 56.87872 176.70602 420
71.22743 57.85119 178.99843 418
60.58266 61.55120 179.69299 300
47.79716 66.04269 180.34766 392
44.07574 67.34042 183.02754 390
40.15796 68.67325 185.78693 387
35.79852 70.21871 188.64575 374
31.17437 71.79823 191.54468 372
26.39977 73.47723 194.61476 369
20.75002 75.46655 197.77736 336
13.75165 77.92270 201.00475 319
5.01316 81.00711 204.42535 316
79.65810 53.82486 172.48074 427
77.05729 54.73175 174.61726 423
74.31853 55.66641 176.83760 421
71.53073 56.60663 179.11391 419
52.12196 63.30075 177.95888 395
48.51350 64.50124 180.56007 393
44.85653 65.75380 183.20311 391
41.01812 67.06444 185.99478 388
36.84206 68.51764 188.84491 375
32.30534 70.07975 191.76331 372
27.57690 71.67332 194.77705 370
22.63057 73.41421 197.99519 367
16.46509 75.49940 201.23845 335
8.34075 78.29620 204.60532 317
79.92914 52.71408 172.61995 428
77.35538 53.55673 174.79935 424
74.63861 54.49105 177.02078 422
71.90279 55.42676 179.25677 419
52.79714 61.78928 178.18013 396
49.28542 63.02986 180.78693 394
45.59171 64.23374 183.42940 391
41.81431 65.50021 186.17267 389
37.83901 66.86485 189.01765 376
33.33423 68.33723 191.90227 373
28.67505 69.91751 194.95480 371
23.78146 71.54762 198.11876 368
18.70246 73.29001 201.41043 336
11.52731 75.72620 204.77501 318
80.24386 51.57504 172.80502 428
77.65726 52.42503 174.94542 424
74.98810 53.30127 177.14265 422
72.21586 54.18040 179.39375 420
53.52435 60.36296 178.39813 397
49.96795 61.51889 180.97923 395
46.34632 62.72840 183.63478 392
42.58176 63.93782 186.37520 390
38.69654 65.25153 189.18848 387
34.41734 66.64056 192.10236 374
29.79647 68.19240 195.11824 372
25.00559 69.73116 198.27286 369
19.95319 71.42612 201.53207 366
14.35646 73.24396 204.94069 335
80.54537 50.44145 172.95157 429
77.95097 51.26563 175.06828 425
75.29150 52.14722 177.30408 423
72.54665 53.01705 179.55734 421
54.18901 58.92856 178.61256 398
50.69549 60.03474 181.17778 396
47.09145 61.23330 183.77249 393
43.40706 62.41644 186.53751 391
39.53409 63.65221 189.34303 388
35.46563 64.99841 192.25456 375
30.87500 66.47418 195.27875 373
26.11592 67.99794 198.38480 370
21.17196 69.55033 201.62260 367
15.97397 71.28002 205.04333 365
80.83609 49.33257 173.07036 430
78.27600 50.11211 175.23047 426
75.63132 50.95824 177.44531 424
72.51156 51.96724 179.59003 304
54.89314 57.51468 178.80696 399
51.40739 58.57988 181.34590 396
47.85411 59.70448 184.00121 394
44.14494 60.87033 186.70378 392
40.34695 62.07301 189.48315 389
36.38638 63.33646 192.40257 387
31.95610 64.73976 195.41089 373
27.25467 66.19811 198.50018 371
22.36457 67.77393 201.74611 368
17.27629 69.41391 205.13455 366
81.08823 48.21315 173.25891 430
78.56711 49.01427 175.37436 426
75.92493 49.79451 177.57414 424
72.23109 50.95820 179.60983 304
55.53307 56.12436 179.03786 400
52.13990 57.17783 181.55746 397
48.58736 58.24957 184.16225 395
44.95879 59.35911 186.88367 392
41.17633 60.54622 189.67081 390
37.26210 61.73979 192.56383 387
33.03368 63.03835 195.52737 374
28.42992 64.49623 198.65686 372
23.57170 65.99909 201.83014 369
18.52663 67.56183 205.20541 366
81.38390 47.10778 173.39006 431
78.89523 47.84774 175.52878 427
76.24171 48.65111 177.68893 425
71.99740 49.96310 179.60765 304
56.06549 54.76907 179.21889 413
52.83509 55.73246 181.74283 398
49.31045 56.80733 184.34045 396
45.68438 57.91590 187.00566 393
41.96811 59.04919 189.81694 391
38.08973 60.22551 192.67062 388
34.04759 61.38681 195.67928 386
29.53276 62.79956 198.74190 373
24.76154 64.25665 201.96960 370
19.71486 65.75082 205.33118 367
81.68356 46.02170 173.53671 432
79.18741 46.77253 175.66800 428
76.59167 47.53116 177.83688 426
71.76862 48.94366 179.60017 304
56.60080 53.43058 179.37668 413
53.38905 54.37275 181.88451 411
50.06730 55.37229 184.50960 397
46.45778 56.42297 187.18750 394
42.75240 57.51055 189.98869 392
38.90639 58.63292 192.81020 389
34.96568 59.80940 195.80247 387
30.61229 61.13352 198.86113 374
25.85729 62.51845 202.07983 371
20.95402 63.99498 205.38863 368
81.98633 44.93465 173.65468 432
79.47809 45.64187 175.82785 428
76.87975 46.38467 177.99567 426
71.55298 47.95588 179.62379 304
57.06765 52.11255 179.50618 414
53.86812 53.03737 182.05283 412
50.63657 53.99271 184.67838 409
47.22335 54.94281 187.33673 395
43.52034 56.02641 190.13403 392
39.74931 57.14798 192.97186 390
35.80195 58.28606 195.93973 387
31.70486 59.46881 199.01216 374
27.04532 60.82374 202.18367 372
22.17733 62.18396 205.49225 369
82.23455 43.85994 173.79205 433
79.80582 44.53611 175.96315 431
77.21221 45.28508 178.12883 427
71.29951 46.95435 179.62337 304
57.52260 50.81044 179.64040 415
54.38828 51.68203 182.19075 412
51.17271 52.63507 184.77798 410
47.82016 53.55777 187.47510 407
44.32195 54.56742 190.23964 393
40.55003 55.63109 193.11497 391
36.67585 56.69637 196.04134 388
32.61855 57.87936 199.12872 386
28.15891 59.11526 202.28171 373
23.31522 60.47223 205.53119 370
82.53035 42.77320 173.94878 434
80.07779 43.45836 176.08191 431
77.52699 44.15377 178.25443 428
71.09209 45.90692 179.59459 304
57.96740 49.54312 179.77751 422
54.87947 50.36593 182.31435 413
51.67064 51.26925 184.93465 411
48.34046 52.19538 187.60049 408
44.95958 53.14052 190.38008 406
41.37264 54.12957 193.23782 392
37.51200 55.18512 196.17680 389
33.51232 56.28561 199.19591 387
29.24142 57.48830 202.33766 374
24.50048 58.77370 205.60808 371
18.20704 60.49080 208.95142 262
82.82414 41.69723 174.06580 434
80.37574 42.33859 176.22626 432
77.83480 43.03130 178.34982 428
70.89546 44.90568 179.62718 304
58.36431 48.25890 179.95654 423
55.38239 49.08232 182.50186 414
52.18563 49.95597 185.04680 411
48.92299 50.83105 187.75269 409
45.50673 51.72643 190.46941 406
42.02754 52.66920 193.36717 404
38.33460 53.68697 196.26105 390
34.37307 54.73507 199.31563 387
30.25621 55.84265 202.45123 385
25.65535 57.06530 205.66066 372
20.37861 58.52545 209.05188 336
83.09978 40.65199 174.23761 435
80.68864 41.25327 176.32336 433
78.16595 41.93868 178.49817 429
70.66429 43.91878 179.59319 304
58.74184 47.02907 180.05925 424
55.86008 47.78379 182.62523 421
52.68732 48.61675 185.17361 412
49.43395 49.46749 187.87027 410
46.08872 50.33943 190.59630 407
42.60191 51.25632 193.42070 405
39.00761 52.19676 196.35463 402
35.23740 53.19253 199.39252 388
31.18927 54.25573 202.53903 386
26.77769 55.45530 205.74219 373
21.72364 56.79009 209.08969 340
83.40531 39.58974 174.35339 435
80.99178 40.19562 176.48244 433
78.47527 40.85339 178.59267 429
70.46147 42.89476 179.62184 304
59.15070 45.76664 180.20879 424
56.26039 46.52954 182.72621 422
53.19829 47.32626 185.35098 413
49.96153 48.14956 187.96097 410
46.60583 49.01445 190.69077 408
43.20251 49.85317 193.51355 405
39.62239 50.79392 196.47226 403
35.88962 51.75953 199.48051 400
32.09318 52.71587 202.58481 386
27.87406 53.78476 205.84692 384
22.98681 55.06380 209.15102 341
83.68483 38.55059 174.48845 436
81.28583 39.11484 176.57707 434
78.75778 39.75457 178.75015 430
70.28440 41.89741 179.63979 304
59.56704 44.53699 180.32831 425
56.69172 45.27309 182.86714 423
53.68496 45.98983 185.47157 420
50.52762 46.81834 188.10539 411
47.16933 47.62134 190.82741 409
43.76372 48.47032 193.65749 406
40.19421 49.38157 196.56689 403
36.57468 50.26791 199.57184 401
32.76056 51.26510 202.68109 398
28.78880 52.19929 205.91428 385
24.22405 53.36158 209.25328 342
83.96954 37.49202 174.59077 437
81.58260 38.05761 176.71025 435
79.08591 38.67436 178.84399 431
70.10111 40.85728 179.61879 304
59.99011 43.33410 180.43797 426
57.09883 44.03464 182.99016 423
54.13548 44.71445 185.58107 421
51.02507 45.48281 188.20659 412
47.75862 46.31820 190.93422 409
44.32032 47.11301 193.72757 407
40.80383 47.98248 196.64423 404
37.16910 48.83931 199.62859 402
33.38636 49.77744 202.73430 399
29.50508 50.71827 205.93469 396
25.43756 51.68739 209.26779 342
-186.87950 103.29977 209.18398 485
84.25291 36.46700 174.73340 437
81.84984 37.01295 176.80862 435
79.38739 37.61746 178.96741 431
63.14832 41.43331 178.14818 429
60.37383 42.08125 180.59265 426
57.49022 42.78814 183.08864 424
54.57846 43.48312 185.67883 422
51.57143 44.17582 188.32492 419
48.30056 44.95077 191.04344 410
44.89972 45.77606 193.82066 407
41.41696 46.58959 196.70558 405
37.81724 47.43808 199.70528 402
34.05904 48.32600 202.77446 400
30.20389 49.24914 205.98076 397
26.16815 50.17553 209.33446 394
-186.91261 100.60712 209.24817 485
84.51776 35.42794 174.85187 438
82.17630 35.98345 176.93767 436
79.71172 36.53853 179.07028 432
63.53669 40.24333 178.23502 429
