# .PCD v.7 - Point Cloud Data file format
VERSION .7
FIELDS x y z rgb
SIZE 4 4 4 4
TYPE F F F U
COUNT 1 1 1 1
WIDTH 1360
HEIGHT 1
VIEWPOINT 6866.603516 -3571.788574 140.924362 -0.654428 -0.131838 -0.035967 0.743672
POINTS 1360
DATA ascii
47.00106 -106.84514 172.02167 304
32.22987 -115.07804 172.20146 300
14.81281 -124.76478 172.31084 296
-44.75698 -157.96866 165.17674 286
81.24579 -88.87502 171.77890 316
71.43429 -94.39565 171.85501 312
60.34973 -100.72258 171.96385 308
47.59890 -107.90937 172.07152 304
32.82603 -116.29120 172.18765 300
-29.59411 -151.58495 162.95560 366
-43.80485 -159.67641 165.16911 286
81.69433 -89.76009 171.77441 316
71.97845 -95.32762 171.84030 312
60.87097 -101.68768 171.92674 308
48.17810 -109.02139 172.06432 304
33.46506 -117.44101 172.19174 300
-25.83496 -151.52118 163.48798 367
82.20992 -90.62691 171.74950 316
72.45542 -96.24781 171.81641 312
61.43348 -102.72417 171.90344 308
48.78295 -110.08301 172.04004 304
34.13886 -118.60333 172.14668 300
-22.20964 -151.37489 164.07050 368
82.68973 -91.44915 171.73445 316
72.99876 -97.21983 171.85442 312
61.97258 -103.72867 171.94055 308
49.39694 -111.14783 172.02878 304
34.79223 -119.79704 172.12753 300
-18.63657 -151.30054 164.64449 370
83.14377 -92.34794 171.76645 316
73.49760 -98.13691 171.82779 312
62.56363 -104.68814 171.94096 308
49.99282 -112.21489 172.04593 304
35.40840 -120.96149 172.16541 300
-15.15604 -151.26628 165.23920 371
83.67772 -93.17760 171.74603 316
74.03205 -99.05225 171.84370 312
63.12663 -105.66305 171.93301 308
50.57589 -113.29936 172.01344 304
36.11172 -122.13064 172.12500 300
-12.15705 -151.39079 165.70998 291
84.15960 -94.03095 171.72676 316
74.59374 -99.94637 171.80981 312
63.67437 -106.68080 171.90294 308
51.22503 -114.37220 172.00485 304
36.76505 -123.25670 172.16322 300
-11.23339 -152.84712 165.66696 291
84.69127 -94.92262 171.74042 316
75.11560 -100.89482 171.80811 312
64.26315 -107.64619 171.89211 308
51.84394 -115.42670 172.02663 304
37.40393 -124.42278 172.12350 300
-10.33575 -154.21196 165.71269 291
85.19026 -95.74276 171.72162 316
75.66893 -101.78985 171.82968 312
64.84319 -108.61738 171.93211 308
52.48215 -116.47417 172.01859 304
-1.34207 -150.53120 162.85263 285
-9.41305 -155.66685 165.66783 291
85.67922 -96.61070 171.74753 316
76.23022 -102.70558 171.82175 312
65.43199 -109.61520 171.92038 308
53.07872 -117.52315 171.97705 304
1.21312 -150.84546 163.25523 377
-8.43838 -157.02962 165.71173 290
86.21993 -97.43436 171.74652 316
76.77477 -103.59976 171.78561 312
66.06001 -110.56951 171.89359 308
53.74683 -118.58236 171.97160 304
4.25946 -150.80690 163.81580 378
-7.57978 -158.46526 165.67879 290
86.74586 -98.31019 171.71948 316
77.32192 -104.50174 171.77885 312
66.66479 -111.56342 171.89352 308
54.37845 -119.61440 172.01089 304
7.25735 -150.70276 164.26767 380
-6.67074 -159.88014 165.73042 290
87.29446 -99.14403 171.71767 316
77.91482 -105.38804 171.77118 312
67.25956 -112.50916 171.90715 308
55.09491 -120.69183 171.97261 304
10.24528 -150.65271 164.81721 381
87.80428 -99.98491 171.70724 316
78.50456 -106.31555 171.76984 312
67.85651 -113.45778 171.87419 308
55.71464 -121.68607 171.96979 304
13.10293 -150.56436 165.28870 382
88.36991 -100.78696 171.70674 316
79.03344 -107.17325 171.77269 312
68.49101 -114.47032 171.89279 308
56.38933 -122.73347 171.95352 304
15.95050 -150.54669 165.74098 383
88.88328 -101.63902 171.71469 316
79.63721 -108.05732 171.79941 312
69.14798 -115.36912 171.84816 308
24.06029 -146.77644 163.32965 296
18.24674 -150.80309 166.09595 295
89.46775 -102.45016 171.71672 316
80.22287 -108.95248 171.79805 312
69.77557 -116.35049 171.86208 308
24.63182 -148.15465 163.22179 296
19.17680 -152.03357 166.07080 295
90.01113 -103.26227 171.68092 316
80.85474 -109.84113 171.77428 312
70.42780 -117.27898 171.83514 308
25.29880 -149.49014 163.20522 296
20.03998 -153.24454 166.09641 295
90.56306 -104.12537 171.67171 316
81.44082 -110.72340 171.75461 312
71.04259 -118.26132 171.87218 308
26.91853 -150.15140 163.37956 385
20.94864 -154.51694 166.12840 297
91.12959 -104.93667 171.67812 316
82.07024 -111.59658 171.78186 312
71.71230 -119.19556 171.82251 308
29.57467 -150.04120 163.89697 386
21.87994 -155.68277 166.07468 297
91.72031 -105.71344 171.67615 316
82.67268 -112.47822 171.75150 312
72.35139 -120.10189 171.81793 308
32.16258 -149.96367 164.33627 388
22.74168 -156.94044 166.07466 297
92.30852 -106.52132 171.69170 316
83.26661 -113.33758 171.76344 312
73.05080 -121.02615 171.85805 308
34.66833 -149.84656 164.77740 389
23.67890 -158.14630 166.13258 297
92.88000 -107.32855 171.65628 316
83.90621 -114.17542 171.76233 312
73.70653 -121.96713 171.83649 308
37.18471 -149.75339 165.22868 390
93.47176 -108.12778 171.66826 316
84.53860 -115.05026 171.76414 312
45.78003 -145.00116 163.43190 300
39.65318 -149.66098 165.67061 391
94.05560 -108.93811 171.65080 316
85.17882 -115.87660 171.73489 312
46.46293 -146.14310 163.40071 300
42.04010 -149.62737 166.07358 393
94.66622 -109.71565 171.64851 316
85.80782 -116.72962 171.72961 312
47.13884 -147.35284 163.35921 300
43.46929 -150.28407 166.22360 301
95.27971 -110.51894 171.65671 316
86.45115 -117.60513 171.74568 312
47.87194 -148.53030 163.31557 300
44.33532 -151.39334 166.23364 301
95.87513 -111.32795 171.66263 316
87.08312 -118.44595 171.71332 312
49.03915 -149.31413 163.39555 396
45.24135 -152.45450 166.20699 301
96.49737 -112.08328 171.65952 316
87.75891 -119.27201 171.73036 312
51.32321 -149.22194 163.79974 397
46.11052 -153.51562 166.23685 301
97.09585 -112.90568 171.64073 316
88.44071 -120.11898 171.70134 312
53.57235 -149.17346 164.22800 398
47.00821 -154.56500 166.20567 301
97.73199 -113.65752 171.63049 316
89.09554 -120.95179 171.72346 312
55.70282 -149.05928 164.61942 399
47.92237 -155.68336 166.24606 301
98.38278 -114.42858 171.64767 316
64.99533 -142.93056 163.57458 304
57.88180 -148.98349 165.01418 401
48.86045 -156.73631 166.23541 301
98.98785 -115.20469 171.62941 316
65.68926 -143.99844 163.53302 304
60.01379 -148.91318 165.40097 402
49.70742 -157.77988 166.24829 301
99.64160 -115.96752 171.63341 316
66.38742 -145.03110 163.46133 304
62.09624 -148.82310 165.80042 403
100.28462 -116.73542 171.59019 316
67.14919 -146.10925 163.46373 304
64.15612 -148.76369 166.16147 404
-982.90735 -1077.33252 -49.68492 434
100.90501 -117.47708 171.62436 316
67.87910 -147.12706 163.38339 304
65.53838 -149.27336 166.30742 305
-972.53851 -1080.91687 -48.72141 497
-978.47058 -1086.26367 -22.92631 477
-986.88245 -1094.07886 2.44734 302
101.58588 -118.25219 171.59549 316
68.60712 -148.19637 163.35664 304
66.39262 -150.24641 166.32979 305
-967.24524 -1089.29370 -49.16443 464
-971.57544 -1093.61731 -23.06308 492
-977.35297 -1098.80408 3.17211 470
102.24137 -118.96114 171.57297 316
70.13505 -148.55017 163.60695 407
67.30005 -151.14372 166.31978 305
102.92824 -119.74008 171.59270 316
72.06698 -148.48952 163.97278 408
68.18520 -152.08186 166.33205 305
82.07952 -140.72615 163.70897 308
73.97241 -148.38979 164.29901 409
69.06662 -152.99294 166.36057 305
82.83636 -141.65930 163.65649 307
75.82373 -148.34744 164.68646 410
69.97864 -153.97032 166.35252 305
83.57366 -142.61586 163.61702 307
77.70312 -148.25323 165.00058 411
70.89206 -154.88437 166.35001 305
84.27062 -143.55540 163.57390 307
79.55299 -148.17729 165.34302 413
71.75874 -155.78465 166.34666 305
85.02339 -144.47279 163.56224 307
81.33860 -148.11676 165.66972 414
72.66435 -156.71361 166.35942 305
85.82092 -145.39334 163.53271 307
83.13247 -148.02354 166.02205 415
86.56540 -146.27704 163.50867 307
84.87641 -148.01428 166.32253 416
87.29341 -147.17131 163.47127 307
85.94935 -148.61212 166.38655 309
88.33043 -147.84509 163.52603 417
86.80421 -149.43462 166.43159 309
90.01607 -147.79424 163.87119 418
87.67625 -150.24573 166.43094 309
91.67512 -147.75009 164.14117 419
88.57373 -151.05280 166.43994 309
93.36684 -147.66554 164.45323 420
89.46142 -151.86081 166.43762 309
94.95679 -147.58948 164.76439 422
90.34798 -152.65601 166.43567 309
96.60354 -147.56361 165.10600 423
91.27659 -153.41338 166.42584 309
98.25445 -147.38382 165.43895 413
92.19745 -154.22931 166.45493 309
99.96355 -147.23260 165.76048 414
93.08524 -154.99600 166.41806 309
101.58046 -147.06390 166.05241 415
93.97624 -155.77277 166.44756 309
-40302.58594 -46643.25781 6325.39893 1000
103.19612 -146.86806 166.37924 416
94.89050 -156.54398 166.45258 309
104.21091 -147.41449 166.43636 314
105.10296 -148.12585 166.46698 314
105.97542 -148.83490 166.46950 314
106.84096 -149.52054 166.44649 314
107.69077 -150.23375 166.47128 314
108.59286 -150.91483 166.47656 314
109.47675 -151.63133 166.46620 314
110.34614 -152.31544 166.47319 314
111.22932 -152.96051 166.48096 314
114.40720 -150.64304 167.47737 316
115.26888 -151.27841 167.47969 316
120.59176 -149.48997 168.71259 490
123.92611 -148.48863 169.42744 434
125.26503 -148.37459 169.63933 435
126.60137 -148.24297 169.89951 436
127.55156 -148.65736 169.94478 487
-21305.79102 -50897.56641 -13619.24121 1000
-14061.92676 -51599.43359 7265.82861 1000
-3227.72998 -14954.45508 1727.52759 1000
-9714.88867 -67341.49219 -7616.47559 1000
889.01715 -7021.64111 1026.87646 1000
508.90350 -2170.51733 -108.20709 388
519.77960 -2150.13184 -105.76647 436
537.37427 -2176.30347 -146.57063 405
531.38263 -2136.83276 -103.51275 437
548.51019 -2160.48975 -144.17630 406
543.16431 -2124.07495 -101.90854 438
559.47198 -2144.17554 -141.61833 407
554.60706 -2111.37524 -100.62003 428
573.78894 -2146.16846 -179.13033 367
568.19629 -2113.49048 -137.03395 292
566.22949 -2100.31177 -99.47626 426
582.79327 -2120.48389 -174.86513 368
577.66278 -2091.24731 -133.56468 313
578.05414 -2090.71948 -98.13296 440
593.85925 -2106.10449 -172.63138 450
589.15308 -2078.94043 -131.73682 406
589.65540 -2081.74243 -96.79181 440
604.91595 -2094.79370 -170.82823 450
599.90271 -2066.90771 -130.64598 407
601.00183 -2073.30396 -95.95342 440
616.26868 -2083.18042 -169.21991 451
611.04242 -2055.26245 -128.92084 407
612.92444 -2064.08569 -94.98258 441
627.64954 -2072.21045 -167.73843 452
622.63892 -2046.21265 -127.45512 421
624.47308 -2056.42163 -94.04837 381
639.07983 -2064.13110 -166.45369 473
633.79266 -2037.16760 -126.90633 422
636.34698 -2049.74268 -93.44830 381
650.76935 -2056.11279 -165.74881 472
644.90228 -2028.82971 -125.35188 422
648.14752 -2042.67078 -93.31006 381
662.24701 -2048.01270 -164.58698 473
656.09290 -2020.56958 -124.43075 423
659.48474 -2036.07629 -92.24165 381
673.68317 -2040.84363 -163.46443 474
667.44055 -2012.65723 -123.68585 479
671.57831 -2029.36475 -91.88175 380
685.68646 -2033.27100 -162.84232 474
678.98926 -2004.81067 -122.95361 486
683.08838 -2022.92871 -91.39204 383
696.87988 -2025.85779 -162.18047 478
690.40497 -1998.43115 -122.10320 486
694.94696 -2017.07202 -90.94808 383
708.53149 -2019.02844 -161.32812 478
702.09467 -1991.32947 -121.63786 487
706.87372 -2011.47192 -90.18343 383
720.01300 -2012.14514 -160.49431 479
713.33203 -1985.09619 -121.20124 487
718.09662 -2005.25427 -90.04826 383
731.65741 -2005.15942 -159.86299 478
724.52527 -1978.27136 -120.16236 488
730.12366 -1999.57434 -89.57889 383
742.71039 -1998.88428 -159.08830 478
735.85382 -1971.48486 -119.75182 488
741.48041 -1994.01172 -88.92511 383
757.79120 -2054.79492 -63.23616 498
754.24097 -1991.85779 -158.85812 479
747.36456 -1965.03601 -119.00622 493
753.06390 -1988.20190 -88.89523 384
770.27045 -2050.49194 -62.73793 498
765.85437 -1986.20581 -158.39452 484
758.70398 -1959.57190 -118.88728 493
763.73450 -1978.27954 -87.68310 427
782.03223 -2045.63794 -62.82153 498
769.95526 -1953.64709 -118.61848 494
775.60791 -1973.40576 -87.68322 427
793.09778 -2035.85413 -62.09563 499
781.21924 -1947.94800 -117.99317 494
787.43048 -1969.10083 -87.14312 427
810.23669 -2047.74658 -64.25346 486
793.05103 -1942.65259 -118.03134 496
799.79883 -1965.58594 -87.46939 425
804.60760 -1937.37134 -117.45542 496
811.88330 -1961.82739 -87.22305 425
815.67322 -1932.51819 -117.51852 496
823.40417 -1957.19312 -87.49638 290
827.43469 -1927.61816 -116.78358 497
835.11908 -1952.39819 -87.13894 290
839.30902 -1923.00745 -116.79729 498
846.62122 -1947.09277 -87.07545 290
850.87585 -1918.42810 -116.61700 498
857.71918 -1940.45959 -86.14040 385
862.49670 -1913.99524 -116.69447 498
869.48889 -1934.82922 -86.42352 385
892.29041 -2002.66675 -61.58757 499
911.15558 -2060.28979 38.16668 417
874.33221 -1909.74304 -116.47414 498
880.94342 -1929.55286 -85.89492 385
904.51367 -1997.90479 -61.28611 499
925.22699 -2058.42480 -33.52195 366
921.04639 -2047.34558 38.78009 486
885.68707 -1905.51880 -116.83102 498
892.24585 -1924.13501 -85.70296 385
934.28070 -2043.46826 38.66224 489
897.26056 -1901.14868 -116.44131 498
903.77618 -1918.66016 -85.37138 385
949.59802 -2047.13232 38.42170 426
908.98883 -1896.33557 -116.52010 498
914.91486 -1913.28674 -85.31651 385
959.56635 -2034.78918 39.10434 372
960.90118 -2039.22986 74.41143 499
977.71783 -2084.54541 107.56608 498
920.51837 -1892.22766 -116.29505 498
926.46222 -1908.04590 -85.28754 385
932.24463 -1887.65356 -116.61145 498
938.20984 -1902.50879 -85.26659 385
943.97552 -1883.34937 -116.75706 441
949.31793 -1897.08411 -84.75430 386
955.79260 -1879.52161 -116.61118 441
960.66949 -1891.56641 -84.48191 386
978.30841 -1936.21521 -56.95570 381
5014.24268 -12029.19531 -3027.53418 1000
968.05792 -1875.85852 -116.99861 441
971.94806 -1886.44519 -84.50919 386
989.73242 -1930.08923 -56.69638 499
979.98364 -1872.05103 -116.98532 441
983.79034 -1881.02368 -84.73362 463
1001.56348 -1925.23279 -56.73450 499
991.62024 -1868.00623 -117.14734 441
994.93854 -1876.45020 -84.27657 463
1003.46057 -1864.16711 -117.08815 440
1006.43610 -1871.43396 -84.64123 463
1015.57269 -1859.99097 -117.48096 440
1017.98505 -1866.42334 -84.26218 463
1027.14380 -1855.99207 -117.74360 440
1029.90369 -1861.60046 -84.53056 463
1039.25146 -1852.08508 -117.94302 440
1041.00134 -1856.56433 -84.56125 463
1051.48181 -1848.23071 -117.70254 440
1052.65625 -1852.09534 -84.53119 463
1087.69421 -1928.80884 -26.72494 499
1089.16797 -1933.29224 8.04288 499
1091.32043 -1937.43286 42.49631 499
1063.17126 -1844.74744 -118.50025 440
1064.10449 -1846.62878 -84.42899 463
1075.38269 -1840.43701 -118.44862 440
1076.11938 -1841.72583 -84.39924 463
1087.62573 -1836.70239 -118.89045 338
1087.31946 -1837.04932 -84.71080 463
1099.83765 -1834.28149 -119.52546 338
1099.26453 -1831.95837 -84.58198 462
1113.19177 -1832.03760 -119.71091 338
1110.25769 -1826.82166 -85.12982 462
1126.00146 -1829.55334 -120.29102 338
1121.95435 -1822.02490 -84.85135 462
1138.83447 -1826.99670 -121.09343 338
1133.55920 -1817.23523 -85.13597 494
1151.24890 -1824.31274 -121.79045 338
1145.36523 -1812.27209 -85.49284 494
1164.36963 -1821.68787 -122.23203 337
1157.04382 -1808.16602 -85.22393 494
1177.50024 -1819.57690 -122.99314 337
1168.78088 -1803.24292 -85.44598 494
1190.53467 -1817.25330 -123.57406 337
1180.51428 -1798.27942 -85.98407 494
1204.06604 -1815.73328 -124.04401 461
1192.25037 -1793.91418 -85.77387 494
1216.77917 -1811.22693 -124.69053 460
1204.10730 -1788.85217 -86.39986 493
1228.75146 -1807.52869 -125.30485 460
1216.17847 -1784.24756 -86.19902 493
1287.40454 -1912.23499 -71.95261 497
1241.37427 -1802.84949 -125.51748 460
1228.03857 -1779.45349 -87.00950 493
1239.83215 -1774.90881 -87.13167 493
1214.66418 -1788.15393 -88.40072 492
1226.84070 -1783.75635 -88.70834 495
1239.02014 -1779.32031 -89.24814 471
1253.56299 -1778.53369 -90.16006 471
1267.65210 -1777.83032 -91.38486 470
1282.15417 -1777.47327 -92.56016 469
1297.75635 -1777.83984 -93.66486 415
6817.81396 -10517.55664 2050.11304 1000
33840.53125 -52157.85938 -15372.52148 1000
9170.29590 -8147.96045 -388.34320 1000
361.91772 -110.48422 167.62074 315
362.61700 -109.60848 167.58154 315
363.34723 -108.70691 167.61581 315
363.99625 -107.77364 167.61623 315
364.69382 -106.84425 167.63644 315
365.36194 -105.95033 167.63559 315
366.01352 -104.99612 167.62311 315
366.67987 -104.09800 167.63522 315
367.32895 -103.11925 167.63945 315
367.98892 -102.19998 167.63925 315
368.64621 -101.24084 167.61134 315
369.24176 -100.31296 167.65387 315
369.88699 -99.34859 167.62149 315
371.05133 -98.75636 167.46152 437
372.43005 -98.26080 167.24809 437
373.84448 -97.77448 167.00757 436
382.48209 -103.05910 167.66270 309
375.30264 -97.27660 166.72421 435
383.14093 -102.01363 167.66495 309
376.72177 -96.82670 166.48329 434
383.75824 -100.98485 167.69504 309
378.19397 -96.30829 166.20354 433
384.35718 -99.90724 167.67920 309
379.64206 -95.77677 165.99225 432
384.96371 -98.83347 167.70593 309
381.10739 -95.26663 165.68306 431
385.55231 -97.79055 167.69231 311
382.59351 -94.76103 165.42990 430
386.15683 -96.78846 167.69386 311
384.10251 -94.24725 165.14542 429
386.79483 -95.71387 167.73244 311
385.66501 -93.70912 164.84264 428
387.39584 -94.64571 167.70613 311
386.62973 -92.88441 164.72081 317
388.00049 -93.57458 167.73721 311
387.24643 -91.87830 164.72569 317
388.75467 -92.65204 167.66597 426
387.87076 -90.84734 164.73917 317
390.32339 -92.08208 167.40941 425
388.46811 -89.77978 164.69791 317
391.94391 -91.53948 167.11772 424
389.03125 -88.71144 164.74591 317
393.54904 -91.00838 166.82332 423
403.14059 -95.79550 167.71060 305
389.65311 -87.66662 164.70982 317
395.17181 -90.43040 166.53590 422
403.69662 -94.64109 167.75574 305
390.23224 -86.62799 164.73094 317
396.83908 -89.85436 166.22568 421
404.31454 -93.48185 167.75989 305
1774.42737 -761.53143 15.35317 445
1778.10840 -763.43512 43.71474 482
1782.78064 -765.70374 72.25470 497
1789.69263 -768.90448 100.28857 406
390.79980 -85.56436 164.72571 317
398.48358 -89.24450 165.92165 420
404.87155 -92.30198 167.74031 305
1775.51685 -750.06744 16.04078 498
1781.89661 -753.04645 44.01611 488
1792.05298 -758.26941 71.70789 344
391.33688 -84.51306 164.68599 317
400.21240 -88.68310 165.59351 419
405.41769 -91.16105 167.74713 305
1782.98218 -742.11188 15.52967 455
391.90732 -83.47037 164.69533 317
401.90494 -88.08289 165.26228 418
405.92734 -89.96889 167.75703 306
392.45804 -82.37228 164.67880 317
403.65430 -87.47267 164.93887 417
406.50491 -88.79333 167.75841 306
392.99692 -81.31277 164.70488 317
404.74866 -86.55448 164.79671 313
406.98996 -87.57591 167.77347 306
370.31497 -69.95612 171.49466 317
405.28650 -85.42012 164.81874 313
407.53964 -86.40682 167.80826 305
370.76233 -69.01879 171.50209 317
405.84998 -84.31453 164.82639 313
408.68839 -85.48566 167.67923 435
371.20291 -68.05375 171.53024 317
406.38867 -83.12901 164.78963 313
410.22076 -84.74675 167.39713 434
371.59357 -67.09791 171.51007 317
406.96167 -81.93418 164.81555 313
411.76385 -84.00542 167.11014 433
372.03488 -66.14587 171.50711 317
407.46558 -80.81525 164.77922 312
413.32031 -83.22319 166.90559 432
372.46155 -65.18882 171.54256 317
407.98904 -79.66855 164.79910 312
414.89676 -82.43474 166.61180 431
372.88818 -64.24480 171.54802 317
408.50726 -78.50567 164.80927 312
416.55731 -81.67924 166.34796 430
426.05643 -85.45483 167.77635 301
373.29166 -63.31442 171.54713 317
409.03934 -77.30999 164.79044 312
418.17542 -80.87216 166.04980 429
426.58624 -84.15645 167.78575 301
373.68396 -62.35536 171.53210 317
409.56885 -76.12751 164.76877 312
419.81787 -80.04750 165.76427 428
427.10349 -82.89024 167.77757 301
374.05325 -61.36942 171.54770 317
410.04709 -74.96745 164.76611 312
421.44257 -79.29142 165.49504 427
427.55322 -81.54826 167.82970 301
374.43121 -60.39888 171.55513 317
410.54648 -73.77287 164.76556 312
423.14508 -78.44128 165.17093 426
428.07523 -80.24380 167.85982 301
374.84210 -59.43110 171.56325 317
385.33154 -63.24257 171.64731 313
424.84909 -77.60744 164.93588 425
428.55542 -78.94960 167.83589 302
375.20554 -58.50142 171.56827 317
385.75259 -62.24252 171.63463 313
425.42273 -76.36234 164.86349 308
428.97083 -77.62906 167.87503 302
375.56406 -57.50587 171.58206 317
386.15186 -61.20492 171.67163 313
425.93170 -75.08990 164.85318 308
429.42050 -76.30863 167.86272 302
375.92639 -56.51815 171.55060 317
386.50058 -60.17487 171.64015 313
426.45270 -73.81657 164.86374 308
430.10883 -75.08115 167.80026 422
376.28143 -55.57513 171.58406 317
386.91293 -59.13580 171.67752 313
426.91302 -72.57973 164.84764 308
431.85287 -74.19572 167.53261 421
376.63812 -54.59385 171.58830 317
387.27499 -58.08216 171.66870 313
427.43433 -71.24389 164.84515 308
433.67502 -73.32334 167.20027 420
376.99026 -53.63163 171.59311 317
387.63919 -57.03109 171.66975 313
427.91187 -70.02289 164.86890 308
435.46655 -72.43297 166.89824 419
377.32452 -52.64147 171.58119 317
388.01913 -55.98975 171.66869 313
428.35718 -68.69779 164.84818 308
437.37552 -71.53801 166.58635 418
377.67450 -51.65936 171.58194 317
388.35602 -54.92533 171.66322 313
428.78732 -67.39806 164.84741 308
439.24612 -70.62613 166.30573 431
264.33731 -16.39083 203.49251 294
388.71442 -53.89573 171.66599 313
429.26028 -66.09667 164.84340 308
440.89819 -69.63306 165.97990 430
451.01865 -72.69922 167.83096 298
264.43768 -16.10761 203.50430 314
389.05325 -52.84437 171.71077 313
401.15988 -56.42957 171.79471 309
442.55820 -68.62025 165.71086 429
451.36584 -71.20181 167.86131 298
264.56638 -15.83074 203.50798 314
389.37637 -51.80631 171.67357 313
401.51627 -55.30635 171.80531 309
444.25980 -67.58051 165.43394 428
451.83255 -69.76544 167.91360 298
264.68304 -15.55196 203.51004 314
389.68759 -50.76170 171.68958 313
401.86990 -54.14487 171.82578 309
445.95981 -66.58492 165.16687 427
452.20367 -68.33501 167.88089 298
264.80173 -15.27491 203.50612 314
390.00504 -49.69696 171.67944 313
402.24673 -53.06050 171.82622 309
447.26648 -65.42136 164.96265 304
452.60376 -66.89763 167.91121 298
264.91687 -14.99939 203.50136 314
390.35782 -48.63768 171.70047 313
402.55560 -51.91430 171.83121 309
447.72208 -64.02304 164.93150 304
452.93329 -65.38142 167.94489 298
4730.66602 -1212.59119 59.78709 293
265.02371 -14.71875 203.49867 314
390.63550 -47.58425 171.67982 313
402.90240 -50.77772 171.84023 309
448.15237 -62.60489 164.97098 304
453.34253 -63.95954 167.92123 298
4715.82568 -1178.15808 59.88521 424
265.13513 -14.44378 203.50592 314
390.96725 -46.50376 171.71727 313
403.19138 -49.65147 171.81660 309
448.54004 -61.19675 164.93431 304
453.65710 -62.52686 167.96782 298
4737.35010 -1154.23840 59.60675 433
265.24841 -14.16534 203.50459 314
391.22357 -45.46793 171.70607 313
403.51230 -48.49274 171.83138 309
448.94751 -59.72981 164.92976 304
454.90109 -61.26386 167.77646 423
4762.75244 -1131.34033 58.89878 433
265.35565 -13.87755 203.50148 314
391.55206 -44.38699 171.71979 313
403.81967 -47.33970 171.82014 309
449.33014 -58.34748 164.98128 304
456.72833 -60.16531 167.50192 422
4791.89014 -1107.41528 58.29079 432
265.45871 -13.60194 203.50969 314
391.82709 -43.33180 171.71411 313
404.13663 -46.19741 171.84406 309
449.71564 -56.95222 164.97383 304
458.57764 -59.05706 167.20268 420
4822.61816 -1084.85547 57.38245 425
265.57016 -13.32477 203.49883 314
392.09836 -42.25327 171.70840 313
404.40619 -45.10329 171.84708 309
450.05844 -55.47719 164.93025 304
460.43732 -57.87528 166.88638 419
4853.07764 -1061.67822 56.31178 410
265.66827 -13.03796 203.50204 314
392.35367 -41.17080 171.70050 313
404.69916 -43.93169 171.83240 309
450.39410 -54.06624 164.97211 304
462.37064 -56.73123 166.57227 452
4896.86475 -1042.21619 55.01194 366
265.77609 -12.75430 203.50493 314
392.60898 -40.14825 171.70927 313
405.00729 -42.77978 171.85381 309
450.75089 -52.67558 164.98756 304
463.70737 -55.42948 166.37491 451
4956.67920 -1024.35376 53.11195 339
265.87399 -12.47528 203.49843 314
392.91040 -39.03971 171.72971 313
405.25150 -41.62963 171.84564 309
419.40118 -44.61003 171.99312 305
465.07184 -54.19366 166.17822 450
5046.45166 -1012.01105 51.33034 320
265.96600 -12.19024 203.49951 314
393.12646 -37.99431 171.73352 313
405.52280 -40.48658 171.82635 309
419.71893 -43.38986 172.01198 305
466.47736 -52.86461 165.92767 449
5140.11475 -999.91650 47.99170 327
266.06281 -11.91085 203.50562 314
393.40350 -36.90787 171.70528 313
405.79834 -39.33961 171.85147 309
419.96173 -42.11993 172.00441 305
467.86243 -51.52626 165.70322 448
5235.04883 -987.87488 45.34759 325
266.15836 -11.63013 203.50377 314
393.63239 -35.81522 171.71626 313
406.03198 -38.21277 171.83095 309
420.24969 -40.90520 171.96359 305
469.32968 -50.22654 165.50708 447
479.10477 -52.05008 168.01268 293
5336.21484 -974.42090 41.45535 327
266.24777 -11.34446 203.50089 314
393.85272 -34.75971 171.72374 313
406.28696 -37.06189 171.86777 309
420.51874 -39.65585 171.98232 305
470.75601 -48.88430 165.26454 446
479.39606 -50.45906 168.00031 293
266.33151 -11.05609 203.50963 314
394.07547 -33.71220 171.72549 313
406.49826 -35.87854 171.88046 309
420.72974 -38.44393 171.98610 305
472.04199 -47.52511 165.07071 300
479.65561 -48.86478 168.06262 293
266.41864 -10.77640 203.50882 314
394.28702 -32.60923 171.73264 313
406.73752 -34.76009 171.87247 309
421.01956 -37.18170 172.01270 305
472.36115 -45.96644 165.09372 300
479.86398 -47.22401 168.07777 293
266.50885 -10.48752 203.50644 314
394.52127 -31.54402 171.76303 313
406.97101 -33.58737 171.86848 309
421.26334 -35.93990 172.00598 305
472.60513 -44.36925 165.06808 300
480.13837 -45.57370 168.02934 293
266.59158 -10.20490 203.50252 314
269.96713 -10.73728 203.47826 282
407.19385 -32.41982 171.87141 309
421.49493 -34.69704 171.98950 305
472.90530 -42.80352 165.11932 300
480.29703 -43.97236 168.07709 294
266.67316 -9.92008 203.50655 314
269.99893 -10.42232 203.49306 282
407.41461 -31.26305 171.87816 309
421.69638 -33.44302 171.98349 305
473.20517 -41.29395 165.11810 300
480.51416 -42.38260 168.08057 294
266.75494 -9.64327 203.49760 314
270.05258 -10.11882 203.50462 310
407.59369 -30.14020 171.83830 309
421.89777 -32.22918 171.97688 305
473.48163 -39.70211 165.11668 300
480.72729 -40.73068 168.10371 294
266.84415 -9.35730 203.50867 314
270.13776 -9.81288 203.50182 310
407.83459 -28.97804 171.88724 309
422.11890 -30.96856 171.99461 305
438.62640 -33.26455 172.16412 301
481.16461 -39.14403 168.08647 441
266.91046 -9.06693 203.50497 314
270.21838 -9.50149 203.50285 310
408.01068 -27.80606 171.86310 309
422.29529 -29.72832 172.01141 305
438.87650 -31.91563 172.18675 301
482.61069 -37.75877 167.85835 459
266.99106 -8.77925 203.50597 314
270.29504 -9.20739 203.50134 310
408.16873 -26.64626 171.86838 309
422.48868 -28.48022 171.99138 305
439.07782 -30.57067 172.15594 301
483.84787 -36.18618 167.65302 458
267.05930 -8.50058 203.50522 314
270.36798 -8.89339 203.50221 310
408.35449 -25.49534 171.88786 309
422.71866 -27.18640 172.03389 305
439.23785 -29.20357 172.20164 301
485.07553 -34.74472 167.51462 458
267.14175 -8.21062 203.49820 314
270.43762 -8.58756 203.50218 310
408.51181 -24.32573 171.86044 309
422.87958 -25.97899 172.02872 305
439.42178 -27.86338 172.17798 301
486.28665 -33.20818 167.26794 457
267.20999 -7.92467 203.49884 314
270.50629 -8.28865 203.50783 310
408.68872 -23.16302 171.88901 309
423.06271 -24.71227 172.02074 305
439.61871 -26.52382 172.18732 301
487.51688 -31.64216 167.11179 456
267.26965 -7.64535 203.50775 314
270.58783 -7.98324 203.50325 310
408.82880 -22.02125 171.88902 309
423.20230 -23.45945 172.02837 305
439.79532 -25.12721 172.18594 301
488.80960 -30.14665 166.95175 455
267.33533 -7.35089 203.50400 314
270.64893 -7.67911 203.50859 310
408.97510 -20.82306 171.87691 309
423.34784 -22.19062 171.98961 305
439.97311 -23.77649 172.21017 301
490.03577 -28.58602 166.70003 454
267.40771 -7.07578 203.49977 314
270.71164 -7.36583 203.50169 310
409.12564 -19.66304 171.86520 309
423.54401 -20.94735 172.02968 305
440.11398 -22.43455 172.18407 301
491.31192 -26.97913 166.57494 454
267.46640 -6.78610 203.50418 314
270.77869 -7.06077 203.49768 310
46.57466 -3.85456 -10.93351 309
423.65054 -19.70159 171.99271 305
440.30411 -21.05196 172.16301 301
492.66376 -25.41926 166.32812 453
267.52802 -6.49752 203.50850 314
270.84171 -6.74545 203.50760 310
409.40030 -17.35527 171.89922 309
423.77661 -18.47885 172.01192 305
440.40924 -19.70308 172.17920 301
493.95297 -23.79994 166.11584 452
267.58490 -6.21122 203.50256 314
270.90973 -6.44627 203.50798 310
409.54568 -16.18894 171.90094 309
423.92819 -17.18222 172.02660 305
440.56277 -18.37288 172.20499 301
495.23737 -22.24584 165.94177 451
3660.79150 -244.91389 101.22610 485
3665.57446 -245.03723 157.28922 487
267.64624 -5.91962 203.51006 314
270.95578 -6.14337 203.50497 310
409.65021 -15.00486 171.86101 309
424.04892 -15.95444 172.03380 305
440.65753 -17.01505 172.16385 301
460.17120 -18.24820 172.38307 297
43531.08594 -2778.81519 -4808.70264 1000
3667.27002 -223.69028 101.00697 399
267.69781 -5.64060 203.50668 314
271.02005 -5.82683 203.49962 310
409.75113 -13.86888 171.90594 309
424.17563 -14.67554 172.02979 305
440.79355 -15.63622 172.16449 301
460.27710 -16.79360 172.38605 297
267.75522 -5.35270 203.50340 314
271.06732 -5.52570 203.50891 310
409.86044 -12.69070 171.87265 309
424.25552 -13.44535 172.04990 305
440.90878 -14.29946 172.17932 301
460.41360 -15.30662 172.35916 297
267.80872 -5.06538 203.49834 314
271.12952 -5.21140 203.50897 310
409.96078 -11.50682 171.90154 309
424.35135 -12.20921 172.04543 305
440.99500 -12.96159 172.19270 301
460.52173 -13.84110 172.40492 297
267.85287 -4.77724 203.49931 314
271.17062 -4.90326 203.49979 310
410.05347 -10.37252 171.87292 309
424.44937 -10.92642 172.03412 305
441.08444 -11.61449 172.19191 301
460.58038 -12.35900 172.38957 297
267.90515 -4.49345 203.50977 314
271.22549 -4.60093 203.50568 310
410.10284 -9.19765 171.88860 309
424.51938 -9.70152 171.99258 305
441.22446 -10.25085 172.19218 301
460.66992 -10.89394 172.36305 297
267.95447 -4.20791 203.50960 314
271.26526 -4.30023 203.50977 310
410.16437 -8.04652 171.89644 309
424.60913 -8.41918 172.00568 305
441.24249 -8.85850 172.18268 301
460.74796 -9.41486 172.34633 297
509.94138 -10.71524 168.25827 288
267.99255 -3.91705 203.50122 314
271.31366 -3.98743 203.50179 310
410.26242 -6.87001 171.89246 309
424.68805 -7.14831 172.03094 305
441.35995 -7.50969 172.21100 301
460.82581 -7.91211 172.36198 297
509.99396 -8.93114 168.24478 288
268.03262 -3.63171 203.49953 314
271.35114 -3.67405 203.49802 310
410.29913 -5.67546 171.88225 309
424.72650 -5.93953 172.04224 305
441.37247 -6.13224 172.19781 301
460.89853 -6.42806 172.35037 297
510.04053 -7.17968 168.32007 288
268.07297 -3.33967 203.49928 314
271.40076 -3.37633 203.50546 310
410.36697 -4.51978 171.86778 309
424.75980 -4.66447 172.00861 305
441.45367 -4.77159 172.16898 301
460.97003 -4.92374 172.35085 297
509.99942 -5.36124 168.31737 288
268.12247 -3.05708 203.50534 314
271.43570 -3.07031 203.50894 310
102.84222 -0.22223 -24.05512 309
424.80301 -3.37045 172.00298 305
441.49689 -3.42991 172.21014 301
460.99387 -3.50795 172.38004 297
509.99731 -3.54692 168.33075 288
268.15109 -2.77392 203.50668 314
271.47910 -2.75995 203.50829 310
410.45032 -2.20874 171.88110 309
424.86136 -2.16784 172.03142 305
441.56931 -2.07010 172.17651 301
451.89502 -2.03094 174.04945 423
509.99203 -1.80473 168.35249 288
268.18896 -2.48557 203.50148 314
271.50806 -2.45114 203.50369 310
410.44809 -1.04003 171.86786 309
424.91898 -0.86202 172.05779 305
441.57239 -0.70367 172.17715 301
461.04773 -0.51149 172.40483 297
509.95215 -0.04241 168.33464 288
268.22842 -2.19862 203.50829 314
271.54095 -2.13924 203.49857 310
410.48572 0.10442 171.89226 309
424.92084 0.36309 172.01460 305
441.57617 0.63261 172.18843 301
452.25122 0.84160 173.99200 427
510.02951 1.75206 168.33690 288
268.25687 -1.90797 203.49818 314
271.57513 -1.83684 203.50456 310
410.48883 1.30693 171.89502 309
424.93945 1.60651 172.04176 305
441.62167 2.00564 172.20656 301
452.13815 2.27546 173.99753 420
510.12701 3.53681 168.30313 288
268.28580 -1.62565 203.50328 314
271.60794 -1.53404 203.50285 310
410.50638 2.47385 171.88960 309
424.91550 2.90533 172.01993 305
441.62772 3.34845 172.16748 301
461.08997 3.94858 172.41193 297
510.20212 5.33378 168.32271 288
268.30630 -1.34170 203.49983 314
271.62909 -1.22086 203.50478 310
410.54364 3.63537 171.85841 309
424.95819 4.16115 172.03079 305
441.60425 4.72226 172.20091 301
461.08121 5.36433 172.39078 297
510.22092 7.08557 168.26245 288
268.34192 -1.04776 203.50214 314
271.65930 -0.91802 203.49997 310
410.52792 4.80460 171.89323 309
424.91388 5.39100 172.01859 305
441.59601 6.07124 172.16826 301
461.05637 6.87399 172.34238 297
510.27377 8.86807 168.26869 288
268.36249 -0.76717 203.50850 314
271.67465 -0.60742 203.50058 310
410.47559 5.98229 171.88002 309
424.91547 6.63912 172.03368 305
441.60941 7.42903 172.18552 301
461.05786 8.33224 172.37152 297
268.38943 -0.47944 203.51010 314
271.70273 -0.30562 203.49985 310
410.48877 7.13043 171.88245 309
424.90079 7.91373 171.99606 305
441.54309 8.77101 172.15494 301
461.06552 9.81540 172.37331 297
268.41226 -0.19737 203.50665 314
271.72208 0.00759 203.49866 310
410.46152 8.28395 171.90094 309
424.87711 9.17873 172.04456 305
441.55368 10.14883 172.19839 301
460.98193 11.29388 172.37303 297
4655.15771 261.91824 213.34351 456
268.42740 0.08786 203.50795 314
271.73862 0.30959 203.49757 310
410.44543 9.45379 171.90543 309
424.84433 10.41659 172.00404 305
441.46915 11.47730 172.17297 301
460.93677 12.75475 172.36012 297
268.44870 0.36811 203.50929 314
271.74484 0.61647 203.50484 310
410.38925 10.62310 171.89436 309
424.81784 11.67564 172.00453 305
441.45264 12.83506 172.17426 301
460.91046 14.26102 172.36934 297
268.45935 0.65670 203.49973 314
271.76666 0.92304 203.49962 310
410.34076 11.76827 171.87955 309
424.72562 12.91916 172.03513 305
441.40417 14.19587 172.20193 301
460.79297 15.72724 172.34167 297
268.46573 0.94623 203.50104 314
271.77112 1.22423 203.50314 310
410.30682 12.93129 171.86472 309
424.66269 14.14000 172.01233 305
441.31491 15.54959 172.17212 301
460.77466 17.24653 172.39619 297
268.47919 1.22508 203.50766 314
271.79285 1.52312 203.50298 310
410.23993 14.13449 171.85873 309
424.59955 15.41058 171.99519 305
441.20151 16.95137 172.18791 301
494.97906 21.77869 166.03288 454
268.48776 1.51044 203.49960 314
271.78894 1.82756 203.49719 310
410.18161 15.29473 171.90569 309
424.52359 16.63649 172.00896 305
441.15866 18.29087 172.15765 301
493.76306 23.38046 166.29623 455
5527.07373 511.72427 299.79797 393
268.50055 1.79198 203.49884 314
271.80597 2.13193 203.50330 310
410.09836 16.41446 171.85674 309
424.49048 17.90650 171.99156 305
441.08472 19.63975 172.18195 301
492.43002 24.90147 166.49530 456
5480.63037 541.06122 299.34012 443
268.51294 2.07612 203.49866 314
271.81027 2.44431 203.50697 310
410.02261 17.57349 171.85342 309
424.36456 19.14379 172.00302 305
440.98471 20.98148 172.15305 301
491.20035 26.50867 166.71922 456
5465.26025 571.50903 298.87851 490
268.51175 2.36945 203.50348 314
271.80286 2.74839 203.50471 310
409.93414 18.72823 171.88925 309
424.27396 20.43154 171.99915 305
440.83942 22.30443 172.15952 301
489.94312 28.01688 166.93121 457
5455.16699 603.39874 299.76270 492
268.51434 2.64301 203.50055 314
271.80957 3.04912 203.50302 310
409.84772 19.92300 171.87120 309
424.14618 21.67034 172.04269 305
440.72247 23.67961 172.14546 301
488.74808 29.54169 167.09253 458
5444.17920 635.37439 298.95413 492
268.51184 2.93390 203.49905 314
271.80646 3.35060 203.50119 310
409.72144 21.09429 171.85181 309
424.05411 22.92798 171.99181 305
440.58521 25.04603 172.17203 301
487.49094 31.03434 167.29227 459
5434.95801 666.85168 299.03708 495
268.51050 3.20817 203.50142 314
271.80484 3.66089 203.50253 310
409.60767 22.19979 171.86182 309
423.95956 24.17146 172.00490 305
440.48322 26.35168 172.15152 301
486.27661 32.52824 167.45435 460
5425.01562 697.84613 298.64636 495
268.50958 3.49247 203.50735 314
271.79672 3.96519 203.50453 310
409.49033 23.36238 171.88435 309
423.80798 25.42797 171.99440 305
440.35513 27.74801 172.19547 301
485.10538 34.07363 167.64130 460
5416.53711 729.61365 298.48944 496
268.50693 3.77354 203.50629 314
271.78662 4.25794 203.49651 310
409.37302 24.51895 171.88718 309
423.69980 26.67003 171.99341 305
440.19641 29.04734 172.17114 301
483.91470 35.54473 167.88200 461
5408.95264 761.47687 299.29138 497
5543.97852 780.45544 476.60196 306
268.50247 4.05691 203.50060 314
271.77469 4.56548 203.49767 310
409.25409 25.67974 171.88206 309
423.52539 27.89417 171.99237 305
440.03857 30.41717 172.17731 301
482.68854 36.98592 168.05588 462
5402.39600 793.41736 299.42590 497
5521.81201 811.77301 389.13104 347
5450.17480 800.81213 472.40799 321
268.48602 4.34763 203.49976 314
271.76575 4.86833 203.50525 310
409.13531 26.83761 171.85516 309
423.37070 29.13188 171.97636 305
439.87244 31.76272 172.19069 301
482.22162 38.50679 168.08383 293
5395.40088 824.18555 299.55377 497
5451.00342 833.61255 385.98163 430
5435.65869 831.61865 472.05148 423
268.47742 4.62069 203.50020 314
271.75894 5.16302 203.50258 310
408.97540 27.98163 171.88385 309
423.21936 30.35590 172.02756 305
474.67099 38.93584 165.08353 300
482.02750 40.12827 168.03885 293
5391.12988 855.97980 299.04849 497
5427.30225 862.92401 385.98840 497
5412.79736 860.86023 471.58130 340
268.46948 4.90178 203.49876 314
271.73419 5.46814 203.50166 310
408.85382 29.14581 171.88298 309
423.05341 31.57978 171.97519 305
474.52148 40.49407 165.05978 300
481.88324 41.78486 168.07663 293
5389.41943 888.93390 299.73056 499
5426.72803 896.15619 385.80804 497
5410.75488 893.21021 472.54718 479
268.45209 5.18808 203.50314 314
271.71634 5.77331 203.50751 310
408.67395 30.29855 171.87299 309
422.90857 32.87455 171.97456 305
474.26245 42.05325 165.10376 300
481.70148 43.39782 168.08139 293
5383.80713 920.94135 298.59100 499
5425.76416 929.48755 386.08945 496
5421.89551 928.61493 472.87128 423
268.44489 5.46088 203.50922 314
271.69879 6.06997 203.49730 310
408.50555 31.42241 171.84314 309
422.72424 34.09621 172.02554 305
474.06100 43.57602 165.08992 300
481.56396 44.96714 168.01477 293
5384.42969 954.52008 298.96170 497
5419.49023 960.61737 386.54013 496
5417.07373 960.81940 473.17001 423
268.43024 5.75232 203.50558 314
271.67670 6.36606 203.49979 310
408.36200 32.57981 171.86317 309
422.56580 35.33418 171.96933 305
473.83090 45.15290 165.04477 300
481.37930 46.59613 167.97990 293
5380.26074 986.07886 299.95013 497
5418.82129 994.34662 385.88861 496
5414.61963 993.44910 472.53873 463
268.40466 6.02051 203.50183 314
271.65955 6.67325 203.50374 310
408.18710 33.72936 171.83066 309
422.36722 36.54383 172.00955 305
472.60510 46.51122 165.26315 449
481.18320 48.25217 167.97238 293
5377.39014 1019.25500 298.93787 494
5423.30811 1028.67773 387.07242 496
5415.25244 1026.66687 473.49194 496
268.38474 6.30278 203.50351 314
271.62915 6.97012 203.49825 310
407.97028 34.89145 171.82957 309
422.12012 37.79337 171.97847 305
471.18396 47.79971 165.51096 450
480.99051 49.82299 168.01521 293
5377.11377 1051.54248 300.04330 494
5422.73193 1062.01733 386.65155 495
5421.41650 1061.57971 473.99695 495
5531.99561 1083.84668 568.61658 393
268.36179 6.58546 203.50137 314
271.65637 7.28321 203.49162 282
407.76160 36.04562 171.87439 309
421.92255 39.03228 172.00267 305
469.78033 49.14708 165.75433 450
5375.93018 1085.40674 299.26944 494
5421.58057 1095.56958 387.32401 495
5419.39160 1094.73633 473.63107 495
5492.46484 1108.92395 567.03247 495
268.33899 6.85571 203.50679 314
395.24811 34.49472 171.72729 313
407.59030 37.18093 171.84157 309
421.74664 40.24122 172.00677 305
468.39542 50.41368 165.93248 451
5375.99805 1118.49475 299.62067 493
5422.01123 1127.71362 387.48441 495
5419.77881 1128.01172 474.49817 495
268.30981 7.13312 203.50266 314
395.06329 35.55955 171.70763 313
407.38336 38.30061 171.83150 309
421.52231 41.50376 171.96368 305
467.02374 51.70650 166.16052 452
5377.44336 1152.40942 300.14093 473
5499.24707 1178.80066 567.59137 491
268.28540 7.41452 203.49838 314
394.85831 36.59992 171.73486 313
407.18686 39.47882 171.84662 309
421.25723 42.71349 171.98055 305
465.73206 52.97857 166.40814 453
5377.43652 1185.78918 299.25031 438
5532.64258 1221.78357 571.31256 367
268.25909 7.69792 203.50060 314
394.67059 37.65609 171.73366 313
406.95612 40.61110 171.82483 309
421.04492 43.93292 171.99397 305
464.38028 54.23264 166.57025 454
5380.27490 1219.56665 299.44727 442
268.22903 7.97175 203.51038 314
394.45401 38.71617 171.70401 313
406.74673 41.73890 171.86018 309
452.35916 52.83101 164.94580 304
463.05145 55.46068 166.81526 455
5384.04492 1254.26013 300.95383 387
268.19452 8.23960 203.50208 314
394.22629 39.76812 171.71541 313
406.52533 42.88447 171.83313 309
452.06033 54.22902 164.94194 304
461.51196 56.66076 167.05499 423
54893.41016 13678.00977 7605.73828 1000
268.15350 8.51935 203.50679 314
394.02698 40.84777 171.70454 313
406.24774 43.97379 171.83850 309
451.69821 55.65194 164.92979 304
459.67499 57.70016 167.32204 424
5539.22314 1361.97766 392.72159 483
268.11743 8.80066 203.50018 314
393.79947 41.89432 171.69341 313
406.01782 45.12058 171.81642 309
451.36179 57.06999 164.96040 304
457.86655 58.79486 167.66869 425
5446.93945 1372.71399 390.01019 308
268.08463 9.06501 203.50078 314
393.52643 42.94381 171.72099 313
405.75739 46.26323 171.80389 309
451.05325 58.52259 164.95122 304
456.12970 59.83926 167.89928 298
5386.64941 1392.13721 388.16855 390
268.03894 9.34010 203.49738 314
393.30841 43.98611 171.71378 313
405.50198 47.38207 171.80139 309
450.69522 59.89301 164.93713 304
455.85004 61.32468 167.92245 298
5380.47168 1424.27380 389.56168 390
267.99594 9.61993 203.49905 314
393.07700 45.05786 171.70296 313
405.26251 48.53926 171.83902 309
450.34653 61.27601 164.94746 304
455.52295 62.77445 167.90791 298
5375.77344 1456.89026 389.20532 433
267.96149 9.88678 203.49985 314
392.78162 46.11613 171.72820 313
404.97784 49.66423 171.83670 309
450.00711 62.68123 164.91696 304
455.22855 64.19683 167.89828 298
5371.80518 1490.52917 388.47281 433
267.91476 10.16170 203.50217 314
392.53918 47.16941 171.69165 313
404.69168 50.76498 171.82756 309
449.21317 64.00527 165.03957 430
454.91156 65.67200 167.88972 297
5454.44971 1550.21558 391.98267 497
267.86996 10.43847 203.50853 314
392.26413 48.22535 171.68646 313
404.38730 51.90123 171.82085 309
447.54224 64.96120 165.29825 431
454.61002 67.11697 167.87807 297
5456.61768 1586.07190 392.09497 443
267.81638 10.70478 203.50642 314
392.00552 49.23690 171.71712 313
404.13354 53.00898 171.82433 309
445.92685 66.00743 165.61971 432
454.26572 68.59325 167.83311 297
267.77023 10.97764 203.50082 314
391.74500 50.29795 171.67378 313
403.82098 54.11668 171.81238 309
444.28687 66.92617 165.89890 433
453.91580 70.00194 167.87718 297
267.71158 11.24223 203.49712 314
391.44952 51.33886 171.71323 313
431.85175 64.44266 164.83929 308
442.70438 67.92966 166.14685 434
267.66690 11.51033 203.50705 314
391.15216 52.37212 171.68010 313
431.49078 65.73867 164.84122 308
441.08804 68.89422 166.42397 435
267.60147 11.78136 203.50160 314
390.84900 53.39824 171.68513 313
431.10065 66.98203 164.84056 308
439.53192 69.83073 166.70177 436
267.54434 12.05235 203.50504 314
390.57822 54.42336 171.69778 313
430.70828 68.29459 164.82664 308
437.78918 70.69308 166.99886 423
267.49603 12.31941 203.50444 314
390.24771 55.49291 171.65784 313
430.30786 69.54100 164.84404 308
436.02759 71.59015 167.28131 424
267.43051 12.58912 203.50620 314
389.95874 56.51652 171.68369 313
429.86996 70.79230 164.84116 308
434.30276 72.41595 167.59676 425
267.37354 12.85314 203.50578 314
389.61646 57.52869 171.68684 313
429.38806 72.09868 164.86613 308
432.83429 73.31192 167.84908 301
267.30545 13.12019 203.50209 314
389.28571 58.56704 171.67122 313
429.00034 73.34930 164.86212 308
432.46597 74.66750 167.81895 301
267.24353 13.38614 203.50195 314
388.95892 59.59267 171.64116 313
428.53986 74.61743 164.83687 308
432.07327 75.91064 167.82057 301
267.17694 13.64608 203.50963 314
388.63406 60.61892 171.64761 313
427.60904 75.70625 164.98991 428
431.65518 77.26571 167.81932 301
267.12350 13.92263 203.49515 287
388.29044 61.61876 171.66672 313
425.97491 76.45349 165.28770 429
431.21417 78.50489 167.80724 301
377.52612 58.46109 171.54164 316
413.40707 72.85016 164.77464 312
424.38568 77.28214 165.53009 430
430.80945 79.84164 167.78520 301
377.19113 59.43759 171.57201 316
412.94104 74.03802 164.77568 312
422.80087 78.05303 165.86670 431
430.38449 81.12618 167.77135 301
376.86514 60.39442 171.54976 316
412.50204 75.18271 164.79314 312
421.23608 78.80193 166.13663 432
429.96191 82.44237 167.75560 301
376.49899 61.31393 171.52051 316
412.02637 76.32868 164.79788 312
419.64594 79.57914 166.38545 433
429.47342 83.71636 167.76192 301
376.14313 62.25528 171.54121 316
411.56720 77.47757 164.76579 312
418.12012 80.33091 166.66612 434
375.78021 63.18942 171.54112 316
411.09201 78.63863 164.80734 312
416.60315 81.02818 166.94983 435
375.45609 64.15546 171.51401 316
410.57944 79.78290 164.80934 312
415.12680 81.76423 167.17636 436
375.04877 65.05597 171.50392 316
410.14368 80.91570 164.77042 312
413.63849 82.52336 167.41443 437
4094.03687 1746.48755 353.97299 412
4099.16406 1748.21704 423.53143 455
374.70895 66.00140 171.50665 316
409.64761 82.06234 164.81009 312
412.15814 83.20606 167.69370 438
4083.11719 1770.56726 353.53125 432
374.32312 66.92516 171.50859 316
409.11096 83.17420 164.79388 312
411.35126 84.25156 167.79721 305
373.90665 67.86073 171.50194 316
408.64383 84.34440 164.79340 312
410.88477 85.40746 167.73320 305
396.44949 79.87467 164.65041 317
407.79953 85.35524 164.90483 440
410.38416 86.56184 167.74962 305
395.98267 80.92494 164.69467 317
406.30817 85.97598 165.12186 422
409.94174 87.73801 167.71495 305
395.47906 82.00299 164.66324 317
404.67911 86.52628 165.46214 423
409.44241 88.92168 167.73911 305
395.02249 83.02555 164.66129 317
403.08392 87.13813 165.74858 424
408.90628 90.06315 167.70451 305
394.49188 84.06190 164.70372 317
401.49603 87.63982 166.04469 425
408.42929 91.24232 167.69032 305
393.96722 85.10477 164.68326 317
399.90308 88.23278 166.34544 426
407.88861 92.38911 167.71652 305
393.43497 86.13931 164.71021 317
398.36932 88.76381 166.63599 427
407.41644 93.51501 167.67262 305
392.90857 87.16280 164.68597 317
396.81259 89.26121 166.91785 428
392.34341 88.19566 164.69487 317
395.30933 89.79047 167.19269 429
391.84561 89.20081 164.72528 317
393.80518 90.34242 167.46872 430
391.27136 90.23947 164.73697 317
392.58002 90.93681 167.72211 311
390.72800 91.24852 164.71136 317
392.01886 92.02081 167.68111 311
389.44122 91.86382 164.96046 432
391.47125 93.06076 167.69032 311
387.97437 92.34173 165.22697 433
390.93372 94.08683 167.70331 311
386.57080 92.85705 165.46973 434
390.37836 95.07749 167.66069 309
3177.95435 1750.82202 383.95923 347
385.17325 93.31799 165.75290 435
389.81732 96.15452 167.65733 309
3124.67700 1743.54602 381.30981 348
383.79410 93.79691 166.03716 436
389.31323 97.16781 167.68353 309
3072.91943 1736.12817 379.38925 350
382.39310 94.30492 166.28398 437
388.76868 98.19173 167.67439 309
3022.58008 1728.93799 377.35355 351
381.06302 94.75643 166.52852 438
388.18854 99.23617 167.66409 309
2973.64038 1723.02014 374.80588 353
