# .PCD v.7 - Point Cloud Data file format
VERSION .7
FIELDS x y z rgb
SIZE 4 4 4 4
TYPE F F F U
COUNT 1 1 1 1
WIDTH 1384
HEIGHT 1
VIEWPOINT 6439.807617 -4068.695801 144.400604 -0.011365 -0.129655 0.027461 0.991114
POINTS 1384
DATA ascii
66.57295 -18.47369 181.09004 457
64.24324 -18.66727 183.40030 455
61.82524 -18.85572 185.78603 452
59.36263 -19.01047 188.19618 450
56.89511 -19.22570 190.70496 448
54.27927 -19.38863 193.24535 445
51.68317 -19.57867 195.84785 443
48.97270 -19.80240 198.51753 440
46.21089 -19.98703 201.31035 438
43.36606 -20.20732 204.13423 435
40.42048 -20.42561 207.04224 433
37.42446 -20.67092 210.03387 430
-179.72383 -36.41454 223.25215 384
-187.41614 -37.03967 278.61731 358
-187.42316 -37.12431 285.65945 358
-187.39365 -37.08260 292.63434 357
84.97374 -18.00696 177.53351 464
82.87420 -18.17525 179.53387 312
68.77775 -19.27352 178.80664 459
66.47942 -19.49899 181.05101 457
64.12354 -19.67499 183.36896 455
61.73801 -19.84966 185.73708 452
59.28543 -20.05240 188.19539 450
56.79750 -20.28154 190.68063 447
54.21363 -20.48428 193.23526 445
51.58018 -20.67584 195.83647 442
48.83419 -20.88491 198.51399 440
46.06491 -21.10638 201.25786 437
43.24700 -21.37724 204.13731 435
40.28445 -21.57504 207.02292 432
37.28199 -21.85576 210.04022 430
-179.73488 -38.91021 223.33623 384
84.89826 -18.89306 177.49529 463
82.85358 -19.08542 179.49609 461
68.71468 -20.28450 178.76343 459
66.39170 -20.49035 181.02858 457
64.05427 -20.65989 183.36758 454
61.64378 -20.87791 185.71797 452
59.21842 -21.10814 188.15044 450
56.69571 -21.33072 190.66139 447
54.10011 -21.57256 193.20863 445
51.46523 -21.77524 195.81839 442
48.77391 -22.00008 198.48834 440
45.96635 -22.25239 201.24576 437
43.07670 -22.52104 204.11095 435
40.14507 -22.74602 207.01257 432
37.14302 -23.04222 210.02646 429
-179.82103 -41.38892 223.28394 384
84.84866 -19.79104 177.44638 463
82.78505 -19.97704 179.45642 461
68.60262 -21.28390 178.70076 459
66.34533 -21.49891 180.97307 456
63.95893 -21.69162 183.29974 454
61.55001 -21.92656 185.70796 452
59.11864 -22.14803 188.12305 449
56.57414 -22.36978 190.62859 447
53.99155 -22.61457 193.16180 445
51.39022 -22.88222 195.76501 442
48.66936 -23.15183 198.45605 439
45.84240 -23.36649 201.26117 437
42.99658 -23.65018 204.09801 434
40.05855 -23.93760 206.99020 432
37.02971 -24.20735 210.04430 429
-179.71474 -43.95591 223.30608 384
84.77205 -20.65453 177.42357 463
82.71588 -20.87764 179.42598 461
68.55217 -22.24413 178.70634 458
66.22661 -22.46081 180.94739 456
63.88019 -22.71766 183.28394 454
61.46931 -22.96634 185.64743 452
59.00584 -23.22003 188.09181 449
56.49466 -23.43507 190.57675 447
53.89672 -23.73118 193.15895 444
51.26284 -23.99250 195.78084 442
48.55796 -24.25947 198.46790 439
45.73346 -24.50069 201.21701 437
42.86383 -24.79699 204.08948 434
39.90073 -25.09305 207.02626 431
36.87157 -25.43375 210.03647 429
-179.76822 -46.49093 223.28941 383
84.68302 -21.57618 177.36951 463
82.68394 -21.77649 179.39291 461
68.45925 -23.23280 178.64024 458
66.16414 -23.48281 180.92049 456
63.83531 -23.74630 183.26591 454
61.38568 -23.97095 185.63766 451
58.92468 -24.23723 188.06235 449
56.41189 -24.50198 190.54482 447
53.84768 -24.79761 193.13881 444
51.15799 -25.07257 195.73868 442
48.45386 -25.37946 198.45700 439
45.65890 -25.68145 201.20282 436
42.75515 -25.97944 204.07065 434
39.76922 -26.25677 207.01450 431
36.72591 -26.60635 210.02034 429
-179.80966 -48.99519 223.29588 383
84.63074 -22.43157 177.34456 463
82.58115 -22.67856 179.36263 461
68.42676 -24.23672 178.60214 458
66.08321 -24.48914 180.90150 456
63.75403 -24.74763 183.21916 453
61.32796 -25.02375 185.59438 451
58.84541 -25.29530 188.04872 449
56.30599 -25.60422 190.51967 446
53.71205 -25.85865 193.08829 444
51.04824 -26.19869 195.73802 441
48.35156 -26.47338 198.42076 439
45.53266 -26.80539 201.19754 436
42.65507 -27.11297 204.06450 434
39.66291 -27.45981 206.99030 431
36.54406 -27.81619 210.00975 413
-179.73352 -51.54020 223.27690 383
84.58023 -23.34757 177.28911 462
82.51786 -23.58867 179.33727 460
68.33402 -25.21450 178.58104 458
65.99982 -25.48246 180.85068 455
63.65325 -25.75666 183.20447 453
61.23344 -26.05842 185.55386 451
58.77474 -26.37176 188.01378 449
56.24715 -26.65646 190.49010 446
53.62826 -26.94442 193.04478 444
50.95215 -27.27043 195.70529 441
48.23229 -27.58656 198.38177 439
45.44961 -27.93992 201.14511 436
42.46508 -28.27166 204.04364 418
39.29414 -28.67841 206.93330 415
35.95761 -29.04060 209.96909 406
-179.75475 -54.11478 223.26323 383
84.51163 -24.23109 177.26338 462
82.45691 -24.46985 179.31877 460
68.25825 -26.20315 178.54614 457
65.93607 -26.52189 180.82423 455
63.59844 -26.78687 183.17102 453
61.17673 -27.12377 185.54968 451
58.68458 -27.40663 187.99762 448
56.14290 -27.74687 190.48256 446
53.55370 -28.06622 193.04500 443
50.89270 -28.38121 195.69191 441
48.05399 -28.71055 198.35162 423
45.04026 -29.11926 201.13860 420
41.97277 -29.50417 203.98700 418
38.78077 -29.89874 206.92923 415
35.35645 -30.33441 209.92717 406
-179.74590 -56.69242 223.31903 383
84.46658 -25.11614 177.23410 462
82.42298 -25.39282 179.26825 460
68.21015 -27.20561 178.47357 457
65.85806 -27.53678 180.78923 455
63.52873 -27.84381 183.09326 453
61.06888 -28.13502 185.48792 450
58.59085 -28.44957 187.94624 448
56.04406 -28.78804 190.42781 446
53.33724 -29.16745 193.01669 427
50.53093 -29.50077 195.60852 425
47.59578 -29.88959 198.29453 422
44.61523 -30.28318 201.07808 420
41.51915 -30.71391 203.92227 417
38.27566 -31.15317 206.89027 408
34.77182 -31.57021 209.95013 405
-179.97614 -59.26233 223.26511 362
84.37830 -26.01427 177.18761 462
82.32883 -26.29340 179.20001 460
68.13037 -28.19524 178.44501 457
65.79636 -28.53596 180.74326 455
63.41890 -28.85142 183.09552 453
61.00220 -29.18238 185.48279 450
58.43008 -29.53137 187.89742 431
55.70035 -29.92399 190.38582 429
52.93842 -30.27059 192.93106 427
50.10288 -30.70628 195.55333 424
47.15985 -31.09436 198.23813 422
44.10325 -31.47786 201.02483 419
40.99964 -31.93998 203.86781 416
37.66932 -32.40269 206.86140 407
34.15877 -32.86742 209.89830 404
-180.55003 -61.78117 223.24884 362
84.35522 -26.91210 177.15363 461
82.27385 -27.20215 179.17097 459
68.04738 -29.20188 178.41324 457
65.74844 -29.54686 180.69800 454
63.23344 -29.88923 183.03038 435
60.65676 -30.26986 185.36108 433
58.00571 -30.64585 187.79529 431
55.32610 -31.04500 190.30125 428
52.49483 -31.44862 192.84889 426
49.65759 -31.83235 195.48267 423
46.69918 -32.28282 198.20280 421
43.67600 -32.70358 200.97638 418
40.50604 -33.14701 203.83415 409
37.10759 -33.65705 206.82030 407
33.55171 -34.13749 209.89987 404
-181.17113 -64.42210 223.25998 362
84.29195 -27.81040 177.11084 461
82.21470 -28.13317 179.12395 459
67.86204 -30.23242 178.35109 439
65.42856 -30.59800 180.61716 437
62.89798 -30.99432 182.89304 435
60.28226 -31.38146 185.29062 433
57.62613 -31.76698 187.69908 430
54.90531 -32.15711 190.19614 428
52.08525 -32.59959 192.77699 425
49.18906 -33.01152 195.42424 423
46.25534 -33.48098 198.10605 420
43.20402 -33.94474 200.92258 418
39.92517 -34.42113 203.81650 409
36.49170 -34.92496 206.75865 406
32.91382 -35.44315 209.85234 403
-181.79033 -67.15990 223.35146 362
84.23843 -28.69338 177.05376 461
82.15889 -29.02073 179.09695 459
67.53389 -31.28462 178.23560 439
65.06394 -31.67740 180.50374 436
62.49233 -32.03914 182.79758 434
59.90207 -32.47620 185.20064 432
57.23918 -32.90330 187.61099 430
54.47116 -33.29340 190.12691 427
51.68165 -33.74628 192.71397 425
48.77899 -34.20955 195.34019 422
45.77313 -34.67551 198.06508 420
42.71341 -35.16295 200.88348 411
39.37273 -35.66195 203.77585 408
35.90858 -36.18695 206.73683 405
32.31477 -36.76875 209.79936 403
-183.01173 -69.87450 216.56329 425
-182.42996 -69.81132 223.38025 361
84.15866 -29.61075 176.98940 461
82.10030 -29.95914 179.02922 458
67.18498 -32.32738 178.10451 438
64.71304 -32.73200 180.38943 436
62.16234 -33.15575 182.70003 434
59.50698 -33.58833 185.07108 431
56.85011 -34.00713 187.53270 429
54.09044 -34.47240 190.02316 427
51.22500 -34.92842 192.60075 424
48.31051 -35.36973 195.26883 422
45.32873 -35.87948 197.98633 419
42.14334 -36.37360 200.80276 410
38.79810 -36.91904 203.70169 407
35.27589 -37.49843 206.68896 405
31.70967 -38.06681 209.77625 402
-183.06413 -72.40658 216.49309 425
-184.07385 -72.65652 223.36093 324
84.12601 -30.51365 176.96364 460
82.05866 -30.86851 179.00409 458
66.87534 -33.41288 178.01686 437
64.33890 -33.80413 180.29153 435
61.77839 -34.23864 182.58821 433
59.14008 -34.69835 184.98283 431
56.44077 -35.12977 187.45053 428
53.64793 -35.63602 189.96231 426
50.83765 -36.10620 192.52696 424
47.86992 -36.57963 195.22086 421
44.87707 -37.07284 197.95226 419
41.61196 -37.64838 200.76105 409
38.22430 -38.19411 203.63077 407
34.69289 -38.78980 206.66618 404
31.04160 -39.41594 209.76588 401
-183.06088 -75.00656 216.53775 425
-186.48853 -75.70970 223.35976 324
84.07697 -31.40600 176.90337 460
81.88506 -31.81473 178.92941 441
73.83351 -33.20639 179.60544 308
63.98283 -34.89067 180.14583 435
61.43135 -35.34892 182.51147 432
58.75809 -35.82472 184.89357 430
56.05342 -36.27278 187.32896 428
53.24100 -36.76356 189.85210 425
50.38696 -37.26601 192.48055 423
47.41958 -37.81387 195.12077 421
44.34761 -38.34469 197.87671 411
41.05090 -38.89251 200.68236 409
37.60998 -39.50959 203.60248 406
34.07669 -40.15306 206.59201 403
30.45074 -40.74593 209.72543 401
-183.03281 -77.63110 216.45369 425
-189.00793 -78.66768 223.47029 323
83.84093 -32.38417 176.81128 443
81.59299 -32.74756 178.80591 440
73.93737 -34.13236 179.58847 308
63.65660 -35.96769 180.05379 434
61.03999 -36.43797 182.37189 432
58.39022 -36.94653 184.79701 430
55.64162 -37.43343 187.26744 427
52.85574 -37.96559 189.79510 425
49.95253 -38.47283 192.36404 422
46.96523 -38.98887 195.03687 420
43.78943 -39.57319 197.81712 411
40.44487 -40.17502 200.64178 408
37.05203 -40.82215 203.57243 405
33.48719 -41.44879 206.57787 403
29.80739 -42.12421 209.70299 400
-183.01050 -80.24406 216.47540 425
-191.78113 -81.87935 223.48643 297
83.56921 -33.29966 176.70593 442
81.33025 -33.74111 178.72186 440
74.11777 -35.08207 179.59560 308
63.26573 -37.09526 179.93733 433
60.66600 -37.55226 182.28226 431
57.99073 -38.09027 184.69145 429
55.26191 -38.60130 187.17371 427
52.44549 -39.09973 189.70084 424
49.51901 -39.65882 192.29356 422
46.51181 -40.25656 194.99541 413
43.25436 -40.86220 197.72366 410
39.90043 -41.46051 200.55948 407
36.43566 -42.14953 203.51785 405
32.87231 -42.76418 206.50473 402
29.12457 -43.46510 209.65787 399
-183.00343 -82.86290 216.51840 425
83.29697 -34.25272 176.59349 441
81.06654 -34.70139 178.60855 439
74.25880 -35.99868 179.60435 308
62.91257 -38.20658 179.84248 433
60.28728 -38.69799 182.15675 431
57.61951 -39.20681 184.60323 428
54.84913 -39.76326 187.05905 426
52.01829 -40.31368 189.61710 424
49.09666 -40.84795 192.21661 421
45.95251 -41.48394 194.87982 412
42.72440 -42.08891 197.63660 409
39.32125 -42.73902 200.47574 407
35.86225 -43.43456 203.44632 404
32.20221 -44.12407 206.48140 401
28.47078 -44.89150 209.63350 399
-182.91231 -85.41882 216.54100 439
83.03195 -35.22036 176.45425 441
80.78051 -35.68823 178.50288 437
74.40918 -36.93465 179.62027 308
62.56146 -39.32148 179.72205 432
59.94757 -39.84321 182.06438 430
57.21749 -40.39086 184.49390 428
54.44056 -40.91563 186.94852 425
51.60167 -41.47586 189.50760 423
48.60317 -42.07407 192.10536 414
45.45858 -42.74272 194.78716 411
42.13187 -43.39507 197.55466 409
38.77236 -44.07673 200.43356 406
35.24948 -44.75481 203.40012 403
31.58117 -45.49626 206.46764 401
27.81263 -46.25421 209.60197 398
-182.78609 -88.07291 216.51596 439
82.77914 -36.21756 176.37416 440
80.47350 -36.67113 178.39648 436
74.60861 -37.89008 179.58124 308
62.21506 -40.40609 179.56960 432
59.55281 -40.94854 181.95427 429
56.82996 -41.53291 184.35675 427
54.05332 -42.12110 186.86719 425
51.14479 -42.71422 189.39757 422
48.12136 -43.32433 192.04749 413
44.90514 -43.98668 194.72624 411
41.58116 -44.68717 197.51825 408
38.18775 -45.36114 200.34694 405
34.60962 -46.13841 203.33145 403
30.96015 -46.88755 206.37657 400
27.16158 -47.68568 209.55167 363
-188.39670 -91.76372 209.56506 485
-186.52962 -91.42448 216.42960 298
82.47790 -37.19409 176.23892 440
80.20635 -37.64591 178.24561 436
74.76490 -38.83383 179.58815 308
61.84254 -41.52226 179.45486 431
59.18155 -42.08893 181.80516 429
56.42235 -42.69349 184.27794 426
53.61904 -43.31185 186.75150 424
50.71912 -43.91434 189.33629 415
47.57047 -44.58848 191.92906 412
44.39035 -45.26986 194.65353 410
41.02499 -45.99095 197.40742 407
37.61178 -46.71520 200.31693 405
34.03607 -47.49606 203.24434 402
30.32849 -48.24335 206.36115 399
26.40889 -49.07093 209.57274 359
-187.93715 -94.37005 209.50671 485
-193.03957 -95.50806 216.48138 298
82.22309 -38.14343 176.13980 439
79.92333 -38.64583 178.13004 435
74.94958 -39.73425 179.59935 308
61.49429 -42.69248 179.31329 430
58.78985 -43.25616 181.70648 428
56.06538 -43.89168 184.12468 426
53.21351 -44.50299 186.64877 423
50.24298 -45.14029 189.22612 414
47.05441 -45.85747 191.82310 412
43.84141 -46.56855 194.52184 409
40.44383 -47.30990 197.32393 407
36.98334 -48.05927 200.22833 404
33.41706 -48.86472 203.18968 401
29.65863 -49.65537 206.31868 399
25.71465 -50.50426 209.49770 359
-187.49648 -96.90403 209.51122 485
81.96513 -39.12238 176.00648 438
79.66011 -39.64609 178.04971 435
75.12931 -40.67781 179.57343 308
61.10938 -43.82677 179.22614 430
58.42517 -44.41277 181.57602 427
55.67141 -45.06979 184.05379 425
52.80910 -45.68661 186.54054 423
49.73259 -46.38728 189.12181 414
46.54347 -47.10956 191.71686 411
43.29133 -47.83498 194.43184 408
39.88090 -48.63946 197.25325 406
36.42618 -49.38626 200.15656 403
32.76849 -50.22980 203.14217 401
29.03988 -51.05817 206.28360 398
24.90171 -51.98131 209.45886 344
-187.09796 -99.53043 209.43983 485
81.71772 -40.11246 175.89662 438
79.37601 -40.68107 177.92635 434
75.33368 -41.58707 179.57561 308
60.74305 -44.94980 179.08357 429
58.05006 -45.61096 181.48190 427
55.27251 -46.26561 183.91817 424
52.33889 -46.89863 186.42838 415
49.21057 -47.65702 188.97350 413
46.01516 -48.37722 191.62738 410
42.74479 -49.14785 194.35625 408
39.34116 -49.97392 197.15324 405
35.81399 -50.78893 200.08791 403
32.16626 -51.58789 203.07018 400
28.37511 -52.50019 206.23857 387
23.72671 -53.59113 209.40773 343
-186.78093 -102.18327 209.49666 486
81.45484 -41.10457 175.74442 437
79.09880 -41.69659 177.78995 433
75.50582 -42.54520 179.59254 308
60.38845 -46.10555 178.95293 428
57.64851 -46.78084 181.32208 426
54.86569 -47.44053 183.82481 424
51.84634 -48.14053 186.32065 415
48.70643 -48.91069 188.87735 412
45.51437 -49.66697 191.51698 410
42.16441 -50.47352 194.23508 407
38.77203 -51.29925 197.07085 405
35.22208 -52.14133 200.01367 402
31.50302 -53.04782 203.03831 389
27.46346 -53.98244 206.12907 386
22.58814 -55.13979 209.36891 340
-190.61430 -105.71165 209.38148 297
81.15860 -42.12942 175.60719 437
78.82484 -42.69164 177.64384 433
75.72594 -43.45797 179.58113 308
60.00851 -47.27888 178.81218 428
57.25343 -47.95543 181.21767 425
54.43839 -48.66421 183.69446 416
51.36071 -49.43406 186.18481 414
48.23544 -50.17333 188.73738 411
44.99945 -51.00000 191.42172 409
41.63641 -51.79746 194.13690 406
38.19655 -52.67205 197.00253 404
34.54142 -53.54014 199.89992 390
30.65721 -54.53065 202.97418 388
26.40602 -55.54881 206.09883 375
20.75951 -56.94866 209.31897 263
80.88385 -43.11082 175.50166 436
78.54120 -43.72660 177.52559 432
75.90286 -44.37263 179.59885 308
59.64911 -48.45392 178.68274 427
56.87617 -49.15790 181.09703 425
53.95856 -49.89681 183.51920 416
50.87081 -50.66058 186.04460 413
47.68644 -51.46179 188.62709 411
44.41879 -52.30471 191.28760 408
41.08243 -53.11559 194.08861 406
37.52826 -54.01868 196.89005 392
33.69129 -54.98531 199.84995 390
29.74648 -56.01563 202.88737 387
25.35902 -57.13177 206.00163 374
-188.08138 -110.51712 202.34862 495
80.61707 -44.15894 175.36208 435
78.24969 -44.75858 177.39645 432
75.79740 -45.39217 179.48268 429
59.29090 -49.64684 178.56239 426
56.45915 -50.34641 180.97574 417
53.46286 -51.13596 183.42319 415
50.40512 -51.93511 185.92749 412
47.17155 -52.78440 188.53465 410
43.88204 -53.60391 191.20441 407
40.40963 -54.50325 193.96597 394
36.72926 -55.48938 196.76944 391
32.86473 -56.44337 199.73752 389
28.79869 -57.53780 202.76186 376
24.25840 -58.69028 205.95184 373
-187.42088 -112.99426 202.42712 495
80.37240 -45.17126 175.23091 435
77.95558 -45.78277 177.26933 431
75.47200 -46.48104 179.36235 429
58.89222 -50.82127 178.39368 426
56.02353 -51.60689 180.78612 417
53.02813 -52.39636 183.24298 414
49.86469 -53.24078 185.79433 412
46.64832 -54.06855 188.39360 409
43.24552 -54.98629 191.06325 395
39.64301 -55.91647 193.82361 393
35.91969 -56.91665 196.68698 390
32.03419 -57.96363 199.63251 388
27.71855 -59.08503 202.71460 375
23.15361 -60.30233 205.86285 372
80.08193 -46.19487 175.09569 434
77.68864 -46.84259 177.13507 430
75.17007 -47.54623 179.23228 428
58.52850 -52.04259 178.26183 425
55.57597 -52.83133 180.64990 416
52.52782 -53.63456 183.09938 413
49.39997 -54.50608 185.66869 411
46.05494 -55.40905 188.23309 397
42.52001 -56.36042 190.93393 395
38.87122 -57.34301 193.68932 392
35.08206 -58.36384 196.59299 390
31.15537 -59.46475 199.55775 377
26.71128 -60.66574 202.58472 374
22.01980 -61.95103 205.79768 371
79.82268 -47.22456 174.94971 433
77.37877 -47.91744 176.99974 430
74.90076 -48.58838 179.12488 427
58.12062 -53.24647 178.12195 417
55.12459 -54.08794 180.51729 415
52.06158 -54.91410 182.96347 413
48.78903 -55.84516 185.51868 399
45.34232 -56.77660 188.10283 396
41.78778 -57.81248 190.80899 394
38.13130 -58.81504 193.59261 391
34.28360 -59.86803 196.45370 389
30.12311 -61.01744 199.42267 376
25.58691 -62.30997 202.48213 373
20.91065 -63.61522 205.74466 370
79.56190 -48.28197 174.82445 433
77.10263 -48.94875 176.86694 429
74.57240 -49.68913 178.98389 427
65.39813 -52.27476 179.65588 304
54.63140 -55.31068 180.33527 414
51.43847 -56.23566 182.84024 400
48.07279 -57.19665 185.34485 398
44.60938 -58.17451 187.92570 395
41.03486 -59.22483 190.61884 393
37.33733 -60.29808 193.41841 390
33.47614 -61.39626 196.33885 377
29.05499 -62.60600 199.29184 375
24.49501 -63.94106 202.42009 372
19.72323 -65.29099 205.66061 369
79.30274 -49.29951 174.66855 432
76.82452 -50.05016 176.72659 428
74.29822 -50.75797 178.84607 426
65.62524 -53.26232 179.68967 304
54.09317 -56.62724 180.16528 402
50.77642 -57.59146 182.64050 399
47.40053 -58.59229 185.18828 397
43.89980 -59.59754 187.77167 395
40.26040 -60.65767 190.48479 392
36.50344 -61.76205 193.32016 390
32.45705 -62.94205 196.20914 376
28.03296 -64.21750 199.20790 374
23.37895 -65.56282 202.33037 371
18.55014 -66.98828 205.54312 368
79.02605 -50.35569 174.54604 431
76.52300 -51.11452 176.59401 428
74.00111 -51.84504 178.71077 425
65.90752 -54.27578 179.65034 304
53.43864 -57.98122 179.96796 401
50.10798 -58.98021 182.45085 399
46.67727 -60.00341 184.99333 396
43.14786 -61.05842 187.62674 394
39.47990 -62.12506 190.33546 391
35.69696 -63.28095 193.15701 389
31.47324 -64.55222 196.07953 376
26.98283 -65.84143 199.09235 373
22.30840 -67.27998 202.21996 370
17.64782 -67.88078 205.74101 367
78.74277 -51.43207 174.38342 429
76.23087 -52.19152 176.43816 427
73.67068 -52.97433 178.57977 425
66.18364 -55.22721 179.66403 304
52.79778 -59.31705 179.78281 400
49.45909 -60.31313 182.27025 398
46.01139 -61.39470 184.83710 395
42.40306 -62.49031 187.44310 393
38.71825 -63.58845 190.22333 390
34.77452 -64.80668 193.00894 377
30.40468 -66.16004 195.90248 375
25.91272 -67.54533 198.93324 372
21.11774 -68.94965 202.11273 369
16.17000 -70.51327 205.41821 367
78.45987 -52.50001 174.22327 428
75.97708 -53.29542 176.30759 426
73.36723 -54.10226 178.44472 424
66.46127 -56.22887 179.66153 304
52.14106 -60.65886 179.56306 399
48.79416 -61.74155 182.07709 397
45.28678 -62.78690 184.61932 395
41.67622 -63.93414 187.26846 392
37.92702 -65.11534 190.01991 390
33.79741 -66.36864 192.86270 376
29.36982 -67.78090 195.78235 374
24.81514 -69.20926 198.80280 371
20.00995 -70.72548 201.98308 369
14.98382 -72.27814 205.30409 366
78.21447 -53.57986 174.08850 428
75.66256 -54.35789 176.17281 426
73.10242 -55.20532 178.32146 423
66.75706 -57.23527 179.65889 304
51.51990 -62.06199 179.38361 398
48.10689 -63.15163 181.89070 396
44.59204 -64.26221 184.46776 394
40.93600 -65.39216 187.13655 391
37.10713 -66.61514 189.90269 378
32.82759 -68.02408 192.70607 375
28.35635 -69.39979 195.61159 373
23.66942 -70.92464 198.67500 370
18.80344 -72.44814 201.88492 368
12.78212 -74.35235 205.19550 321
77.90726 -54.66813 173.91464 427
75.38306 -55.48447 175.99309 425
72.77878 -56.33218 178.17743 423
67.02908 -58.18840 179.66466 304
50.82202 -63.43059 179.17902 398
47.40765 -64.58092 181.66309 395
43.83403 -65.68917 184.29543 393
40.17659 -66.89088 186.93079 390
36.12354 -68.24313 189.71452 377
31.79977 -69.64866 192.51262 375
27.25903 -71.08987 195.50259 372
22.57917 -72.64816 198.55638 369
17.15632 -74.39298 201.74071 338
9.86972 -76.75227 204.99586 320
77.63731 -55.76156 173.75616 426
75.08121 -56.59343 175.87840 424
72.47034 -57.44784 178.01498 422
67.35226 -59.16470 179.67523 304
50.18833 -64.85028 178.97023 397
46.71635 -65.97930 181.49234 394
43.08631 -67.19663 184.06682 392
39.37780 -68.40103 186.76353 379
35.16877 -69.81470 189.49033 376
30.80237 -71.26109 192.36638 374
26.19345 -72.79634 195.29890 371
21.21115 -74.44554 198.39700 339
14.93252 -76.51321 201.59001 321
6.79191 -79.25170 204.82211 318
77.36090 -56.85676 173.60687 426
74.81240 -57.73376 175.70747 424
72.15118 -58.61376 177.87054 421
67.62078 -60.16555 179.64853 304
49.50424 -66.28951 178.76660 396
45.99381 -67.47930 181.30264 393
42.35584 -68.67306 183.90233 391
38.46087 -70.00667 186.59508 378
34.17111 -71.48226 189.32359 375
29.72388 -72.96459 192.16357 373
25.12025 -74.54154 195.16264 370
19.14653 -76.54716 198.21120 338
12.07656 -78.93183 201.30258 320
3.65592 -81.81964 204.65900 317
77.10461 -57.97384 173.45375 425
74.53191 -58.85062 175.54700 423
71.74778 -59.78043 177.71379 393
67.96420 -61.14473 179.68185 304
48.81500 -67.69189 178.51213 395
45.27119 -68.92494 181.06715 393
41.64038 -70.18424 183.68080 390
37.53632 -71.62070 186.36858 377
33.21612 -73.11546 189.13260 374
28.66873 -74.69398 191.97694 372
23.17137 -76.58017 194.94792 339
17.01678 -78.70470 197.94420 337
9.05284 -81.44661 201.11954 319
0.40649 -84.42429 204.41917 316
76.80161 -59.04869 173.26677 424
74.21427 -59.96597 175.39441 422
71.13492 -61.06558 177.44205 392
68.19770 -62.10146 179.65604 404
48.15929 -69.14001 178.31348 394
44.58152 -70.39487 180.85323 392
40.74578 -71.75555 183.48352 379
36.55350 -73.21994 186.16464 376
32.18084 -74.77438 188.90169 374
27.05850 -76.60234 191.75946 341
21.12724 -78.66713 194.64815 338
14.28240 -81.11595 197.68578 320
6.01289 -83.99051 200.83226 318
-2.92517 -87.16901 204.27847 315
76.53061 -60.19417 173.12379 424
73.64817 -61.22413 175.14209 393
70.47968 -62.37483 177.19885 391
67.57759 -63.43552 179.43550 403
47.45050 -70.60548 178.10442 393
43.82153 -71.94286 180.63239 391
39.85191 -73.35506 183.24298 378
35.59598 -74.89281 185.91129 375
30.83699 -76.60226 188.66684 342
25.07892 -78.67197 191.46573 340
19.05998 -80.83589 194.40013 337
11.34169 -83.59263 197.38818 319
2.80048 -86.68941 200.57289 317
-8.31407 -90.64052 203.93225 271
76.09486 -61.37361 172.91631 395
73.03403 -62.51945 174.90236 392
69.82992 -63.68053 176.96280 390
66.93893 -64.73820 179.20827 402
55.72105 -68.82678 179.77019 300
43.04962 -73.46513 180.40160 379
38.90769 -75.00408 183.01250 377
34.54440 -76.59599 185.70395 344
28.98042 -78.61533 188.33743 341
23.12569 -80.76157 191.19252 339
16.51326 -83.23792 194.08191 321
8.31223 -86.17683 197.09460 318
-0.49032 -89.44186 200.30290 315
75.46424 -62.65496 172.63927 394
72.38618 -63.82994 174.64088 392
69.17992 -64.99608 176.73227 389
66.32463 -66.07220 178.98759 401
56.09057 -69.88517 179.76645 300
42.18420 -75.05143 180.17226 378
37.95437 -76.61266 182.76260 376
32.74063 -78.58705 185.36343 342
27.08423 -80.68997 188.01625 340
21.03509 -82.96514 190.84447 338
13.64195 -85.71158 193.76585 319
5.18448 -88.86880 196.74196 317
-7.46379 -93.58952 199.81383 271
74.90017 -63.93710 172.36324 393
71.76337 -65.10545 174.37195 391
68.52248 -66.33197 176.47835 388
65.63687 -67.45328 178.75464 400
56.44485 -70.90924 179.75058 300
41.26279 -76.71202 179.88817 377
36.41933 -78.53903 182.40401 344
30.92947 -80.62162 185.00862 341
25.09517 -82.86655 187.68027 339
18.71622 -85.28626 190.49902 321
10.62190 -88.31342 193.39177 318
1.54755 -91.80322 196.42548 290
-21.11570 -100.41541 198.78122 270
74.27979 -65.20757 172.11220 392
71.12231 -66.44773 174.11653 390
67.87138 -67.69977 176.21788 387
65.01873 -68.79224 178.52283 399
56.84504 -71.97569 179.74619 300
39.99153 -78.44495 179.61411 345
34.65015 -80.57194 182.05307 343
29.00460 -82.70068 184.64998 340
23.06660 -85.03995 187.36288 338
15.88068 -87.84518 190.08791 320
7.60919 -91.00822 193.01627 317
-6.52380 -96.53424 195.67017 271
73.69006 -66.51104 171.81592 391
70.47771 -67.76093 173.84912 389
67.18941 -69.08801 175.94360 386
64.32981 -70.21874 178.25993 398
57.21692 -72.98950 179.77617 300
38.29790 -80.47157 179.14732 344
32.86065 -82.62461 181.61295 342
27.10552 -84.89936 184.20860 339
20.93419 -87.28678 186.97437 321
12.98396 -90.42403 189.66602 319
2.71677 -94.50947 192.42499 290
74.01350 -67.46047 171.83151 316
69.86636 -69.10538 173.57658 388
66.52297 -70.47181 175.70769 386
63.67170 -71.61345 178.04643 397
57.58138 -74.05423 179.75269 300
36.61769 -82.43616 178.73538 343
31.01307 -84.68254 181.21977 340
25.14434 -87.07297 183.83311 338
18.14762 -89.86607 186.53328 320
9.96708 -93.19694 189.22063 291
-5.54865 -99.37347 191.46722 271
74.39570 -68.36640 171.83875 316
69.18045 -70.51862 173.29451 387
65.84113 -71.85735 175.44029 385
63.02925 -73.01698 177.79634 396
58.01026 -75.10968 179.76028 300
34.81240 -84.52618 178.28354 342
29.15527 -86.86588 180.83362 339
23.14547 -89.30371 183.42482 337
15.29559 -92.47797 186.04156 319
3.89283 -97.15731 188.46376 290
74.73235 -69.31548 171.82695 316
68.54489 -71.89328 173.02438 386
65.12141 -73.31159 175.13348 384
62.34055 -74.46554 177.51906 395
58.37569 -76.12775 179.76132 300
33.01460 -86.65547 177.83415 341
27.20210 -89.04562 180.40034 338
20.48707 -91.84058 182.93930 320
11.14678 -95.71084 185.33946 291
-4.45953 -102.19466 187.31511 271
75.09048 -70.25489 171.82329 316
67.88031 -73.27913 172.73117 385
64.49466 -74.71468 174.90370 396
61.63330 -75.95238 177.26991 394
58.73256 -77.14511 179.72685 392
31.19945 -88.78095 177.40790 340
25.19279 -91.31313 179.93985 337
17.63625 -94.55318 182.43126 319
5.22314 -99.79585 184.42488 289
75.47237 -71.19448 171.82535 316
67.21780 -74.73565 172.46129 384
63.78851 -76.19373 174.62508 395
60.93274 -77.40535 177.01692 393
58.02740 -78.65446 179.46365 391
44.12120 -84.66989 179.85719 296
22.80592 -93.83916 179.42740 320
12.47127 -98.28597 181.51160 291
-3.23464 -105.00359 183.16440 271
75.85606 -72.07671 171.79146 316
66.53316 -76.16570 172.15358 383
63.12314 -77.66312 174.33032 394
60.27688 -78.90632 176.72881 392
57.27123 -80.20647 179.23985 390
44.56587 -85.79443 179.84930 296
19.39577 -96.76228 178.67461 292
6.52919 -102.38997 180.44710 289
-24.80768 -116.09880 179.96138 337
76.22099 -73.02388 171.81413 316
65.95905 -77.58561 171.87721 312
62.45222 -79.12774 174.07027 393
59.56701 -80.41064 176.45822 391
56.56092 -81.76610 178.94566 389
45.04475 -86.88332 179.82986 296
13.85921 -100.77695 177.60832 290
-1.78882 -107.71101 178.99449 271
-20.99745 -116.20464 180.45445 284
76.59910 -73.91774 171.82098 316
66.36233 -78.53798 171.88194 312
61.75336 -80.62030 173.77501 392
58.80904 -81.97971 176.21745 390
54.65849 -83.90166 178.46179 333
45.48129 -88.02870 179.85245 296
7.94122 -104.98615 176.45335 289
-15.68777 -115.63420 176.64407 340
-20.36041 -117.72504 180.43994 284
76.97500 -74.83894 171.80936 316
66.78687 -79.55242 171.87349 312
61.10010 -82.18606 173.45473 391
57.38910 -83.88281 175.74329 334
52.61259 -86.04727 177.92032 332
45.96306 -89.09778 179.85918 296
28.20946 -97.28481 179.99538 292
-7.94372 -113.88243 177.75304 283
-19.69985 -119.29124 180.37994 284
77.38371 -75.76860 171.77556 316
67.19796 -80.53134 171.87427 312
60.13505 -83.81130 173.09831 335
55.45509 -86.02723 175.19099 333
50.54067 -88.31754 177.37682 331
45.59140 -90.65497 179.65654 330
28.78765 -98.46610 180.02429 292
2.63623 -110.65945 179.37135 285
-18.99685 -120.82694 180.39911 284
77.79060 -76.67754 171.79037 316
67.67587 -81.50307 171.86292 312
58.26839 -85.95555 172.50446 334
53.47958 -88.25438 174.60451 332
48.43863 -90.63500 176.77336 331
43.34682 -93.06570 179.11957 329
29.29579 -99.69043 179.98735 292
7.94595 -109.79559 180.20175 288
78.20891 -77.61205 171.79492 316
68.06825 -82.46063 171.88165 312
56.61697 -87.99184 171.95216 308
51.41301 -90.50180 173.97079 330
46.26572 -92.98375 176.20212 329
41.03069 -95.55311 178.50877 327
29.86999 -100.93935 180.01535 292
8.57181 -111.15134 180.16426 288
78.59549 -78.48079 171.79668 316
68.50803 -83.44412 171.84790 312
57.05853 -89.06140 171.94124 308
49.29030 -92.88131 173.35489 329
44.01346 -95.42370 175.55362 328
38.58315 -98.08273 177.93216 326
30.41002 -102.10210 180.00537 292
9.16928 -112.52782 180.12935 288
79.03309 -79.40768 171.80136 316
68.96247 -84.40546 171.84291 312
57.54205 -90.08666 171.97203 308
47.12543 -95.28612 172.72495 328
41.70518 -97.99129 174.96069 327
36.15203 -100.76282 177.35724 325
24.68795 -106.45900 178.80411 279
9.78962 -113.81345 180.16612 288
79.44143 -80.30421 171.77402 316
69.41800 -85.37209 171.84935 312
58.04125 -91.12575 171.94240 308
44.99292 -97.72230 172.08751 304
39.28896 -100.61058 174.27180 326
30.61322 -104.97596 176.05360 277
15.80748 -112.49655 177.08589 278
79.88337 -81.20961 171.78984 316
69.90689 -86.32366 171.87289 312
58.57153 -92.16233 171.95728 308
45.54821 -98.79763 172.05023 304
36.84212 -103.27353 173.61502 324
21.78249 -111.00950 174.16609 276
-8.05775 -126.32628 172.51381 292
80.32529 -82.09224 171.76852 316
70.35944 -87.26762 171.86914 312
59.07184 -93.17483 171.95573 308
46.10219 -99.91426 172.04181 304
31.12436 -107.73415 172.16415 300
13.49917 -116.89693 172.32225 296
-53.77108 -151.88283 163.91585 368
80.75455 -83.01371 171.78209 316
70.83572 -88.25674 171.85799 312
59.54076 -94.19617 171.94948 308
46.62207 -101.01964 172.04742 304
31.66964 -108.92102 172.18658 300
14.16026 -118.16485 172.30347 296
-49.84452 -152.00566 164.47238 369
81.21144 -83.87917 171.78430 316
71.32568 -89.20409 171.85970 312
60.06530 -95.22126 171.93112 308
47.20918 -102.10018 172.04808 304
32.26736 -110.10892 172.18063 300
14.84784 -119.50655 172.32220 296
-45.79645 -151.99207 165.00012 361
81.68093 -84.76547 171.75677 316
71.77329 -90.14214 171.84471 312
60.59788 -96.21611 171.96255 308
47.76553 -103.20374 172.05408 304
32.93739 -111.29716 172.17877 300
15.50933 -120.78223 172.28906 296
-43.81189 -153.05023 165.24661 286
82.13451 -85.64161 171.76222 316
72.29658 -91.09483 171.82751 312
61.09877 -97.27828 171.94925 308
48.33250 -104.32538 172.03525 304
33.50353 -112.51974 172.17343 300
16.14205 -122.09021 172.34528 296
-42.91325 -154.69157 165.23486 286
82.58222 -86.56195 171.74673 316
72.77409 -92.05965 171.81316 312
61.67669 -98.26235 171.90656 308
48.87890 -105.41479 172.04652 304
34.13121 -113.68301 172.18608 300
16.86670 -123.37386 172.32851 296
-41.97593 -156.32452 165.20386 286
83.06159 -87.39847 171.74258 316
73.28174 -92.98458 171.81477 312
62.17178 -99.29922 171.89545 308
49.51258 -106.48087 172.03296 304
34.75948 -114.89381 172.16852 300
17.52644 -124.69286 172.30725 296
-41.12457 -157.95531 165.21893 286
83.53514 -88.30533 171.74925 316
73.78334 -93.91354 171.80165 312
62.76361 -100.27946 171.91190 308
50.10322 -107.57203 172.01791 304
35.44606 -116.04133 172.13385 300
-26.12471 -151.47551 162.96640 367
-40.17652 -159.62093 165.21165 286
84.01085 -89.16935 171.71669 316
74.28738 -94.82491 171.82739 312
63.26798 -101.27401 171.93405 308
50.64414 -108.64623 172.01085 304
36.06681 -117.21566 172.14529 300
-22.45889 -151.43004 163.54050 369
84.48206 -90.05269 171.74538 316
74.81017 -95.77406 171.81880 312
63.84406 -102.30313 171.89308 308
51.24419 -109.77234 172.03735 304
36.73010 -118.39565 172.16277 300
-18.83039 -151.35960 164.12708 370
84.97325 -90.92756 171.71555 316
75.32836 -96.73334 171.82721 312
64.38836 -103.26163 171.89407 308
51.85804 -110.81046 172.03767 304
37.37808 -119.54518 172.14499 300
-15.36010 -151.22513 164.71254 371
85.47451 -91.78439 171.73288 316
75.85516 -97.61219 171.78534 312
64.97523 -104.27527 171.92264 308
52.50422 -111.87315 171.98816 304
38.06464 -120.74736 172.14207 300
-11.89789 -151.15508 165.24205 373
85.95473 -92.63282 171.72252 316
76.38995 -98.56917 171.81660 312
65.53185 -105.26936 171.92250 308
53.12613 -112.95770 172.00359 304
38.73838 -121.85488 172.12022 300
-8.76088 -151.23883 165.72925 291
-1343.74829 -976.53589 33.87485 472
-1348.90784 -979.83478 63.95931 426
86.46836 -93.49757 171.70633 316
76.97111 -99.46298 171.80481 312
66.12800 -106.26829 171.88083 308
53.77116 -114.00288 171.97116 304
39.37362 -123.03335 172.14920 300
-7.80448 -152.61319 165.75740 291
-1336.15161 -985.28601 34.31269 496
-1339.04797 -987.10284 64.59740 496
-1341.58398 -989.26001 94.52099 496
86.98328 -94.34623 171.72153 316
77.48476 -100.37804 171.79140 312
66.71059 -107.24165 171.89467 308
54.38405 -115.06849 172.00038 304
40.05708 -124.18835 172.09045 300
-6.91734 -154.00540 165.70436 291
-1337.18298 -999.58362 33.14824 363
87.50084 -95.22987 171.73027 316
78.03016 -101.28885 171.76945 312
67.31049 -108.21773 171.87161 308
55.01357 -116.15655 171.99620 304
2.08991 -150.27501 162.97540 285
-5.93542 -155.45779 165.74010 291
88.01733 -96.05550 171.71362 316
78.58238 -102.22406 171.79369 312
67.90623 -109.19148 171.89198 308
55.68519 -117.20403 171.95721 304
4.21625 -150.81273 163.25262 379
-5.03958 -156.81569 165.71982 290
88.53292 -96.92341 171.70131 316
79.17467 -103.10029 171.79765 312
68.52640 -110.17724 171.88586 308
56.33910 -118.27763 172.00197 304
7.24800 -150.72377 163.74805 380
-4.05714 -158.23003 165.75594 290
89.09876 -97.76656 171.70680 316
79.73904 -104.03479 171.75667 312
69.11537 -111.11632 171.88153 308
56.94555 -119.26771 171.97461 304
10.26672 -150.65717 164.28410 381
-3.16782 -159.62622 165.76416 290
89.64074 -98.56055 171.67599 316
80.29222 -104.93903 171.79037 312
69.76065 -112.12205 171.86505 308
57.66183 -120.33267 171.99289 304
13.12865 -150.59291 164.74835 382
90.15203 -99.43750 171.67290 316
80.91058 -105.80618 171.75426 312
70.36460 -113.06628 171.85381 308
58.29977 -121.40117 171.97675 304
16.04420 -150.50671 165.21361 384
90.69359 -100.23640 171.66429 316
81.49634 -106.69291 171.74278 312
70.98725 -114.01131 171.83473 308
58.97588 -122.40825 171.95883 304
18.85048 -150.44385 165.69809 385
91.26361 -101.08460 171.69844 316
82.05300 -107.57337 171.74171 312
71.61146 -114.99627 171.85339 308
59.68982 -123.42366 171.96632 304
21.41928 -150.50429 166.09886 297
91.82874 -101.92744 171.69255 316
82.66835 -108.49207 171.74767 312
72.27794 -115.91396 171.81729 308
27.74406 -147.82642 163.28334 297
22.34972 -151.69447 166.11047 297
92.36382 -102.72172 171.65359 316
83.27415 -109.36400 171.73653 312
72.89269 -116.87134 171.85457 308
28.41905 -149.15146 163.19670 297
23.23594 -152.97855 166.14391 297
-1847.65784 -1511.18481 5.22362 411
92.95737 -103.52779 171.67728 316
83.88025 -110.21267 171.76306 312
73.55690 -117.82673 171.82495 308
29.73233 -150.03409 163.32993 387
24.09353 -154.21555 166.14752 297
-1834.93103 -1521.83838 5.85504 481
-1839.82825 -1525.53149 47.30274 483
93.53472 -104.37048 171.67368 316
84.49379 -111.10576 171.72687 312
74.24503 -118.74944 171.85057 308
32.33130 -149.95227 163.78912 388
25.00347 -155.39830 166.10239 297
94.11143 -105.18694 171.65480 316
85.11330 -111.97726 171.75557 312
74.87852 -119.67738 171.80647 308
34.88697 -149.88931 164.24323 389
25.91214 -156.61497 166.11545 297
94.66831 -106.00125 171.63976 316
85.73302 -112.82411 171.75447 312
75.55822 -120.61523 171.80258 308
37.41025 -149.76964 164.71138 390
26.86933 -157.86226 166.12944 297
95.26028 -106.77465 171.64896 316
86.33376 -113.71556 171.72633 312
76.21915 -121.51013 171.83194 308
39.84982 -149.69128 165.10767 392
27.77604 -159.04097 166.14717 297
95.87218 -107.60970 171.62430 316
86.99826 -114.57193 171.73734 312
48.74947 -144.55132 163.45679 300
42.34357 -149.59407 165.55814 393
96.44022 -108.37363 171.64003 316
87.64371 -115.43136 171.73694 312
49.41521 -145.70334 163.42404 300
44.70323 -149.50612 165.96524 394
-2320.22559 -2028.34937 1.96708 487
-2332.63306 -2038.15540 54.74601 395
97.04972 -109.19209 171.65457 316
88.27721 -116.24453 171.68584 312
50.12166 -146.92114 163.38414 300
46.47398 -149.89291 166.21782 302
97.67656 -109.96645 171.61194 316
88.93618 -117.10853 171.70770 312
50.85680 -148.07210 163.32666 300
47.38737 -150.93802 166.23289 302
98.29278 -110.77810 171.61684 316
89.58978 -117.95080 171.71335 312
51.65628 -149.24358 163.26677 397
48.27647 -152.05769 166.25534 302
98.91618 -111.52506 171.61299 316
90.25361 -118.76596 171.68867 312
53.86069 -149.15900 163.70938 398
49.15132 -153.08386 166.24585 301
99.49672 -112.34874 171.59262 316
90.90572 -119.61890 171.69971 312
56.05389 -149.08054 164.09300 400
50.03445 -154.14049 166.26927 301
100.15363 -113.12626 171.60497 316
91.54361 -120.43869 171.67795 312
58.25123 -148.96939 164.52571 401
50.96411 -155.22443 166.26671 301
100.77501 -113.88237 171.60678 316
67.83457 -142.40042 163.56180 304
60.37836 -148.88286 164.92638 402
51.87234 -156.26657 166.22340 301
101.41353 -114.65482 171.58945 316
68.59112 -143.46629 163.51868 304
62.48664 -148.82059 165.29471 403
52.78350 -157.31886 166.25075 301
102.05918 -115.40234 171.59749 316
69.33035 -144.51851 163.49620 304
64.53677 -148.75969 165.69130 404
102.70493 -116.16180 171.59203 316
70.05341 -145.57449 163.47870 304
66.60236 -148.69655 166.02045 405
103.33270 -116.92920 171.57103 316
70.79780 -146.56290 163.42397 304
68.43137 -148.74872 166.33052 306
104.02216 -117.67348 171.58644 316
71.54240 -147.61450 163.40179 304
69.31242 -149.69582 166.34314 306
104.64114 -118.43481 171.58325 316
72.51463 -148.47845 163.43448 408
70.18219 -150.65323 166.31468 306
105.31764 -119.16845 171.56094 316
74.45238 -148.38013 163.81348 409
71.07831 -151.56041 166.34297 306
105.99426 -119.89412 171.56921 316
76.35925 -148.32719 164.17072 410
71.96825 -152.53014 166.36455 306
85.60333 -141.05826 163.67619 308
78.22643 -148.26103 164.51019 412
72.84225 -153.43829 166.37012 306
86.36364 -141.98085 163.64804 308
80.02284 -148.17136 164.86406 413
73.76279 -154.32405 166.38449 306
87.11316 -142.88347 163.63963 308
81.88221 -148.09120 165.19008 414
74.68868 -155.23296 166.35924 305
87.84764 -143.81865 163.57239 308
83.64035 -148.03293 165.51077 415
75.62745 -156.15839 166.38484 305
88.61304 -144.76180 163.53522 308
85.44885 -147.95926 165.86870 416
76.51609 -157.07825 166.35101 305
89.33813 -145.66573 163.53152 308
87.16859 -147.90424 166.19470 417
90.11475 -146.56824 163.52353 307
88.69130 -148.05734 166.41113 310
90.91754 -147.45804 163.46283 307
89.60069 -148.83322 166.43161 310
92.27605 -147.70815 163.67151 420
90.45476 -149.63930 166.43867 310
93.96035 -147.63072 163.99969 421
91.32886 -150.45341 166.45499 310
95.58971 -147.59712 164.32547 422
92.26816 -151.25526 166.45152 310
97.24152 -147.48676 164.60168 412
93.11170 -152.06383 166.41736 310
98.96487 -147.29884 164.98041 413
94.06321 -152.84715 166.41603 310
100.59618 -147.14984 165.28848 414
94.93967 -153.59680 166.42323 310
102.27511 -146.98001 165.61510 415
95.87488 -154.39734 166.47641 310
103.87681 -146.84335 165.92160 416
96.77222 -155.19020 166.45541 310
105.51543 -146.66740 166.26268 418
97.68787 -155.93468 166.46379 310
106.86590 -146.78734 166.43980 314
107.72530 -147.52730 166.47038 314
108.58398 -148.21329 166.44203 314
109.47042 -148.93311 166.45576 314
110.32267 -149.62677 166.45624 314
111.19891 -150.30847 166.44348 314
112.07382 -150.99397 166.47223 314
115.18484 -148.72423 167.45975 316
116.07639 -149.38863 167.47942 316
116.92106 -150.03786 167.47913 316
117.77329 -150.70216 167.44215 316
120.24854 -149.21150 168.14661 490
124.37932 -148.92026 168.88046 489
127.27537 -148.40411 169.45279 487
-16974.87695 -38753.34375 -9703.09961 1000
2000.74048 -16459.85352 3500.33496 1000
27546.56250 -50403.33984 -13154.23633 1000
29612.32617 -27672.18164 8148.55811 1000
8648.32422 -7096.03564 -1443.48523 1000
357.82059 -112.28550 167.56802 316
358.54092 -111.36133 167.55788 316
359.26102 -110.48048 167.59235 315
359.95477 -109.57710 167.60788 315
45111.95703 -32846.14062 11161.37793 1000
360.68671 -108.65641 167.59392 315
361.38077 -107.74454 167.59160 315
362.07977 -106.81991 167.61281 315
362.77518 -105.92139 167.61900 315
1535.95691 -919.84607 27.85114 354
363.47421 -104.98940 167.60480 315
1532.88379 -905.56848 29.06235 468
1536.44885 -907.93774 55.42520 468
1540.15369 -910.71362 81.49461 492
1543.46045 -913.27527 107.30582 493
364.14722 -104.05364 167.62489 315
1537.17944 -896.90344 29.61110 497
1541.46960 -899.51642 55.22303 497
1546.81067 -903.29407 81.44440 431
1555.70654 -909.54529 106.98141 281
364.82562 -103.12223 167.62566 315
1545.85205 -890.77014 28.84631 431
1554.07983 -895.82800 54.69653 369
365.48508 -102.21160 167.61517 315
366.15198 -101.26081 167.63329 315
366.78439 -100.34798 167.62784 315
368.08578 -99.80178 167.43570 438
369.47293 -99.32959 167.19063 437
370.90988 -98.79420 166.94623 436
379.34390 -104.02255 167.66756 310
372.34039 -98.31652 166.70735 435
379.99338 -102.99049 167.64452 310
373.75241 -97.83858 166.44426 434
380.65720 -101.95389 167.66095 310
375.23306 -97.32009 166.20360 433
381.26111 -100.87100 167.67628 310
376.70187 -96.81014 165.95580 432
381.90393 -99.86499 167.71312 310
378.18103 -96.32529 165.69751 431
382.56790 -98.83802 167.69003 311
379.67752 -95.79796 165.41449 430
383.22202 -97.80827 167.68336 311
381.19763 -95.28239 165.14104 429
383.84808 -96.74385 167.71730 311
382.74109 -94.70879 164.87288 428
384.49442 -95.71218 167.71303 311
383.87399 -93.96558 164.70818 317
385.11255 -94.68052 167.71396 311
384.51678 -92.96855 164.71078 317
385.82410 -93.63652 167.67642 427
385.13730 -91.89211 164.69427 317
387.41611 -93.12743 167.38460 426
385.75961 -90.86326 164.69305 317
389.03549 -92.56465 167.11681 425
386.41223 -89.82621 164.73222 317
390.63092 -92.01582 166.84816 424
400.22971 -96.88415 167.71216 306
387.02429 -88.78481 164.72112 317
392.28598 -91.42807 166.56674 423
400.84961 -95.74959 167.71242 306
387.61920 -87.77379 164.69688 317
393.90851 -90.82794 166.24997 422
401.44955 -94.55293 167.72327 306
388.21613 -86.71447 164.68924 317
395.56830 -90.28418 165.99294 421
402.04453 -93.43739 167.73180 306
388.83102 -85.63779 164.71899 317
397.30276 -89.68314 165.68582 420
402.65012 -92.24876 167.77879 306
389.40295 -84.59303 164.66782 317
399.00458 -89.07120 165.33571 419
403.23505 -91.06754 167.73524 306
389.98862 -83.53688 164.66628 317
400.73227 -88.50319 165.03825 418
403.78159 -89.92944 167.75780 306
390.58588 -82.43303 164.70685 317
402.15839 -87.72015 164.82420 313
404.37552 -88.75409 167.78250 306
368.10474 -71.05961 171.46944 318
402.79092 -86.62508 164.79706 313
404.94260 -87.55956 167.81892 306
368.56555 -70.12986 171.50714 318
403.36325 -85.43901 164.78093 313
406.06625 -86.67460 167.65038 415
369.00397 -69.15819 171.52415 317
403.94513 -84.30172 164.79593 313
407.75653 -85.94492 167.38130 434
369.45795 -68.24818 171.48723 317
404.57034 -83.16117 164.80888 313
409.30273 -85.22028 167.12482 433
369.91214 -67.25870 171.50928 317
405.08905 -82.01958 164.76370 313
410.86502 -84.42253 166.87376 432
370.36984 -66.33038 171.51474 317
405.64603 -80.81227 164.81120 313
412.50070 -83.62449 166.58569 431
370.82709 -65.35610 171.51408 317
406.24658 -79.64883 164.81740 313
414.10287 -82.83846 166.33611 430
423.56158 -86.70229 167.76195 302
371.22910 -64.43813 171.54181 317
406.76694 -78.50951 164.79433 313
415.68729 -82.09675 166.09766 429
424.07825 -85.36034 167.77513 302
371.70139 -63.47565 171.50586 317
407.30884 -77.31746 164.79999 312
417.38397 -81.24920 165.79810 428
424.62756 -84.08978 167.83209 302
372.11472 -62.51092 171.51797 317
407.81494 -76.19582 164.77849 312
419.01086 -80.47040 165.52686 427
425.12741 -82.79386 167.78647 302
372.53464 -61.51175 171.53931 317
408.38409 -75.00765 164.77614 312
420.69748 -79.63686 165.25797 426
425.66223 -81.51895 167.82281 302
372.94272 -60.57417 171.52231 317
383.36026 -64.40556 171.63734 313
422.38687 -78.79311 164.95619 425
426.16916 -80.18761 167.83073 302
373.36447 -59.58804 171.54901 317
383.80237 -63.35838 171.63458 313
423.25085 -77.66109 164.87914 308
426.66647 -78.89600 167.81633 302
373.73840 -58.65258 171.54781 317
384.24039 -62.36844 171.63969 313
423.75986 -76.34473 164.89432 308
427.15335 -77.54983 167.84091 302
374.12653 -57.66031 171.52997 317
384.63510 -61.31936 171.66095 313
424.31497 -75.11350 164.83827 308
427.63010 -76.26714 167.86374 302
374.55786 -56.67710 171.54054 317
385.05518 -60.24609 171.65007 313
424.81491 -73.81488 164.88847 308
429.43082 -75.41277 167.55055 422
374.92270 -55.72709 171.57295 317
385.46597 -59.22753 171.68199 313
425.31763 -72.55785 164.86676 308
431.20779 -74.54402 167.27484 421
375.32007 -54.71356 171.56871 317
385.86990 -58.18069 171.65968 313
425.87579 -71.26982 164.88586 308
433.07397 -73.60069 167.01216 420
375.66022 -53.74446 171.55833 317
386.26651 -57.15079 171.64565 313
426.34830 -69.97803 164.88313 308
434.90259 -72.70797 166.69832 418
376.02933 -52.75948 171.56310 317
386.61609 -56.08202 171.65237 313
426.88843 -68.71095 164.86601 308
436.75803 -71.81728 166.34883 417
263.06702 -17.05767 203.49881 294
387.00943 -55.06717 171.68823 313
427.35782 -67.42072 164.87302 308
438.66858 -70.89552 166.04932 416
448.87979 -74.02251 167.88658 298
263.18753 -16.76427 203.50438 315
387.39691 -54.00589 171.66344 313
427.82129 -66.10750 164.87486 308
440.38397 -69.87955 165.79138 430
449.30502 -72.54436 167.87140 298
263.32968 -16.48850 203.50357 315
387.75366 -52.96136 171.68643 313
399.86276 -56.47883 171.78305 309
442.08783 -68.91626 165.49013 429
449.78528 -71.14799 167.86958 298
263.48041 -16.20480 203.49945 315
388.10025 -51.87038 171.70343 313
400.20642 -55.37156 171.80998 309
443.79996 -67.82462 165.23357 428
450.16278 -69.64843 167.88181 298
263.62259 -15.91197 203.50342 315
388.46155 -50.85863 171.67699 313
400.57977 -54.24691 171.79260 309
445.45105 -66.75684 164.91859 304
450.65347 -68.20422 167.87091 298
263.75534 -15.63519 203.50906 315
388.85315 -49.78928 171.70253 313
400.99371 -53.10022 171.78333 309
445.88666 -65.38271 164.96284 304
