# .PCD v.7 - Point Cloud Data file format
VERSION .7
FIELDS x y z rgb
SIZE 4 4 4 4
TYPE F F F U
COUNT 1 1 1 1
WIDTH 1351
HEIGHT 1
VIEWPOINT 6745.348145 -3024.381836 148.776382 -0.825033 -0.106747 -0.091718 0.547279
POINTS 1351
DATA ascii
64.19568 -98.09098 171.90735 308
51.44683 -105.47486 172.00578 304
36.61795 -114.07423 172.17027 300
19.32090 -124.11905 172.26465 296
-39.36173 -158.21840 165.23471 286
85.55657 -86.83383 171.73370 316
75.82000 -92.55224 171.83261 312
64.69875 -99.08156 171.91847 308
52.01807 -106.60307 171.99715 304
37.24820 -115.25362 172.11819 300
-24.22889 -151.48499 163.02583 369
-38.50741 -159.85178 165.28931 286
86.06862 -87.71209 171.69876 316
76.31241 -93.52415 171.81839 312
65.24803 -100.12753 171.88010 308
52.58884 -107.64566 172.01491 304
37.88162 -116.44616 172.12051 300
-20.61819 -151.37675 163.61060 371
86.54507 -88.56734 171.71596 316
76.83466 -94.46700 171.79945 312
65.79902 -101.09162 171.92068 308
53.16674 -108.75748 172.00858 304
38.53878 -117.61079 172.13408 300
-17.07388 -151.28389 164.14015 372
87.03072 -89.44911 171.71587 316
77.36137 -95.38068 171.80473 312
66.35163 -102.12103 171.86530 308
53.77103 -109.85730 172.01842 304
39.22541 -118.79140 172.13954 300
-13.66635 -151.21327 164.66705 373
87.48350 -90.34718 171.71568 316
77.87812 -96.34625 171.79916 312
66.93555 -103.14175 171.86407 308
54.40013 -110.93574 172.00635 304
39.84680 -119.99045 172.12221 300
-10.21909 -151.14507 165.24110 374
87.99419 -91.20720 171.70775 316
78.36837 -97.24376 171.76802 312
67.47543 -104.10269 171.89876 308
55.00741 -112.04662 171.99463 304
40.50403 -121.14323 172.11913 300
-6.90325 -151.05099 165.77150 291
88.49080 -92.07957 171.68718 316
78.93557 -98.17757 171.78705 312
68.05002 -105.11365 171.89276 308
55.61042 -113.06923 171.98978 304
41.19254 -122.31172 172.12047 300
-5.97834 -152.47966 165.78561 291
88.97858 -92.93029 171.68637 316
79.42872 -99.12516 171.75415 312
68.64941 -106.14623 171.87881 308
56.22344 -114.14154 171.99109 304
41.85349 -123.47453 172.07236 300
-5.14054 -153.91708 165.78708 291
89.47767 -93.79125 171.67653 316
79.98829 -100.02644 171.75584 312
69.22744 -107.14019 171.88469 308
56.88648 -115.22235 171.97743 304
4.07357 -149.95111 163.01208 285
-4.22746 -155.32672 165.76476 291
89.99709 -94.68258 171.70378 316
80.53844 -100.92871 171.78038 312
69.80816 -108.12752 171.86566 308
57.52592 -116.28232 171.94426 304
5.72810 -150.77312 163.15622 381
-3.26453 -156.73079 165.77522 291
90.50292 -95.52447 171.69221 316
81.08823 -101.88327 171.75079 312
70.41779 -109.08443 171.85803 308
58.13232 -117.33836 171.94371 304
8.74683 -150.68106 163.68089 382
-2.33817 -158.13159 165.76421 290
91.03925 -96.39715 171.69725 316
81.66429 -102.77205 171.77052 312
71.02073 -110.05864 171.84706 308
58.76499 -118.43432 171.97540 304
11.65531 -150.60683 164.19469 383
-1.43495 -159.59801 165.77232 290
91.57787 -97.25217 171.67958 316
82.22282 -103.70208 171.74257 312
71.62994 -111.07200 171.82654 308
59.45688 -119.46593 171.97704 304
14.60007 -150.56856 164.70403 384
92.12086 -98.09422 171.65994 316
82.79405 -104.57755 171.73477 312
72.26194 -112.01385 171.83723 308
60.11870 -120.50993 171.96227 304
17.43883 -150.45035 165.14900 386
92.64424 -98.93137 171.66133 316
83.38978 -105.52602 171.74965 312
72.88255 -112.98167 171.84723 308
60.79424 -121.56366 171.92070 304
20.20202 -150.43785 165.63751 387
93.18059 -99.74851 171.64474 316
83.95463 -106.39655 171.73486 312
73.49214 -113.93269 171.81358 308
61.44924 -122.60579 171.90913 304
22.97658 -150.32841 166.08949 385
93.72767 -100.58220 171.65733 316
84.56832 -107.32413 171.73146 312
74.11518 -114.88411 171.80574 308
29.64600 -147.38263 163.27643 296
24.09476 -151.43187 166.16380 297
94.31299 -101.45064 171.64323 316
85.16056 -108.18600 171.70982 312
74.77857 -115.86864 171.81523 308
30.34087 -148.71056 163.21092 296
24.99951 -152.65570 166.10416 297
94.85497 -102.23321 171.67052 316
85.76116 -109.09058 171.73979 312
75.42161 -116.80973 171.80835 308
31.03920 -149.98314 163.17816 389
25.84867 -153.88210 166.12714 297
95.43344 -103.06966 171.63016 316
86.35464 -109.94823 171.70407 312
76.05565 -117.79200 171.81328 308
33.63752 -149.92157 163.70486 390
26.75654 -155.16360 166.15022 297
95.97466 -103.90444 171.64830 316
86.96221 -110.85352 171.69301 312
76.69041 -118.69740 171.82863 308
36.22729 -149.82278 164.14081 391
27.64275 -156.35799 166.10974 297
96.57168 -104.70265 171.64140 316
87.56516 -111.70868 171.69513 312
77.39181 -119.65847 171.81818 308
38.71338 -149.73114 164.55986 392
28.54676 -157.57458 166.16330 297
97.12231 -105.55283 171.63203 316
88.18266 -112.59504 171.69229 312
78.03508 -120.62646 171.81313 308
41.16331 -149.62616 165.03510 393
29.43205 -158.85368 166.12564 297
97.74654 -106.35965 171.62004 316
88.82126 -113.47060 171.72791 312
78.69264 -121.53680 171.80202 308
43.61584 -149.55132 165.45625 395
98.30757 -107.15727 171.62886 316
89.48032 -114.31942 171.71962 312
51.37807 -145.05260 163.41815 300
45.96492 -149.41628 165.82646 396
98.90561 -107.97115 171.62871 316
90.11835 -115.16966 171.67488 312
52.06451 -146.27591 163.36766 300
48.26547 -149.43399 166.25127 301
99.54774 -108.76199 171.60516 316
90.75861 -116.03584 171.67696 312
52.80706 -147.49960 163.33876 300
49.13508 -150.52568 166.22885 301
100.14762 -109.56966 171.59859 316
91.37999 -116.88973 171.70895 312
53.49471 -148.62901 163.33066 300
50.02482 -151.58026 166.26741 301
100.73681 -110.35049 171.59677 316
92.02077 -117.75640 171.68117 312
55.12688 -149.08765 163.51241 400
50.90484 -152.62206 166.23108 301
101.35124 -111.14091 171.59476 315
92.71087 -118.56768 171.69983 312
57.31563 -149.03908 163.96628 401
51.80991 -153.72662 166.24060 301
101.96532 -111.93512 171.59346 315
93.37301 -119.44668 171.68872 312
59.49030 -148.92430 164.32907 402
52.74934 -154.80435 166.22269 301
102.61466 -112.69917 171.60400 315
94.02547 -120.26701 171.66698 312
61.60254 -148.84630 164.71925 404
53.60552 -155.91129 166.24176 301
103.22987 -113.51379 171.58620 315
70.50904 -142.65710 163.55057 304
63.65770 -148.80394 165.11888 405
54.52432 -156.96492 166.26102 301
103.85040 -114.27755 171.56302 315
71.25788 -143.76768 163.54251 304
65.72014 -148.68857 165.50775 406
55.40818 -158.00954 166.24680 301
104.48795 -115.05755 171.57062 315
72.00117 -144.78156 163.52588 303
67.74819 -148.63937 165.83459 407
105.13778 -115.82500 171.54587 315
72.70579 -145.82646 163.46542 303
69.76848 -148.56685 166.21022 408
105.77992 -116.58307 171.57500 315
73.44691 -146.86865 163.40810 303
71.07706 -149.13504 166.32368 305
106.44907 -117.32306 171.56679 315
74.21381 -147.92500 163.41655 303
71.96609 -150.07794 166.33498 305
107.12860 -118.08066 171.57082 315
75.62627 -148.31955 163.59366 411
72.82011 -150.99216 166.38039 305
107.78407 -118.83311 171.55635 315
77.53529 -148.25966 163.92102 412
73.70767 -151.94370 166.33052 305
108.42065 -119.55399 171.56625 315
79.37023 -148.22026 164.29393 413
74.63626 -152.85376 166.36238 305
88.22578 -141.15997 163.69745 311
81.20630 -148.09406 164.63667 414
75.55349 -153.80891 166.35043 305
88.95980 -142.03915 163.63315 311
83.03795 -148.08023 164.97710 415
76.46490 -154.71793 166.34032 305
89.75963 -142.95096 163.60133 311
84.84191 -147.98354 165.28299 416
77.34538 -155.59666 166.34747 305
90.50911 -143.88168 163.57516 307
86.58892 -147.92072 165.60887 417
78.27800 -156.51453 166.36810 305
91.28771 -144.78546 163.55223 307
88.32224 -147.84850 165.95470 419
92.03964 -145.72554 163.52042 307
90.05595 -147.80537 166.26804 420
92.83268 -146.61295 163.51108 307
91.34618 -148.15913 166.40660 309
93.58999 -147.53848 163.46594 307
92.24964 -148.96228 166.44662 309
95.12855 -147.60043 163.74628 422
93.14589 -149.78870 166.41847 309
96.75375 -147.52708 164.03503 412
94.02878 -150.58717 166.45535 309
98.45415 -147.34320 164.37535 414
94.90979 -151.42200 166.46387 309
100.18620 -147.20316 164.75096 415
95.80916 -152.17632 166.47083 309
101.84762 -147.02788 165.04628 416
96.68394 -152.97101 166.44679 310
103.48222 -146.87666 165.37126 417
97.58503 -153.76791 166.47792 310
105.14616 -146.69489 165.74109 418
98.46134 -154.54984 166.45862 310
106.70144 -146.52974 166.00726 419
99.37650 -155.33563 166.44743 310
108.30135 -146.39713 166.34041 420
100.30807 -156.09541 166.46829 310
109.48209 -146.74950 166.43523 314
110.34084 -147.46886 166.47214 314
111.16940 -148.17131 166.45337 314
112.03814 -148.85265 166.44264 314
112.93988 -149.57301 166.44110 314
115.27633 -148.34770 167.13451 437
-1204.44397 -1877.91296 -13.46745 389
116.64922 -148.34421 167.35645 438
-1180.73938 -1869.93750 -11.25598 388
-1201.64111 -1898.38721 24.23023 335
117.71785 -148.69179 167.41632 316
117.37342 -149.17578 170.46016 438
-1194.30640 -1912.09497 -54.74430 360
-1156.25879 -1861.59021 -9.26665 389
-1193.97241 -1912.10791 23.86381 267
118.60829 -149.40105 167.44371 316
118.34951 -149.69441 170.55161 312
-1167.67236 -1900.56702 -51.88883 361
-1136.02991 -1857.80457 -8.05419 430
-1206.09399 -1952.97803 20.02102 346
120.11837 -149.08139 167.75533 490
119.21821 -150.37802 170.51985 312
-1137.72180 -1884.51526 -48.81746 416
-1116.84509 -1855.91785 -6.70528 432
120.31507 -150.72530 167.43907 316
-1117.68945 -1880.75708 -47.25469 417
-1099.22668 -1854.52600 -5.73377 420
119.14819 -154.28214 166.48163 314
-1089.49573 -1865.92480 -43.65319 289
-1081.80396 -1854.15369 -5.00187 420
124.26108 -148.87241 168.46715 490
-1064.64917 -1854.48645 -40.87635 395
-1065.36475 -1855.11841 -4.02621 432
-1046.36182 -1851.76453 -39.90847 395
-1049.43115 -1856.51562 -3.18695 432
-1027.83777 -1849.00073 -38.06496 396
-1033.86938 -1858.06494 -2.20542 376
-1009.45966 -1846.50598 -36.86829 397
-1019.21283 -1861.23230 -2.06719 375
-993.35809 -1846.65259 -35.97499 462
-1004.88763 -1864.55396 -1.46442 379
-977.66943 -1846.93762 -34.77661 463
-990.88000 -1868.21033 -1.09516 379
-961.81073 -1847.47571 -34.27876 464
-981.10645 -1877.23486 -1.26077 299
-946.02710 -1848.51453 -33.35748 465
-968.06000 -1882.89417 -0.80934 441
-931.18549 -1849.21301 -32.37335 465
-1054.71997 -2046.47827 -18.83306 381
-932.54266 -1876.70288 -71.45608 456
-916.05554 -1850.96191 -31.79298 475
-962.18982 -1924.64697 -4.35457 486
-917.73737 -1878.87732 -71.14808 466
-901.87091 -1852.61133 -31.02370 476
-948.00739 -1928.21631 -3.83603 486
-949.46332 -1931.17847 33.52272 486
-902.68762 -1880.29895 -70.02023 466
-887.44263 -1855.14612 -30.41842 477
-933.68292 -1931.67224 -3.01047 487
-935.29565 -1933.92480 33.96165 487
-888.34442 -1882.06128 -69.43493 467
-873.39435 -1857.02271 -29.95660 482
-919.51178 -1934.54736 -2.79158 487
-937.71710 -1965.29883 31.70607 311
-873.97766 -1883.84192 -68.43094 468
-859.53412 -1859.89001 -29.40387 482
-905.17444 -1937.91235 -2.43375 488
-948.05609 -2011.20203 27.45971 309
-859.29999 -1885.69421 -67.92117 468
-846.25256 -1862.69067 -28.48846 483
-909.90479 -1973.72791 -5.66468 311
-958.57166 -2057.69287 24.16643 285
-842.21777 -1882.84521 -66.57879 323
-832.47168 -1865.40808 -27.95714 483
-920.52313 -2019.46069 -10.06973 309
-826.53436 -1881.61841 -65.09779 328
-819.31079 -1868.34436 -27.73244 458
-812.10577 -1882.17554 -64.45287 328
-806.34644 -1872.11121 -27.26629 458
-797.83826 -1883.40491 -63.58687 328
-793.40454 -1875.23621 -26.90769 459
-837.70258 -1957.13281 -1.06586 490
-783.06610 -1884.85242 -62.62936 329
-780.16876 -1878.63611 -26.77760 459
-820.34259 -1953.38977 0.56408 436
-769.09741 -1885.57617 -62.15424 329
-767.00745 -1881.93176 -26.10716 459
-807.44067 -1958.52527 0.70242 491
-755.00189 -1886.39417 -61.19152 329
-754.44073 -1885.52698 -25.92893 460
-801.24127 -1976.44653 -0.77779 313
-817.60919 -2007.82837 107.50581 374
-741.12964 -1888.72644 -61.10421 430
-741.34497 -1889.08435 -25.50218 460
-818.45966 -2039.43542 -7.36196 418
-810.43054 -2023.09558 32.16813 424
-810.44727 -2023.36194 69.42335 492
-801.61072 -2005.87866 108.03768 497
-727.99677 -1891.07190 -60.11165 430
-728.20563 -1892.00317 -25.10899 460
-802.65253 -2039.66809 31.40416 323
-789.11365 -2011.95398 107.71861 497
-714.49658 -1893.40210 -59.73252 430
-715.51117 -1895.40112 -24.82761 460
-778.38226 -2021.05322 70.80825 419
-781.10760 -2027.65271 107.19341 369
-701.25055 -1896.11816 -59.50453 431
-702.88831 -1898.96716 -24.53905 461
-688.06378 -1898.27490 -58.61162 431
-689.98004 -1901.84851 -24.15861 461
-769.49225 -2067.33960 180.82472 492
-675.15240 -1900.75037 -58.55065 431
-677.10376 -1905.35754 -24.01737 461
-698.17908 -1948.76428 5.92519 493
-661.90894 -1903.26562 -58.17816 432
-664.56592 -1908.92542 -24.10045 462
-684.72083 -1952.00562 6.52161 494
-649.18048 -1905.62622 -57.52162 432
-652.10590 -1912.02246 -23.34802 462
-676.96356 -1966.05884 5.24256 425
-635.79340 -1908.02002 -57.36337 432
-639.49707 -1915.14832 -23.15769 462
-701.56488 -2053.08911 -3.36046 300
-623.09393 -1909.91150 -56.68258 432
-626.38068 -1918.55103 -23.05696 389
-715.34552 -2117.62524 -9.95924 305
-609.92072 -1912.76636 -56.40260 433
-614.23370 -1922.20715 -23.22210 389
-597.14087 -1915.22839 -55.86082 433
-601.82117 -1926.37756 -22.60474 389
-584.36041 -1917.41028 -55.68462 433
-589.58978 -1929.84973 -22.63768 389
-571.54553 -1920.09570 -55.32819 494
-577.21411 -1933.61963 -22.38023 389
-606.81653 -2004.21313 40.49892 394
-607.23132 -2005.60828 76.16656 496
-559.16260 -1922.65710 -55.07082 494
-564.84998 -1936.91821 -22.46944 389
-599.49274 -2021.75586 110.86411 499
-546.58130 -1925.39880 -54.64046 494
-552.74579 -1940.62158 -22.41463 389
-618.28973 -2104.74609 106.87579 499
-533.73193 -1928.15186 -54.78295 494
-540.31494 -1943.92749 -22.14455 390
-521.16071 -1931.04431 -54.15575 495
-527.68195 -1947.62988 -21.98076 390
-508.89713 -1933.88123 -53.84817 495
-515.56909 -1951.02307 -22.00963 390
-10869.44727 -29200.49219 1777.56604 1000
-10702.32715 -28760.12695 5841.28760 1000
-496.22717 -1936.64050 -53.50394 495
-503.32278 -1954.66565 -21.62997 390
-483.77518 -1939.62000 -53.41452 495
-490.52615 -1958.41516 -21.54832 390
-471.46591 -1941.98743 -53.56789 495
-478.34146 -1962.10303 -21.51465 390
-459.12234 -1944.63293 -53.36325 496
-466.13754 -1965.11035 -21.14974 390
-446.31229 -1947.73254 -52.74084 496
-454.41650 -1970.46594 -21.73550 296
-433.99524 -1950.31091 -52.84900 496
-442.72726 -1975.30701 -21.35372 296
-422.02179 -1953.04321 -52.93834 496
-430.84064 -1980.38635 -21.64175 296
-409.50107 -1955.90735 -52.67167 496
-418.91122 -1985.04749 -21.95295 296
-397.25592 -1958.86243 -52.49128 496
-406.73309 -1987.86035 -21.50024 498
-384.80746 -1961.14490 -52.25457 497
-429.47656 -2104.76367 -35.05204 391
-430.01498 -2106.61377 1.03008 391
-372.71069 -1964.37231 -52.14951 497
-446.44659 -2206.24658 -47.08483 380
-429.12457 -2149.61304 -3.22492 499
-360.88260 -1969.20728 -52.17443 491
-432.82706 -2210.15845 -47.08709 380
-349.40494 -1975.41492 -52.67170 491
-419.79666 -2215.43140 -47.36703 379
-338.39127 -1981.79016 -53.06476 490
-409.16531 -2230.23950 -48.13804 324
-9872.06738 -35501.14453 9491.50684 1000
-327.22025 -1988.23096 -53.66766 490
-315.92111 -1994.57239 -54.14386 490
-304.44507 -2001.05896 -54.15506 489
-292.97253 -2007.49670 -54.90920 436
618.01642 -1338.23254 -36.98241 443
620.02679 -1344.84338 -14.63952 443
622.01752 -1352.27808 7.84611 382
625.10370 -1332.80994 -36.39778 499
627.07941 -1338.61145 -13.86889 498
628.60925 -1343.76331 8.60598 498
630.42035 -1349.50159 31.21635 481
632.75476 -1356.96289 53.81167 410
633.71515 -1331.31628 -36.51755 490
635.59399 -1337.03979 -14.06165 458
637.45721 -1343.10657 8.49518 457
639.52777 -1349.65869 30.69121 405
643.97717 -1335.19116 -38.03989 405
646.97369 -1345.45496 -16.04046 261
14368.49316 -39565.73828 6455.30811 1000
21397.96680 -53939.34766 10767.08496 1000
14662.33398 -27022.51367 -4327.55566 1000
2888.44336 -3237.21777 -191.57538 303
2912.09277 -3224.46460 -192.63681 421
3060.18848 -3401.69238 -141.35963 453
2944.63867 -3223.31274 -194.93959 413
3071.69775 -3373.91016 -141.28909 453
2977.22778 -3222.80054 -196.58299 409
3082.69141 -3345.23169 -139.91528 454
3011.04883 -3221.13110 -198.92125 401
3094.07349 -3317.23633 -138.12077 455
3046.86255 -3221.71802 -201.08151 389
1744.52686 -1981.86279 -213.47397 455
3084.75220 -3224.41260 -204.07333 382
3116.84790 -3259.85791 -136.66666 454
3125.06348 -3230.20728 -206.61497 378
3130.85254 -3235.27466 -136.03067 477
3169.73657 -3239.68335 -210.70372 355
3158.00781 -3225.98926 -136.48041 399
3225.80249 -3259.32812 -216.39653 339
3202.46045 -3234.96631 -140.36552 363
3261.09058 -3257.11401 -144.71272 352
3325.21606 -3284.16333 -149.77901 340
4908.97266 -4897.51660 -1358.28552 1000
3386.32764 -3308.97705 -154.97354 349
3451.68262 -3334.90869 -159.41576 348
3518.86499 -3362.95605 -165.56296 347
2498.19946 -1883.71033 -72.60934 491
2510.33130 -1893.12805 -25.18060 344
358.85077 -111.44968 167.56030 316
359.55173 -110.53114 167.61382 315
360.26486 -109.63470 167.57106 315
360.99103 -108.68787 167.60387 315
361.71204 -107.79920 167.62442 315
362.43777 -106.86430 167.58382 315
363.12106 -105.94533 167.62955 315
363.80377 -105.01528 167.63602 315
364.50467 -104.07835 167.62633 315
365.19019 -103.16839 167.61316 315
365.86243 -102.22906 167.61635 315
366.51968 -101.27714 167.62659 315
367.17221 -100.32523 167.63239 315
368.32709 -99.70565 167.49216 440
369.71887 -99.21561 167.21536 439
371.16281 -98.73045 166.97919 438
379.91666 -104.21002 167.63596 309
372.58011 -98.23360 166.78516 437
380.56390 -103.17822 167.66449 309
373.99908 -97.75459 166.49266 436
381.24756 -102.13001 167.67566 309
375.47876 -97.24737 166.27145 435
381.90137 -101.11291 167.65921 309
376.91492 -96.75153 166.00722 434
382.55103 -100.03671 167.69493 309
378.42740 -96.24125 165.76785 433
383.14465 -98.97385 167.71045 311
379.88635 -95.70164 165.47079 432
383.82706 -97.94326 167.72614 311
3608.74023 -1958.85571 -102.87511 480
381.39386 -95.17184 165.21606 431
384.47000 -96.88412 167.69299 311
382.95557 -94.66879 164.97968 430
385.08334 -95.86555 167.70224 311
384.32239 -94.01714 164.72972 317
385.71548 -94.80088 167.70836 311
384.92258 -92.95940 164.70630 317
386.33377 -93.71768 167.74159 311
385.59973 -91.95919 164.70340 317
387.59686 -93.04047 167.51900 428
386.21503 -90.91299 164.74315 317
389.22409 -92.47844 167.22714 427
386.82410 -89.86472 164.70905 317
390.80667 -91.91577 166.98273 426
387.44965 -88.83833 164.71545 317
392.46320 -91.35218 166.66740 425
401.70276 -96.12106 167.71243 305
4485.50000 -2191.85742 -96.07386 350
388.04449 -87.75966 164.70502 317
394.07382 -90.79536 166.42426 424
402.29922 -94.98447 167.71361 305
4463.52588 -2148.21997 -93.78157 408
388.65451 -86.70903 164.68445 317
395.76285 -90.21495 166.12473 423
402.87350 -93.75827 167.76595 305
4465.26025 -2115.89673 -92.89906 424
389.27332 -85.66264 164.69928 317
397.43277 -89.63215 165.80042 422
403.44107 -92.62201 167.73260 305
4470.39258 -2086.30127 -92.19975 428
4507.60205 -2104.97778 -17.21861 337
389.83752 -84.56612 164.67444 317
399.08331 -89.06458 165.50996 421
404.03735 -91.43802 167.74599 305
4474.99707 -2056.32275 -91.56313 471
390.44980 -83.52877 164.69862 317
400.82574 -88.45051 165.19530 420
404.64471 -90.24020 167.75388 305
4480.66504 -2026.97400 -91.49030 474
391.01959 -82.46632 164.70352 317
402.56534 -87.85749 164.86076 419
405.17123 -89.05562 167.80411 305
4488.24512 -1998.87439 -91.34998 475
368.46918 -70.75056 171.48547 317
403.40997 -86.84321 164.82538 313
405.74014 -87.91705 167.77271 305
4495.33398 -1969.23730 -91.48204 475
368.91959 -69.79862 171.49292 317
403.99695 -85.69455 164.82877 313
406.28909 -86.68883 167.80428 305
4504.29248 -1941.57397 -90.08333 477
369.37979 -68.85811 171.50867 316
404.62088 -84.51460 164.82050 313
407.77896 -85.94450 167.58234 436
4512.85303 -1914.22522 -90.84476 497
4573.20996 -1940.50183 -17.07760 347
4631.02295 -1967.06104 59.76381 346
60136.64453 -26673.42969 3456.56714 1000
369.87775 -67.88444 171.51378 316
405.14145 -83.37989 164.78435 313
409.32074 -85.16019 167.32388 435
4522.80176 -1886.51892 -90.27284 497
4566.99219 -1906.46643 -15.00616 497
4590.78271 -1916.42419 61.74348 347
370.32739 -66.95091 171.53130 316
405.71817 -82.21696 164.80083 313
410.86127 -84.41279 167.07159 434
4533.19434 -1859.33997 -90.89182 498
4574.87109 -1877.99182 -15.34136 497
4572.60791 -1876.46899 61.87920 499
370.75235 -65.99403 171.50711 316
406.25839 -81.02901 164.82423 313
412.46643 -83.65189 166.84030 433
4543.93945 -1832.37830 -90.67465 498
4582.82031 -1849.06787 -15.43231 497
4587.53809 -1851.15674 61.86317 497
371.21271 -65.05896 171.52768 316
406.80518 -79.85195 164.78802 313
414.06894 -82.84999 166.57507 432
4555.04492 -1806.73315 -90.27452 498
4597.69873 -1823.28491 -15.08006 497
4602.54443 -1825.35278 61.68398 497
371.65714 -64.07651 171.51012 316
407.36597 -78.72681 164.81465 312
415.65726 -82.08721 166.26912 431
425.11777 -85.97855 167.80878 301
4568.04346 -1780.26489 -90.64600 497
4612.09863 -1797.91650 -15.23791 497
4616.96436 -1800.02100 61.91066 495
372.08102 -63.13382 171.51665 316
407.93610 -77.55869 164.79849 312
417.31616 -81.30418 166.01065 430
425.68298 -84.67955 167.77530 301
4581.67529 -1754.08521 -91.14477 478
4620.87109 -1769.94800 -15.57816 497
4627.96338 -1772.80225 61.58343 497
372.50525 -62.14471 171.52481 316
408.46750 -76.35937 164.78191 312
418.95724 -80.46711 165.75652 429
426.20337 -83.36427 167.83377 301
4594.97754 -1729.43079 -90.72341 478
4637.23682 -1746.20288 -15.91734 497
4642.06201 -1746.57654 61.29600 496
372.91968 -61.17622 171.51599 316
408.95624 -75.18371 164.77345 312
420.59000 -79.64925 165.47574 428
426.72906 -82.05984 167.79305 301
4610.59814 -1703.84058 -91.96657 476
4651.68506 -1719.62085 -16.21510 496
4656.39404 -1722.07092 61.61432 494
261.81998 -17.74043 203.48892 292
383.89810 -64.23551 171.64742 312
422.26669 -78.84576 165.16484 427
427.20520 -80.73438 167.79462 301
4625.89844 -1678.55969 -91.57842 476
4672.15625 -1695.72961 -16.62635 496
4676.63477 -1698.26147 60.86181 496
4811.82812 -1748.68713 136.47630 371
261.94595 -17.44840 203.50322 314
384.31519 -63.20589 171.66739 312
423.96075 -78.02548 164.89615 426
427.71741 -79.44697 167.81767 301
4641.97803 -1653.70056 -91.82684 441
4686.45312 -1670.53052 -17.53040 496
4692.17383 -1672.56970 61.10736 496
4773.01660 -1702.88660 137.27400 496
262.11288 -17.18550 203.50829 314
384.74796 -62.16051 171.65419 312
424.58188 -76.77320 164.87270 308
428.19006 -78.12301 167.82539 301
4658.85596 -1628.36145 -93.31345 441
4696.21826 -1642.98547 -17.73695 496
4707.90674 -1646.64331 61.09549 495
4788.35938 -1676.53821 137.73944 495
262.27292 -16.90197 203.50226 314
385.19000 -61.12441 171.67877 312
425.06937 -75.51479 164.86238 308
428.69855 -76.78026 167.86647 301
4675.01807 -1603.31018 -92.88547 390
4716.98047 -1618.32947 -17.97527 495
4721.73389 -1620.15625 60.13621 495
4733.69336 -1624.57874 138.77043 276
262.44171 -16.63569 203.50920 314
385.60205 -60.12142 171.67113 312
425.62585 -74.23261 164.83665 308
429.22861 -75.50980 167.85406 424
4692.80469 -1579.91589 -93.94511 384
4821.72461 -1624.25403 137.77330 496
262.59830 -16.34842 203.50948 314
385.99463 -59.08028 171.64020 312
426.11642 -72.94415 164.86249 308
431.02234 -74.61803 167.54869 423
4711.61914 -1554.84473 -94.95151 384
4886.80859 -1614.93201 216.74129 467
262.75443 -16.06869 203.50423 314
386.41922 -58.02092 171.68120 312
426.62253 -71.64222 164.86264 308
432.76053 -73.77037 167.26781 422
4731.32471 -1530.22473 -95.27813 310
4744.00098 -1534.92944 -17.55635 300
262.91876 -15.79870 203.50069 314
386.78409 -56.97879 171.64568 312
427.12564 -70.38079 164.84850 308
434.64105 -72.84037 166.94873 420
4754.63965 -1507.12866 -95.67545 316
263.07251 -15.51873 203.49910 314
387.15121 -55.91480 171.66336 312
427.65067 -69.10410 164.83165 308
436.47150 -71.98635 166.64903 419
263.22278 -15.23344 203.50140 314
387.54370 -54.86808 171.65268 312
428.13953 -67.81891 164.86909 308
438.32831 -71.03207 166.33469 418
5051.72412 -1540.89478 -31.70427 281
263.37177 -14.96415 203.50798 314
387.93802 -53.81688 171.68086 312
428.63333 -66.53053 164.87277 308
440.10727 -70.09097 166.08264 432
450.57657 -73.40009 167.87340 297
4943.47754 -1473.78320 -25.73601 499
4950.58398 -1476.82922 54.71532 338
263.51895 -14.68119 203.50075 314
388.31094 -52.77324 171.68871 312
400.51718 -56.50000 171.81534 309
441.75320 -69.09852 165.80486 431
451.05713 -71.95011 167.86389 297
4800.52295 -1399.17590 -18.55305 432
263.67114 -14.40440 203.50618 314
388.66833 -51.71670 171.66504 312
400.90256 -55.39225 171.81459 309
443.46289 -68.08234 165.49474 430
451.42258 -70.46528 167.86708 297
4814.84326 -1371.81921 -18.23903 432
263.81992 -14.11718 203.50996 314
389.02216 -50.68249 171.66391 313
401.28683 -54.23241 171.81096 309
445.14285 -67.04816 165.20258 429
451.84589 -69.00189 167.88499 297
4827.30908 -1345.80347 -19.37874 432
263.96536 -13.84295 203.50185 314
389.35577 -49.63564 171.70341 313
401.67258 -53.11974 171.79143 309
446.86981 -66.04178 164.93564 303
452.30344 -67.56081 167.89003 297
4840.98828 -1318.26855 -19.30452 469
264.10880 -13.56540 203.49933 314
389.68762 -48.57921 171.68645 313
402.03394 -51.97693 171.79642 309
447.30164 -64.57184 164.96541 303
452.68033 -66.06658 167.95337 297
4856.13672 -1291.81311 -20.43043 469
264.24435 -13.28324 203.50946 314
390.05194 -47.52435 171.68684 313
402.37976 -50.83624 171.82004 309
447.74893 -63.16615 164.95967 303
453.04559 -64.65606 167.91742 297
4877.05664 -1267.39404 -20.55423 359
4977.99512 -1294.16418 55.04248 411
264.38611 -12.99457 203.50958 314
390.36761 -46.42336 171.70059 313
402.69098 -49.72043 171.83017 309
448.20932 -61.78355 164.97659 303
453.47299 -63.18806 167.94392 297
4972.84863 -1260.96399 -25.03856 488
4983.21240 -1264.81421 55.39391 476
264.52063 -12.71096 203.50424 314
390.68341 -45.40220 171.71838 313
403.04724 -48.59409 171.80487 309
448.58081 -60.38622 164.94388 303
454.03262 -61.78539 167.90352 424
264.65649 -12.42428 203.50568 314
391.03711 -44.31397 171.68898 313
403.38934 -47.43642 171.81424 309
449.04437 -58.92927 164.93498 303
455.84500 -60.63416 167.65894 423
264.79800 -12.14551 203.50792 314
268.10989 -12.95716 203.49965 285
403.73685 -46.29060 171.85513 309
449.45026 -57.50497 164.94852 303
457.65851 -59.57186 167.30414 422
264.92508 -11.85996 203.50667 314
268.20856 -12.64279 203.50708 310
404.02032 -45.15541 171.82219 309
449.83170 -56.13889 164.97464 303
459.57486 -58.44032 167.02502 421
265.05893 -11.58569 203.49954 314
268.34406 -12.34988 203.49887 310
404.35297 -44.00146 171.83104 309
450.19080 -54.65178 164.96977 303
461.44260 -57.29739 166.74283 420
265.18817 -11.29375 203.49855 314
268.47424 -12.04525 203.50684 310
404.69031 -42.86319 171.83554 309
450.58264 -53.22100 164.97301 303
463.02835 -56.06572 166.47745 452
265.31219 -11.00395 203.50519 314
268.60339 -11.72987 203.51051 310
404.95264 -41.73608 171.86102 309
419.23233 -44.86742 171.95790 305
464.46268 -54.78075 166.30833 452
265.44150 -10.72288 203.50099 314
268.73553 -11.43350 203.50406 310
405.25195 -40.59104 171.85254 309
419.51257 -43.58407 171.99069 305
465.79691 -53.49759 166.05373 451
265.56396 -10.43615 203.50638 314
268.83884 -11.47919 203.50557 310
405.56958 -39.44106 171.82523 309
419.80313 -42.36738 171.98891 305
467.23792 -52.15441 165.87502 450
265.68384 -10.14956 203.49959 314
268.98813 -10.81772 203.50613 310
405.84940 -38.27349 171.82317 309
420.10345 -41.11301 171.98390 305
468.61563 -50.83109 165.67383 449
265.80615 -9.87269 203.49814 314
269.11520 -10.51494 203.49959 310
406.08682 -37.09880 171.83554 309
420.39236 -39.89236 171.96391 305
470.03970 -49.55430 165.45264 448
479.70407 -51.37252 167.99315 293
265.92514 -9.58459 203.50412 314
269.23471 -10.20522 203.50468 310
406.36746 -36.00108 171.82983 309
420.71683 -38.67870 171.97075 305
471.52417 -48.18525 165.20865 447
479.97714 -49.76149 168.05092 293
266.03528 -9.29019 203.50172 314
269.35501 -9.89252 203.49789 310
121.72595 -22.10160 -28.85702 309
420.94534 -37.43768 172.01530 305
162.89255 -29.56873 -32.94464 300
480.22369 -48.15014 168.02960 293
266.14545 -9.01486 203.50356 314
269.47491 -9.59248 203.49686 310
406.85095 -33.68013 171.83095 309
421.22452 -36.15442 172.01125 305
472.82169 -45.22389 165.05669 300
480.52032 -46.57030 168.03079 293
266.26392 -8.72081 203.50694 314
269.58835 -9.28746 203.50494 310
407.13712 -32.50951 171.86591 309
421.50110 -34.95676 171.97685 305
473.15683 -43.62988 165.08774 300
480.77069 -44.90623 168.08574 293
266.37665 -8.43166 203.51042 314
269.69269 -8.97762 203.50740 310
407.36484 -31.32724 171.84271 309
421.73737 -33.66465 172.03281 305
473.43607 -42.09331 165.06160 300
480.96158 -43.30163 168.04245 293
266.48645 -8.15231 203.50092 314
269.81168 -8.66847 203.50716 310
407.60422 -30.18784 171.84642 309
421.99658 -32.44632 171.99562 305
473.74457 -40.51916 165.09250 300
481.18286 -41.69519 168.11430 293
266.59369 -7.86495 203.50204 314
269.91885 -8.35535 203.49968 310
407.85275 -29.06080 171.85919 309
422.23242 -31.19211 172.02995 305
474.02466 -38.99405 165.07349 300
481.41937 -40.05027 168.08565 293
266.69034 -7.57292 203.49850 314
270.03287 -8.05120 203.50504 310
408.06839 -27.88820 171.85390 309
422.44360 -29.94358 172.02637 305
439.10236 -32.34162 172.17799 301
481.92432 -38.46449 168.07733 441
266.79190 -7.28966 203.50671 314
270.13501 -7.74189 203.50769 310
408.23776 -26.72582 171.89761 309
422.71222 -28.70226 172.01227 305
439.33795 -31.01890 172.16914 301
483.20056 -36.98331 167.92143 460
266.89679 -6.99890 203.49973 314
270.23163 -7.43620 203.50444 310
408.49133 -25.54905 171.86758 309
422.88977 -27.42885 171.98802 305
439.57819 -29.67061 172.14584 301
484.40195 -35.52124 167.71436 459
266.99557 -6.71042 203.50201 314
270.34598 -7.12087 203.50388 310
408.69424 -24.40322 171.86313 309
423.09805 -26.20025 172.01279 305
439.78394 -28.31903 172.18201 301
485.67181 -34.00863 167.55762 458
267.09424 -6.42162 203.50648 314
270.43881 -6.81248 203.50417 310
408.88135 -23.23204 171.85493 309
423.31824 -24.98872 172.00323 305
440.01147 -26.96058 172.18404 301
486.90063 -32.46346 167.33757 458
267.18887 -6.13253 203.51019 314
270.54453 -6.50837 203.50146 310
409.03284 -22.05962 171.87723 309
423.51944 -23.68993 172.02811 305
440.23700 -25.56981 172.18481 301
488.11624 -30.95806 167.20619 457
267.28723 -5.84403 203.49733 314
270.63339 -6.20353 203.50948 310
409.22766 -20.94542 171.88017 309
423.66693 -22.44488 171.99442 305
440.43243 -24.23520 172.15932 301
489.39218 -29.45067 166.99812 456
3896.00586 -390.27237 34.08416 493
3901.06812 -390.92780 94.16437 475
267.37653 -5.55017 203.51024 314
270.72787 -5.89424 203.50233 310
409.37973 -19.77017 171.88591 309
423.89578 -21.20054 172.03479 305
440.62399 -22.86740 172.15294 301
490.65436 -27.91075 166.75369 455
267.47885 -5.26341 203.50606 314
270.81998 -5.58344 203.51035 310
409.53415 -18.60001 171.90331 309
424.05380 -19.94162 172.03592 305
440.74832 -21.49451 172.17694 301
491.88269 -26.26705 166.56969 454
267.55396 -4.97778 203.49866 314
270.91620 -5.27531 203.50859 310
409.71899 -17.45394 171.87143 309
424.22757 -18.69346 172.01878 305
440.92053 -20.13825 172.20581 301
493.13998 -24.75057 166.36664 453
267.64264 -4.69054 203.50098 314
271.00543 -4.96554 203.50415 310
409.86130 -16.29049 171.88307 309
424.35629 -17.46867 172.00006 305
441.11938 -18.82451 172.20160 301
494.43506 -23.12821 166.18735 453
267.72952 -4.40335 203.50049 314
271.08893 -4.65454 203.50182 310
409.99527 -15.12696 171.90588 309
424.48511 -16.18153 172.00162 305
441.28427 -17.43873 172.16672 301
495.73041 -21.57454 165.97263 452
267.81470 -4.10245 203.49963 314
271.17416 -4.33694 203.50713 310
410.13202 -13.93386 171.88641 309
424.66159 -14.95220 172.04172 305
441.37408 -16.10407 172.19437 301
460.97928 -17.42960 172.34998 297
267.90128 -3.82155 203.50806 314
271.25366 -4.02611 203.50847 310
410.29663 -12.78650 171.87949 309
424.80313 -13.69864 172.01862 305
441.51593 -14.73540 172.19090 301
461.18167 -15.98315 172.37379 297
267.97232 -3.53030 203.50331 314
271.33740 -3.72451 203.50702 310
410.44135 -11.60433 171.88431 309
424.92444 -12.47280 172.03963 305
441.66223 -13.35231 172.18129 301
461.30649 -14.49454 172.35043 297
268.05460 -3.24759 203.50761 314
271.41666 -3.41324 203.50284 310
410.51385 -10.47426 171.86789 309
425.02045 -11.15060 172.02710 305
441.81223 -11.99815 172.17827 301
461.43085 -13.04755 172.39513 297
268.12982 -2.95289 203.50484 314
271.49167 -3.10119 203.50085 310
410.61935 -9.28940 171.89363 309
425.12369 -9.93039 172.05692 305
441.93631 -10.69882 172.17720 301
461.51794 -11.55741 172.41216 297
268.20914 -2.66503 203.50517 314
271.56927 -2.78899 203.49933 310
410.72662 -8.12521 171.91089 309
425.24152 -8.68120 172.01340 305
442.00198 -9.31951 172.19264 301
461.63705 -10.02522 172.36572 297
268.28632 -2.37000 203.50003 314
271.64679 -2.47636 203.49785 310
410.81680 -6.93015 171.89890 309
425.33636 -7.40237 172.03377 305
442.13483 -7.97895 172.17848 301
461.75009 -8.54641 172.37436 297
268.35049 -2.08940 203.50758 314
271.70706 -2.16276 203.50215 310
410.91965 -5.77928 171.86833 309
425.43585 -6.15958 172.05888 305
442.22049 -6.59646 172.19879 301
461.86884 -7.11306 172.39087 297
268.42554 -1.79421 203.50580 314
271.77936 -1.86264 203.49876 310
411.02731 -4.64413 171.88753 309
425.51736 -4.88378 172.03067 305
442.32574 -5.23593 172.20528 301
461.92285 -5.65438 172.36153 297
511.36237 -6.56166 168.30786 288
268.49451 -1.50391 203.50468 314
271.84674 -1.54408 203.49799 310
411.06985 -3.45251 171.91460 309
425.61603 -3.63354 172.03244 305
442.41278 -3.87227 172.18398 301
461.99921 -4.14722 172.37466 297
511.44852 -4.80885 168.29779 288
268.55466 -1.22094 203.50606 314
271.91223 -1.23299 203.50395 310
411.15552 -2.28629 171.91541 309
425.68082 -2.41232 172.04994 305
442.45184 -2.54691 172.20737 301
451.60559 -2.60079 174.31824 423
511.37314 -3.02857 168.32091 288
268.61432 -0.92225 203.50563 314
271.97690 -0.92990 203.50635 310
411.22824 -1.14393 171.89427 309
425.70685 -1.12765 172.03235 305
442.50049 -1.18718 172.20082 301
462.14478 -1.19216 172.36821 297
511.45038 -1.22938 168.30890 288
268.68277 -0.63379 203.50523 314
272.04221 -0.61812 203.49860 310
411.28906 0.02022 171.89517 309
425.77075 0.09293 172.03523 305
442.57578 0.18288 172.19580 301
462.19772 0.26458 172.35027 297
511.46500 0.51964 168.30779 288
268.73578 -0.34225 203.50464 314
272.10159 -0.30708 203.50674 310
411.29999 1.22823 171.89702 309
425.82028 1.34476 172.05649 305
442.61728 1.52344 172.17174 301
451.54657 1.62962 174.35838 422
511.58472 2.27909 168.27113 288
268.79105 -0.06140 203.50417 314
272.15472 -0.00702 203.50517 310
411.33505 2.35787 171.89288 309
425.88824 2.58915 172.04381 305
442.62793 2.94377 172.20927 301
462.23206 3.24173 172.35857 297
511.70386 4.08018 168.28334 288
268.85361 0.22603 203.49828 314
272.20926 0.30199 203.50148 310
411.40610 3.53689 171.88762 309
425.92712 3.85420 172.05330 305
442.66455 4.30095 172.20511 301
462.28479 4.72553 172.41591 297
511.78268 5.82846 168.29399 288
3174.01904 68.00240 70.42311 347
3156.01685 67.46564 119.59550 341
268.91190 0.52480 203.50191 314
272.26175 0.62574 203.50894 310
411.43741 4.71311 171.87657 309
425.93246 5.15086 172.04716 305
442.69128 5.60597 172.21037 301
462.30527 6.20960 172.37909 297
3136.17944 85.03775 71.97218 345
3116.64771 84.64198 121.09103 353
268.96304 0.81353 203.50093 314
272.31519 0.92854 203.49777 310
411.44067 5.89267 171.87488 309
425.92328 6.38831 172.04324 305
442.68991 6.99776 172.20303 301
462.33102 7.69326 172.38196 297
3095.94629 101.50884 74.49487 345
3077.08838 101.06439 121.66542 353
269.01859 1.09456 203.49956 314
272.36368 1.23250 203.50568 310
411.48325 7.03879 171.90181 309
425.92737 7.61270 172.04593 305
442.69937 8.35264 172.18613 301
462.32764 9.11221 172.38052 297
3056.66138 117.83395 76.06981 346
3038.78931 117.24172 123.09937 354
269.05954 1.38435 203.49997 314
272.41733 1.54895 203.49741 310
411.46292 8.19059 171.89523 309
425.94400 8.87132 172.04773 305
442.68036 9.69159 172.18478 301
462.29422 10.61514 172.37842 297
3018.22681 133.05447 77.65237 346
3002.05566 132.84026 124.61113 356
269.11108 1.67663 203.50587 314
272.46011 1.85577 203.50537 310
411.47858 9.35882 171.86906 309
425.94507 10.13856 172.04546 305
442.71603 11.02316 172.21370 301
462.28491 12.14095 172.41696 297
2984.32690 148.48787 79.74336 347
2965.71558 147.92809 125.37871 357
269.16415 1.96273 203.50516 314
272.50421 2.16074 203.50818 310
411.46851 10.51304 171.88457 309
425.97333 11.39650 172.04607 305
442.65585 12.41306 172.17120 301
462.24557 13.58250 172.41084 297
2951.09375 163.27927 81.50289 348
2931.00732 162.69798 126.69740 358
269.19672 2.25555 203.49913 314
272.55179 2.46748 203.50490 310
411.43060 11.67049 171.87848 309
425.89041 12.63184 172.00285 305
442.65018 13.72070 172.21835 301
462.23645 15.02367 172.36508 297
2918.52393 178.30460 82.43511 349
2895.70728 176.63101 127.73264 361
269.24374 2.53628 203.50958 314
272.58063 2.78213 203.49834 310
411.41174 12.82569 171.86948 309
425.92514 13.90162 172.05464 305
442.62018 15.11024 172.17664 301
462.19016 16.53544 172.37450 297
2884.30444 192.60742 84.35071 342
2862.18481 190.87602 129.26361 362
269.28482 2.82025 203.50723 314
272.64282 3.08501 203.50368 281
411.39191 13.99840 171.87190 309
425.86719 15.15720 172.04922 305
442.60852 16.45902 172.19493 301
495.89661 20.66260 166.21468 452
2852.63110 206.08430 86.04788 345
2829.44092 204.33025 129.86339 364
269.32007 3.11928 203.50398 314
272.75348 3.40359 203.47456 281
411.37924 15.17138 171.87767 309
425.80774 16.36832 172.00029 305
442.50198 17.80429 172.19547 301
494.68579 22.22921 166.39322 453
2822.53979 220.23587 87.49419 348
2802.56860 218.49731 130.83110 398
2811.40576 219.13887 173.01672 392
269.35605 3.39700 203.50110 314
398.72250 15.16582 171.75589 313
411.33746 16.34612 171.86508 309
425.80130 17.63784 172.00429 305
442.48553 19.19190 172.16251 301
493.39062 23.77193 166.64449 454
2795.52148 233.82779 88.92686 362
2780.93677 232.11185 131.53613 411
2788.86670 233.60258 173.04916 406
269.38910 3.68340 203.50117 314
398.63214 16.23277 171.75534 313
411.26187 17.46667 171.87984 309
425.68564 18.88061 172.00600 305
442.40866 20.48667 172.21638 301
492.14624 25.34960 166.85294 455
2774.80347 247.69386 89.20037 377
2761.77563 246.39925 132.32785 423
2781.69849 248.39749 173.76575 483
269.42249 3.96817 203.50035 314
398.61435 17.33178 171.75212 313
411.21841 18.64772 171.89238 309
425.62448 20.12907 172.03894 305
442.34106 21.88516 172.21100 301
490.84467 26.87856 167.05515 456
2756.36206 261.35303 90.40128 388
2744.78296 260.66397 132.46695 424
2775.78955 263.36026 173.47617 450
269.45685 4.26413 203.50502 314
398.55353 18.43203 171.78229 313
411.15729 19.81103 171.87578 309
425.57315 21.41323 172.04683 305
442.29202 23.22593 172.20174 301
489.66177 28.42249 167.23415 456
2739.55005 275.77802 90.92969 390
2728.36792 274.40848 132.89180 437
2782.84326 280.03372 173.16513 448
269.48486 4.55137 203.50923 314
398.49277 19.50336 171.78922 313
411.11218 20.96411 171.89166 309
425.53296 22.64324 172.00082 305
442.19821 24.57039 172.20880 301
488.40897 29.95409 167.47704 457
2724.20557 289.47104 91.70425 397
2712.68921 287.79431 133.10158 436
2789.31421 296.97293 173.15106 447
269.51797 4.82397 203.50073 314
398.44168 20.56087 171.78569 313
410.99722 22.09652 171.90622 309
425.39349 23.86330 171.99902 305
442.08224 25.90945 172.21539 301
487.23688 31.41889 167.64680 458
2709.29004 302.93811 92.37122 398
2698.66748 302.06808 133.54262 442
2795.31396 313.51428 172.86345 447
269.53970 5.11646 203.50151 314
398.37601 21.65419 171.78311 313
410.93161 23.26797 171.87672 309
425.34250 25.08329 172.01968 305
441.96420 27.25805 172.21471 301
485.99396 32.89369 167.87601 459
2695.24048 316.49518 93.02620 404
2685.67847 315.32300 133.94753 456
2802.13892 330.85199 173.29724 446
269.55984 5.39896 203.50476 314
398.28714 22.69442 171.77789 313
410.86761 24.39840 171.86243 309
425.23001 26.35872 172.02145 305
441.84476 28.57380 172.15883 301
484.78809 34.42096 168.00920 460
2682.05615 330.64386 93.70582 415
2673.85962 329.17563 134.26372 460
2808.88965 347.28616 172.85387 445
269.58603 5.68766 203.50319 314
398.20053 23.82070 171.74925 313
410.76923 25.59274 171.86147 309
425.15210 27.60621 172.00208 305
441.76553 29.94846 172.20695 301
484.20764 35.92019 168.11775 294
2670.35498 344.47366 94.28350 417
2663.11548 343.19693 134.73657 452
2815.92944 364.86569 172.99284 444
269.60855 5.97923 203.50752 314
398.13437 24.88167 171.74075 313
410.66565 26.73559 171.85570 309
424.99625 28.82384 172.01071 305
476.72897 36.45016 165.09367 300
484.13049 37.52619 168.08368 294
2659.04468 358.07504 94.43283 418
2651.11914 356.81464 134.92001 453
2822.40308 381.84833 172.64616 444
269.62613 6.26054 203.50615 314
398.04166 25.94955 171.74158 313
410.54404 27.88665 171.89627 309
424.86725 30.06186 172.02531 305
476.62100 37.99846 165.11850 300
484.05194 39.20006 168.07521 293
2648.42334 371.18735 94.77943 418
2640.08496 369.94284 135.58560 454
2829.20215 399.23615 172.48260 443
269.64032 6.53855 203.50307 314
397.89386 27.03907 171.76326 313
410.40546 29.01109 171.87103 309
424.74506 31.31987 172.03522 305
476.43320 39.57524 165.08328 300
483.97675 40.77975 168.09808 293
2637.72729 385.01862 95.68626 423
2629.10132 383.86862 135.93983 447
2836.14087 416.99203 172.20401 443
269.66705 6.82794 203.50894 314
397.82138 28.10740 171.73814 313
410.32645 30.18897 171.86717 309
424.63840 32.55310 171.98769 305
476.25153 41.14420 165.07819 300
483.86700 42.38307 168.04594 293
2625.77979 398.18143 95.94512 423
2618.43652 397.44623 135.92810 452
2842.73413 434.29788 171.77388 442
269.67856 7.10536 203.50595 314
397.67957 29.15578 171.73825 313
410.20795 31.31452 171.86620 309
424.47189 33.77616 172.03375 305
476.02853 42.64912 165.10555 300
483.70935 43.96872 168.00084 293
2614.45044 411.36151 96.52510 431
2608.58301 410.46228 136.43192 453
2868.10205 455.21255 171.55997 314
269.69080 7.39014 203.50853 314
397.57245 30.20276 171.76949 313
410.04297 32.44439 171.87209 309
424.35886 35.03007 172.02634 305
475.19815 44.13282 165.21266 446
483.55551 45.58307 167.99739 293
2611.19385 426.21561 96.56194 292
2599.48413 424.14670 136.59674 452
269.69623 7.67668 203.50407 314
397.44501 31.31329 171.75105 313
409.90363 33.61933 171.87108 309
424.15332 36.25549 172.03658 305
473.78320 45.43954 165.45837 447
483.39249 47.24118 168.03313 293
2624.61060 443.88660 95.62831 292
2589.66211 437.37994 136.80052 453
269.71005 7.96098 203.49960 314
397.30780 32.34432 171.73239 313
409.78918 34.75871 171.88387 309
424.02826 37.47300 171.98186 305
472.33298 46.77426 165.71895 448
2581.77490 450.94278 136.98863 395
269.71655 8.23475 203.50307 314
397.18387 33.45053 171.74425 313
409.60129 35.91331 171.87276 309
423.80908 38.70266 171.97795 305
470.97021 48.04007 165.96303 449
269.72089 8.51345 203.50293 314
397.00986 34.52726 171.74231 313
409.43256 37.05935 171.87706 309
423.67535 39.92722 172.01384 305
469.56091 49.29649 166.19019 450
269.72125 8.80310 203.49873 314
396.85464 35.58561 171.72780 313
409.27625 38.18021 171.88585 309
423.50122 41.15708 172.01602 305
468.20349 50.60402 166.37563 450
269.71979 9.08350 203.50967 314
396.71713 36.61243 171.72012 313
409.10165 39.30123 171.86720 309
423.26794 42.42152 172.02377 305
466.85724 51.84409 166.63419 451
269.72607 9.35820 203.50603 314
396.51801 37.70979 171.74998 313
408.92667 40.45033 171.87737 309
454.81784 50.71059 164.97118 304
465.53458 53.11469 166.84909 452
269.72388 9.64381 203.50333 314
396.33716 38.73999 171.73268 313
408.72482 41.59397 171.85512 309
454.57053 52.17047 164.95099 304
464.19031 54.34395 167.05827 453
269.71793 9.91350 203.50557 314
396.20285 39.78985 171.75247 313
408.55203 42.74396 171.87830 309
454.34967 53.55003 164.95341 304
462.89420 55.56057 167.22249 454
269.70871 10.20182 203.50650 314
395.98557 40.89911 171.71317 313
408.32196 43.88853 171.83725 309
454.05322 54.93626 164.92374 304
461.29691 56.74417 167.52667 422
269.70605 10.48355 203.50156 314
395.80316 41.89935 171.73503 313
408.11813 44.99224 171.85976 309
453.72501 56.35162 164.96732 304
459.51443 57.85086 167.81435 423
269.69308 10.75431 203.50920 314
395.63269 42.96793 171.70824 313
407.87787 46.12783 171.84137 309
453.49310 57.77309 164.91995 304
458.62296 59.11852 167.92178 298
269.72043 11.03874 203.49004 285
395.38971 44.04467 171.71463 313
407.66812 47.22891 171.83672 309
453.17776 59.21257 164.96468 304
458.39771 60.58891 167.89923 298
384.39209 42.15144 171.60281 317
395.20456 45.07727 171.71135 313
407.46603 48.39030 171.82957 309
452.84381 60.61572 164.96400 304
458.11469 62.01733 167.90901 297
384.17523 43.14330 171.61247 317
394.99454 46.14037 171.72878 313
407.19785 49.50607 171.85486 309
452.53879 61.97830 164.93500 304
457.85275 63.46026 167.91493 297
383.99417 44.14299 171.63802 317
394.76300 47.18689 171.74640 313
406.97903 50.63486 171.84402 309
450.87323 62.97182 165.24550 428
457.58572 64.95636 167.90404 297
383.76352 45.11819 171.61948 317
394.55634 48.23260 171.73489 313
406.72684 51.73775 171.85672 309
449.19666 63.98528 165.56425 429
457.30667 66.35954 167.89771 297
383.54874 46.07994 171.62666 317
394.27365 49.26345 171.71910 313
435.08893 61.34734 164.85065 308
447.50034 64.99155 165.83028 430
457.01184 67.77641 167.88426 297
383.34302 47.04994 171.61168 317
394.06857 50.31358 171.70044 313
434.80502 62.60094 164.87801 308
445.94318 65.99826 166.11191 431
383.08975 48.03520 171.60452 317
393.81186 51.35188 171.72784 313
434.44031 63.93003 164.85522 308
444.31161 66.93524 166.43382 432
382.85645 49.00329 171.59560 317
393.56174 52.37889 171.71758 313
434.13464 65.18162 164.82668 308
442.74652 67.91373 166.69530 433
382.62845 49.98037 171.60944 317
119.65826 38.58619 -31.54726 313
433.77896 66.45892 164.83434 308
441.16095 68.85956 167.00403 434
382.40582 50.96040 171.58084 317
393.01431 54.44218 171.69540 313
433.44461 67.75400 164.86630 308
439.59958 69.81673 167.25696 435
382.15451 51.90697 171.60616 317
392.74384 55.50191 171.69012 313
433.03860 69.05297 164.88016 308
437.89859 70.66129 167.54346 421
381.86456 52.90927 171.58325 316
392.48300 56.50368 171.71196 313
432.65680 70.31375 164.88777 308
436.14319 71.51637 167.82695 422
381.62106 53.85166 171.60422 316
392.17474 57.54547 171.71851 313
432.28122 71.57948 164.87335 308
435.84149 72.81247 167.82440 301
381.36276 54.79334 171.60150 316
391.92355 58.59719 171.68918 313
431.85220 72.85327 164.84767 308
435.48575 74.13910 167.83032 301
381.05273 55.75740 171.56943 316
391.59827 59.63207 171.68440 313
431.10117 73.99087 164.97479 425
435.10220 75.45756 167.80994 301
380.80927 56.73618 171.59392 316
417.11847 70.18102 164.77463 312
429.44247 74.79712 165.29497 426
434.71158 76.71254 167.82240 301
