# .PCD v.7 - Point Cloud Data file format
VERSION .7
FIELDS x y z rgb
SIZE 4 4 4 4
TYPE F F F U
COUNT 1 1 1 1
WIDTH 1405
HEIGHT 1
VIEWPOINT 6532.767578 -4033.404541 145.810867 -0.084474 -0.133360 0.029611 0.987017
POINTS 1405
DATA ascii
2807.54468 426.54230 258.27310 404
2841.45483 432.53824 345.95547 496
269.40091 4.89696 203.49754 314
397.42462 27.01040 171.74229 313
409.91766 29.17854 171.85437 309
424.23846 31.64416 172.00090 305
475.73981 40.55856 165.10443 300
483.31653 41.87669 168.09628 293
2674.97803 420.53256 134.10005 494
269.41565 5.18455 203.50958 314
397.33615 28.11590 171.73936 313
409.77237 30.35584 171.86301 309
424.04810 32.90110 171.98909 305
475.60959 42.11343 165.07779 300
483.14786 43.48743 168.04762 293
2675.41772 436.16168 133.79968 494
2946.09009 483.93048 170.21880 447
269.43329 5.47963 203.50049 314
397.21991 29.20319 171.76213 313
409.66519 31.50105 171.85982 309
423.94141 34.17191 172.03754 305
475.40680 43.69739 165.08086 300
483.01892 45.14146 168.04710 293
2675.41968 451.76364 134.17874 494
2939.44531 500.15063 170.29967 323
269.44696 5.77129 203.50717 314
397.04111 30.27131 171.74605 313
409.54108 32.67608 171.84969 309
423.76730 35.41003 171.98651 305
474.16412 45.08918 165.29465 448
482.86551 46.74649 167.97929 293
2675.46240 467.19525 133.58562 493
2788.38232 488.62314 172.78668 294
2866.47681 503.83713 215.31418 495
269.44916 6.07200 203.50441 314
396.93448 31.37260 171.73781 313
409.37463 33.86012 171.87291 309
423.61386 36.67116 172.00229 305
472.73865 46.36618 165.54393 449
482.72070 48.40429 167.97125 293
2675.39087 483.13614 133.50664 493
2726.58374 493.09799 174.13084 495
2773.48389 502.30856 215.69052 495
269.46011 6.36495 203.49832 314
396.77475 32.47163 171.75316 313
409.19968 34.99374 171.84831 309
423.44098 37.91925 172.01996 305
471.34836 47.74297 165.75073 450
2675.18384 498.54071 133.58311 493
2726.11719 509.17776 174.10994 495
2726.05420 509.08704 215.55956 495
269.46619 6.65270 203.49803 314
396.65659 33.53139 171.72618 313
409.09296 36.17527 171.86769 309
423.29385 39.17514 172.01138 305
469.95416 48.99070 165.97293 450
2674.86914 514.33075 133.92473 492
2925.09131 567.67535 170.75647 378
269.47324 6.94510 203.49803 314
396.47556 34.62867 171.76280 313
408.90225 37.29534 171.87364 309
423.08069 40.38626 171.98528 305
468.54865 50.27074 166.23531 451
2675.48853 530.47455 133.42946 492
2922.91333 583.93890 170.75699 378
269.47156 7.23779 203.49844 314
396.32834 35.71509 171.75426 313
408.70801 38.47205 171.86824 309
422.91946 41.64145 171.96835 305
467.16205 51.56409 166.42532 452
2675.75610 546.67175 133.72105 432
2701.44092 552.09381 174.14229 297
2896.08423 595.59692 215.78940 494
2883.67725 592.90796 260.08820 494
2868.03467 589.02692 304.38635 296
2869.32690 589.58142 349.07874 494
269.46609 7.51809 203.49866 314
396.18164 36.74377 171.74535 313
408.51242 39.60576 171.84604 309
422.67960 42.90871 171.99817 305
465.80093 52.81825 166.67909 453
2676.43677 562.65729 133.15253 431
2694.88818 566.74707 174.55396 412
269.46265 7.81993 203.49962 314
396.00302 37.81765 171.74820 313
408.36969 40.77681 171.83583 309
454.17822 51.60778 164.96867 303
464.52420 54.10898 166.86925 454
2677.08594 578.94617 133.32364 431
2691.44971 581.88110 173.88156 388
2741.86548 594.10590 215.69250 485
269.46713 8.10304 203.50041 314
395.81369 38.93446 171.71902 313
408.17288 41.94414 171.84894 309
453.89877 53.08761 164.97508 303
463.18106 55.32885 167.14594 455
2678.55298 595.33557 133.18730 431
2689.75903 597.87628 174.18123 388
269.45575 8.39128 203.50455 314
395.64655 39.98087 171.74182 313
407.94473 43.10124 171.84886 309
453.59647 54.54200 164.93819 303
461.66208 56.49678 167.35432 423
2679.37280 611.67767 132.74831 430
2687.59741 613.49280 174.45303 388
62355.86719 15525.97266 16243.65527 1000
269.44733 8.68794 203.50250 314
395.40515 41.04392 171.72643 313
407.76465 44.21434 171.84030 309
453.36798 55.96594 164.93834 303
459.83868 57.62540 167.70168 424
2680.50000 627.75470 132.55467 430
2685.62427 629.30676 174.01753 388
269.44012 8.96588 203.50710 314
395.23038 42.12447 171.71483 313
407.51913 45.35528 171.86029 309
453.03818 57.36567 164.95198 303
458.19510 58.75854 167.95467 298
2681.32031 644.23132 132.95575 430
2683.53320 644.64886 174.43817 388
269.43372 9.26234 203.50439 314
395.05078 43.18560 171.72765 313
407.31561 46.53868 171.82228 309
452.73413 58.78969 164.93555 303
457.98288 60.21245 167.96338 297
2684.35840 661.69153 132.51668 329
2681.29224 660.29968 174.39397 460
269.41971 9.54540 203.50906 314
394.83533 44.24907 171.72302 313
407.08011 47.65390 171.81862 309
452.39520 60.21240 164.93591 303
457.68643 61.68635 167.92494 297
2688.66968 679.05310 132.39783 329
2680.30981 676.80780 174.23380 460
269.40082 9.83000 203.50880 314
394.61194 45.32985 171.71953 313
406.81750 48.81499 171.86110 309
452.07498 61.62600 164.94669 303
457.44345 63.16895 167.90382 297
2692.07764 696.07721 131.82843 328
2679.40820 692.89349 173.88794 459
269.38965 10.11934 203.49777 314
394.38385 46.38943 171.74179 313
406.60367 49.94357 171.82399 309
451.13672 62.87085 165.07906 429
457.17969 64.63795 167.89626 297
2696.10229 713.98724 131.72342 328
2678.59839 708.73102 173.72647 459
269.36151 10.40497 203.50058 314
394.13699 47.46227 171.73198 313
406.34970 51.09156 171.83476 309
449.45282 63.90370 165.38643 430
456.89771 66.04908 167.85501 297
2699.92432 731.74670 131.62375 328
2677.40405 724.96722 174.10410 459
269.34177 10.68553 203.50168 314
393.90802 48.51869 171.72012 313
406.05374 52.19353 171.85472 309
447.78622 64.87276 165.69452 431
456.56958 67.55690 167.84248 297
2703.91968 749.45398 131.36189 450
2676.49609 741.64410 174.40521 459
2815.75049 783.63641 215.86276 430
269.32892 10.97365 203.50674 314
393.64212 49.55965 171.72331 313
434.35287 62.19946 164.86876 308
446.10272 65.84309 165.98187 432
456.23770 69.01041 167.86830 297
2704.23608 766.46930 131.31329 450
2675.75488 757.31891 174.27727 458
269.29996 11.25811 203.50777 314
393.40445 50.62595 171.72186 313
434.04684 63.52840 164.87944 308
444.50894 66.86341 166.29971 433
2674.79663 773.81891 173.75708 458
269.27625 11.54795 203.50172 314
393.13074 51.71685 171.72121 312
433.68359 64.84702 164.83096 308
442.87488 67.80683 166.58139 434
2673.87305 790.54919 173.79047 486
269.29999 11.84473 203.48528 288
392.90747 52.73861 171.69896 312
433.32031 66.10392 164.84473 308
441.31244 68.74607 166.85213 435
2673.62329 806.78522 174.02307 485
381.99606 50.22705 171.60529 316
392.60660 53.79295 171.70200 312
432.99640 67.45069 164.87900 308
439.73694 69.72003 167.12459 436
2673.38306 823.81226 174.03900 485
381.73593 51.20795 171.57797 316
392.32220 54.85786 171.67886 312
432.62546 68.74551 164.87843 308
438.01254 70.61682 167.39479 423
2677.14258 841.78229 173.41675 452
381.45160 52.17022 171.59085 316
392.04633 55.90352 171.68954 312
432.19559 70.02316 164.83411 308
436.28510 71.46056 167.71117 424
2682.23315 860.64661 173.46526 451
381.20383 53.16277 171.60173 316
391.78845 56.94609 171.66789 312
431.78937 71.27864 164.87175 308
435.32825 72.52709 167.86438 301
2687.49927 879.66577 173.11865 450
380.93719 54.11715 171.56776 316
391.45081 57.98375 171.66733 312
431.42786 72.55101 164.84293 308
434.98553 73.85524 167.83197 301
2692.88599 898.68713 173.43559 449
380.62177 55.08485 171.60110 316
391.16516 59.00409 171.67526 312
430.96674 73.83894 164.84853 308
434.65656 75.22868 167.83887 301
2698.64868 917.88879 173.23921 317
380.33487 56.05801 171.57600 316
390.84778 60.06993 171.69339 312
429.49225 74.71584 165.09529 427
434.24796 76.52993 167.78091 301
380.05420 57.06938 171.58717 316
416.25586 71.05051 164.79646 312
427.86966 75.56863 165.40845 428
433.88702 77.83963 167.77466 301
379.75449 58.01994 171.59586 316
415.87170 72.24108 164.78470 312
426.24942 76.33122 165.76118 429
433.47382 79.14651 167.81174 301
379.46497 58.96983 171.55434 316
415.42523 73.40601 164.80161 312
424.66718 77.10836 165.99837 430
433.06213 80.50783 167.75763 301
379.16064 59.94734 171.58234 316
415.02869 74.60886 164.77437 312
423.10565 77.89958 166.31720 431
432.66245 81.78706 167.73486 301
378.84402 60.89291 171.54520 316
414.57928 75.73920 164.76508 312
421.53931 78.66512 166.63252 432
378.48938 61.85743 171.56081 316
414.15323 76.92377 164.78328 312
419.94537 79.37560 166.89612 433
378.18860 62.83149 171.55864 316
413.71762 78.11286 164.78140 312
418.45264 80.14732 167.15599 434
377.84213 63.77690 171.52985 316
413.25772 79.26288 164.79073 312
416.94055 80.87777 167.42650 435
377.51175 64.74869 171.56963 316
412.80017 80.44582 164.78151 312
415.44479 81.62587 167.71335 436
377.16858 65.68260 171.53642 316
412.31311 81.58749 164.78618 312
414.62561 82.61433 167.76704 305
376.80640 66.63450 171.52448 316
411.90070 82.77390 164.83113 312
414.20099 83.80096 167.75661 305
399.58951 78.38447 164.67461 317
411.03250 83.73481 164.88579 438
413.74759 84.99066 167.76454 305
399.18436 79.46289 164.68307 317
409.64502 84.46340 165.19145 439
413.30072 86.19474 167.73802 305
398.71500 80.58891 164.71907 317
408.22244 85.15892 165.44020 440
412.86713 87.35744 167.76193 305
398.25070 81.62816 164.72475 317
406.79706 85.81380 165.68190 422
412.43817 88.53688 167.70486 305
397.80493 82.69563 164.70302 317
405.15335 86.35966 166.00232 423
411.96216 89.74931 167.71252 305
397.30762 83.75874 164.72089 317
403.58603 86.93375 166.33377 424
411.48935 90.92673 167.70721 305
396.83102 84.82880 164.69151 317
401.98636 87.49954 166.62625 425
410.99722 92.09113 167.69247 305
396.33066 85.89926 164.72552 317
400.44888 88.03410 166.92426 426
395.80240 86.94498 164.72327 317
398.88321 88.56602 167.23309 427
395.32413 87.99181 164.74590 317
397.38470 89.10313 167.51865 428
394.79462 89.00011 164.73781 317
396.14526 89.73631 167.71065 311
394.27939 90.03703 164.74707 317
395.63425 90.83331 167.72769 311
392.92361 90.65305 165.00278 430
395.14435 91.86615 167.73300 311
391.48218 91.10783 165.27109 431
394.65042 92.92399 167.71710 309
390.02170 91.62664 165.58434 432
394.12213 93.99203 167.68604 309
388.62589 92.13483 165.85454 433
393.63327 95.03451 167.70119 309
387.23676 92.62653 166.11909 434
393.14621 96.13514 167.67604 309
385.84265 93.06947 166.38277 435
392.60309 97.18698 167.65251 309
384.47214 93.57978 166.61908 436
392.04773 98.22082 167.66182 309
383.12247 94.05398 166.92476 437
391.56824 99.28582 167.62755 309
381.74454 94.51345 167.15123 438
380.43481 94.95635 167.38747 439
379.16974 95.46288 167.64670 315
378.59799 96.41158 167.63542 315
378.06534 97.36420 167.62526 315
377.52658 98.32020 167.61752 315
376.98254 99.25801 167.60078 315
376.41592 100.16827 167.61472 315
375.83371 101.12412 167.62576 315
375.30603 102.07533 167.63435 315
374.69431 102.95743 167.62733 315
374.14160 103.92955 167.58582 313
373.53708 104.83754 167.58891 313
372.96249 105.75455 167.56123 313
372.38028 106.67870 167.59677 313
46078.20703 37880.94141 -8599.76562 1000
27448.75391 27780.57617 -2968.62720 1000
1840.60364 1642.28735 216.66054 487
1845.03479 1646.21777 254.52103 488
1848.90503 1650.66931 292.63577 481
27409.62500 27737.50977 4045.82739 1000
1831.79651 1653.46521 216.74359 442
40701.87500 49177.96484 -8163.12451 1000
13820.15234 17370.83984 -4924.92773 1000
3163.54175 4324.20361 473.26877 282
3118.72827 4313.25098 471.85422 428
3101.53931 4345.34912 473.27036 437
3085.35571 4381.09033 472.95761 439
3071.00244 4418.60449 475.24954 439
3058.87280 4457.83545 476.05066 424
3047.67700 4503.92285 477.02792 407
3040.33203 4554.29639 478.91742 398
3040.74268 4618.35596 482.50122 360
3047.46606 4694.99805 485.84042 348
3063.29883 4787.44824 489.65311 339
3077.50879 4878.75537 494.59207 338
3167.82495 4926.32373 507.07108 339
1952.81201 3560.50488 418.06458 496
1779.10181 4659.45117 467.04929 481
1780.28394 4662.52051 548.04388 444
1825.61841 5592.71387 609.81775 376
1778.02087 5551.58057 605.46570 485
1740.28149 5551.12207 605.06274 483
1702.99243 5549.48145 604.50354 468
1665.91711 5551.01611 603.88251 433
1630.52234 5554.12451 603.95984 438
1594.99658 5559.03125 603.66785 410
1560.63269 5563.27588 602.13464 415
1524.62732 5569.60596 603.02460 360
1546.47546 5662.98486 705.33453 329
1490.27051 5578.47607 603.61066 360
1492.23975 5583.02295 697.65314 331
1455.99219 5586.40088 603.67157 361
1457.27844 5591.62646 696.99884 499
1422.22595 5593.89355 603.37555 259
1423.14099 5600.79199 697.40430 499
1388.44165 5610.18164 603.91199 259
1388.90613 5609.59375 697.33179 499
1354.17273 5616.86133 603.53094 259
1353.28601 5614.28125 698.40009 499
1318.62830 5616.65430 602.40601 257
1320.10132 5623.73584 698.21411 499
1284.44922 5625.78662 602.96344 363
1286.36353 5638.28809 698.39331 499
1249.61157 5633.12451 603.65997 363
1252.55957 5647.90234 698.58472 498
1276.86462 5783.36084 808.41913 334
1215.45215 5641.54346 603.96637 363
1217.26013 5658.51904 699.39935 498
1234.86755 5753.14795 804.35999 496
1181.13123 5650.80518 603.54462 363
1183.49524 5667.00830 700.04150 498
1195.04700 5735.79736 801.92914 374
1146.41028 5659.07764 603.25165 355
1160.82898 5748.67871 802.21881 499
1111.39429 5667.86865 604.94391 355
1134.02686 5815.08057 808.17920 373
1045.81897 5971.32715 624.42676 497
977.81116 5738.51074 606.98578 279
938.32806 5711.89404 605.69397 395
903.21405 5720.52686 605.07361 395
7710.76318 66891.26562 -15336.74219 1000
868.56622 5729.69824 606.45673 395
834.14069 5740.83154 606.98541 339
806.81122 5825.31396 612.26776 496
771.62549 5833.86133 612.07776 479
731.45459 5801.14014 706.20605 473
270.36609 2359.98633 143.43015 1000
170.80545 4594.19824 451.68454 481
-98.12035 3755.22852 409.39404 314
-115.88988 3688.57910 405.57455 319
-130.97142 3614.45239 401.89914 321
-146.37102 3542.73193 398.79144 322
-160.69737 3471.65820 394.79797 332
-175.00610 3407.17651 391.69418 343
-177.36658 3433.98706 450.25034 336
-190.04018 3364.31909 389.89990 375
-192.96764 3381.69971 446.10947 372
-208.23071 3334.69360 388.06393 393
-210.48346 3355.69482 445.09607 474
-224.82066 3304.97388 386.50052 405
-230.83499 3346.40161 444.73349 463
-241.48383 3277.78784 385.39096 414
-252.60631 3351.68774 445.29593 463
-258.56744 3253.73584 384.82199 425
-273.82816 3356.68457 445.44971 462
-276.14432 3233.58789 383.89832 433
-296.24487 3361.47144 445.77951 462
-293.24844 3213.59277 382.49530 427
-318.67868 3366.34155 446.45786 461
-310.57669 3193.85571 382.22690 432
-340.53198 3371.21655 446.99777 461
-327.40909 3174.80322 380.48407 429
-362.65775 3376.94287 447.75110 460
-345.04498 3158.31885 380.05121 432
-384.91202 3381.39111 448.83914 460
-361.54932 3142.38965 380.02933 437
-407.90479 3387.40112 448.54916 459
-379.77948 3130.15332 378.85776 411
-434.72495 3411.90137 450.80798 461
-426.88922 3264.09912 386.02600 267
-12380.16309 26865.12109 4172.41504 1000
131.80925 152.10725 166.41873 314
130.87840 151.51956 166.42389 314
129.96939 150.87376 166.41414 314
130.40543 148.24341 167.05400 407
129.70036 147.31380 167.15393 468
128.65245 146.93929 167.02843 445
127.67315 148.39763 169.80588 488
127.28830 147.00375 166.81369 436
126.61640 147.96945 169.78055 437
125.90257 147.12349 166.57130 435
125.19997 148.08099 169.52356 436
124.64018 146.95250 166.38187 314
123.73432 146.29738 166.37540 314
122.86019 145.65207 166.41972 314
120.42777 149.02605 168.62746 491
122.00883 144.94324 166.37912 314
120.68529 144.89157 166.20673 428
115.86366 151.46339 167.41940 312
119.19485 145.06345 165.90359 427
114.92764 150.70280 167.41562 312
117.64330 145.18683 165.61673 426
111.47414 153.31842 166.39030 310
116.14084 145.32750 165.34505 425
110.59171 152.55968 166.36446 310
114.57111 145.49280 165.05302 424
109.67229 151.81453 166.40222 310
112.98613 145.67792 164.72470 423
108.76006 151.03777 166.41043 310
111.39927 145.82637 164.40123 422
107.83865 150.27429 166.41405 310
109.78526 145.96544 164.11597 421
106.99288 149.50175 166.39716 310
108.15382 146.16397 163.80273 420
106.06755 148.70071 166.38622 310
106.53606 146.31114 163.47586 419
105.18639 147.90144 166.38577 310
105.60188 145.58722 163.42960 311
104.27927 147.12407 166.39340 310
104.75629 144.75468 163.43085 311
103.14922 146.63600 166.29170 418
103.91489 143.91299 163.46780 310
101.42117 146.82509 165.97060 417
103.10538 143.04021 163.48294 310
99.66927 147.02600 165.61720 416
91.78986 156.03191 166.38052 304
102.33599 142.15701 163.50238 310
97.88958 147.15045 165.26244 414
90.85542 155.12743 166.37822 305
101.56583 141.26804 163.51808 310
96.12223 147.32820 164.96448 424
89.89622 154.27116 166.35611 305
100.77596 140.37781 163.55850 310
94.42716 147.36850 164.64905 423
88.97694 153.36256 166.36971 305
119.76635 117.88710 171.39413 315
92.69274 147.44960 164.30984 422
88.06062 152.50664 166.34926 305
119.09749 117.17808 171.40688 315
90.91772 147.49725 163.99622 421
87.13671 151.58653 166.32123 305
118.41669 116.44243 171.39944 315
89.14751 147.60313 163.66618 420
86.21370 150.72414 166.31802 305
117.75404 115.68973 171.41345 315
87.42979 147.56970 163.35092 303
85.33898 149.81967 166.32857 305
117.05888 114.98354 171.39949 315
86.63371 146.57962 163.43349 303
84.43530 148.85495 166.35727 305
116.39307 114.25345 171.42448 315
85.88550 145.58244 163.42159 303
83.50354 147.97116 166.29779 305
115.72536 113.51707 171.44772 315
85.09676 144.56534 163.47806 303
81.79517 147.86122 166.06177 416
-2106.01978 2364.16504 273.93900 362
115.09878 112.72960 171.40707 315
84.31705 143.51199 163.53433 303
79.92629 147.95631 165.72388 415
-2112.76953 2341.26733 492.05328 426
114.45675 112.00163 171.44667 315
83.56284 142.47507 163.54974 303
77.96689 148.04576 165.40649 414
113.80112 111.20433 171.45032 315
105.59358 119.26476 171.50894 311
75.98666 148.08054 165.00908 413
67.46764 156.48846 166.24184 300
113.13003 110.46096 171.47250 315
104.88416 118.43378 171.53058 311
74.02499 148.17647 164.64854 412
66.52316 155.42822 166.27184 300
112.50254 109.69545 171.46489 315
104.20690 117.63192 171.54155 311
72.01796 148.25731 164.32782 411
65.61470 154.35550 166.21722 300
111.86568 108.91093 171.47723 315
103.51840 116.77241 171.53703 311
70.00051 148.32367 163.95540 409
64.69394 153.35233 166.27165 301
-1696.21643 1809.05432 218.86220 495
-1694.03467 1807.69641 262.31757 470
-1692.39221 1805.45337 305.61484 424
-1692.12622 1804.99268 349.05136 360
111.24893 108.13522 171.45137 315
102.86417 115.93426 171.54396 311
67.93098 148.40468 163.54147 408
63.70388 152.28040 166.24541 301
110.60906 107.35808 171.45685 315
102.17770 115.12849 171.54820 311
66.15443 148.21274 163.29868 299
62.78507 151.23730 166.24559 301
110.00802 106.58703 171.45456 315
101.52834 114.27605 171.54527 311
65.39601 147.05167 163.35567 299
61.88924 150.19240 166.22763 301
109.40081 105.80067 171.47980 315
100.87904 113.42974 171.57498 311
64.62547 145.84621 163.38333 300
61.01155 149.09477 166.21619 301
108.77180 105.00409 171.47765 315
100.19254 112.61018 171.57315 311
63.91381 144.65335 163.43808 300
59.29885 148.74704 166.00185 404
108.19539 104.19712 171.50008 315
99.57487 111.72242 171.56909 312
89.77773 120.26905 171.65143 308
57.06040 148.84241 165.59354 403
107.57204 103.45024 171.49721 315
98.92838 110.90546 171.56548 312
89.06361 119.36736 171.66640 308
54.80407 148.91641 165.21631 402
106.97820 102.60905 171.51871 315
98.30527 110.01608 171.56555 312
88.41074 118.46407 171.67006 308
52.47947 148.98987 164.81152 401
41.81609 158.14719 166.13666 296
106.39821 101.81861 171.48701 315
97.68310 109.17407 171.56264 312
87.71761 117.53163 171.63899 308
50.18125 149.10303 164.42996 399
40.83733 156.90694 166.09779 296
105.82019 100.98762 171.53310 316
97.00810 108.29082 171.60809 312
87.06923 116.61549 171.65990 308
47.77721 149.16135 163.98920 398
39.93823 155.70200 166.15172 296
105.23978 100.21174 171.50343 316
96.41217 107.41995 171.61198 312
86.39505 115.67485 171.66405 308
45.36271 149.27649 163.57832 397
39.02112 154.49217 166.12022 296
-1263.40857 1221.91089 186.03593 491
-1262.11267 1221.17212 218.02893 499
-1261.25049 1220.45227 249.36253 482
-1261.41626 1220.44287 281.15909 442
-1263.20984 1221.89685 312.90491 311
104.68765 99.37611 171.52554 316
95.77134 106.55859 171.58882 312
85.69291 114.71377 171.69841 308
43.08365 149.20203 163.18224 296
38.08061 153.28020 166.14587 296
-1270.02783 1211.93311 313.06348 341
-1266.78979 1209.37549 344.78745 460
-1264.94397 1207.87378 376.17590 491
-1263.99707 1207.19861 407.83307 499
104.10291 98.56615 171.54396 316
95.16637 105.66794 171.61636 312
85.06347 113.80589 171.70990 308
42.36418 147.89781 163.25307 296
37.20130 152.04852 166.13123 297
103.56121 97.72282 171.52214 316
94.60072 104.81413 171.61896 312
84.41515 112.84451 171.67064 308
72.69363 122.04295 171.80833 304
36.29125 150.83289 166.10486 297
102.99132 96.89961 171.54057 316
93.97640 103.92640 171.60739 312
83.73194 111.85928 171.70369 308
72.01453 121.01155 171.76912 304
35.25652 149.65837 166.04524 393
102.45518 96.08600 171.56615 316
93.37123 103.02290 171.60976 312
83.12797 110.94900 171.71759 308
71.32945 119.99389 171.79358 304
32.60228 149.76572 165.66052 391
101.90086 95.20904 171.52583 316
92.78782 102.15521 171.63260 312
82.49006 109.95889 171.68326 308
70.64811 118.97253 171.83174 304
29.91429 149.87691 165.20689 390
101.33792 94.37291 171.53882 316
92.22874 101.23090 171.62329 312
81.85131 109.02484 171.71880 308
69.96738 117.92517 171.83505 304
27.17316 149.97972 164.71408 389
100.81448 93.54115 171.54880 316
91.65236 100.34949 171.62959 312
81.24255 108.04253 171.73145 308
69.27412 116.84796 171.79456 304
24.43148 150.12660 164.26053 388
11.85174 159.38118 165.90244 290
100.27190 92.70583 171.58446 316
91.09331 99.40579 171.61971 312
80.61457 107.03664 171.74258 308
68.60832 115.80590 171.81694 304
21.60213 150.17371 163.78027 386
10.90183 158.02765 165.84628 291
99.73706 91.87376 171.57553 316
90.48604 98.54407 171.63919 312
80.02352 106.08083 171.70547 308
67.97554 114.79030 171.84653 304
18.71200 150.29219 163.34026 388
9.89951 156.65065 165.84448 291
99.22822 90.98229 171.58429 316
89.93487 97.59270 171.66119 312
79.43137 105.11141 171.75183 308
67.35026 113.72456 171.83189 304
53.29773 123.68616 171.92143 300
8.94047 155.26738 165.83040 291
98.70728 90.16657 171.59888 316
89.40741 96.69598 171.66833 312
78.82632 104.10644 171.73221 308
66.66360 112.65627 171.84669 304
52.60275 122.49605 171.97923 300
8.02670 153.85890 165.86244 291
98.16864 89.27670 171.58585 316
88.83099 95.78135 171.65567 312
78.23952 103.11567 171.72876 308
66.00713 111.57426 171.85927 304
51.89609 121.40455 171.96422 300
7.00887 152.46213 165.87086 291
97.69997 88.40952 171.58308 316
88.31407 94.85607 171.64552 312
77.61166 102.15572 171.72560 308
65.41945 110.51025 171.83514 304
51.22932 120.18950 171.97804 300
6.13680 151.05400 165.87177 291
97.17787 87.54863 171.57036 316
87.76006 93.89738 171.67467 312
77.03918 101.15794 171.75771 308
64.77975 109.41104 171.83200 304
50.55540 119.03480 171.98439 300
3.76013 150.68542 165.49777 382
96.71255 86.70412 171.57065 316
87.20728 93.01283 171.69447 312
76.47903 100.14251 171.74747 308
64.13205 108.37500 171.84625 304
49.88446 117.89387 171.98419 300
0.53727 150.75519 165.06425 381
96.21993 85.81902 171.60728 316
86.70029 92.07040 171.68912 312
75.90777 99.16904 171.75343 308
63.55424 107.30140 171.88765 304
49.20465 116.70865 171.98199 300
-2.67720 150.78859 164.52824 380
95.69868 84.94876 171.61592 316
86.16739 91.13109 171.69330 312
75.33721 98.13690 171.74503 308
62.92973 106.22424 171.84755 304
48.54912 115.51022 171.96263 300
-6.03485 150.87010 163.99142 378
95.23196 84.03603 171.62306 316
85.67205 90.19427 171.68925 312
74.78925 97.13039 171.77142 308
62.30441 105.11144 171.84669 304
47.85840 114.36981 171.96405 300
-9.36077 150.96115 163.46623 377
94.74599 83.19456 171.62592 316
85.17644 89.22731 171.66377 312
74.24504 96.13585 171.76161 308
61.73478 103.99799 171.85977 304
47.22048 113.18869 172.02150 300
30.25385 123.86127 172.10674 296
-25.74335 159.18518 165.36607 286
94.29489 82.28584 171.61349 316
84.63179 88.30462 171.68332 312
73.68771 95.09717 171.80608 308
61.15384 102.93601 171.89798 304
46.62438 111.95486 172.01921 300
29.51336 122.57349 172.13202 296
-26.64277 157.58437 165.39594 286
93.83358 81.38028 171.63805 316
84.12962 87.33618 171.69986 312
73.16328 94.08433 171.79611 308
60.55753 101.80447 171.86725 304
45.98691 110.80294 171.99556 300
28.82751 121.27192 172.13190 296
-27.52918 155.92667 165.38556 286
93.35179 80.50076 171.62424 316
83.65143 86.39627 171.71083 312
72.65539 93.07767 171.79564 308
60.01237 100.71550 171.89703 304
45.31451 109.56753 172.04276 300
28.12815 119.97355 172.16109 296
-28.44893 154.30025 165.33417 286
92.92375 79.62798 171.64293 316
83.16396 85.41049 171.71300 312
72.10980 92.01311 171.76715 308
59.44794 99.58571 171.92741 304
44.74464 108.37916 171.99191 300
27.49137 118.65323 172.13510 296
-29.35094 152.66324 165.40672 287
92.47444 78.72576 171.60773 316
82.70052 84.49093 171.70662 312
71.57855 91.02547 171.79935 308
58.84468 98.49270 171.87758 304
44.13046 107.20268 172.05630 300
26.80104 117.36349 172.14246 296
-31.19654 151.51572 165.17857 369
92.02221 77.81367 171.63573 316
82.19939 83.50959 171.70595 312
71.07396 89.95077 171.82570 308
58.31411 97.40913 171.90411 304
43.49746 105.98525 172.04140 300
26.12752 116.02203 172.17996 296
-35.16152 151.60521 164.57951 368
91.59937 76.91185 171.64420 316
81.76697 82.54301 171.69530 312
70.59415 88.92461 171.79776 308
57.77872 96.26334 171.88658 304
42.89795 104.78165 172.06790 300
25.47677 114.69431 172.20102 296
-39.14624 151.71832 164.02376 367
91.13836 75.99083 171.64038 316
81.30113 81.58978 171.70456 312
70.08135 87.87229 171.83423 308
57.21824 95.15534 171.94098 304
42.30586 103.53869 172.06799 300
24.87378 113.38892 172.18008 296
4.11986 125.11046 172.35999 292
90.74040 75.08994 171.65968 316
80.85167 80.61018 171.74503 312
69.56556 86.88025 171.82845 308
56.68956 94.02662 171.90468 304
41.76450 102.31847 172.04187 300
24.23240 112.03867 172.20280 296
3.35574 123.66573 172.36482 292
90.33731 74.17764 171.63007 316
80.40266 79.61238 171.70538 312
69.09186 85.79408 171.80164 308
56.16643 92.86764 171.90424 304
41.16776 101.08150 172.07584 300
27.00959 108.88869 172.86957 270
2.68847 122.13673 172.38872 292
89.90733 73.26369 171.65207 316
79.93286 78.67614 171.71284 312
68.62231 84.76723 171.81763 308
55.66234 91.77731 171.92297 304
43.17483 98.45763 172.62997 319
36.80718 101.92592 175.02948 318
18.17982 111.99568 175.38211 272
-68.94196 158.95001 164.95497 284
89.49395 72.33302 171.66670 316
79.50877 77.68629 171.75671 312
68.15517 83.72394 171.82039 308
55.11795 90.59796 171.95912 304
45.88235 95.55231 173.40196 320
39.68577 98.86776 175.76738 319
30.45228 103.76528 177.78348 271
11.46109 113.82522 178.51302 271
89.08437 71.44347 171.68106 316
79.07968 76.70040 171.75946 312
67.65414 82.64308 171.85616 308
54.64172 89.50122 171.97266 304
48.50893 92.71166 174.10742 322
42.46872 95.83520 176.46956 321
36.18846 99.17466 179.00108 319
19.65695 107.80607 180.02711 288
88.71705 70.51918 171.68307 316
78.63235 75.70105 171.76891 312
67.19842 81.60975 171.84975 308
56.71865 87.02710 172.57060 325
51.02795 89.91291 174.78850 323
45.14723 92.99795 177.13190 322
39.06631 96.08187 179.60124 320
19.08850 106.42065 179.99498 288
-7.21762 119.93723 180.24855 284
88.29906 69.59344 171.64824 316
78.21730 74.69574 171.74916 312
66.77198 80.51943 171.83521 308
58.97646 84.48370 173.27321 326
53.48552 87.27497 175.41132 324
47.75061 90.17307 177.73178 323
39.77528 94.20563 179.84302 292
18.51477 105.04185 180.02716 288
-7.81363 118.44834 180.25104 284
87.92163 68.63026 171.66632 316
77.80841 73.69982 171.76941 312
66.32716 79.45926 171.84117 308
60.62374 82.28571 173.75864 384
55.85396 84.67673 176.08000 325
50.29800 87.48706 178.38957 324
39.27649 92.99399 179.87209 292
17.91266 103.66437 180.04169 288
-8.49177 116.88173 180.26912 284
87.51416 67.73597 171.65251 316
77.39606 72.70219 171.75568 312
65.88187 78.38985 171.82825 308
61.41626 80.59119 174.07097 385
58.15741 82.19489 176.69780 383
52.74556 84.87734 178.99915 326
38.77394 91.73270 179.87616 292
-2.66305 112.17646 176.78337 290
-9.09404 115.35349 180.24136 284
87.16860 66.77168 171.66339 316
76.97903 71.72583 171.75734 312
65.92030 77.08751 171.97098 375
62.21932 78.86765 174.38327 386
59.00801 80.44868 176.95186 384
55.10228 82.30249 179.55963 327
38.27848 90.50513 179.85925 292
-12.58001 115.16722 175.21255 288
-12.63142 115.19638 179.81059 288
86.76809 65.85927 171.68434 316
76.58416 70.74709 171.76204 312
66.73350 75.45205 172.31462 376
63.03243 77.21539 174.66812 387
59.82879 78.70108 177.25395 385
55.52811 80.75722 179.71298 296
37.75501 89.25915 179.87643 292
5.28747 104.75377 178.27782 283
-17.47815 115.65250 179.21733 345
86.41566 64.91721 171.67749 316
76.19350 69.70343 171.74020 312
67.48530 73.81965 172.58867 377
63.80371 75.55564 174.93542 388
60.61305 77.04350 177.52129 386
55.11934 79.63696 179.72919 296
25.10176 93.75725 177.66267 314
12.86413 99.43778 179.61983 284
-22.01125 115.84220 178.71109 343
86.04964 63.99014 171.69746 316
75.80671 68.69627 171.75580 312
68.26546 72.18121 172.93636 378
64.52374 73.91614 175.21434 389
61.41264 75.38232 177.78416 387
54.65295 78.47208 179.71700 296
27.50844 91.04919 178.19080 331
19.45077 94.76305 180.75508 313
4.01606 101.91521 182.54820 283
85.68823 63.03036 171.68576 316
75.40626 67.69682 171.79271 312
69.05625 70.58443 173.23720 379
65.31107 72.29191 175.52634 390
62.23649 73.73090 178.07545 388
54.23100 77.34038 179.73378 296
29.70468 88.46864 178.71014 332
22.64958 91.72073 181.37218 314
11.63703 96.71259 183.74480 284
-46.12151 123.00839 180.57080 280
85.36965 62.08936 171.71216 316
75.03275 66.71594 171.76164 312
69.80747 69.04988 173.50443 379
66.07799 70.69954 175.79305 377
63.00583 72.09222 178.35341 389
53.83762 76.20325 179.75012 296
31.90036 85.97893 179.15901 333
25.25755 88.95522 181.88507 331
16.90143 92.69078 184.57742 313
2.83192 98.98811 186.78807 283
85.00836 61.13707 171.69092 316
74.70446 65.70256 171.76459 312
70.56265 67.50742 173.80089 380
66.90022 69.12072 176.06578 378
63.79902 70.47065 178.56870 390
53.39618 75.04189 179.72952 296
34.07300 83.57737 179.65836 334
27.53988 86.43731 182.31952 332
20.24454 89.63170 185.09219 314
10.53207 93.92967 187.86751 284
-13.02423 104.27374 189.41556 265
84.68156 60.16833 171.72047 316
74.84471 64.43739 171.92989 384
71.35169 65.96226 174.11000 381
67.65851 67.53716 176.33403 379
64.52451 68.89043 178.83510 391
53.00152 73.88834 179.72891 296
36.13684 81.18686 180.13268 336
29.82131 83.91714 182.77534 333
23.08153 86.83514 185.57396 331
14.48076 90.56805 188.41187 313
1.75608 96.03358 191.06786 283
84.37751 59.22060 171.71796 316
75.54009 62.97058 172.23174 385
72.06445 64.43685 174.39687 382
68.47843 66.01912 176.61949 380
65.27885 67.32856 179.07147 392
43.47551 76.64402 177.93246 372
38.20063 78.88275 180.55650 337
31.97199 81.50095 183.19136 334
25.40214 84.30030 186.02510 332
17.77143 87.53014 188.89688 314
8.46479 91.50732 191.84294 311
-13.56314 100.88594 193.96107 265
84.04076 58.30227 171.72079 316
76.23965 61.53432 172.49408 386
72.80851 62.97374 174.67003 383
69.22971 64.48544 176.90962 381
66.04827 65.78005 179.30562 393
44.46453 74.83759 178.25076 372
39.89289 76.72341 180.93713 370
34.07768 79.18340 183.63274 335
27.70528 81.80963 186.35791 333
20.92859 84.68031 189.31795 331
11.94669 88.36861 192.27019 313
0.77099 93.06192 195.31355 283
83.70535 57.32616 171.68481 316
76.82729 60.17245 172.75499 416
73.50058 61.51810 174.94362 384
69.96693 62.95197 177.14113 382
66.79647 64.29828 179.59412 394
45.31007 73.11074 178.47131 384
40.97990 74.90567 181.21317 371
36.15122 76.83138 184.04080 337
29.89544 79.44814 186.76820 334
23.26967 82.15294 189.65826 332
15.40345 85.34867 192.70177 314
5.88518 89.29504 195.83316 311
-13.92927 97.40406 198.51857 265
83.40184 56.37996 171.69952 316
77.13888 58.90006 172.92532 417
74.22564 60.05600 175.21051 385
70.73071 61.46008 177.42511 383
66.73946 63.07809 179.61830 300
46.16381 71.38459 178.73421 385
41.97216 73.06358 181.48763 372
37.35839 74.94551 184.30812 369
32.06749 77.04728 187.11142 335
25.62821 79.67538 190.00223 333
18.70220 82.46104 193.06219 315
9.53566 86.17167 196.16571 312
-0.43568 90.18097 199.50099 310
83.09661 55.40419 171.69647 316
77.47643 57.60659 173.08725 417
74.62135 58.74154 175.37619 415
71.49267 59.99906 177.68913 384
66.39355 62.00158 179.62581 300
46.94141 69.74951 178.97697 386
42.91999 71.31763 181.69356 384
38.43406 73.08237 184.49968 370
33.69474 74.97830 187.40845 368
27.83625 77.31567 190.37331 334
21.14673 79.92616 193.41644 331
13.01529 83.20591 196.51245 313
3.42131 86.98506 199.85565 311
-14.15545 93.91005 203.06905 265
82.78956 54.42577 171.73387 316
77.79240 56.40419 173.26404 418
74.98830 57.50403 175.53348 416
72.06993 58.63447 177.90843 414
66.05329 60.93567 179.64047 300
47.71977 68.05879 179.17351 387
43.75458 69.60470 181.96706 385
39.51359 71.26021 184.73860 371
34.80951 73.14079 187.63383 369
29.91083 75.00836 190.68163 366
23.48436 77.48719 193.71332 333
16.35120 80.29082 196.87317 315
7.05766 83.91241 200.14340 312
-3.00497 87.84782 203.62097 309
82.48384 53.46162 171.72662 316
78.13138 55.15970 173.44598 419
75.29712 56.22882 175.73679 417
72.42818 57.33658 178.06253 414
65.76794 59.87263 179.62840 300
48.55810 66.47384 179.41089 388
44.59255 67.97660 182.15863 385
40.53963 69.51678 184.97104 372
35.92204 71.26072 187.86044 370
31.08619 73.10143 190.88617 367
25.80379 75.12989 193.99884 334
19.03366 77.70580 197.13101 331
10.60140 80.92855 200.42487 313
0.88993 84.62012 203.91454 311
82.20242 52.48746 171.72368 316
78.44677 53.91931 173.60768 420
75.64539 54.97335 175.88847 417
72.77587 56.06340 178.17346 415
65.43912 58.77979 179.64304 300
49.31044 64.84726 179.63036 389
45.44066 66.31981 182.35158 386
41.42851 67.81398 185.20564 384
36.98366 69.48742 188.06282 371
32.22641 71.25735 191.04356 368
27.22027 73.09376 194.17184 365
21.44010 75.30132 197.36230 332
14.09350 78.08098 200.70158 314
4.62170 81.62371 204.09380 312
81.93829 51.54313 171.72639 316
78.78381 52.71325 173.78107 422
75.95698 53.75043 176.03873 418
73.11047 54.78110 178.35190 416
65.09647 57.74963 179.67920 300
50.08714 63.22834 179.89255 390
46.26422 64.67375 182.59798 387
42.24642 66.13776 185.37868 385
38.08942 67.65578 188.24950 372
33.35099 69.43054 191.24763 369
28.44339 71.20567 194.36388 366
23.30320 73.10582 197.59328 364
16.91172 75.45414 200.88432 331
8.26095 78.65723 204.28743 313
81.73843 50.54520 171.75082 425
79.09820 51.51339 173.95801 423
76.32400 52.51394 176.19450 419
73.46886 53.51004 178.47554 417
64.82434 56.62608 179.68028 300
50.85413 61.65369 180.09927 391
47.04626 63.04131 182.78676 388
43.14374 64.49762 185.56734 386
39.03014 65.93650 188.46532 383
34.45900 67.56042 191.42697 370
29.60449 69.33544 194.51819 367
24.55494 71.15873 197.73213 365
19.20444 73.11603 201.09314 362
11.75476 75.79287 204.49010 314
82.01346 49.36355 171.90596 426
79.36444 50.29182 174.10629 423
76.62206 51.29224 176.33894 420
73.81341 52.27989 178.63997 417
64.48691 55.56398 179.67628 300
51.59689 60.14812 180.30638 391
47.86076 61.46740 182.99146 389
43.92761 62.86452 185.76755 387
39.93235 64.23405 188.62878 384
35.57371 65.80470 191.61290 371
30.82071 67.48472 194.68179 368
25.76263 69.29367 197.85721 366
20.51458 71.12857 201.18616 363
14.76703 73.18198 204.73335 331
82.30467 48.19912 172.08115 426
79.72080 49.11359 174.27080 424
76.95636 50.03055 176.49480 420
73.73159 51.73202 178.93391 418
64.19918 54.48386 179.67850 300
52.35089 58.60751 180.51192 392
48.62370 59.88226 183.15997 390
44.75925 61.20752 185.93227 387
40.75441 62.59665 188.81918 385
36.62132 64.02633 191.76654 382
31.98541 65.68839 194.79498 369
26.98341 67.36292 197.98595 367
21.84192 69.15897 201.31511 364
16.40274 71.09021 204.81516 361
82.59470 47.05178 172.22845 427
80.00051 47.91992 174.42691 425
77.30549 48.85835 176.62894 421
74.52180 49.80040 178.93188 419
56.67846 55.85341 178.14673 396
53.10677 57.08062 180.74211 393
49.40016 58.35326 183.38776 391
45.56770 59.61369 186.12387 388
41.63694 60.95667 188.94716 386
37.54426 62.34121 191.93318 383
33.12297 63.88718 194.99507 370
28.23913 65.53740 198.12646 367
23.07034 67.24957 201.42310 365
17.74548 69.12502 204.88971 362
82.90447 45.89386 172.39734 428
80.30569 46.76716 174.54581 426
77.64134 47.64748 176.81090 422
74.87661 48.56184 179.09227 419
57.16072 54.48845 178.29350 409
53.82369 55.56693 180.90070 394
50.20015 56.79660 183.55205 392
46.41721 58.03484 186.30247 389
42.46993 59.38372 189.15175 387
38.44463 60.69271 192.05325 384
34.19515 62.13897 195.16173 371
29.40230 63.72795 198.24812 368
24.33102 65.37348 201.56903 366
19.08932 67.17616 204.98096 363
83.21227 44.74874 172.51735 428
80.62045 45.56512 174.73772 426
77.98147 46.46904 176.94571 422
75.18166 47.37621 179.20050 420
57.67905 53.05359 178.48744 410
54.35339 54.17885 181.06609 407
50.91945 55.28986 183.73796 393
47.21824 56.47336 186.47906 390
43.29999 57.75106 189.31447 388
39.31959 59.03947 192.24814 385
35.14355 60.40153 195.25191 383
30.58657 61.93282 198.39757 369
25.60922 63.55537 201.65108 367
20.36653 65.21735 205.09029 364
83.48051 43.62899 172.67371 429
80.94723 44.42545 174.83969 427
78.30485 45.27105 177.08589 423
75.52193 46.13971 179.35521 421
58.17951 51.71025 178.63876 411
54.88931 52.76363 181.23087 408
51.52966 53.84555 183.91792 406
47.96684 54.95396 186.61980 391
44.13910 56.16140 189.46527 389
40.18299 57.46568 192.39716 386
36.08292 58.77854 195.39626 383
31.71002 60.18218 198.50204 370
26.78720 61.69790 201.78038 368
21.67218 63.34239 205.12564 365
83.77852 42.49819 172.84015 430
81.23537 43.26532 175.01654 428
78.60165 44.11412 177.23192 424
75.86192 44.95944 179.49652 421
58.62035 50.33427 178.82391 418
55.41562 51.33994 181.38330 409
52.04822 52.39740 184.03516 406
48.58493 53.46384 186.81055 404
45.00069 54.63246 189.63504 389
41.06524 55.81863 192.48997 387
36.99849 57.10110 195.49678 384
32.76309 58.43736 198.62132 382
28.03727 59.94907 201.88817 368
22.93770 61.53792 205.22995 366
16.05732 63.66817 208.69942 260
84.08998 41.34452 173.00810 430
81.54756 42.11992 175.16386 428
78.96044 42.92044 177.33430 424
76.01920 43.81312 179.57091 304
59.04150 49.04381 178.95982 419
55.91676 49.95447 181.52521 410
52.62180 50.99243 184.21353 407
49.17057 52.04008 186.93840 405
45.60509 53.14524 189.72673 402
41.92833 54.23849 192.64731 388
37.86087 55.50385 195.62521 385
33.67007 56.77940 198.76169 383
29.21990 58.15718 201.99634 369
24.17918 59.69217 205.33768 367
18.58140 61.37877 208.79225 332
84.37500 40.25460 173.11476 431
81.86893 40.98946 175.30774 429
79.24875 41.76638 177.49030 425
75.78192 42.84497 179.59523 304
59.46540 47.72895 179.09312 420
56.40520 48.61743 181.70108 417
53.16797 49.59201 184.31389 408
49.72366 50.62759 187.04732 406
46.20764 51.63903 189.88855 403
42.56774 52.75218 192.76117 400
38.72659 53.87616 195.78737 386
34.61763 55.12248 198.83150 383
30.27641 56.40618 202.07988 381
25.44874 57.91320 205.38200 368
19.99924 59.49022 208.84178 333
84.67382 39.13601 173.26778 432
82.14461 39.88301 175.42897 430
79.57864 40.62814 177.63663 426
75.55177 41.80326 179.58105 304
59.86195 46.39297 179.23059 420
56.88210 47.29541 181.84764 418
53.65973 48.19482 184.48201 409
50.32344 49.21519 187.18298 406
46.79415 50.21217 189.96706 404
43.20103 51.28708 192.85446 401
39.45089 52.35085 195.86678 399
35.53162 53.52643 198.97026 384
31.26578 54.77840 202.12834 382
26.63682 56.13781 205.46008 369
21.36070 57.63475 208.92360 337
84.97713 38.07074 173.40953 432
82.46066 38.74604 175.54689 430
79.92997 39.46840 177.75214 426
75.33455 40.81284 179.57739 304
60.28786 45.12120 179.39349 421
57.32606 45.94188 181.95880 419
54.22411 46.85616 184.63170 416
50.86439 47.77057 187.33736 407
47.39029 48.79207 190.12631 405
43.82232 49.79219 192.95332 402
40.09993 50.83632 195.96004 399
36.28826 51.92982 199.03944 397
32.18959 53.12457 202.21838 383
27.84883 54.33905 205.53676 380
22.71291 55.81234 208.97200 338
85.24837 36.95068 173.53879 433
82.78849 37.66602 175.68781 431
80.21980 38.36090 177.87709 427
75.11575 39.79049 179.59036 304
60.72389 43.77704 179.50580 422
57.73793 44.60947 182.08659 420
54.66155 45.46758 184.71690 417
51.38984 46.39824 187.44972 408
47.97169 47.36256 190.21318 405
44.40248 48.33171 193.06430 403
40.73840 49.37941 196.05803 400
36.91332 50.41838 199.13049 398
32.96355 51.52400 202.31366 395
28.80358 52.72382 205.63576 381
24.06440 54.02504 208.99681 368
85.53439 35.86263 173.69727 434
83.05745 36.52826 175.83984 432
80.56702 37.23840 178.03654 428
74.93668 38.76746 179.57190 304
61.12713 42.49994 179.62822 423
58.17588 43.34003 182.20433 420
55.14360 44.16975 184.86798 418
51.98421 44.99567 187.55852 409
48.52772 45.96844 190.32350 406
45.04158 46.90781 193.16136 403
41.35027 47.89345 196.11485 401
37.56925 48.92157 199.22978 398
33.66621 50.00223 202.35408 396
29.59648 51.09154 205.68858 393
25.27531 52.29919 209.06335 368
85.81595 34.79108 173.80260 434
83.38398 35.45357 175.94954 432
80.88672 36.12899 178.12256 430
74.70507 37.77219 179.59178 304
61.55484 41.24805 179.75880 423
58.62546 42.01441 182.35341 421
55.56528 42.83429 184.94107 419
52.46894 43.63683 187.68507 416
49.11499 44.52896 190.42334 407
45.62955 45.47371 193.28192 404
42.00887 46.45896 196.22836 402
38.24378 47.43330 199.25395 399
34.38691 48.48324 202.44835 396
30.33893 49.51735 205.69170 394
26.16125 50.63114 209.07976 391
86.13428 33.71413 173.97435 435
83.67038 34.33282 176.08760 433
81.17804 34.98838 178.23920 431
74.50277 36.72858 179.56476 304
61.97418 39.97054 179.88960 424
59.03208 40.75021 182.48236 422
56.02768 41.51420 185.07047 419
52.92835 42.30502 187.78609 417
49.67610 43.14790 190.57582 407
46.20761 44.06995 193.41423 405
42.60382 44.97909 196.34840 402
38.89513 45.96414 199.38347 400
35.05434 46.95589 202.52666 397
31.05933 47.99686 205.78748 394
26.91058 49.06027 209.13591 392
-188.49426 104.84575 209.14745 294
86.41584 32.64029 174.06268 436
84.00581 33.26210 176.21559 434
81.49722 33.91687 178.39073 431
74.34144 35.72222 179.57527 304
62.39870 38.73780 180.03554 425
59.47781 39.44139 182.60309 422
56.45160 40.24541 185.18498 420
53.38573 40.98035 187.86174 418
50.21547 41.80593 190.64157 415
46.80721 42.68122 193.47675 406
43.25164 43.56475 196.41870 403
39.55886 44.46526 199.42113 400
35.70113 45.45065 202.55237 398
31.79061 46.47007 205.80908 395
27.66591 47.47862 209.19221 392
-186.96281 101.65103 209.21516 485
86.68748 31.59011 174.20840 456
84.27643 32.20673 176.34337 434
81.80991 32.81841 178.50137 432
74.14548 34.66281 179.58488 304
62.80986 37.45018 180.18031 425
59.89473 38.20277 182.70341 423
56.89795 38.90491 185.31880 421
53.86543 39.66821 188.00488 418
50.69543 40.46587 190.73354 416
47.40211 41.26916 193.59860 406
43.85487 42.12793 196.50916 404
40.16207 43.06678 199.49892 401
36.38342 43.94463 202.59563 399
32.47604 44.94873 205.88553 396
28.37047 45.91213 209.23323 393
-187.23332 99.01991 209.13353 484
86.74918 30.58601 174.27649 457
84.51404 31.13911 176.41484 454
82.15229 31.71681 178.62508 433
73.98666 33.67011 179.57491 304
63.19165 36.26384 180.28586 426
60.31999 36.90720 182.82417 424
57.37762 37.62817 185.41930 421
54.30711 38.38058 188.11551 419
51.16398 39.13772 190.84488 416
47.97286 39.87897 193.66991 414
44.43283 40.74248 196.59642 405
40.80312 41.58150 199.56334 402
37.04859 42.47752 202.67395 399
33.14692 43.40346 205.92531 397
29.12872 44.40741 209.23579 394
-187.69711 96.29520 209.12526 485
86.78126 29.59653 174.32454 457
84.60188 30.12914 176.48477 455
82.35983 30.64838 178.71013 453
73.80701 32.62048 179.56609 304
63.62008 35.02198 180.38628 427
60.75698 35.65036 182.91252 424
57.77752 36.36551 185.55235 422
54.77630 37.06914 188.16521 420
51.63445 37.79602 190.93607 417
48.44924 38.51289 193.75372 415
45.06027 39.33324 196.65369 405
41.43287 40.14479 199.65919 403
37.72732 41.04665 202.73248 400
33.82896 41.95393 205.94240 397
29.84556 42.88054 209.27753 395
-188.17896 93.69505 209.11919 485
-190.67513 94.28159 216.33275 295
86.86328 28.62254 174.38202 457
84.66940 29.09043 176.55840 455
82.41357 29.62849 178.76752 453
66.80747 33.16141 178.08853 430
63.99344 33.77271 180.54614 427
61.17781 34.41579 183.04213 425
58.21462 35.10751 185.64670 423
55.21483 35.79594 188.31837 420
52.13600 36.46286 190.99901 418
48.95634 37.21180 193.84146 415
45.66389 37.93458 196.72986 406
42.08035 38.72902 199.73453 403
38.38725 39.57770 202.79756 401
34.53785 40.44993 205.99774 398
30.56032 41.36399 209.32060 395
-183.51576 89.83330 216.37283 296
86.92476 27.61640 174.43129 458
84.73696 28.13016 176.58618 456
82.48115 28.59685 178.79665 453
67.16375 31.97797 178.21626 430
64.43572 32.54838 180.64893 428
61.58931 33.18146 183.15782 426
58.68074 33.85451 185.72554 423
55.69857 34.46608 188.37094 421
52.61710 35.17241 191.13263 418
49.40604 35.85659 193.91527 416
46.19439 36.57714 196.83591 413
42.72338 37.35659 199.77670 404
39.01604 38.16297 202.84555 401
35.23417 38.98560 206.05791 399
31.23633 39.88751 209.34598 396
-182.96442 86.92888 216.32683 438
86.98192 26.65323 174.50069 458
84.79221 27.08966 176.63550 456
82.53910 27.56455 178.85886 454
67.58336 30.76153 178.29672 431
64.83311 31.37408 180.75986 429
61.99541 31.94494 183.28491 426
59.09026 32.59439 185.85222 424
56.13440 33.20665 188.49593 422
53.06761 33.85689 191.18149 419
49.92458 34.56563 193.99396 417
46.69888 35.24886 196.89554 414
43.29644 35.96058 199.86761 405
39.67859 36.74690 202.92549 402
35.85269 37.52256 206.05354 399
31.93321 38.40977 209.34467 397
-183.10634 84.33385 216.33017 439
87.01155 25.64576 174.55156 458
84.84745 26.11106 176.69991 456
82.58463 26.57585 178.92946 454
67.93788 29.58467 178.44098 431
65.20844 30.17244 180.85533 429
62.43405 30.75770 183.39510 427
59.55022 31.35523 185.96239 425
56.57645 31.93158 188.58940 422
53.51262 32.56353 191.27959 420
50.40249 33.24529 194.06720 417
47.18135 33.87930 196.96135 415
43.86489 34.58653 199.90340 412
40.30556 35.32136 202.99245 403
36.56480 36.10644 206.10172 400
32.66212 36.89609 209.39609 397
-183.10217 81.56455 216.28882 424
87.07396 24.66322 174.61278 459
84.91203 25.12375 176.75310 457
82.65022 25.55156 178.96790 454
68.03398 28.51001 178.48364 452
65.51121 28.99082 180.95880 450
62.84298 29.51457 183.45866 428
59.97948 30.09842 186.03877 425
57.00583 30.70001 188.66150 423
53.98706 31.30414 191.35326 420
50.88826 31.92460 194.16122 418
47.70827 32.57969 197.03810 415
44.36827 33.22803 199.99506 413
40.95008 33.94168 203.00114 403
37.20199 34.69568 206.16727 401
33.33989 35.45283 209.41656 398
