# .PCD v.7 - Point Cloud Data file format
VERSION .7
FIELDS x y z rgb
SIZE 4 4 4 4
TYPE F F F U
COUNT 1 1 1 1
WIDTH 1392
HEIGHT 1
VIEWPOINT 6684.966309 -2830.165283 149.086563 -0.824781 -0.084148 -0.108886 0.548451
POINTS 1392
DATA ascii
4471.88965 -1699.18896 70.24903 496
4476.29932 -1700.53687 145.13806 496
373.40771 -61.66806 171.56021 316
409.51620 -75.86872 164.76505 312
420.00723 -79.95810 165.76724 429
427.41797 -82.82269 167.79683 301
4440.04199 -1655.80151 -3.48001 495
4487.29346 -1674.51807 69.67986 496
4490.00635 -1675.73425 144.12407 496
4569.08936 -1706.26709 220.17250 496
4673.82471 -1747.03149 297.50189 264
373.82663 -60.70602 171.56171 316
410.03784 -74.68741 164.78142 312
421.70184 -79.13677 165.46353 428
427.93375 -81.55715 167.78687 301
4454.09814 -1630.96741 -3.45051 495
4501.68115 -1650.39917 69.06643 496
4504.23145 -1651.33020 143.81500 493
4564.27734 -1674.02380 220.17485 496
262.45148 -17.43312 203.48506 292
384.86145 -63.74382 171.64378 312
423.40262 -78.31318 165.18399 427
428.44254 -80.22197 167.81197 301
4469.19092 -1608.06519 -3.43061 494
4610.66699 -1661.01294 219.89203 495
262.56506 -17.13516 203.50548 314
385.27942 -62.70355 171.63512 312
425.09045 -77.50308 164.91423 426
428.92938 -78.88044 167.84573 301
4483.33691 -1582.60022 -3.87301 494
4615.21582 -1631.09570 219.06924 489
4662.11133 -1648.48181 296.93936 472
262.72610 -16.85258 203.49892 314
385.70984 -61.66221 171.64316 312
425.72604 -76.21857 164.87968 308
429.38254 -77.56044 167.84993 301
4497.88818 -1558.07812 -4.13647 494
4681.77832 -1625.10400 219.54292 424
262.88614 -16.57874 203.50572 314
386.12170 -60.63363 171.68112 312
426.22290 -74.99027 164.87405 308
429.90439 -76.24589 167.88222 301
4512.65039 -1533.52869 -4.60433 475
263.04520 -16.29661 203.50670 314
386.49915 -59.57024 171.66112 312
426.75107 -73.65630 164.88422 308
430.34857 -74.95177 167.88275 423
4527.86670 -1509.63281 -4.83240 475
263.20444 -16.00857 203.50890 314
386.91141 -58.54862 171.65952 312
427.19870 -72.40400 164.86783 308
432.16873 -74.04336 167.57693 422
4542.49121 -1485.95605 -5.43408 474
263.35104 -15.72721 203.50502 314
387.29141 -57.47374 171.67545 312
427.73630 -71.10917 164.88258 308
433.94412 -73.17467 167.29523 421
4557.02100 -1460.61328 -5.63920 474
263.50928 -15.44948 203.50273 314
387.66724 -56.43719 171.69598 312
428.24380 -69.79226 164.87903 308
435.80331 -72.32870 166.95871 420
4572.11768 -1436.41174 -6.74645 474
4729.10352 -1487.40271 63.04955 494
263.66553 -15.16366 203.49860 314
388.08157 -55.38343 171.69360 312
428.70969 -68.52840 164.88812 308
437.67178 -71.39127 166.68289 419
4588.28516 -1411.30725 -6.77740 474
4886.98828 -1507.93787 59.20399 478
263.80988 -14.88199 203.50710 314
388.44040 -54.33407 171.69238 312
429.15173 -67.22793 164.82806 308
439.45901 -70.49184 166.37315 433
4602.91113 -1386.72278 -7.32174 473
263.96304 -14.59023 203.50043 314
388.81079 -53.28030 171.71317 312
429.64069 -65.90755 164.85011 308
441.11328 -69.45379 166.08997 432
451.85394 -72.77222 167.85300 297
4618.15430 -1362.52136 -7.98403 473
4655.94678 -1373.76685 66.79243 479
264.10327 -14.31219 203.50334 314
389.14774 -52.20393 171.68040 312
401.49829 -55.92677 171.79793 308
442.82828 -68.48518 165.81921 431
452.23148 -71.27091 167.86093 297
4632.98779 -1336.98315 -8.40302 438
4749.15088 -1371.19629 63.31297 358
264.24530 -14.02360 203.50348 314
389.51373 -51.15289 171.71475 312
401.85336 -54.77841 171.83803 308
444.49658 -67.44985 165.52800 430
452.63736 -69.82434 167.85440 297
4648.70361 -1311.91919 -7.99649 442
4749.87500 -1341.78809 64.74873 498
264.38226 -13.73118 203.50613 314
389.85834 -50.09859 171.71176 312
402.23627 -53.65390 171.80840 308
446.24173 -66.43784 165.26758 429
453.06158 -68.41427 167.88483 297
4776.13672 -1318.71069 -13.85671 471
4755.33594 -1313.63123 64.34991 498
264.52261 -13.44565 203.50490 314
390.21378 -49.01892 171.70877 312
402.59689 -52.51174 171.83862 308
447.96552 -65.38062 164.96581 303
453.50677 -66.89951 167.90900 297
4793.15186 -1293.58118 -14.56558 317
4727.96777 -1275.70020 65.43795 479
264.66595 -13.16123 203.50395 314
390.54178 -47.95974 171.72542 312
402.89932 -51.37502 171.81490 308
448.39133 -63.91793 164.97600 303
453.86383 -65.45786 167.91594 297
264.80444 -12.87829 203.49889 314
390.86902 -46.90326 171.68198 312
403.25684 -50.20522 171.85364 308
448.83905 -62.55320 164.95090 303
454.19034 -63.99684 167.92957 297
264.93634 -12.58894 203.50723 314
391.22238 -45.82263 171.69060 312
403.59180 -49.09172 171.83507 308
449.24136 -61.08752 164.97249 303
454.59042 -62.51797 167.98145 297
265.07187 -12.30270 203.50883 314
391.49457 -44.75101 171.71483 312
403.95749 -47.96686 171.85466 308
449.65015 -59.64825 164.97343 303
455.11746 -61.06129 167.91080 424
265.19391 -12.01437 203.49974 314
391.80316 -43.68242 171.69014 312
404.24597 -46.78628 171.83688 308
450.08112 -58.26246 164.95822 303
456.96661 -59.96592 167.60245 423
265.32864 -11.71974 203.50310 314
392.14655 -42.61263 171.70990 312
404.58276 -45.65030 171.86371 308
450.46414 -56.82417 164.96510 303
458.84592 -58.87366 167.32408 422
265.45889 -11.42875 203.50314 314
268.78262 -12.22276 203.50058 285
404.88483 -44.48758 171.86745 308
450.83350 -55.39800 164.94055 303
460.72998 -57.71834 167.05829 421
265.58429 -11.14983 203.49759 314
268.90390 -11.91493 203.50288 310
405.18204 -43.35851 171.87201 308
451.23077 -53.98101 164.98798 303
462.50674 -56.55496 166.72124 453
265.70813 -10.84971 203.49930 314
269.03046 -11.59642 203.51067 310
405.53293 -42.19852 171.83061 308
451.58694 -52.56893 164.96849 303
463.85559 -55.30600 166.57137 452
265.83337 -10.56215 203.50082 314
269.15170 -11.28796 203.49803 310
405.78534 -41.04514 171.85841 309
420.10455 -44.16750 171.99673 305
465.30566 -53.99212 166.36710 451
265.94507 -10.26988 203.50574 314
269.27921 -10.98372 203.49876 310
406.10394 -39.88368 171.87225 309
420.41516 -42.94089 172.01999 305
466.67471 -52.72527 166.09773 450
266.05939 -9.98142 203.49994 314
269.40683 -10.66210 203.49881 310
406.32904 -38.74940 171.86501 309
420.69485 -41.68665 172.00995 305
468.09616 -51.39172 165.89679 450
266.17535 -9.69468 203.50423 314
269.51871 -10.36074 203.50749 310
406.61630 -37.58086 171.83672 309
420.97842 -40.44728 172.00545 305
469.48434 -50.05017 165.73567 449
266.29962 -9.39579 203.50555 314
269.63867 -10.04445 203.49879 310
406.91132 -36.42828 171.83586 309
421.26312 -39.18326 172.00574 305
470.88654 -48.72459 165.50186 448
480.85382 -50.60442 167.97429 293
266.40662 -9.10692 203.49815 314
269.74847 -9.72835 203.50529 310
407.15762 -35.25972 171.84294 309
421.53891 -37.94676 172.00140 305
472.34769 -47.37615 165.28238 447
481.08441 -49.00299 168.03458 293
266.51910 -8.81363 203.49753 314
269.86807 -9.41441 203.51080 310
407.40952 -34.10321 171.85321 309
421.81464 -36.70714 172.00049 305
473.48737 -45.99013 165.11046 300
481.33090 -47.36279 168.04076 293
266.63284 -8.52851 203.50285 314
269.97964 -9.10658 203.49965 310
407.62793 -32.97313 171.89224 309
422.10425 -35.44859 171.98497 305
473.83130 -44.42226 165.12639 300
481.61295 -45.77106 168.07425 293
266.72864 -8.23622 203.49777 314
270.08539 -8.78896 203.50035 310
407.88562 -31.78420 171.84518 309
422.32242 -34.20945 171.98524 305
474.14975 -42.87021 165.10793 300
481.82486 -44.08995 168.06209 293
266.84351 -7.94702 203.50706 314
270.19907 -8.47451 203.49783 310
408.11633 -30.65639 171.88855 309
422.54572 -32.92215 172.00035 305
474.38177 -41.27204 165.10843 300
482.06384 -42.52765 168.07121 293
266.95258 -7.64695 203.50012 314
270.29935 -8.16851 203.50273 310
408.34357 -29.45755 171.89301 309
422.81937 -31.70942 172.03108 305
474.66174 -39.69483 165.09840 300
482.28204 -40.84037 168.11679 293
267.04370 -7.35490 203.50571 314
270.40482 -7.85532 203.50179 310
408.53757 -28.31690 171.86160 309
423.01312 -30.42698 171.99368 305
474.98834 -38.13889 165.09367 300
482.49985 -39.27480 168.13132 293
267.15012 -7.05777 203.50972 314
270.51132 -7.54065 203.50655 310
408.77905 -27.12760 171.90034 309
423.27203 -29.18421 172.01323 305
439.97855 -31.58224 172.16710 301
482.71838 -37.60721 168.08975 460
267.24536 -6.76593 203.50995 314
270.62006 -7.22059 203.50346 310
408.96008 -25.95618 171.87457 309
423.50009 -27.92807 172.02621 305
440.21387 -30.18061 172.16405 301
483.90897 -36.08495 167.96178 460
267.34564 -6.47259 203.50237 314
270.71152 -6.91754 203.50314 310
409.18604 -24.80172 171.88972 309
423.67548 -26.67926 172.03232 305
440.41843 -28.81216 172.15654 301
485.17297 -34.62506 167.73787 459
267.43677 -6.17864 203.50282 314
270.80569 -6.59037 203.50826 310
409.35400 -23.62604 171.86945 309
423.88684 -25.45448 172.00955 305
440.64624 -27.51743 172.15909 301
486.38107 -33.15380 167.59404 458
267.53745 -5.88497 203.50383 314
270.90549 -6.28150 203.50157 310
409.52780 -22.47630 171.87431 309
424.06012 -24.16834 172.01085 305
440.81369 -26.15638 172.17262 301
487.62775 -31.62770 167.36942 457
3686.72217 -404.86682 45.34610 499
3693.13086 -404.78973 102.22366 493
267.62231 -5.59657 203.49876 314
271.00546 -5.96495 203.51015 310
409.74524 -21.31544 171.88899 309
424.26660 -22.91315 172.00336 305
441.01797 -24.75521 172.16791 301
488.84476 -30.08021 167.21838 456
267.70981 -5.30399 203.50134 314
271.08203 -5.65448 203.50471 310
409.90826 -20.15375 171.90724 309
424.42285 -21.63509 171.99728 305
441.22217 -23.44057 172.20882 301
490.12808 -28.48182 167.04657 456
267.79672 -5.01265 203.50928 314
271.17285 -5.33665 203.49803 310
410.04279 -19.00601 171.90901 309
424.59937 -20.41910 172.04253 305
441.39780 -22.03298 172.21510 301
491.35086 -26.94932 166.83536 455
267.88126 -4.71537 203.50745 314
271.26520 -5.02692 203.49937 310
410.21964 -17.79776 171.86070 309
424.75943 -19.12599 172.00600 305
441.55884 -20.66465 172.16527 301
492.66260 -25.39809 166.66756 454
267.97626 -4.42081 203.50896 314
271.35626 -4.70811 203.50648 310
410.38995 -16.63443 171.89091 309
424.91879 -17.90663 172.01567 305
441.76172 -19.31728 172.21246 301
493.93869 -23.76568 166.43933 453
268.05145 -4.12991 203.50012 314
271.43967 -4.39686 203.50986 310
410.52850 -15.47965 171.86646 309
425.04349 -16.60303 172.01743 305
441.85754 -17.96720 172.21289 301
495.25879 -22.23848 166.21423 452
268.13919 -3.82932 203.49861 314
271.51083 -4.08242 203.50929 310
410.62857 -14.31950 171.91429 309
425.21408 -15.38979 172.05835 305
442.01825 -16.58472 172.19315 301
496.56268 -20.60702 166.01955 451
268.21442 -3.53470 203.49832 314
271.59048 -3.76132 203.50038 310
410.75208 -13.16186 171.90508 309
425.32401 -14.09472 172.02795 305
442.14539 -15.23565 172.19368 301
461.81314 -16.56499 172.38651 297
268.29233 -3.24764 203.49738 314
271.67004 -3.44846 203.50819 310
410.87927 -11.95738 171.86700 309
425.44705 -12.83358 172.03618 305
442.26724 -13.85759 172.20428 301
461.98026 -15.04756 172.40472 297
12241.13672 -727.93481 3025.50562 1000
268.36368 -2.94531 203.51001 314
271.74866 -3.12672 203.49919 310
411.01205 -10.79090 171.91133 309
425.56168 -11.61697 172.01015 305
442.39261 -12.51667 172.18884 301
462.08636 -13.57717 172.39851 297
268.43335 -2.64931 203.51012 314
271.82303 -2.81541 203.50299 310
411.14963 -9.62095 171.90837 309
425.68344 -10.33255 172.02359 305
442.54068 -11.14953 172.20338 301
462.20990 -12.09641 172.35896 297
268.50970 -2.36051 203.49756 314
271.88770 -2.50522 203.50293 310
411.22217 -8.47353 171.90906 309
425.77792 -9.04509 172.04297 305
442.63498 -9.77411 172.21225 301
462.31473 -10.63638 172.40250 297
268.57199 -2.06238 203.49818 314
271.96204 -2.19122 203.50354 310
411.31683 -7.29929 171.90286 309
425.87393 -7.79457 172.03931 305
442.73557 -8.43360 172.20677 301
462.47083 -9.13789 172.38130 297
268.64178 -1.76299 203.49883 314
272.03021 -1.86573 203.50020 310
411.41403 -6.15346 171.91977 309
425.97345 -6.55037 172.03838 305
442.83649 -7.04741 172.19235 301
462.51947 -7.62404 172.41133 297
268.70862 -1.47189 203.50119 314
272.09796 -1.55093 203.51015 310
411.47577 -4.94741 171.87263 309
426.05264 -5.29143 172.01378 305
442.91119 -5.69758 172.21991 301
462.61282 -6.14267 172.37276 297
21003.65039 -498.34845 897.35492 1000
268.77615 -1.18933 203.50722 314
272.15851 -1.23429 203.49852 310
411.57111 -3.77740 171.87903 309
426.14517 -4.03050 172.02003 305
442.99420 -4.36489 172.21187 301
462.68356 -4.71992 172.42395 297
268.84042 -0.88387 203.50999 314
272.22418 -0.93050 203.50240 310
411.64249 -2.61268 171.91611 309
426.17499 -2.76472 172.06792 305
443.03036 -2.95189 172.23190 301
452.09039 -3.05154 174.35069 422
512.35040 -3.76818 168.31349 288
268.89810 -0.60032 203.49889 314
272.28369 -0.60712 203.50012 310
411.66141 -1.42000 171.91080 309
426.27325 -1.51787 172.03882 305
443.08035 -1.58712 172.17738 301
452.28815 -1.64476 174.31126 425
512.37555 -2.05577 168.31049 288
268.95825 -0.30491 203.49730 314
272.33954 -0.29582 203.50482 310
411.73386 -0.29475 171.88263 309
426.32224 -0.25563 172.02702 305
443.15952 -0.22360 172.23351 301
462.86807 -0.26755 172.38148 297
512.34363 -0.24340 168.28748 288
269.01187 0.00121 203.50192 314
272.39130 0.01470 203.50327 310
411.78900 0.87002 171.87367 309
426.35538 0.98463 172.01413 305
443.19196 1.10432 172.18947 301
451.88669 1.15225 174.37070 425
512.43445 1.57604 168.29716 288
269.06628 0.28458 203.49889 314
272.44531 0.32977 203.49951 310
411.84061 2.05245 171.87050 309
426.37277 2.24907 172.06729 305
443.23428 2.44630 172.19615 301
462.94366 2.73017 172.37785 297
512.57166 3.38487 168.30928 288
269.12692 0.58601 203.50395 314
272.50275 0.65038 203.49802 310
411.88251 3.25002 171.87839 309
426.44214 3.51763 172.02676 305
443.23486 3.86463 172.19653 301
462.94803 4.18892 172.41562 297
2988.31055 51.91245 34.80978 347
2959.01489 51.26320 81.54231 355
269.17001 0.87715 203.49893 314
272.55380 0.96607 203.50774 310
411.89255 4.39722 171.90710 309
426.43878 4.76663 172.04872 305
443.24533 5.20176 172.22894 301
462.97580 5.67247 172.40962 297
2951.96313 67.81419 37.08745 348
2923.64990 66.99760 83.34524 357
269.22409 1.16522 203.49762 314
272.59894 1.27035 203.50545 310
411.91891 5.59586 171.89619 309
426.47418 6.01003 172.02715 305
443.26453 6.54051 172.19000 301
462.93771 7.17314 172.37167 297
2915.38818 83.20203 39.49117 349
2888.59692 82.40707 85.34823 358
269.26447 1.46597 203.49893 314
272.64297 1.58834 203.50491 310
411.93076 6.76002 171.87370 309
426.50320 7.29945 172.04807 305
443.30652 7.90809 172.18788 301
462.93741 8.63684 172.38640 297
2879.07812 98.59959 41.56406 348
2854.48462 98.02597 86.53515 359
269.31738 1.76145 203.50130 314
272.69589 1.89908 203.50342 310
411.95108 7.92866 171.87938 309
426.45807 8.58036 172.02657 305
443.32483 9.28788 172.20691 301
462.98523 10.15925 172.41966 297
2845.99976 113.62681 44.20705 346
2821.72070 112.31587 88.21624 361
269.35876 2.05026 203.50528 314
272.72946 2.21568 203.49713 310
411.90768 9.08517 171.87155 309
426.48102 9.79806 172.01604 305
443.27042 10.65174 172.18379 301
462.94214 11.59657 172.42203 297
2813.79834 128.11737 46.47128 348
2789.40137 127.14331 90.02039 362
269.40601 2.34545 203.50420 314
272.85001 2.53752 203.48119 281
411.93881 10.25191 171.89178 309
426.43518 11.06889 172.05722 305
443.24173 12.02759 172.18614 301
462.86978 13.07755 172.42157 297
2782.89966 142.41251 47.85480 349
2757.41602 141.01823 91.58091 364
269.45013 2.63747 203.50932 314
399.21881 10.63595 171.78185 313
411.90280 11.38646 171.91885 309
426.45425 12.33614 172.01825 305
443.24802 13.35933 172.22243 301
462.87289 14.55201 172.37630 297
2752.07959 156.06442 50.25414 350
2727.25879 154.72977 93.01521 365
269.48666 2.92775 203.49982 314
399.20609 11.73228 171.79343 313
411.85892 12.57387 171.89322 309
426.37921 13.55723 172.06450 305
443.20816 14.68416 172.21617 301
462.81073 16.02589 172.37923 297
2722.90723 169.70680 52.19952 351
2697.13208 168.04771 94.23994 366
269.51889 3.22238 203.50963 314
399.16418 12.79101 171.78737 313
411.85315 13.74470 171.89218 309
426.34747 14.83295 172.04720 305
443.13254 16.10571 172.18188 301
496.47470 20.01658 166.24403 452
2692.28101 183.08318 53.84050 344
2667.25342 181.01495 95.70541 367
269.55911 3.51142 203.50458 314
399.11429 13.89753 171.78670 313
411.82968 14.88827 171.90553 309
426.29797 16.05994 172.03406 305
443.06171 17.42087 172.21707 301
495.15875 21.57415 166.49458 452
2662.21973 195.63074 55.94889 346
2638.69678 193.59163 97.30740 369
2650.95459 194.67953 136.51672 317
269.59015 3.79870 203.50468 314
399.09744 14.98080 171.77948 313
411.73929 16.06720 171.91585 309
426.27676 17.32146 172.05737 305
442.99951 18.77351 172.22188 301
493.89948 23.16075 166.70518 453
2635.06543 208.49222 57.18825 347
2611.97095 206.46576 98.28018 381
2623.99927 207.44554 137.25613 373
269.62137 4.09337 203.50043 314
399.04501 16.09623 171.75386 313
411.74161 17.26225 171.88414 309
426.21103 18.58419 172.05313 305
442.99139 20.16514 172.18500 301
492.63141 24.70467 166.87744 454
2608.12720 220.72466 58.99754 358
2590.91040 219.42876 98.93546 403
2601.11279 220.66396 137.76065 405
269.65329 4.39056 203.49791 314
398.99429 17.16045 171.76424 313
411.66779 18.42034 171.88322 309
426.15756 19.81525 172.03384 305
442.90939 21.50686 172.17764 301
491.33093 26.28443 167.10123 455
2586.29614 233.84415 60.18919 375
2572.97070 231.88229 100.29505 416
2582.11841 233.20386 138.34177 482
269.68073 4.67490 203.50677 314
398.97546 18.22236 171.75298 313
411.60095 19.57475 171.88376 309
426.10123 21.11127 172.04721 305
442.77844 22.84910 172.20406 301
490.12357 27.79015 167.28203 456
2568.47803 246.08273 61.51577 385
2556.68872 245.21336 100.62019 430
2577.48828 247.29266 138.90862 485
36.84343 4.09091 -9.93913 314
398.91513 19.32492 171.78355 313
411.52933 20.72055 171.90468 309
426.01602 22.32918 172.05089 305
442.70990 24.19513 172.21217 301
488.93600 29.34510 167.49776 457
2551.87329 258.92169 62.48032 389
2542.00610 257.78506 101.41476 430
2571.65649 261.68460 138.92319 450
269.72626 5.26316 203.50743 314
398.80405 20.40686 171.75125 313
411.44492 21.91781 171.86549 309
425.91757 23.57891 172.00290 305
442.60300 25.53192 172.17839 301
487.68924 30.80356 167.71373 457
2536.84814 271.41241 63.55261 391
2527.21729 271.02481 101.76522 441
2579.06982 276.63745 138.70660 447
269.74661 5.55126 203.50761 314
398.74258 21.48668 171.75821 313
411.35507 23.02910 171.90083 309
425.81790 24.84889 172.00340 305
442.52942 26.92778 172.20924 301
486.47467 32.29680 167.91296 458
2522.20215 284.25793 64.30700 398
2513.97632 283.24030 102.86749 441
2585.31641 292.43723 137.91296 446
269.77603 5.83728 203.49915 314
398.67902 22.57485 171.74066 313
411.28751 24.19678 171.90721 309
425.73837 26.07418 172.04616 305
442.42242 28.25771 172.18903 301
485.24063 33.81463 168.06815 459
2508.77197 296.90881 65.08682 399
2501.28589 295.77740 103.08863 449
2591.66113 307.80151 137.89084 446
269.79303 6.12717 203.50838 314
398.59390 23.66428 171.76898 313
411.21429 25.36773 171.86192 309
425.62277 27.32312 172.02243 305
442.29187 29.61681 172.18840 301
484.88467 35.42121 168.14207 294
2495.86084 309.01892 65.67007 405
2489.53638 308.37509 103.68948 461
2598.59009 323.25027 137.41103 445
269.81131 6.41894 203.50018 314
398.49796 24.71823 171.73994 313
411.10699 26.50850 171.90593 309
425.47208 28.55790 172.01759 305
477.37061 35.94989 165.09354 300
484.81415 37.01017 168.13612 294
2483.46875 321.74265 66.17091 415
2478.77295 321.23389 104.20474 457
2605.02466 339.12250 137.43269 444
269.82535 6.70827 203.50591 314
398.40207 25.78082 171.76111 313
410.99899 27.68068 171.86946 309
425.37595 29.84918 172.02377 305
477.23822 37.53278 165.07191 300
484.76123 38.66959 168.09523 294
2472.84790 334.65326 67.18966 416
2469.13354 334.03897 104.64637 465
2611.55542 355.06802 136.76596 443
269.83392 7.00135 203.49963 314
398.32050 26.87551 171.75255 313
410.83963 28.82465 171.90253 309
425.22110 31.05654 172.03110 305
477.00888 39.09150 165.08389 300
484.61404 40.26475 168.05057 293
2462.52954 346.88690 67.72440 421
2459.55859 346.11957 104.68720 458
2618.87500 371.17020 136.33002 443
269.85434 7.28791 203.50293 314
398.20581 27.97812 171.73572 313
410.73294 30.00783 171.87024 309
425.13293 32.30444 172.04602 305
476.82623 40.63140 165.09102 300
484.50650 41.91001 168.02434 293
2452.15527 359.21780 67.96026 422
2449.82031 359.12918 104.85129 458
2625.34741 387.19711 135.94153 442
1517.09900 208.66069 302.18683 1000
269.86600 7.57903 203.50526 314
398.08023 29.04455 171.76286 313
410.60379 31.15670 171.85315 309
424.94534 33.54650 172.01483 305
476.62665 42.19563 165.08861 300
484.16525 43.19452 168.01289 293
2442.26221 371.45312 68.60635 419
2439.97437 371.32202 105.24774 460
2632.25269 403.89554 135.79147 441
269.87387 7.86703 203.50587 314
397.95810 30.12061 171.74213 313
410.46329 32.28197 171.88988 309
424.83066 34.77847 172.03751 305
475.71808 43.63602 165.25110 445
484.25430 45.13364 168.00388 293
2432.84302 384.14786 68.81304 419
2430.91992 383.70514 105.85970 452
2638.83301 419.70233 135.63835 441
269.87943 8.15357 203.50452 314
397.80295 31.18161 171.77390 313
410.33234 33.42376 171.89198 309
424.67819 36.01342 171.98502 305
474.28015 44.94339 165.51184 446
484.08295 46.75193 167.97513 293
2422.23340 396.03265 69.73977 431
2422.36572 396.09143 106.40365 454
2645.94019 436.79004 135.26817 440
269.88449 8.43189 203.50154 314
397.67584 32.25526 171.75862 313
410.15952 34.58306 171.88356 309
424.48227 37.27407 172.03188 305
472.84601 46.25935 165.73340 447
2413.05957 408.38205 69.91396 432
2414.26172 408.66330 106.27515 441
269.88580 8.72853 203.50662 314
397.53922 33.34067 171.76292 313
410.01385 35.72611 171.87590 309
424.33453 38.48451 172.00116 305
471.43182 47.62285 165.96967 448
2403.33057 420.04025 70.48852 440
2405.77075 420.94370 106.49545 444
269.88107 9.01369 203.51030 314
397.38867 34.42228 171.74992 313
409.87808 36.87344 171.85860 309
111.97546 22.29490 -24.68788 305
470.10797 48.88458 166.16064 449
2393.92407 432.17068 71.10854 441
2397.88599 433.46008 107.23670 427
269.88138 9.29803 203.49991 314
397.24078 35.45176 171.76488 313
409.67346 38.01069 171.88663 309
423.96054 40.92598 171.99957 305
468.68533 50.20002 166.42911 450
2399.61133 447.08942 70.22085 293
2389.97974 445.26465 107.28400 427
269.88895 9.58572 203.50906 314
397.05545 36.53197 171.75638 313
409.51706 39.17657 171.87306 309
423.73987 42.16613 172.00934 305
467.34738 51.40800 166.60703 451
269.87949 9.86537 203.49840 314
396.92081 37.57787 171.76692 313
409.34204 40.31147 171.88412 309
455.37888 50.33052 164.99257 304
465.96902 52.71969 166.88628 451
269.87592 10.15104 203.50539 314
396.73029 38.64037 171.71973 313
409.14294 41.46355 171.83994 309
455.10645 51.80618 164.93423 304
464.68887 53.95084 167.10760 452
269.86951 10.43858 203.50407 314
396.55151 39.73675 171.75656 313
408.95071 42.58180 171.84140 309
454.87576 53.18261 164.92468 303
463.30072 55.16962 167.26160 453
269.90659 10.73156 203.48347 285
396.39307 40.79272 171.73735 313
408.72220 43.72063 171.84518 309
454.56604 54.62410 164.92955 303
461.93097 56.38224 167.50215 421
385.25168 39.17947 171.64207 317
396.09900 41.57714 171.75958 313
408.56387 44.88329 171.86761 309
454.27267 56.03484 164.92503 303
460.13507 57.45592 167.81798 422
385.09354 40.14752 171.64870 317
395.98721 42.88671 171.74222 313
408.30966 45.97598 171.85811 309
454.00980 57.43173 164.96375 303
459.24539 58.74390 167.96472 298
384.91333 41.16523 171.61172 317
395.76547 43.95628 171.74757 313
408.07877 47.13210 171.86804 309
453.67911 58.86817 164.93896 303
458.97858 60.21251 167.89540 297
384.71234 42.15106 171.63486 317
395.55984 45.00772 171.72765 313
407.87790 48.23680 171.83405 309
453.36954 60.25827 164.94034 303
458.72446 61.67222 167.88776 297
384.54065 43.14613 171.64305 317
395.35120 46.08867 171.72807 313
407.63214 49.39335 171.83434 309
453.04501 61.67583 164.97942 303
458.46661 63.14289 167.92177 297
384.30344 44.14417 171.64166 317
395.13092 47.12877 171.70032 313
407.40952 50.50818 171.82657 309
451.35861 62.67818 165.27672 427
458.17261 64.60206 167.89435 297
384.06732 45.09977 171.63396 317
394.90094 48.19192 171.72809 313
407.14566 51.66113 171.85199 309
449.71844 63.73378 165.56038 428
457.91705 66.06279 167.85938 297
383.88126 46.10667 171.60805 317
394.67175 49.20497 171.71194 313
435.54846 61.11818 164.85138 308
448.03995 64.67587 165.85040 429
457.62238 67.48704 167.83435 297
383.65994 47.08586 171.62566 317
394.42242 50.25684 171.71701 313
435.28677 62.40690 164.87175 308
446.39368 65.67143 166.17859 430
383.42325 48.03569 171.62991 317
394.15793 51.30179 171.72198 313
434.90283 63.69267 164.87239 308
444.75983 66.68336 166.43047 431
383.18231 49.03193 171.60326 316
393.90283 52.34699 171.72612 313
434.59027 64.99793 164.88489 308
443.15829 67.61497 166.74248 432
382.93741 50.02117 171.60194 316
393.63895 53.41238 171.70905 313
434.22922 66.26116 164.83434 308
441.57990 68.59827 166.97569 433
382.70270 50.96078 171.61935 316
393.39224 54.44960 171.68753 313
433.93774 67.57240 164.82162 308
440.01825 69.50163 167.28799 434
382.46890 51.94523 171.61218 316
393.11179 55.47609 171.70581 313
433.56870 68.85490 164.88048 308
438.37210 70.41914 167.53738 420
382.21805 52.90926 171.59258 316
392.81964 56.52876 171.72578 313
433.16104 70.12802 164.84956 308
436.68201 71.32056 167.88109 301
381.94315 53.88876 171.58287 316
392.53406 57.55656 171.71136 313
432.70575 71.03731 164.82837 308
436.32623 72.59488 167.83167 301
381.67429 54.86707 171.58035 316
392.27499 58.54841 171.71538 313
432.35773 72.62628 164.88852 308
435.95590 73.90507 167.85962 301
381.38541 55.82104 171.61383 316
391.95975 59.58964 171.70023 313
431.51385 73.75838 164.98946 424
435.59198 75.24499 167.83569 301
381.10098 56.78016 171.59969 316
417.52722 70.07256 164.76990 312
429.83807 74.56403 165.29778 425
435.24109 76.52057 167.82121 301
380.82626 57.71642 171.55997 316
417.15350 71.26727 164.79291 312
428.22156 75.37500 165.60387 426
434.85797 77.84972 167.82973 301
380.52164 58.68526 171.59827 316
416.77792 72.43514 164.81053 312
426.62125 76.15398 165.90811 427
434.47427 79.16209 167.77596 301
380.22318 59.64158 171.58400 316
416.34012 73.57714 164.78458 312
425.00446 76.97689 166.19749 428
434.12582 80.43493 167.80440 301
379.95432 60.61951 171.57648 316
415.93469 74.73514 164.79994 312
423.40591 77.70935 166.48671 429
379.65067 61.57444 171.59447 316
415.52621 75.95362 164.79672 312
421.87958 78.44690 166.73734 430
379.30756 62.51871 171.55414 316
415.08249 77.09512 164.81654 312
420.34055 79.22544 167.03491 431
378.99423 63.45661 171.56503 316
414.66446 78.26711 164.77251 312
418.80023 79.95000 167.32826 432
378.64581 64.39698 171.57417 316
414.21307 79.42425 164.81842 312
417.33160 80.71202 167.60912 433
378.31140 65.33720 171.53973 316
413.78238 80.57317 164.82845 312
416.05231 81.55254 167.76723 305
378.01740 66.27245 171.57016 316
413.33490 81.67994 164.82683 312
415.68188 82.72805 167.77339 305
400.99142 77.55479 164.67665 317
412.88028 82.85096 164.80423 312
415.25311 83.90458 167.76817 305
400.57147 78.66254 164.69164 317
411.47064 83.52362 165.07010 436
414.81970 85.05743 167.77782 305
400.12274 79.72831 164.71841 317
410.03418 84.23599 165.35400 437
414.37070 86.26366 167.76369 305
399.70059 80.78386 164.72311 317
408.62064 84.94892 165.61078 438
413.93799 87.38998 167.74202 305
399.25772 81.82044 164.69989 317
407.22467 85.61119 165.83684 439
413.50717 88.60149 167.71896 305
398.79938 82.86785 164.70055 317
405.65070 86.18909 166.18677 421
413.03983 89.77396 167.69865 305
398.31647 83.92854 164.70290 317
404.09958 86.75980 166.49641 422
412.56750 90.94040 167.69814 305
397.83545 85.01534 164.69562 317
402.50650 87.28236 166.80029 423
412.09189 92.04725 167.69316 305
397.34195 86.06301 164.71779 317
400.96695 87.85297 167.05095 424
396.83774 87.06996 164.72189 317
399.39841 88.40042 167.38322 425
396.37677 88.14188 164.73798 317
397.90933 88.88472 167.67140 426
395.85120 89.13663 164.71361 317
397.18555 89.86438 167.73793 311
394.88635 89.92255 164.87976 427
396.69446 90.90372 167.69627 311
393.42374 90.43593 165.17055 428
396.22012 91.97334 167.69165 309
391.97620 90.95734 165.47116 429
395.76962 92.99781 167.70224 309
390.57980 91.41930 165.74210 430
395.27786 94.05597 167.66608 309
389.15500 91.93244 165.99821 431
394.81277 95.11927 167.68349 309
387.76492 92.39570 166.31679 432
394.32376 96.19443 167.64102 309
386.39505 92.89007 166.59018 433
393.79065 97.25620 167.67186 309
385.01901 93.40500 166.84393 434
393.26804 98.25356 167.66420 309
383.67673 93.85394 167.09721 435
382.32419 94.29325 167.35324 436
381.02353 94.78042 167.58112 437
380.37149 95.63528 167.66438 315
379.83698 96.56052 167.62344 315
379.30231 97.53277 167.64192 315
378.76746 98.44244 167.62950 315
378.24191 99.38512 167.63957 315
377.68903 100.30283 167.61482 315
377.14005 101.22047 167.62183 315
376.56161 102.19444 167.59984 315
5699.51123 3756.43262 1087.97888 1000
376.02258 103.10770 167.62152 313
375.46323 104.02100 167.60873 313
374.93314 104.93045 167.60017 313
374.34314 105.88249 167.59242 313
2054.88672 2338.21240 215.54376 295
2053.96021 2336.99219 264.21841 369
2053.57520 2336.56763 312.54666 369
2783.48291 3720.44312 -154.15532 1000
1407.34729 2069.89233 132.93431 389
1406.73450 2068.28638 171.82710 447
1405.88379 2066.87109 210.93106 447
1405.52478 2066.21558 250.29172 485
1405.10889 2065.54468 289.04950 499
1404.38770 2065.05322 328.24045 499
23189.60938 64377.35938 7921.06104 1000
738.01471 1780.67969 151.61789 383
737.95026 1779.75244 181.81152 384
737.46136 1778.95801 212.39178 384
737.24927 1778.25415 242.62750 442
737.25952 1777.86707 272.63257 442
737.01550 1777.76953 303.34964 442
736.93347 1777.05701 333.77347 482
726.88550 1782.68970 121.29210 407
726.98199 1783.60864 151.59474 340
727.18958 1784.53027 182.14659 340
3543.98047 60789.14844 -4903.30176 1000
2269.82422 37491.42578 9538.36328 1000
175.30869 7447.15234 567.25354 1000
-1634.99280 3877.16772 209.98871 497
-1375.92346 3236.74927 152.26418 451
-1397.08264 3229.80640 152.87430 446
-1400.38245 3237.28613 211.74701 452
-1083.69714 2569.56934 164.96730 499
-1086.60010 2574.50098 212.95541 494
-3921.73096 7995.10498 943.53333 1000
-10333.04492 19178.62500 4917.29297 1000
-22963.07617 36091.03906 -8366.99023 1000
128.16815 152.86702 166.42401 314
129.21803 149.39166 167.32817 316
128.36453 148.73866 167.31862 316
127.51882 148.11855 167.33620 316
127.34985 148.38852 170.42509 472
126.69059 147.40877 167.31343 316
126.21343 148.07965 170.30501 440
125.49296 147.27310 167.17484 441
124.87070 148.14713 170.10934 432
124.20010 147.27637 166.97580 431
123.45478 148.27271 169.86749 431
122.74490 147.39742 166.68379 430
121.98121 148.39970 169.59074 430
121.25663 147.53014 166.41106 429
120.28965 148.89830 169.22803 491
120.42296 146.86638 166.38310 314
119.55888 146.19797 166.40080 314
118.71227 145.48120 166.39735 314
117.56411 145.18179 166.25659 423
109.86495 154.91550 166.41367 310
116.06162 145.36397 165.95151 422
108.99924 154.16472 166.40387 310
114.51725 145.48715 165.63412 421
108.12250 153.38008 166.40318 310
112.91464 145.65898 165.34125 420
107.22918 152.60390 166.37082 310
111.38508 145.83911 165.04251 419
106.36086 151.84764 166.37056 310
109.74648 146.00076 164.73044 418
105.46552 151.04997 166.41679 310
108.14161 146.15295 164.39879 417
104.63029 150.27512 166.40976 310
106.47517 146.29253 164.06630 416
103.75603 149.46774 166.40897 310
104.80119 146.47520 163.72844 415
102.92393 148.69991 166.40765 310
103.28040 146.49910 163.41605 312
102.06188 147.90274 166.36375 310
102.45383 145.63591 163.40729 312
101.19978 147.07806 166.38763 310
101.67166 144.79494 163.45157 311
99.66902 146.99365 166.13719 412
100.90891 143.93365 163.46883 311
97.93059 147.14171 165.77232 411
89.45094 156.39482 166.35426 305
100.12424 143.02193 163.49837 311
96.19006 147.32411 165.47713 421
88.55071 155.51617 166.37711 306
99.41322 142.13739 163.50693 311
94.46967 147.40030 165.16316 419
87.68279 154.63077 166.35512 306
98.66589 141.25986 163.57001 311
92.73260 147.42229 164.79312 418
86.73804 153.73561 166.32812 306
97.90694 140.32341 163.54530 311
90.99587 147.50479 164.50995 417
85.83490 152.81889 166.36551 306
117.45988 118.63595 171.40128 316
89.18842 147.56731 164.13272 416
84.99692 151.92918 166.34140 306
116.81787 117.90765 171.43953 316
87.41574 147.63271 163.84381 415
84.10041 151.04047 166.33566 306
-36876.39062 37532.77734 -9428.76758 1000
116.19433 117.19377 171.43370 316
85.59826 147.72672 163.47734 414
83.20321 150.08441 166.33830 306
115.51964 116.42903 171.43687 316
84.51482 147.02606 163.37462 304
82.37603 149.19804 166.29793 306
114.88854 115.70969 171.44328 316
83.75100 146.04109 163.39456 304
81.49252 148.26654 166.29651 306
-37604.64844 36907.91016 12500.92578 1000
114.28030 114.93545 171.44418 316
83.03503 145.03720 163.47198 304
79.97553 147.95764 166.11203 411
113.62643 114.17558 171.45457 316
82.32350 143.98627 163.48932 304
78.06376 148.01480 165.78702 410
113.00212 113.39949 171.46075 316
81.59509 142.91884 163.50481 304
76.13617 148.09328 165.42421 409
66.36880 157.30003 166.26564 301
112.39750 112.66523 171.44026 316
80.83266 141.90805 163.59019 304
74.14924 148.15256 165.03728 408
65.43909 156.25009 166.20309 301
111.75867 111.91682 171.46008 316
103.40426 119.52486 171.51126 312
72.12680 148.22243 164.68649 407
64.52610 155.17514 166.20747 301
111.14720 111.11105 171.45232 316
102.77791 118.74044 171.53731 312
70.05162 148.33133 164.28383 406
63.60042 154.15100 166.25516 301
110.53421 110.33512 171.47414 316
102.11733 117.86832 171.52802 312
67.98264 148.39392 163.92093 405
62.74570 153.11896 166.26172 302
109.97682 109.55895 171.49599 316
101.47207 117.03714 171.55278 312
65.91209 148.44920 163.50528 404
61.85367 152.07677 166.25140 302
109.36102 108.76849 171.47389 316
100.83981 116.20229 171.56230 312
64.24033 148.12048 163.27861 300
60.98680 151.02487 166.25504 302
108.78285 107.98925 171.49385 316
100.21216 115.35563 171.56801 312
63.56455 146.93729 163.34236 300
60.07171 149.95724 166.23033 302
108.15633 107.19109 171.48891 316
99.55434 114.55366 171.58179 312
62.83706 145.76962 163.39558 300
59.24752 148.89774 166.20293 302
107.60877 106.40258 171.51936 316
98.95055 113.66805 171.54143 312
62.15897 144.59915 163.38040 300
57.14255 148.86555 165.86656 399
106.99974 105.60072 171.51848 316
98.33086 112.85061 171.58789 312
88.44091 121.03539 171.63275 308
54.85403 148.95145 165.44617 398
106.46069 104.79456 171.49359 316
97.70013 111.98413 171.56676 312
87.79269 120.13431 171.68153 308
52.58010 149.00923 165.03979 397
105.89772 103.99178 171.51520 316
97.09782 111.09278 171.57761 312
87.12874 119.17918 171.64375 308
50.22047 149.07066 164.64568 396
40.09322 157.31412 166.11475 297
105.32743 103.18579 171.50842 316
96.50216 110.25219 171.58719 312
86.50215 118.27023 171.65067 308
47.83073 149.17201 164.22725 395
39.18957 156.13240 166.09050 297
104.77419 102.39680 171.50194 316
95.89568 109.36877 171.57002 312
85.86137 117.33417 171.65604 308
45.34365 149.31125 163.77779 393
38.27362 154.91045 166.09755 297
104.18178 101.56925 171.51694 316
95.28853 108.50362 171.61377 312
85.20248 116.39877 171.67892 308
42.87170 149.39532 163.35133 392
37.40958 153.68694 166.13100 297
103.65495 100.76487 171.54820 316
94.73002 107.63036 171.62308 312
84.59525 115.46114 171.69038 308
41.51538 148.62138 163.19273 296
36.52338 152.46678 166.11911 297
103.11009 99.94440 171.53763 316
94.11162 106.76328 171.60985 312
83.93122 114.53407 171.67757 308
40.84951 147.30139 163.21320 296
35.63199 151.22804 166.10397 297
102.56421 99.08076 171.52377 316
93.53477 105.88335 171.59499 312
83.29439 113.58311 171.68527 308
71.56282 122.35856 171.82043 304
34.71952 150.05086 166.09377 297
102.05235 98.23975 171.54886 316
92.95655 104.97246 171.61972 312
82.67403 112.58653 171.68056 308
70.91721 121.30998 171.80505 304
32.54876 149.73935 165.80745 388
101.54447 97.43697 171.54391 316
92.39732 104.11130 171.62454 312
82.09407 111.64281 171.68799 308
70.23144 120.28977 171.79948 304
29.85468 149.90747 165.30360 387
101.00858 96.58778 171.54926 316
91.87132 103.21274 171.61012 312
81.48479 110.66169 171.69266 308
69.57581 119.29273 171.83098 304
27.08127 149.95839 164.87154 385
100.48899 95.74516 171.56548 316
91.28542 102.31873 171.62180 312
80.88850 109.70089 171.70969 308
68.95035 118.23639 171.84131 304
24.21335 150.11301 164.39059 384
11.27679 159.36896 165.86394 290
99.96434 94.91762 171.54027 316
90.73495 101.39462 171.62292 312
80.27261 108.77821 171.70831 308
68.27155 117.17641 171.82928 304
21.36686 150.22337 163.87434 383
10.33782 157.97330 165.87297 291
99.46600 94.06126 171.58311 316
90.20609 100.50721 171.63969 312
79.70707 107.75540 171.70142 308
67.62572 116.14056 171.83376 304
18.51263 150.29521 163.37985 384
9.42548 156.60374 165.90172 291
98.96550 93.17493 171.58800 316
89.66161 99.60260 171.65410 312
79.14288 106.82066 171.70949 308
67.04453 115.09072 171.82706 304
16.22544 149.89087 163.04433 285
8.51322 155.19452 165.88493 291
98.43038 92.34225 171.56244 316
89.12228 98.68615 171.64578 312
78.53223 105.81256 171.72968 308
66.40958 114.02413 171.85657 304
52.36123 123.57787 171.97932 300
7.57621 153.85158 165.83125 291
97.97283 91.47612 171.57573 316
88.58402 97.75762 171.64366 312
77.97523 104.84108 171.72403 308
65.79670 113.00897 171.83875 304
51.68184 122.43166 171.95654 300
6.67563 152.47403 165.87631 291
97.45519 90.61991 171.60851 316
88.05322 96.81955 171.64862 312
77.42052 103.86305 171.75893 308
65.17123 111.94231 171.84538 304
51.01565 121.28130 171.99265 300
5.72132 151.05759 165.82368 291
96.99328 89.77181 171.58476 316
87.54851 95.88365 171.66628 312
76.81747 102.85545 171.76419 308
64.54993 110.86900 171.84938 304
50.33191 120.13635 171.99347 300
3.36231 150.68974 165.48131 378
96.50144 88.90970 171.59120 316
87.05473 94.95174 171.68146 312
76.29774 101.87633 171.76266 308
63.93933 109.78502 171.84769 304
49.69296 118.96349 171.95546 300
0.13431 150.73770 165.02602 377
96.03588 88.04228 171.60754 316
86.53064 94.07403 171.65341 312
75.76028 100.89552 171.77419 308
63.35131 108.71812 171.86690 304
49.04422 117.74696 172.00670 300
-3.19852 150.82013 164.44716 376
95.57120 87.16308 171.58878 316
86.03499 93.08936 171.69116 312
75.22845 99.87290 171.77469 308
62.82119 107.64194 171.84207 304
48.44255 116.62278 171.99831 300
-6.53456 150.91022 163.95866 375
95.13494 86.29011 171.62604 316
85.54117 92.16613 171.70045 312
74.63592 98.86009 171.75005 308
62.18703 106.55222 171.88417 304
47.77441 115.41831 171.99666 300
-10.00003 150.98325 163.41277 373
-24.93653 160.22443 165.33792 286
94.65771 85.40179 171.60654 316
85.04427 91.23876 171.70898 312
74.13842 97.87951 171.75931 308
61.63957 105.48222 171.87759 304
47.17612 114.27897 171.99800 300
30.15566 124.55626 172.12183 296
-25.84231 158.62193 165.33273 286
94.19982 84.52122 171.60156 316
84.54250 90.28757 171.71303 312
73.60915 96.85875 171.78487 308
61.05529 104.34820 171.85970 304
46.54256 113.07578 172.02155 300
29.52933 123.26541 172.14012 296
-26.71383 156.97029 165.35443 286
93.78721 83.64602 171.62512 316
84.09101 89.35145 171.69780 312
73.08613 95.85667 171.78938 308
60.52703 103.27982 171.87056 304
45.93897 111.85822 171.98367 300
28.80952 121.99487 172.12775 296
-27.59339 155.30785 165.37254 286
93.34306 82.74835 171.62105 316
83.62409 88.39999 171.68967 312
72.60696 94.83955 171.78325 308
59.97131 102.18951 171.87506 304
45.35201 110.68617 172.04106 300
28.16998 120.69254 172.13377 296
-28.46206 153.69658 165.33464 287
92.90359 81.84525 171.60336 316
83.16824 87.45950 171.70796 312
72.10467 93.78352 171.80014 308
59.38968 101.09073 171.89526 304
44.75018 109.51595 172.03012 300
27.50206 119.41589 172.12958 296
-29.43380 152.09781 165.41005 287
92.48906 80.93888 171.60599 316
82.68914 86.50243 171.72433 312
71.60668 92.77662 171.81589 308
58.88015 99.98930 171.92274 304
44.13939 108.30641 171.99864 300
26.85283 118.07437 172.16985 296
-32.17387 151.57056 164.96704 366
92.03957 80.03816 171.64597 316
82.25182 85.52291 171.73387 312
71.10318 91.74596 171.82352 308
58.34155 98.85047 171.88235 304
43.57122 107.12475 172.04034 300
26.27756 116.79245 172.17830 296
-36.26202 151.64320 164.39990 364
91.62395 79.17250 171.62151 316
81.76581 84.56490 171.73703 312
70.60677 90.72627 171.83237 308
57.80287 97.74768 171.93024 304
42.96438 105.93044 172.06268 300
25.58151 115.45559 172.15611 296
-40.37850 151.77959 163.80177 363
91.21962 78.26783 171.62575 316
81.33839 83.61298 171.72691 312
70.16389 89.69881 171.79462 308
57.28160 96.65633 171.90250 304
42.44719 104.72095 172.02956 300
24.99798 114.13448 172.15231 296
4.30209 125.36732 172.34979 292
90.82976 77.35869 171.64488 316
80.92789 82.64584 171.72159 312
69.66105 88.64825 171.80954 308
56.78398 95.51906 171.92291 304
41.84753 103.47684 172.06461 300
24.42652 112.85023 172.19400 296
3.64075 123.92952 172.34491 292
90.40437 76.41660 171.66023 316
80.47021 81.68465 171.73187 312
69.18061 87.59742 171.79887 308
56.25465 94.43724 171.92986 304
41.29072 102.31338 172.04312 300
23.80742 111.51791 172.22469 296
2.91536 122.52397 172.37508 292
-67.74369 159.69447 164.96997 284
90.00646 75.52230 171.64925 316
80.05521 80.66836 171.72838 312
68.74942 86.55613 171.81308 308
55.75068 93.26211 171.91945 304
40.78609 101.06183 172.07819 300
30.86030 106.23893 173.75484 275
13.16036 115.39520 174.40642 275
-68.55447 157.70367 164.92142 284
89.62019 74.62285 171.64249 316
79.62416 79.73267 171.74292 312
68.29301 85.51147 171.83652 308
55.26141 92.13635 171.91350 304
43.29025 98.24731 172.78346 324
37.27940 101.32809 175.22206 323
23.43236 108.42210 176.41879 275
-69.40970 155.80673 164.92068 284
89.23857 73.70335 171.63574 316
79.23086 78.71711 171.74113 312
67.82709 84.44302 171.82137 308
54.81849 91.04494 171.95061 304
45.82178 95.54953 173.43979 325
39.93316 98.47100 175.87468 324
33.25958 101.85094 178.38594 276
17.86121 109.62284 179.65295 276
88.85652 72.76553 171.64493 316
78.82293 77.73491 171.76404 312
67.41118 83.39064 171.82391 308
54.31891 89.87864 171.94995 304
48.24335 92.90523 174.08501 326
42.55783 95.75061 176.52309 325
36.62325 98.63311 179.08781 323
19.62690 107.05787 180.00494 288
88.49999 71.86613 171.68631 316
78.41357 76.77863 171.73982 312
66.96992 82.34034 171.82916 308
56.01361 87.71437 172.47617 329
50.63698 90.29300 174.69969 327
45.06067 93.05672 177.11246 327
39.34128 95.86606 179.69493 324
19.09857 105.74625 180.03183 288
-7.15880 118.48505 180.26321 284
88.13873 70.94370 171.68002 316
78.00327 75.76734 171.77016 312
66.53902 81.30018 171.86928 308
58.14901 85.31818 173.07620 331
52.94204 87.80927 175.36220 329
47.46177 90.43510 177.69147 328
39.77821 94.12069 179.87398 292
18.52637 104.37611 180.01122 288
-7.70942 116.96440 180.27010 284
87.75426 69.97974 171.64851 316
77.63175 74.76891 171.77669 312
66.10833 80.23285 171.84404 308
60.22771 83.02650 173.69360 388
55.14402 85.43587 175.93849 330
49.82578 87.93741 178.31923 329
39.26475 92.95821 179.84381 292
17.94826 103.01904 180.02394 288
-8.38604 115.43179 180.22083 284
87.38559 69.05999 171.68423 316
77.23268 73.80408 171.76823 312
65.71530 79.16976 171.87428 308
61.01218 81.35326 173.98868 389
57.34194 83.05004 176.52130 331
52.13347 85.46441 178.86641 330
38.78874 91.67454 179.88512 292
-9.97987 114.33968 175.55388 284
-10.00373 114.39077 180.14450 284
87.05435 68.12174 171.65950 316
76.87444 72.81976 171.76894 312
65.36268 78.07583 171.88983 378
61.78872 79.69016 174.29839 390
58.62478 81.15700 176.90636 388
54.37746 83.10565 179.36427 331
38.32912 90.43725 179.84604 292
1.14105 107.48244 177.47580 269
-16.57129 115.56775 179.22765 341
86.72089 67.17283 171.65895 316
76.47153 71.82763 171.76469 312
66.13195 76.45312 172.19896 379
62.55104 78.06863 174.55038 391
59.42558 79.51591 177.15422 389
55.61030 81.24156 179.71899 296
37.81213 89.23564 179.87465 292
9.05877 102.21916 178.83347 287
-21.23285 115.80900 178.65190 339
86.34648 66.25938 171.68988 316
76.12671 70.82661 171.77658 312
66.89182 74.90575 172.50371 380
63.30019 76.51434 174.82993 392
60.19601 77.84856 177.41496 390
55.20119 80.09593 179.71346 296
25.65758 93.19933 177.74388 334
15.57985 97.60842 180.02760 288
-0.15228 104.63747 181.81926 269
-44.44379 124.19851 180.52371 280
86.02057 65.32141 171.67607 316
75.75886 69.81755 171.79590 312
67.64122 73.34180 172.74661 381
64.04473 74.92731 175.12794 393
60.98363 76.26251 177.66872 391
54.79323 78.96040 179.71587 296
27.83091 90.68464 178.27538 335
20.37565 93.94637 180.90370 317
7.74580 99.41954 183.02626 287
-45.05722 122.42641 180.57498 280
85.68166 64.37438 171.68040 316
75.37939 68.78960 171.75247 312
68.42681 71.81317 173.07816 382
64.78951 73.34834 175.38541 394
61.72012 74.67593 177.92776 392
54.39369 77.80045 179.75006 296
29.95598 88.30581 178.74211 336
23.32839 91.12942 181.41290 318
14.32942 95.00408 184.03773 289
-1.26831 101.66112 186.13123 269
85.39703 63.45427 171.69933 316
75.07774 67.80689 171.78528 312
69.14990 70.28345 173.34882 383
65.49085 71.84977 175.64082 395
62.53638 73.09548 178.21989 393
54.01718 76.67143 179.76045 296
32.05128 85.94101 179.14087 337
25.66685 88.59646 181.90312 335
17.94904 91.86509 184.65982 317
6.50044 96.71123 187.16316 287
85.06160 62.51797 171.68436 316
74.71237 66.79299 171.80498 312
69.87758 68.80737 173.64229 384
66.24512 70.31808 175.89212 382
63.26390 71.50713 178.44121 394
53.61194 75.51363 179.72821 296
34.04036 83.64571 179.63011 339
27.81508 86.18604 182.32576 336
20.96070 89.07140 185.16742 318
12.30797 92.66388 187.96788 316
-2.29690 98.65823 190.43028 269
84.76312 61.53682 171.70834 316
74.38167 65.74732 171.78711 312
70.61755 67.28907 173.87717 385
67.00006 68.76973 176.16319 382
64.01735 69.99813 178.70300 394
53.20203 74.39760 179.75226 296
36.02332 81.40128 180.05682 340
29.93920 83.82786 182.75090 337
23.54221 86.48147 185.59393 335
15.51288 89.72550 188.44193 317
5.31758 93.88015 191.29965 288
84.46141 60.58935 171.67979 316
74.77110 64.48304 171.99527 388
71.35678 65.83324 174.16829 386
67.78494 67.25745 176.43452 383
64.74486 68.49214 178.94281 395
52.81532 73.24588 179.76573 296
37.92487 79.19035 180.45520 341
32.01702 81.59299 183.13048 338
25.67871 84.08226 185.98254 336
18.58725 86.89858 188.86798 318
9.86287 90.45484 191.86838 316
-3.15288 95.61122 194.79092 269
84.14088 59.65134 171.72560 316
75.45211 63.06487 172.27541 389
72.06053 64.40250 174.41273 387
68.55379 65.79402 176.71455 384
65.45301 66.98279 179.12399 396
44.22730 75.33922 178.11409 376
39.77527 77.07594 180.85487 373
33.95865 79.33199 183.52608 339
27.84902 81.73347 186.30336 337
21.33881 84.32266 189.25592 335
13.10280 87.52371 192.28857 317
3.92744 91.17629 195.44269 314
-19.29204 100.23895 197.97374 268
83.86947 58.66714 171.71579 316
