# .PCD v.7 - Point Cloud Data file format
VERSION .7
FIELDS x y z rgb
SIZE 4 4 4 4
TYPE F F F U
COUNT 1 1 1 1
WIDTH 1385
HEIGHT 1
VIEWPOINT 6563.308105 -4018.687500 146.230148 -0.110835 -0.134503 0.029611 0.984250
POINTS 1385
DATA ascii
65.07250 -13.07976 183.18919 456
62.67765 -13.15078 185.54433 454
60.20965 -13.21525 188.00119 451
57.70902 -13.27621 190.48206 449
55.20167 -13.33406 193.06308 447
52.60588 -13.41854 195.66833 445
49.92051 -13.49763 198.37968 442
47.19143 -13.59212 201.10632 439
44.33362 -13.65149 203.93787 437
41.42742 -13.74957 206.87341 434
38.45034 -13.79809 209.90150 431
-179.57413 -19.51518 223.22757 384
-159.63635 -19.01683 235.64085 300
85.72015 -13.36601 177.28090 465
83.71104 -13.44475 179.31825 463
69.59637 -13.91298 178.58328 460
67.29546 -13.99281 180.82541 458
64.95557 -14.06655 183.16876 456
62.56993 -14.13476 185.55481 454
60.11198 -14.20674 187.99028 451
57.64840 -14.32155 190.46977 449
55.05477 -14.41153 193.02049 447
52.45134 -14.48528 195.64525 444
49.78271 -14.57498 198.33331 442
47.03406 -14.69044 201.08942 439
44.20215 -14.78985 203.93649 437
41.31487 -14.89597 206.86624 434
38.30940 -14.98917 209.90495 431
-179.55522 -22.04969 223.17726 384
85.63850 -14.26716 177.24068 465
83.62232 -14.35474 179.27811 463
69.51803 -14.89476 178.52307 460
67.21217 -14.98814 180.84145 458
64.87076 -15.08471 183.16673 456
62.50094 -15.15665 185.53378 453
60.03686 -15.26085 187.95522 451
57.53590 -15.39137 190.45094 449
54.95384 -15.46776 192.99533 446
52.36243 -15.58653 195.65157 444
49.64635 -15.71531 198.32719 442
46.90248 -15.78406 201.09125 439
44.06635 -15.90338 203.94180 436
41.20089 -16.02197 206.87624 434
38.17459 -16.15784 209.85168 431
-179.63553 -24.56204 223.12793 384
85.57269 -15.14882 177.24486 465
83.55046 -15.20832 179.24025 463
69.43441 -15.84816 178.51590 460
67.11812 -15.93846 180.79210 458
64.79892 -16.06225 183.12100 456
62.39880 -16.18183 185.52988 453
59.94461 -16.29428 187.93024 451
57.41865 -16.43143 190.41914 448
54.83426 -16.54417 192.99817 446
52.24281 -16.64788 195.59546 444
49.53308 -16.80761 198.31094 441
46.79791 -16.95099 201.07964 439
43.97961 -17.06518 203.94257 436
41.01633 -17.20181 206.84480 433
38.01583 -17.32819 209.89246 431
-179.60164 -27.07959 223.12326 384
85.50086 -16.01503 177.20958 464
83.50089 -16.10354 179.22864 462
69.33986 -16.82510 178.51929 460
67.05499 -16.95766 180.78696 458
64.69975 -17.07307 183.12973 455
62.30400 -17.20532 185.49747 453
59.85295 -17.33592 187.90570 451
57.31454 -17.47283 190.42737 448
54.78420 -17.59495 192.99907 446
52.09268 -17.77485 195.62485 443
49.41577 -17.88622 198.31081 441
46.67097 -18.02855 201.08022 439
43.82459 -18.18014 203.92670 436
40.92794 -18.33963 206.85393 433
37.91165 -18.53924 209.83839 431
-179.52728 -29.66546 223.17116 384
85.44703 -16.90296 177.17355 464
83.39532 -16.99592 179.19090 462
69.26333 -17.82907 178.46771 460
66.93268 -17.95308 180.73572 457
64.61799 -18.10663 183.07895 455
62.20083 -18.23954 185.46286 453
59.74538 -18.37013 187.90277 451
57.24020 -18.50789 190.39725 448
54.67275 -18.67726 192.96350 446
52.01514 -18.84354 195.60298 443
49.30100 -19.00556 198.29781 441
46.54711 -19.15053 201.02843 438
43.71600 -19.32035 203.90643 436
40.75746 -19.51186 206.83379 433
37.77217 -19.69861 209.87099 430
-179.61536 -32.12274 223.19421 384
85.35674 -17.77304 177.13557 464
83.33009 -17.89159 179.17493 462
69.17626 -18.79218 178.45651 459
66.85179 -18.96462 180.73982 457
64.52529 -19.09671 183.04837 455
62.13812 -19.23902 185.45921 453
59.64279 -19.41940 187.87354 450
57.15561 -19.60037 190.36876 448
54.57783 -19.75542 192.93692 445
51.90346 -19.90541 195.57047 443
49.20591 -20.12701 198.25664 440
46.38898 -20.29534 201.05577 438
43.56763 -20.46473 203.87062 436
40.61361 -20.67612 206.84306 433
37.62148 -20.85620 209.82797 430
-179.50676 -34.65334 223.11629 384
-187.53088 -35.32624 271.60599 323
-186.87102 -35.30135 278.51978 387
-186.80573 -35.31539 285.44467 387
-186.78801 -35.30082 292.51169 387
85.30096 -18.66326 177.13483 464
83.27068 -18.77360 179.14172 462
69.08211 -19.78689 178.39281 459
66.80178 -19.92420 180.70589 457
64.41515 -20.13048 183.04100 455
62.04273 -20.26487 185.39952 453
59.55526 -20.47621 187.87538 450
57.02365 -20.65388 190.35796 448
54.43649 -20.83953 192.91318 445
51.81781 -21.02898 195.53651 443
49.06344 -21.22775 198.24625 440
46.28955 -21.42726 201.03754 438
43.42655 -21.63146 203.88811 435
40.49879 -21.84527 206.80330 433
37.50030 -22.06469 209.83562 430
-179.59340 -37.14541 223.12137 384
85.23685 -19.52712 177.07812 464
83.18269 -19.66920 179.10966 462
69.00387 -20.75213 178.39613 459
66.72919 -20.93631 180.64948 457
64.34125 -21.11716 183.01561 455
61.96437 -21.31029 185.37988 452
59.45922 -21.50032 187.82170 450
56.92715 -21.70750 190.35345 448
54.35486 -21.91440 192.91162 445
51.72657 -22.12669 195.53894 443
48.97383 -22.34028 198.25160 440
46.16389 -22.55131 201.02791 437
43.30856 -22.75228 203.84821 435
40.36526 -22.99902 206.81528 432
37.35182 -23.25326 209.80688 430
-179.54324 -39.72823 223.18901 384
85.15518 -20.40823 177.06535 464
83.10141 -20.59185 179.08679 461
68.94250 -21.74777 178.35985 459
66.63497 -21.96026 180.62112 457
64.26711 -22.11441 182.97340 454
61.86919 -22.32820 185.34419 452
59.40088 -22.53405 187.78795 450
56.85210 -22.75720 190.29976 447
54.27924 -22.99113 192.89294 445
51.60636 -23.21779 195.50858 442
48.85884 -23.46078 198.23566 440
46.06810 -23.68802 200.99358 437
43.19061 -23.91427 203.86258 434
40.20860 -24.15889 206.80127 432
37.21341 -24.45015 209.79117 430
-179.54750 -42.18984 223.16200 384
85.07861 -21.28337 177.03845 463
83.02372 -21.47622 179.05580 461
68.88385 -22.71623 178.33018 459
66.52620 -22.92881 180.60344 456
64.21012 -23.13789 182.92688 454
61.78666 -23.40019 185.35020 452
59.28043 -23.58111 187.77879 450
56.76656 -23.84048 190.29942 447
54.14886 -24.05718 192.84409 445
51.48779 -24.27958 195.49574 442
48.78070 -24.52991 198.21414 440
45.97271 -24.79432 200.98907 437
43.04871 -25.08104 203.82741 434
40.10537 -25.33095 206.78728 432
37.06054 -25.60686 209.78590 429
-179.49963 -44.75601 223.14293 384
85.02920 -22.17435 176.99339 463
82.97904 -22.39586 179.01295 461
68.77438 -23.71591 178.31104 458
66.45241 -23.93146 180.55785 456
64.09377 -24.16912 182.92934 454
61.67108 -24.42507 185.32335 452
59.20016 -24.64386 187.77264 449
56.66347 -24.88958 190.24069 447
54.08772 -25.15404 192.81683 444
51.42517 -25.39430 195.45897 442
48.69263 -25.68914 198.18597 439
45.86504 -25.94313 200.94064 437
42.94357 -26.19748 203.83305 434
40.00843 -26.50754 206.77390 431
36.90107 -26.79069 209.82068 429
-179.52066 -47.22568 223.18054 383
84.95696 -23.05542 176.94810 463
82.90894 -23.28583 178.99106 461
68.69563 -24.70000 178.25125 458
66.40464 -24.94382 180.54672 456
64.02795 -25.18277 182.86722 454
61.58923 -25.46037 185.27376 451
59.13124 -25.71885 187.72823 449
56.60223 -25.94633 190.23148 447
53.96870 -26.24174 192.83002 444
51.33069 -26.49768 195.42583 442
48.55655 -26.80094 198.17752 439
45.72644 -27.07987 200.95697 437
42.85239 -27.36210 203.81287 434
39.86732 -27.68589 206.73993 431
36.65948 -28.03525 209.76472 414
-179.56352 -49.77831 223.09930 383
84.89753 -23.96871 176.94659 463
82.81958 -24.18726 178.98351 461
68.64781 -25.68939 178.22629 458
66.32301 -25.95062 180.51459 456
63.95823 -26.20086 182.85634 454
61.52584 -26.47594 185.25114 451
59.05462 -26.75860 187.72107 449
56.47460 -27.02420 190.22383 446
53.89641 -27.31102 192.78995 444
51.23093 -27.58558 195.42984 441
48.46928 -27.88280 198.14583 439
45.65356 -28.23229 200.91455 436
42.58780 -28.57051 203.77548 419
39.42764 -28.90008 206.71019 416
36.10884 -29.27641 209.76587 407
-179.58315 -52.32515 223.19548 383
84.84074 -24.83800 176.89635 462
82.75722 -25.08133 178.95232 460
68.58109 -26.68884 178.16467 458
66.23962 -26.97528 180.46362 456
63.88192 -27.23477 182.82375 453
61.42017 -27.51838 185.20064 451
58.95232 -27.80152 187.67989 449
56.41879 -28.09924 190.18254 446
53.79654 -28.41209 192.74594 444
51.06852 -28.73022 195.40146 426
48.20895 -29.03983 198.10786 423
45.18264 -29.39567 200.89204 421
42.09264 -29.74072 203.72659 418
38.90168 -30.12008 206.71686 416
35.50333 -30.50026 209.73149 407
-179.51813 -54.87534 223.08403 383
84.75703 -25.73969 176.86031 462
82.69669 -26.00488 178.89508 460
68.48648 -27.67064 178.15765 458
66.18045 -27.95121 180.46175 455
63.80027 -28.24927 182.77277 453
61.35825 -28.57806 185.17239 451
58.88367 -28.86119 187.63179 448
56.25728 -29.16057 190.14560 430
53.51174 -29.50141 192.72096 428
50.63707 -29.84786 195.33302 425
47.73284 -30.19874 198.04105 423
44.71656 -30.55447 200.80870 420
41.60986 -30.95136 203.72591 418
38.37410 -31.37162 206.63643 409
34.89306 -31.75208 209.69662 406
-179.57210 -57.45648 223.13077 383
84.70021 -26.61391 176.80008 462
82.64133 -26.89202 178.86377 460
68.43710 -28.70554 178.11224 457
66.11057 -28.96513 180.40137 455
63.68795 -29.27523 182.76564 453
61.19319 -29.62787 185.14264 434
58.57491 -29.92710 187.55217 432
55.85202 -30.26631 190.05630 430
53.06865 -30.65114 192.64938 427
50.23986 -31.01628 195.27142 425
47.26237 -31.40068 197.98576 422
44.25348 -31.78921 200.78778 420
41.12302 -32.15765 203.66887 417
37.81874 -32.61200 206.61137 408
34.27639 -33.03345 209.70195 405
-179.84856 -59.97400 223.14023 362
84.65200 -27.50840 176.75925 462
82.58397 -27.78528 178.81133 460
74.86694 -28.80744 179.57321 308
65.94987 -29.98675 180.33466 438
63.40250 -30.36503 182.64984 436
60.82424 -30.70880 185.05927 434
58.18823 -31.07314 187.47057 432
55.45958 -31.42485 189.97224 429
52.66586 -31.79150 192.55898 427
49.76814 -32.17385 195.22940 424
46.84635 -32.58390 197.90422 422
43.79116 -32.98324 200.74419 419
40.59721 -33.42205 203.63544 410
37.20874 -33.86703 206.57265 407
33.68169 -34.36180 209.66896 405
-180.46397 -62.62495 223.16344 362
84.58586 -28.40550 176.72951 461
82.52017 -28.73532 178.78215 459
74.98167 -29.77911 179.59824 308
65.57829 -31.08338 180.24336 438
63.05676 -31.44251 182.59088 436
60.41893 -31.77738 184.96367 433
57.78388 -32.13417 187.39534 431
55.05895 -32.52283 189.93629 429
52.22742 -32.92202 192.48479 426
49.33622 -33.31941 195.15382 424
46.36427 -33.78122 197.88905 421
43.32930 -34.16808 200.67000 419
40.05814 -34.64332 203.58119 409
36.65081 -35.12977 206.56731 407
33.09116 -35.66300 209.62897 404
-181.07098 -65.33328 223.18552 362
84.49477 -29.32386 176.67973 461
82.45731 -29.63620 178.73445 459
75.07876 -30.67377 179.57745 308
65.23371 -32.14182 180.13182 437
62.66072 -32.47052 182.47856 435
60.04297 -32.85549 184.86568 433
57.39171 -33.27433 187.31081 430
54.62016 -33.69643 189.83604 428
51.83870 -34.07094 192.40817 426
48.91897 -34.49966 195.05307 423
45.93395 -34.95206 197.83199 421
42.82393 -35.40885 200.61504 412
39.49932 -35.93050 203.53995 409
36.02520 -36.40640 206.49042 406
32.47797 -36.91623 209.59320 403
-181.65872 -67.99197 223.13492 362
84.45091 -30.22919 176.65588 461
82.40993 -30.53509 178.68126 459
75.20482 -31.63369 179.60577 308
64.85087 -33.18657 180.03632 437
62.29905 -33.56136 182.38097 434
59.66405 -33.96107 184.75185 432
57.01383 -34.38635 187.24825 430
54.20327 -34.83312 189.76175 427
51.40096 -35.23770 192.35138 425
48.48648 -35.72214 195.00516 423
45.43971 -36.16581 197.72762 420
42.25730 -36.66527 200.58041 411
38.94097 -37.16895 203.46820 408
35.44910 -37.72232 206.45856 406
31.84431 -38.24514 209.59163 403
-183.23978 -70.68953 216.41310 426
-182.28598 -70.58025 223.18484 361
84.41272 -31.10875 176.58536 461
82.28353 -31.47476 178.65210 442
75.31745 -32.54227 179.58684 308
64.51080 -34.25219 179.93756 436
61.92605 -34.65392 182.25850 434
59.30874 -35.08449 184.67805 432
56.60864 -35.51254 187.15729 429
53.80468 -35.94735 189.66982 427
50.96439 -36.41027 192.27206 424
48.03039 -36.89636 194.94989 422
45.01926 -37.39782 197.67197 419
41.72193 -37.89038 200.49132 410
38.31780 -38.45755 203.43442 408
34.82782 -38.98989 206.42029 405
31.18588 -39.57277 209.54851 402
-183.17807 -73.33340 216.37495 425
-184.38777 -73.47449 223.21646 324
84.26123 -32.05172 176.51775 444
82.02585 -32.42321 178.53850 442
75.43110 -33.47578 179.57491 308
64.16564 -35.35820 179.84120 436
61.55073 -35.75181 182.15291 433
58.93471 -36.23324 184.55684 431
56.19637 -36.68385 187.03685 429
53.41739 -37.11464 189.60068 426
50.54822 -37.60968 192.19652 424
47.59900 -38.11411 194.85587 421
44.47336 -38.62042 197.61696 412
41.18251 -39.16002 200.43738 410
37.73055 -39.74293 203.38489 407
34.24850 -40.33052 206.37117 404
30.56637 -40.89971 209.53709 402
-183.12073 -75.92020 216.37245 425
-186.89005 -76.50506 223.30551 324
83.95908 -32.99751 176.40906 443
81.75079 -33.39177 178.45131 441
75.58882 -34.44862 179.59879 308
63.81693 -36.42606 179.72446 435
61.19007 -36.89570 182.06419 433
58.53721 -37.32101 184.46063 430
55.78221 -37.78336 186.97238 428
52.96495 -38.28802 189.48303 426
50.08340 -38.77353 192.09831 423
47.11274 -39.29181 194.79240 421
43.94756 -39.86497 197.52284 412
40.60795 -40.40681 200.39612 409
37.17736 -41.04121 203.29288 406
33.59613 -41.60875 206.35977 404
29.93388 -42.25066 209.49353 401
-183.15320 -78.47408 216.31923 425
-189.34044 -79.52884 223.29239 323
83.70544 -33.94638 176.32097 443
81.48827 -34.33644 178.33362 441
75.68990 -35.36818 179.60303 308
63.46011 -37.50065 179.61578 434
60.80353 -37.98207 181.94215 432
58.13078 -38.47227 184.35298 430
55.37292 -38.94341 186.86273 427
52.56942 -39.44873 189.39919 425
49.67720 -39.99331 192.00807 423
46.64757 -40.50933 194.69374 413
43.40840 -41.09904 197.49953 411
40.06036 -41.69820 200.32837 408
36.59228 -42.34413 203.27792 406
32.98063 -42.92852 206.33598 403
29.29402 -43.60011 209.45992 400
-183.21533 -81.12675 216.30223 425
83.46169 -34.90350 176.20020 442
81.20914 -35.30616 178.21149 440
75.87262 -36.27997 179.60693 308
63.07813 -38.60870 179.50993 434
60.43863 -39.12056 181.86748 431
57.73583 -39.61619 184.25291 429
55.01102 -40.12025 186.75841 427
52.14969 -40.65152 189.32848 424
49.20615 -41.18412 191.95235 422
46.10921 -41.78559 194.60867 413
42.85702 -42.36250 197.39682 410
39.46789 -42.99832 200.27063 408
35.98694 -43.60890 203.19130 405
32.40002 -44.28680 206.26505 402
28.63074 -45.00071 209.45938 400
-183.16296 -83.66312 216.31425 440
83.18740 -35.83495 176.10349 442
80.91533 -36.29852 178.11327 439
75.98373 -37.19599 179.58897 308
62.74139 -39.72515 179.37895 433
60.08545 -40.25218 181.72029 431
57.37788 -40.77402 184.17989 429
54.57390 -41.28916 186.68773 426
51.74902 -41.82792 189.24904 424
48.73832 -42.38839 191.84724 415
45.58916 -43.00632 194.55093 412
42.30219 -43.63536 197.33807 410
38.91796 -44.28534 200.19492 407
35.37653 -44.96125 203.14659 404
31.74862 -45.62743 206.21507 402
27.99525 -46.34997 209.42418 399
-182.98363 -86.35879 216.28651 439
82.92474 -36.80751 175.99670 441
80.64922 -37.28167 178.00644 437
76.15228 -38.16251 179.58205 308
62.33913 -40.81719 179.25020 432
59.70932 -41.37464 181.63037 430
56.96928 -41.88733 184.07814 428
54.20121 -42.48303 186.58261 426
51.30282 -43.01350 189.11850 423
48.24292 -43.60694 191.78685 414
45.02170 -44.24831 194.44130 411
41.74406 -44.89658 197.25125 409
38.33735 -45.62049 200.10065 406
34.79163 -46.27084 203.10834 404
31.10945 -47.03837 206.21487 401
27.34759 -47.76041 209.39287 398
-182.93481 -88.92477 216.26385 439
82.63474 -37.76189 175.86356 440
80.34743 -38.25900 177.91884 437
76.32700 -39.07186 179.57085 308
61.97509 -41.96426 179.14142 432
59.30500 -42.48220 181.52939 430
56.60339 -43.07381 183.98033 427
53.77221 -43.61536 186.48862 425
50.87410 -44.23178 189.01682 416
47.76173 -44.85613 191.64418 413
44.51625 -45.55314 194.37827 411
41.19762 -46.18793 197.17714 408
37.71119 -46.89817 200.07169 406
34.14856 -47.62998 203.03024 403
30.46402 -48.37763 206.14139 400
26.64496 -49.19623 209.36555 398
-188.39696 -92.58150 209.34077 485
-187.87561 -92.48588 216.36949 299
82.37260 -38.77199 175.74908 440
80.09132 -39.24817 177.77525 436
76.49103 -39.98882 179.60551 308
61.61520 -43.07878 179.01711 431
58.94918 -43.65324 181.38841 429
56.21191 -44.22182 183.83951 427
53.38061 -44.80355 186.34941 424
50.36671 -45.46489 188.94095 415
47.23727 -46.09705 191.55486 413
43.94425 -46.82471 194.26775 410
40.62948 -47.48913 197.09431 408
37.15017 -48.23415 199.98560 405
33.58092 -48.98293 202.98827 402
29.86482 -49.77649 206.12807 400
26.01178 -50.61569 209.30081 397
-187.89429 -95.11693 209.38220 485
-194.37714 -96.54126 216.34726 297
82.12029 -39.72579 175.64037 439
79.77379 -40.23606 177.67761 435
76.62933 -40.93055 179.57439 308
61.26109 -44.22714 178.90201 431
58.58031 -44.81629 181.30194 428
55.81668 -45.43248 183.71730 426
52.98069 -46.01100 186.27765 424
49.85623 -46.66748 188.82156 414
46.69820 -47.40401 191.46109 412
43.41379 -48.11270 194.21712 409
40.05613 -48.81617 197.02626 407
36.56628 -49.58139 199.91167 404
32.96015 -50.36071 202.90926 402
29.21395 -51.19220 206.07857 399
25.26702 -52.02649 209.28111 345
-187.36038 -97.69572 209.37965 485
81.83846 -40.71550 175.52751 439
79.53139 -41.24149 177.54860 435
76.80813 -41.83126 179.59431 308
60.88872 -45.34449 178.74783 430
58.20430 -45.95761 181.15398 428
55.38523 -46.57506 183.60765 425
52.49911 -47.22388 186.13524 416
49.37063 -47.96153 188.71603 414
46.20271 -48.66504 191.37430 411
42.86893 -49.40564 194.08070 409
39.48651 -50.16642 196.93347 406
35.95886 -50.96127 199.85384 404
32.30033 -51.73470 202.86392 401
28.52860 -52.62751 205.99396 388
24.10890 -53.56905 209.26152 344
-186.93260 -100.31170 209.27913 485
81.58020 -41.71727 175.37309 438
79.24624 -42.24996 177.42798 434
76.80616 -42.81756 179.51254 432
60.55519 -46.50531 178.64861 429
57.79594 -47.14849 181.05624 427
54.99964 -47.76729 183.53450 425
52.00756 -48.45580 186.03911 416
48.85089 -49.17975 188.63135 413
45.64515 -49.91857 191.26823 411
42.34834 -50.67596 194.01894 408
38.88495 -51.49666 196.87386 405
35.37471 -52.32359 199.79066 403
31.61653 -53.17401 202.79384 390
27.62503 -54.10381 205.93004 387
22.91124 -55.16778 209.21796 344
-186.88298 -102.99142 209.32501 486
81.31137 -42.72736 175.26891 437
78.93856 -43.28161 177.32898 434
76.50640 -43.84936 179.40230 431
60.16321 -47.64684 178.51550 429
57.42760 -48.32813 180.93044 426
54.54625 -48.97643 183.36470 417
51.49102 -49.68901 185.88437 415
48.38967 -50.45841 188.50133 412
45.14011 -51.20523 191.14275 410
41.78842 -52.01049 193.92873 407
38.33254 -52.80754 196.76520 405
34.70634 -53.69218 199.67499 391
30.80217 -54.62258 202.72957 389
26.60009 -55.57699 205.89796 376
21.73795 -56.77339 209.14218 343
81.01486 -43.71221 175.13104 437
78.66968 -44.28878 177.18985 433
76.19682 -44.87634 179.30359 431
59.78369 -48.83960 178.35385 428
57.03986 -49.47836 180.77510 426
54.08831 -50.19369 183.24367 417
51.02575 -50.95281 185.76071 414
47.86505 -51.76351 188.39323 412
44.60293 -52.51075 191.07259 409
41.25360 -53.33409 193.81538 407
37.65835 -54.19073 196.66980 393
33.86839 -55.15531 199.58415 391
29.95506 -56.11048 202.68076 388
25.51165 -57.12584 205.81558 375
20.49962 -58.34578 209.09399 340
80.75737 -44.69822 175.02591 436
78.37955 -45.30225 177.08397 432
75.90154 -45.91006 179.19072 430
59.42487 -50.00568 178.23070 427
56.60660 -50.72023 180.66600 418
53.59836 -51.45797 183.09514 416
50.53252 -52.25018 185.63454 413
47.35080 -52.99858 188.24043 411
44.02993 -53.86107 190.97336 408
40.57160 -54.73456 193.68430 395
36.85143 -55.65068 196.55273 392
33.04119 -56.59405 199.49623 390
28.95627 -57.61119 202.57910 377
24.47015 -58.74794 205.76167 374
18.57479 -60.22868 209.02559 263
80.49985 -45.73729 174.88399 436
78.10090 -46.35062 176.92516 432
75.59647 -46.97018 179.04747 430
59.05045 -51.17348 178.12688 427
56.17485 -51.92466 180.53214 418
53.14383 -52.70111 182.99107 415
50.05480 -53.51734 185.54295 413
46.83265 -54.34579 188.15244 410
43.39370 -55.20908 190.84789 397
39.79068 -56.14576 193.58112 394
36.06434 -57.04525 196.43401 392
32.21656 -58.04241 199.40366 389
27.95901 -59.17806 202.50699 376
23.34746 -60.31668 205.67236 373
-187.18842 -113.81107 202.24716 495
80.21656 -46.77074 174.74979 435
77.79101 -47.39914 176.83484 431
75.30252 -48.02853 178.94623 429
66.34476 -50.39935 179.65640 304
55.73657 -53.13890 180.38725 417
52.66846 -53.93885 182.86618 414
49.51048 -54.79095 185.40588 412
46.16131 -55.64211 187.97606 398
42.66908 -56.59188 190.69508 396
39.00510 -57.55271 193.44322 393
35.26799 -58.50377 196.35446 391
31.32357 -59.53830 199.30533 378
26.86688 -60.73524 202.40152 375
22.26861 -61.95532 205.62427 372
79.94148 -47.79060 174.62326 434
77.50849 -48.44020 176.68944 431
75.01047 -49.11525 178.78651 428
66.56230 -51.36507 179.66840 304
55.25479 -54.41166 180.23723 416
52.18909 -55.22331 182.69472 414
48.88770 -56.12140 185.26118 400
45.48496 -57.04561 187.87003 397
41.89885 -57.98999 190.54146 395
38.24850 -59.00223 193.33267 393
34.43327 -59.98195 196.23576 390
30.31321 -61.09147 199.23778 377
25.80058 -62.34988 202.32161 374
21.12762 -63.60511 205.51476 372
79.67758 -48.80270 174.47723 434
77.23280 -49.48027 176.53140 430
74.72086 -50.17204 178.65929 428
66.79367 -52.35902 179.64914 304
54.82455 -55.63760 180.06917 415
51.55270 -56.52178 182.51602 401
48.19463 -57.46137 185.09312 399
44.76522 -58.44369 187.68591 397
41.18118 -59.39283 190.39697 394
37.44679 -60.41291 193.18915 392
33.62030 -61.48893 196.14133 389
29.29218 -62.67851 199.06784 376
24.74429 -63.94737 202.23373 373
19.99639 -65.22434 205.44531 371
79.42216 -49.83286 174.31992 433
-25.62172 -7.17067 -6.64812 429
74.42885 -51.25943 178.54849 427
67.07375 -53.32339 179.65897 304
54.20402 -56.97916 179.90800 403
50.90991 -57.87936 182.38257 401
47.50290 -58.84454 184.91357 398
44.01138 -59.81878 187.54428 396
40.39522 -60.85299 190.26552 393
36.67408 -61.88868 193.08693 391
32.66558 -63.05611 195.98761 378
28.24267 -64.30304 199.00549 375
23.61195 -65.58401 202.11363 372
18.81761 -66.95834 205.34894 370
79.12851 -50.88092 174.20828 432
76.64732 -51.61648 176.27451 429
74.09782 -52.36856 178.42422 426
67.32532 -54.32259 179.66974 304
53.56647 -58.29548 179.68213 402
50.22462 -59.22617 182.20792 400
46.83862 -60.21046 184.75470 397
43.31824 -61.25330 187.35406 395
39.65630 -62.30482 190.09174 392
35.89373 -63.40341 192.93896 390
31.63884 -64.57690 195.83369 377
27.16860 -65.87716 198.84401 374
22.49645 -67.25342 202.00060 372
17.67260 -68.65036 205.27734 369
78.86704 -51.95221 174.04863 432
76.39175 -52.72198 176.13342 428
73.81252 -53.47330 178.28018 426
67.55083 -55.32054 179.66652 304
52.90229 -59.60565 179.49933 401
49.60097 -60.56799 181.98767 399
46.10770 -61.60320 184.54826 397
42.56604 -62.65812 187.19820 394
38.89901 -63.78216 189.96681 392
34.97746 -64.92757 192.78940 379
30.61842 -66.16374 195.68492 376
26.10798 -67.53123 198.75781 373
21.39485 -68.94917 201.90417 371
16.47897 -70.39446 205.20520 368
78.60245 -53.00947 173.90334 429
76.10898 -53.76714 175.98959 427
73.50973 -54.55957 178.14447 425
67.80666 -56.28757 179.63535 304
52.26144 -60.96142 179.31718 400
48.92103 -61.95770 181.80418 398
45.44229 -63.01242 184.39137 396
41.82246 -64.13604 187.05397 393
38.11613 -65.25316 189.82077 391
33.97600 -66.47910 192.64413 378
29.61491 -67.79986 195.55965 375
25.01601 -69.18211 198.64482 372
20.28164 -70.64919 201.79207 370
15.24749 -72.13223 205.10500 367
78.32785 -54.10113 173.73720 429
75.82272 -54.86423 175.84373 427
73.22318 -55.68938 177.98776 424
68.11708 -57.24321 179.64745 304
51.59612 -62.31344 179.09166 400
48.20095 -63.34708 181.63438 397
44.72739 -64.46136 184.22113 395
41.10403 -65.59728 186.88303 392
37.27843 -66.74962 189.66460 379
32.97520 -68.08419 192.50194 377
28.56482 -69.47201 195.44009 374
23.92273 -70.89305 198.48448 372
19.07514 -72.34706 201.69452 369
13.31645 -74.17344 205.02954 322
78.03058 -55.18496 173.59212 428
75.52077 -55.97689 175.72154 426
72.91783 -56.81102 177.84932 424
68.37642 -58.22067 179.65321 304
50.94662 -63.71372 178.91676 399
47.52519 -64.79037 181.42191 396
44.00566 -65.88411 184.00589 394
40.33232 -67.04354 186.71240 392
36.33166 -68.32719 189.49736 378
32.00352 -69.67124 192.30980 376
27.51886 -71.09959 195.27213 373
22.81063 -72.60674 198.36201 371
17.54637 -74.28342 201.55675 339
10.45440 -76.52198 204.86584 321
77.76456 -56.22934 173.44232 427
75.20184 -57.05139 175.55338 425
72.60551 -57.90630 177.70795 423
68.65892 -59.20050 179.65605 304
50.32582 -65.07090 178.71451 398
46.85884 -66.22460 181.25055 396
43.23542 -67.36823 183.84024 393
39.55095 -68.55533 186.55188 380
35.35792 -69.92062 189.28294 378
30.95850 -71.34106 192.12538 375
26.44953 -72.79011 195.10710 372
21.53749 -74.34829 198.23979 341
15.39899 -76.31910 201.37552 338
7.49110 -78.90257 204.67747 320
77.48905 -57.33603 173.30144 427
74.93553 -58.21408 175.38733 425
72.30994 -59.05411 177.56479 422
68.91733 -60.15112 179.63248 304
49.65587 -66.52321 178.49420 397
46.11434 -67.63348 181.03375 395
42.50276 -68.83536 183.63872 392
38.62774 -70.11877 186.34512 379
34.37009 -71.51914 189.12778 377
29.98932 -72.97595 191.98811 374
25.33970 -74.47610 194.99963 371
19.50261 -76.41966 198.01065 340
12.63573 -78.65608 201.20053 321
4.41880 -81.39446 204.46193 319
77.23746 -58.45320 173.13226 426
74.63437 -59.29881 175.25272 424
71.78358 -60.26081 177.39497 394
68.80373 -61.27028 179.53914 406
48.93983 -67.92931 178.29802 396
45.44601 -69.12875 180.85538 394
41.78551 -70.31504 183.48956 391
37.67015 -71.69763 186.15567 378
33.40348 -73.16284 188.94383 376
28.90009 -74.66984 191.82327 373
23.49062 -76.51942 194.75737 341
17.42434 -78.50668 197.80988 339
9.71904 -81.07497 200.94164 320
1.29045 -83.92316 204.29492 318
76.92689 -59.54758 172.99149 425
74.26340 -60.47581 175.07469 395
71.15455 -61.53583 177.15950 393
68.15858 -62.54477 179.32715 405
48.27835 -69.35198 178.05284 395
44.72106 -70.59062 180.61154 393
40.95275 -71.87748 183.27254 380
36.76508 -73.30320 185.91769 377
32.38424 -74.82071 188.73447 375
27.35893 -76.54763 191.55478 342
21.48472 -78.57865 194.49779 340
14.85111 -80.85760 197.52180 322
6.71703 -83.57629 200.72437 319
-1.96038 -86.62707 204.10034 317
76.64826 -60.66908 172.81853 425
73.63269 -61.74345 174.84689 395
70.54060 -62.83887 176.92401 392
67.57183 -63.85001 179.14124 404
56.67068 -67.63494 179.74640 300
43.97653 -72.04808 180.44550 392
40.03436 -73.44759 183.04726 379
35.77441 -74.92455 185.74991 376
31.11122 -76.59341 188.50415 344
25.44889 -78.60248 191.29091 341
19.42913 -80.65877 194.20621 339
12.00756 -83.29960 197.23515 321
3.65281 -86.21576 200.45828 318
-5.35575 -89.37889 203.92101 290
76.07684 -61.87771 172.54572 396
73.02846 -62.98988 174.61050 394
69.86320 -64.12641 176.67258 391
66.93575 -65.18620 178.91754 403
57.01100 -68.72234 179.77315 300
43.19646 -73.60687 180.19394 380
39.11980 -75.08687 182.77162 378
34.78651 -76.62005 185.50534 345
29.28641 -78.58863 188.18176 343
23.47544 -80.68092 190.96744 340
17.04616 -82.94251 193.93703 322
9.05023 -85.80641 196.92079 320
0.47386 -88.84707 200.20255 317
-18.56850 -95.63588 203.16968 260
75.50676 -63.13450 172.32782 395
72.39725 -64.28419 174.34943 393
69.24388 -65.43877 176.45082 390
66.30238 -66.47584 178.68660 402
57.32639 -69.71368 179.73920 300
42.31599 -75.16456 179.97612 380
38.14016 -76.72205 182.56563 377
32.98600 -78.59173 185.14850 344
27.40113 -80.65304 187.87482 342
21.44380 -82.76135 190.69519 339
14.24491 -85.42501 193.58946 321
6.02867 -88.43484 196.67807 318
-4.22739 -92.10719 199.87184 290
74.90782 -64.41935 172.03903 394
71.79081 -65.56744 174.09764 392
68.57590 -66.74726 176.20540 390
65.64131 -67.85196 178.47891 401
57.68369 -70.79981 179.74864 300
41.42519 -76.78456 179.68901 379
36.64728 -78.57598 182.21484 345
31.17935 -80.60754 184.81908 343
25.46146 -82.70489 187.51651 340
19.23409 -84.98864 190.34805 322
11.38490 -87.93806 193.27087 320
2.86735 -91.07810 196.33992 317
-16.45376 -98.23650 198.92122 271
74.40723 -65.65014 171.80640 316
71.16456 -66.84646 173.84262 391
67.89445 -68.10451 175.94223 389
65.01005 -69.17175 178.23265 401
58.02571 -71.82957 179.72153 300
40.21776 -78.56082 179.35028 347
34.87586 -80.56269 181.86755 344
29.34720 -82.62401 184.47078 342
23.49286 -84.83112 187.16618 339
16.50254 -87.51015 189.99571 321
8.37011 -90.57269 192.85039 319
-3.11176 -94.89716 195.74803 273
74.21490 -66.03313 171.82211 316
70.54816 -68.19403 173.57802 390
67.22864 -69.48367 175.68900 388
64.35856 -70.57616 177.98233 400
58.41207 -72.85793 179.74321 300
38.52331 -80.46896 179.00070 345
33.12885 -82.53047 181.47285 343
27.45796 -84.76440 184.06308 341
21.45824 -87.03863 186.81631 323
13.67475 -90.05738 189.57301 320
4.22670 -93.67229 192.42468 291
-15.46324 -101.23888 194.65662 271
75.09664 -67.49020 171.81235 316
69.88988 -69.54079 173.29057 389
66.56705 -70.83867 175.41502 387
63.69271 -71.94079 177.76704 399
58.77761 -73.88587 179.76353 300
36.81044 -82.45110 178.57953 344
31.29923 -84.63702 181.03465 342
25.52535 -86.89471 183.71840 340
18.74915 -89.51307 186.36819 321
10.72401 -92.65881 189.17245 319
-2.08241 -97.71361 191.64276 273
75.40307 -68.43781 171.80107 316
69.24300 -70.90389 173.03767 388
65.86898 -72.24280 175.14240 386
63.03068 -73.36737 177.52893 398
59.17706 -74.90215 179.76041 300
35.09277 -84.51449 178.10791 343
29.49051 -86.74088 180.64015 341
23.53839 -89.10263 183.29382 338
15.98129 -92.08937 185.91426 320
5.44826 -96.31698 188.41582 291
75.77218 -69.37978 171.81889 316
68.59988 -72.27568 172.73320 387
65.20108 -73.65276 174.90817 385
62.35788 -74.78902 177.29585 397
59.52032 -75.97760 179.73891 395
33.34008 -86.56135 177.71605 342
27.55723 -88.88477 180.23572 340
21.06627 -91.55734 182.82620 322
12.47265 -95.03158 185.37416 292
-0.89170 -100.42458 187.58357 272
76.08992 -70.30020 171.79155 316
67.94325 -73.66090 172.47745 386
64.48291 -75.07803 174.64290 398
61.67378 -76.26024 177.01389 396
58.82384 -77.42501 179.46271 394
44.83241 -83.23464 179.87254 296
25.63565 -91.08949 179.78888 339
18.33889 -94.15685 182.28215 321
6.76226 -98.94544 184.49086 291
76.48326 -71.21738 171.81339 316
67.26258 -75.08746 172.20836 385
63.85413 -76.53526 174.35513 397
61.01509 -77.73762 176.78683 395
58.09407 -78.93381 179.25369 393
45.24432 -84.31451 179.84415 296
23.30934 -93.53568 179.27971 322
13.73586 -97.53481 181.50320 292
0.35607 -103.14978 183.48351 272
-4951.01904 -2179.16528 -335.78122 1000
76.80075 -72.12661 171.78954 316
66.56724 -76.52062 171.89371 385
63.17794 -77.95285 174.08084 396
60.28080 -79.19906 176.50328 394
57.31990 -80.46141 179.00787 392
45.66168 -85.43195 179.82800 296
20.45461 -96.22261 178.68987 293
8.09473 -101.50162 180.47641 291
-26.29876 -116.15061 179.59932 335
77.18530 -73.02228 171.77298 316
66.92467 -77.51057 171.88861 312
62.47040 -79.45164 173.81738 395
59.59733 -80.72108 176.23790 393
56.54005 -82.01960 178.71124 336
46.10820 -86.54697 179.83797 296
15.15820 -100.02697 177.60960 292
1.81177 -105.78893 179.38921 272
-21.57166 -115.91094 180.20119 337
77.57992 -73.95903 171.77553 316
67.32009 -78.45457 171.88556 312
61.82943 -80.91453 173.54584 394
58.85438 -82.21938 175.95049 392
54.60105 -84.13216 178.19797 335
46.60715 -87.68835 179.81779 296
9.56616 -104.02610 176.55241 291
-16.93533 -115.73630 176.26169 338
-19.27707 -116.73530 180.42744 284
77.94708 -74.86766 171.77652 316
67.73234 -79.43454 171.86934 312
61.12580 -82.42680 173.24165 393
57.32566 -84.14051 175.50833 336
52.65406 -86.27729 177.67877 334
47.03583 -88.74802 179.81902 296
29.32600 -96.76189 180.00024 292
-10.82753 -114.74623 177.12306 281
-18.61173 -118.27829 180.42149 284
-2226.29346 -1109.01904 -3.83457 411
78.33062 -75.81207 171.76924 316
68.13994 -80.43658 171.86691 312
60.03281 -84.14269 172.86131 336
55.42556 -86.22733 174.92262 334
50.58492 -88.42621 177.15515 332
45.71817 -90.72609 179.45349 332
29.79915 -97.91718 179.97858 292
0.51011 -111.31234 178.87514 283
-17.96828 -119.75549 180.41223 284
-2215.67773 -1122.72375 -4.20175 480
-2221.91064 -1125.36011 39.54853 496
78.70393 -76.69886 171.79330 316
68.55618 -81.39616 171.88831 312
58.22027 -86.19743 172.24260 335
53.48616 -88.39865 174.39253 333
48.51381 -90.74342 176.59784 331
43.46901 -93.07135 178.90576 330
30.32965 -99.15982 179.96449 292
9.03516 -109.04533 180.19339 288
79.11687 -77.58862 171.76579 316
68.96427 -82.36622 171.87093 312
57.47452 -87.79375 171.97986 308
51.46904 -90.66528 173.76736 332
46.39049 -93.04347 176.01859 331
41.24652 -95.50705 178.34941 329
30.86278 -100.33705 179.98096 292
9.56863 -110.40530 180.13223 288
79.51816 -78.52641 171.76794 316
69.43347 -83.36607 171.86205 312
57.97385 -88.84567 171.94263 308
49.40403 -92.92481 173.16177 331
44.21084 -95.43884 175.41893 330
38.87702 -97.95824 177.78781 328
31.41442 -101.58383 179.96335 292
10.17254 -111.69500 180.16277 288
79.89095 -79.39641 171.77994 316
69.87062 -84.32378 171.86041 312
58.42722 -89.85095 171.96803 308
47.24570 -95.29053 172.51462 330
41.90498 -97.91192 174.80989 329
36.48143 -100.57310 177.17915 327
26.07037 -105.60851 178.90741 281
10.77569 -113.06198 180.17035 288
80.30370 -80.28902 171.77968 316
70.27073 -85.27386 171.86903 312
58.89294 -90.88548 171.94078 308
45.85312 -97.32333 172.03328 304
39.57217 -100.46725 174.14047 327
31.78418 -104.28618 176.16653 279
17.75159 -111.24971 177.27866 279
-80.53194 -159.85149 164.98492 284
80.73737 -81.22065 171.74706 316
70.76027 -86.21781 171.82539 312
59.39850 -91.92812 171.93686 308
46.37283 -98.45728 172.03575 304
37.21592 -103.08604 173.49947 326
23.56057 -109.91021 174.33492 278
-7.29933 -125.41075 172.52919 292
-2786.81201 -1520.06482 -5.02764 454
81.15649 -82.10578 171.74118 316
71.18542 -87.17124 171.85825 312
59.86182 -92.94614 171.95200 308
46.87918 -99.56171 172.06143 304
31.90587 -107.20718 172.14876 300
14.60252 -116.02821 172.41063 277
-55.71374 -151.88542 163.37022 366
81.59756 -82.99629 171.75282 316
71.64788 -88.11395 171.86382 312
60.36198 -93.96246 171.93057 308
47.43602 -100.64484 172.03929 304
31.99254 -107.99255 172.16104 300
14.95675 -117.50282 172.34058 296
-51.67036 -151.92487 164.01048 367
82.00679 -83.86668 171.77777 316
72.10545 -89.09170 171.85745 312
60.84869 -95.01188 171.91861 308
47.98281 -101.74020 172.01755 304
33.06499 -109.61922 172.17728 300
15.60202 -118.81566 172.32794 296
-47.72541 -151.99995 164.59305 369
82.47597 -84.76471 171.72690 316
72.56091 -90.03910 171.85297 312
61.37024 -96.01602 171.94417 308
48.54329 -102.86740 172.05116 304
33.63991 -110.81691 172.16283 300
16.22622 -120.06950 172.32841 296
-43.51983 -151.95349 165.20963 360
82.90437 -85.66208 171.74271 316
73.06268 -90.98178 171.85376 312
61.89821 -97.00639 171.94853 308
49.08109 -103.98299 172.03783 304
34.27755 -111.98968 172.18602 300
16.86068 -121.37379 172.27983 296
-42.24177 -153.40379 165.28651 286
83.33390 -86.51125 171.73381 316
73.54637 -91.93115 171.83878 312
62.42610 -98.05041 171.92892 308
49.61918 -105.07597 172.05281 304
34.87719 -113.19036 172.12474 300
17.55483 -122.71953 172.32797 296
-41.35949 -155.04736 165.26839 286
83.80897 -87.41010 171.75952 316
74.03801 -92.83020 171.84708 312
62.90908 -99.04008 171.91617 308
50.20278 -106.12228 172.02980 304
35.46047 -114.37467 172.17368 300
18.21747 -123.98668 172.32796 296
-40.49838 -156.66362 165.28214 286
84.27106 -88.27871 171.75143 316
74.50793 -93.80302 171.83322 312
63.44264 -100.04364 171.91341 308
50.80035 -107.19736 172.01079 304
36.08512 -115.54974 172.15331 300
18.89023 -125.26169 172.28656 296
-39.56470 -158.31544 165.26991 286
84.73347 -89.12215 171.74144 316
75.03897 -94.71739 171.80136 312
63.99815 -101.05698 171.91618 308
51.38531 -108.28756 172.03453 304
-18.49883 -10.60463 -4.24248 300
-23.89606 -151.45480 163.12538 367
-38.66855 -159.98680 165.21147 286
85.18781 -90.01481 171.74744 316
75.54542 -95.67292 171.80058 312
64.51233 -102.02472 171.90459 308
51.92367 -109.36890 171.99867 304
37.35450 -117.85771 172.13417 300
-20.26383 -151.37712 163.76633 368
85.66028 -90.89312 171.71121 316
76.03278 -96.59917 171.83047 312
65.09367 -103.02266 171.88867 308
52.51428 -110.43515 172.01802 304
38.02602 -119.00417 172.13626 300
-16.70145 -151.30936 164.28889 369
86.18575 -91.74188 171.72955 316
76.54715 -97.48792 171.80591 312
65.65436 -104.04133 171.91130 308
53.16336 -111.50481 171.98456 304
38.65759 -120.21532 172.13248 300
-13.15969 -151.21486 164.89873 371
-37328.14844 -22497.16992 928.44403 1000
86.66952 -92.60389 171.71483 316
77.05711 -98.43642 171.80811 312
66.19864 -104.99761 171.86821 308
53.76374 -112.58635 172.00140 304
39.33014 -121.34270 172.14328 300
-9.78047 -151.10010 165.39317 372
87.15049 -93.46241 171.72429 316
77.62308 -99.32593 171.78941 312
66.77032 -105.98856 171.86978 308
54.36297 -113.65477 172.01604 304
40.00426 -122.48627 172.13905 300
-7.33825 -151.60992 165.72574 291
87.66680 -94.30199 171.71478 316
78.12229 -100.26185 171.80600 312
67.35458 -107.00931 171.86357 308
54.95970 -114.69650 171.98198 304
40.67881 -123.66718 172.07608 300
-6.45782 -153.05339 165.72627 291
88.13354 -95.17027 171.68303 316
78.64875 -101.16331 171.78520 312
67.93389 -107.96281 171.90456 308
55.59734 -115.73599 171.97617 304
2.84000 -149.12491 163.01849 285
-5.55421 -154.43375 165.71519 291
88.65168 -96.00582 171.70370 316
79.23666 -102.05783 171.78656 312
68.50863 -108.93617 171.87894 308
56.25483 -116.79691 172.00609 304
3.19275 -150.81705 162.93964 377
-4.58741 -155.80127 165.78806 291
89.17857 -96.87725 171.70963 316
79.78843 -102.94455 171.78316 312
69.10628 -109.91794 171.84085 308
56.87658 -117.88390 171.98578 304
6.26200 -150.77016 163.46364 378
-3.64257 -157.20395 165.77203 290
89.65956 -97.70789 171.69115 316
80.32629 -103.84592 171.78949 312
69.70818 -110.88203 171.85507 308
57.48913 -118.91431 171.95551 304
9.24724 -150.68416 163.94875 379
-2.78148 -158.65105 165.73914 290
90.18677 -98.53841 171.68707 316
80.87798 -104.76151 171.77808 312
70.29419 -111.85983 171.83723 308
58.17146 -119.94210 171.97614 304
12.22108 -150.60001 164.47354 381
90.72481 -99.37753 171.69931 316
81.46297 -105.66539 171.77148 312
70.90137 -112.81055 171.82841 308
58.81258 -120.98420 171.98445 304
15.17790 -150.52731 164.94208 382
-55204.11328 -37515.46484 -9726.10449 1000
91.26830 -100.19703 171.68394 316
82.02893 -106.54811 171.74260 312
71.52898 -113.73580 171.83751 308
59.46111 -121.97823 171.96002 304
17.97678 -150.49350 165.40102 383
91.82166 -101.00099 171.66104 316
82.62195 -107.43449 171.75679 312
72.12166 -114.71450 171.84518 308
60.13914 -123.00922 171.92427 304
20.76662 -150.40279 165.86623 382
92.35847 -101.82317 171.66075 316
83.18748 -108.29160 171.73372 312
72.77461 -115.62856 171.82430 308
28.07725 -147.09494 163.29547 297
22.65690 -150.96234 166.12265 297
92.88723 -102.64237 171.67265 316
83.75371 -109.17853 171.72844 312
73.41302 -116.57552 171.84912 308
28.81179 -148.41417 163.26740 297
23.49551 -152.19627 166.09653 297
93.43590 -103.50296 171.64284 316
84.34904 -110.06213 171.72293 312
74.02667 -117.55460 171.85394 308
29.49662 -149.75899 163.18024 297
24.41202 -153.41112 166.15991 297
94.00460 -104.29955 171.66635 316
84.95518 -110.95704 171.72830 312
74.69775 -118.49900 171.84711 308
31.64157 -150.00385 163.52504 386
25.24469 -154.66212 166.13541 297
94.58096 -105.09521 171.66875 316
85.57253 -111.78114 171.72134 312
75.32656 -119.42652 171.79846 308
34.19738 -149.90131 163.99815 388
26.18987 -155.85834 166.14584 297
95.17039 -105.94091 171.64745 316
86.17973 -112.68736 171.74261 312
75.95670 -120.33624 171.81792 308
36.76461 -149.80608 164.43860 389
27.08408 -157.06543 166.16060 297
-48677.41797 -36750.92188 -9902.10938 1000
95.71301 -106.71201 171.63179 316
86.81251 -113.52738 171.70399 312
76.62318 -121.23573 171.82880 308
39.26064 -149.67455 164.94252 390
27.95130 -158.32161 166.14755 297
96.30702 -107.50424 171.65758 316
87.42370 -114.38831 171.73523 312
77.32009 -122.17027 171.78995 308
41.74588 -149.59756 165.38022 391
96.87415 -108.29879 171.63141 316
88.05689 -115.23538 171.71988 312
49.71353 -145.17325 163.42738 300
44.15569 -149.54697 165.79201 392
97.46872 -109.12555 171.64258 316
88.66610 -116.09702 171.70602 312
50.43031 -146.33804 163.35542 300
46.51464 -149.40340 166.16245 394
98.08680 -109.91221 171.61166 316
89.29818 -116.91473 171.69778 312
51.14132 -147.51744 163.34158 300
47.56974 -150.35779 166.26534 302
98.68553 -110.67999 171.64426 316
89.94662 -117.76602 171.69463 312
51.81269 -148.64719 163.28522 300
48.45709 -151.45161 166.24318 302
99.28287 -111.45723 171.62045 316
90.61771 -118.59875 171.69974 312
53.36620 -149.13634 163.48480 397
49.30730 -152.52911 166.24481 302
99.87771 -112.24360 171.60463 316
91.23026 -119.43414 171.66603 312
55.63488 -149.06735 163.96001 398
50.23637 -153.60490 166.27061 301
100.51501 -113.02696 171.59966 316
91.90190 -120.26706 171.66103 312
57.78878 -148.99812 164.34363 399
51.08169 -154.64969 166.27931 301
101.12623 -113.78853 171.60144 316
68.06529 -141.96503 163.58698 304
59.97034 -148.91560 164.71042 400
51.96583 -155.70921 166.23837 301
101.73042 -114.53468 171.59549 316
68.77556 -143.07291 163.58716 304
62.03401 -148.83897 165.13657 402
52.91092 -156.77998 166.21866 301
102.36985 -115.31972 171.60893 316
69.47730 -144.12077 163.53989 304
64.16447 -148.78085 165.49791 403
53.81433 -157.84093 166.24951 301
103.01030 -116.07368 171.57251 316
70.20338 -145.15668 163.51204 304
66.18781 -148.71408 165.87790 404
103.65571 -116.86610 171.59555 316
70.94211 -146.17101 163.43912 304
68.20631 -148.60692 166.24911 405
104.30380 -117.58897 171.59920 316
71.66602 -147.21722 163.44724 304
69.38132 -149.28297 166.31267 306
104.92158 -118.35599 171.55954 316
72.41812 -148.25166 163.36722 304
70.26203 -150.24184 166.31911 306
105.57992 -119.10302 171.57886 316
74.07712 -148.36813 163.67770 408
71.11471 -151.16147 166.31158 306
106.26025 -119.83396 171.57835 316
75.98249 -148.31839 164.00978 409
72.03381 -152.08241 166.37408 306
85.72462 -140.79436 163.69836 311
77.86190 -148.23648 164.40869 410
72.90141 -153.00900 166.35979 306
86.46429 -141.69437 163.63972 308
79.71115 -148.17439 164.75719 411
73.81826 -153.93442 166.32701 306
87.19301 -142.61385 163.60960 308
81.56436 -148.14003 165.08324 412
74.71952 -154.81703 166.34137 305
87.88847 -143.53111 163.61548 308
83.37944 -148.05405 165.42055 413
75.62094 -155.73334 166.37434 305
88.67413 -144.46191 163.55717 308
85.13495 -147.98796 165.74889 415
76.52080 -156.62689 166.34229 305
89.41315 -145.34822 163.52135 308
86.89457 -147.88074 166.08086 416
90.15668 -146.28349 163.50728 308
88.63809 -147.84355 166.38188 417
90.92436 -147.14526 163.48572 307
89.58143 -148.53052 166.39844 310
92.02530 -147.72382 163.55266 418
90.46447 -149.38094 166.39977 310
93.70587 -147.63556 163.88063 419
91.31858 -150.16841 166.41008 310
95.35745 -147.60609 164.22464 420
92.23775 -150.95210 166.45647 310
96.94944 -147.52293 164.54593 411
93.11461 -151.79784 166.43834 310
98.66434 -147.35844 164.87991 412
93.99139 -152.54155 166.44371 310
100.36248 -147.18420 165.18364 413
94.85431 -153.35480 166.42725 310
102.01464 -146.98853 165.53667 414
95.77664 -154.13060 166.44920 310
103.65685 -146.85736 165.85298 415
96.64971 -154.90335 166.46851 310
105.29608 -146.66611 166.19916 416
97.53573 -155.67441 166.43594 310
106.79610 -146.60001 166.45061 314
107.64774 -147.34222 166.45392 314
108.51176 -148.03519 166.47162 314
109.36294 -148.73502 166.46748 314
110.21631 -149.42598 166.46143 314
111.06681 -150.15167 166.45891 314
111.92228 -150.78752 166.47256 314
115.08728 -148.55211 167.44348 316
115.90675 -149.25589 167.46481 316
116.80402 -149.92180 167.47342 316
117.61843 -150.59532 167.44337 316
117.43616 -150.83307 170.55312 312
120.09630 -149.04645 168.14960 490
120.89929 -149.75552 168.15819 490
124.21503 -148.76744 168.86008 490
127.13738 -148.26778 169.45407 487
-370.25208 -2649.93018 -142.97459 1000
14593.52930 -38108.27344 2207.63452 1000
37056.76172 -55697.96094 -14389.82031 1000
3818.17725 -4846.48828 -195.03105 1000
1206.10559 -1164.54138 -14.55448 412
1209.63892 -1168.54663 10.47416 412
1213.32886 -1173.19995 35.19660 347
1209.77576 -1154.09436 -13.62195 492
1212.81775 -1157.80688 11.27874 492
1216.35132 -1161.62415 36.20261 495
1220.08606 -1166.01587 60.75564 497
1217.26343 -1148.31519 -13.75672 479
1221.42651 -1153.32410 11.10951 437
1227.96716 -1160.58069 35.45442 306
1229.75610 -1148.13574 -14.96210 377
24924.88477 -24862.69727 1856.80627 1000
6058.31494 -4581.85498 -653.64398 1000
356.97437 -112.63548 167.57362 316
357.70709 -111.72107 167.55638 316
358.42676 -110.80392 167.56128 316
359.12787 -109.93579 167.56938 315
359.85663 -109.03703 167.57175 315
360.58044 -108.13251 167.57712 315
361.24930 -107.18186 167.61276 315
361.95953 -106.27467 167.61914 315
362.66382 -105.38250 167.58681 315
363.37622 -104.43391 167.59418 315
364.03860 -103.50014 167.61328 315
364.72415 -102.61698 167.61790 315
365.38498 -101.64707 167.61029 315
366.05557 -100.72718 167.61919 315
367.23602 -100.07388 167.45219 438
368.58304 -99.63280 167.25945 437
370.01929 -99.10474 166.98145 437
378.59122 -104.41496 167.62300 310
371.41833 -98.60715 166.76105 436
379.24289 -103.38472 167.68297 310
372.85757 -98.11597 166.54512 435
379.89810 -102.37222 167.65274 310
374.33725 -97.63849 166.25485 434
380.56754 -101.33149 167.66739 310
34708.71094 -20439.07031 8114.64893 1000
375.80356 -97.12303 166.03006 433
381.21613 -100.28678 167.66414 310
377.25604 -96.61401 165.78308 432
381.86191 -99.25263 167.68291 311
378.78787 -96.12118 165.49431 431
382.52313 -98.20913 167.70537 311
380.25644 -95.59148 165.24763 430
383.17468 -97.18125 167.69437 311
381.79407 -95.04495 164.93463 429
383.78766 -96.12498 167.71945 311
383.16528 -94.42454 164.74945 317
384.43661 -95.10174 167.71613 311
383.85480 -93.39535 164.72845 317
385.07361 -94.05714 167.72203 311
384.48953 -92.34868 164.73813 317
386.49741 -93.41121 167.48280 426
385.09106 -91.29546 164.70642 317
388.07788 -92.89845 167.18890 425
385.72617 -90.30879 164.73302 317
389.72369 -92.30061 166.93913 424
386.37726 -89.25705 164.69432 317
391.33734 -91.76960 166.61937 423
400.23175 -96.20440 167.71440 306
386.98718 -88.19253 164.67986 317
392.96075 -91.17529 166.36008 422
400.79822 -95.08631 167.74463 306
387.59253 -87.17253 164.67879 317
394.62192 -90.62206 166.04765 421
401.43246 -93.93802 167.72704 306
388.19968 -86.11390 164.69490 317
396.34729 -90.02347 165.77219 420
402.01675 -92.77229 167.71851 306
388.81747 -85.05613 164.69432 317
398.03745 -89.40591 165.47600 419
402.59668 -91.59239 167.75224 306
5937.52930 -2708.99365 -733.22559 1000
56923.61328 -26837.62891 7328.85449 1000
389.37387 -83.97180 164.70157 317
399.76791 -88.80096 165.10727 418
403.15179 -90.43011 167.79085 306
389.98013 -82.90717 164.68457 317
401.54071 -88.23689 164.81247 417
403.72720 -89.21101 167.77516 306
367.53741 -71.51653 171.45558 318
