# .PCD v.7 - Point Cloud Data file format
VERSION .7
FIELDS x y z rgb
SIZE 4 4 4 4
TYPE F F F U
COUNT 1 1 1 1
WIDTH 1392
HEIGHT 1
VIEWPOINT 6837.767090 -3345.156006 145.004532 -0.775475 -0.123722 -0.066207 0.615588
POINTS 1392
DATA ascii
60.71088 -7.29352 188.25708 452
58.26903 -7.30115 190.73837 450
55.75309 -7.28932 193.24684 447
53.18888 -7.31179 195.84312 445
50.54052 -7.31627 198.52315 442
47.83488 -7.29619 201.25261 440
45.04359 -7.30459 204.05130 437
42.18696 -7.29029 206.95988 435
39.22483 -7.30559 209.90042 432
-159.87422 -7.68103 222.88438 499
-162.19020 -7.71541 229.39117 499
-150.76028 -7.70080 235.23236 497
-184.20650 -7.68752 243.69864 472
-162.75121 -7.62610 248.71387 499
-167.59106 -7.64206 255.65106 375
-160.80133 -7.72455 261.45789 498
-149.24985 -7.69865 266.35159 497
-153.21179 -7.69585 273.30063 374
-135.75061 -7.62761 276.80307 495
-111.11568 -7.54577 278.43912 494
-198.39827 -7.72071 301.70792 495
-198.41876 -7.73396 309.11142 494
-198.44086 -7.74819 316.45392 493
-198.33994 -7.67522 323.88483 492
85.97708 -8.12613 177.61497 465
83.50526 -8.12992 179.53467 312
69.88376 -8.21873 178.91675 461
67.61096 -8.25758 181.15634 459
65.31367 -8.28265 183.44191 457
62.97128 -8.29230 185.83598 455
60.58083 -8.30639 188.22116 452
58.13507 -8.30342 190.68965 450
55.63810 -8.34755 193.25583 447
53.07077 -8.38379 195.82224 445
50.40858 -8.37260 198.52219 442
47.71910 -8.42284 201.24626 440
44.93111 -8.41504 204.04034 437
42.04296 -8.45171 206.94139 434
39.11920 -8.49433 209.94193 432
-159.84337 -10.05531 222.86748 499
-178.37096 -10.19494 229.96179 476
-151.06342 -10.00540 235.18968 472
-184.22833 -10.30100 243.65530 472
-187.27664 -10.29907 250.78741 470
-164.07069 -10.08126 274.89542 283
-138.84137 -9.87658 277.35263 292
85.87042 -8.99159 177.63007 465
83.46948 -9.01284 179.50717 312
69.78296 -9.19948 178.87421 461
67.52711 -9.22102 181.12456 458
65.23570 -9.24974 183.42542 456
62.88231 -9.28798 185.80635 454
60.48314 -9.35088 188.22397 452
58.01427 -9.34830 190.70032 450
55.52405 -9.40392 193.24051 447
52.92807 -9.45850 195.79732 445
50.29058 -9.45134 198.49733 442
47.55735 -9.50726 201.24435 440
44.77694 -9.57138 204.04218 437
41.92936 -9.61388 206.90869 434
38.97257 -9.65549 209.89056 431
-159.93153 -12.48407 222.88834 499
-152.17549 -12.32185 235.22470 471
-180.94711 -12.73485 277.50674 287
-147.41353 -12.28813 278.77649 271
85.81536 -9.84193 177.58881 465
83.44635 -9.87632 179.50862 312
69.71132 -10.15402 178.85789 460
67.42268 -10.21114 181.10660 458
65.11349 -10.26652 183.44691 456
62.74664 -10.31106 185.77092 454
60.34425 -10.35943 188.18651 452
57.89002 -10.42226 190.65221 450
55.40271 -10.45203 193.22099 447
52.79999 -10.50505 195.81798 445
50.14595 -10.55858 198.46965 442
47.45166 -10.60574 201.22182 439
44.66453 -10.67005 204.00630 437
41.78482 -10.70886 206.91403 434
38.78747 -10.78483 209.88919 431
-179.64890 -15.23447 223.28426 384
-153.24048 -14.70764 235.27798 470
-183.38170 -15.31340 277.84326 287
85.73776 -10.72306 177.56201 465
83.44842 -10.76144 179.51634 312
69.59035 -11.15446 178.85236 460
67.34754 -11.18986 181.11028 458
65.02847 -11.26991 183.41409 456
62.67293 -11.31163 185.78474 454
60.23469 -11.37861 188.19960 452
57.78269 -11.43267 190.64333 449
55.28235 -11.51122 193.21515 447
52.65951 -11.59374 195.77480 444
50.04882 -11.65174 198.47522 442
47.29792 -11.71249 201.21950 439
44.49448 -11.77728 204.04208 437
41.62933 -11.89288 206.91675 434
38.68292 -11.93104 209.89777 431
-179.66296 -17.73835 223.26707 384
-156.14595 -17.14642 235.50572 400
85.64443 -11.57702 177.54764 465
83.42286 -11.64554 179.53125 312
69.53349 -12.10628 178.84912 460
-149.63727 -4.89201 -32.04046 458
64.95174 -12.27490 183.40964 456
62.56820 -12.31187 185.77318 453
60.14576 -12.40808 188.14822 451
57.66038 -12.50603 190.64711 449
55.14452 -12.59182 193.17549 447
52.55807 -12.67198 195.80087 444
49.91832 -12.76388 198.45738 442
47.18210 -12.81590 201.17903 439
44.40098 -12.91533 204.02715 436
41.51759 -13.02595 206.91727 434
38.51365 -13.12824 209.91853 431
-179.70584 -20.24758 223.29291 384
-162.23151 -19.65521 235.82596 298
85.58559 -12.43913 177.55289 465
83.44030 -12.52501 179.53484 312
69.42617 -13.07902 178.78966 460
67.18069 -13.14894 181.05151 458
64.84617 -13.25669 183.39276 456
62.46389 -13.35062 185.72252 453
60.02173 -13.45305 188.15282 451
57.53271 -13.54975 190.63191 448
55.03279 -13.64979 193.15376 447
52.45854 -13.72986 195.76936 444
49.76617 -13.84619 198.41893 442
47.07357 -13.92706 201.16742 439
44.25405 -14.02911 204.01091 436
41.36880 -14.14008 206.90627 434
38.38539 -14.30020 209.88385 431
-179.66585 -22.73538 223.26024 384
85.49428 -13.31271 177.49969 465
83.43657 -13.41780 179.52890 312
69.35829 -14.03689 178.76987 460
67.07310 -14.17229 181.04762 458
64.76733 -14.24281 183.34378 455
62.38437 -14.34185 185.73405 453
59.94828 -14.45272 188.15744 451
57.47598 -14.57842 190.63277 448
54.93178 -14.69147 193.13597 446
52.29514 -14.82018 195.74060 444
49.65112 -14.90430 198.41112 441
46.92460 -15.05843 201.17198 439
44.10332 -15.19252 203.99042 436
41.22918 -15.31619 206.88976 433
38.23891 -15.44036 209.87737 431
-179.75909 -25.20019 223.31108 384
85.41415 -14.20533 177.50462 464
83.42806 -14.29418 179.49593 462
69.26395 -15.03909 178.74593 460
66.97140 -15.13437 181.02989 457
64.68313 -15.26478 183.32240 455
62.26327 -15.37813 185.70491 453
59.87160 -15.52071 188.11263 451
57.38167 -15.63801 190.58920 448
54.81190 -15.75823 193.14059 446
52.21590 -15.88967 195.75235 444
49.53194 -16.01982 198.40341 441
46.77612 -16.18379 201.18520 439
43.96603 -16.33176 203.98137 436
41.07260 -16.47277 206.90501 433
38.07802 -16.58691 209.88237 430
-179.74283 -27.72259 223.25621 384
85.35399 -15.05168 177.48608 464
83.33513 -15.19120 179.47714 462
69.19517 -16.01784 178.71313 460
66.91634 -16.12880 181.00565 457
64.56324 -16.25119 183.31335 455
62.19085 -16.41010 185.69630 453
59.75928 -16.54456 188.11482 450
57.25181 -16.69484 190.55902 448
54.70420 -16.83187 193.12871 446
52.06610 -16.98755 195.73451 443
49.41970 -17.14660 198.42262 441
46.68866 -17.30318 201.17009 438
43.86632 -17.47433 203.96777 436
40.91878 -17.62566 206.91020 433
37.97724 -17.78266 209.86807 430
-179.75652 -30.30818 223.26666 384
85.26349 -15.95056 177.45323 464
83.25502 -16.04798 179.45372 462
69.10732 -16.98627 178.71339 459
66.81129 -17.10135 181.00208 457
64.50599 -17.28848 183.28944 455
62.12273 -17.42770 185.63449 453
59.64710 -17.57189 188.07925 450
57.15132 -17.73092 190.54680 448
54.59430 -17.87794 193.09474 445
51.97989 -18.04670 195.69533 443
49.30925 -18.21370 198.36685 441
46.56681 -18.38854 201.13609 438
43.70644 -18.60836 203.99118 435
40.80377 -18.76806 206.87483 433
37.80246 -18.95229 209.86208 430
-179.72638 -32.81993 223.26511 384
85.20348 -16.82912 177.42599 464
83.19577 -16.94656 179.42691 462
69.03969 -17.94898 178.69016 459
66.71789 -18.10294 180.94144 457
64.37861 -18.27625 183.28029 455
61.99323 -18.43973 185.64365 452
59.58453 -18.63093 188.06915 450
57.05590 -18.79873 190.55217 448
54.50065 -18.96725 193.09370 445
51.86226 -19.13524 195.67259 443
49.18541 -19.30991 198.38074 440
46.42987 -19.54500 201.14677 438
43.56770 -19.73755 203.97035 435
40.68001 -19.94090 206.86313 433
37.65968 -20.13841 209.87529 430
-179.73039 -35.33486 223.31949 384
-187.10272 -35.84029 271.51163 399
-186.76724 -35.81426 278.43753 496
-186.72810 -35.73196 285.47787 496
-186.67902 -35.72577 292.44855 495
85.14782 -17.68556 177.39230 464
83.09529 -17.86484 179.39951 462
68.93093 -18.94177 178.67249 459
66.66693 -19.12362 180.90855 457
64.31185 -19.25543 183.23851 455
61.93357 -19.45246 185.59392 452
59.49696 -19.64983 188.05742 450
56.95968 -19.81326 190.54393 447
54.39342 -20.00549 193.06763 445
51.74096 -20.24184 195.67659 442
49.08341 -20.44207 198.33919 440
46.30022 -20.66417 201.12175 438
43.45020 -20.88446 203.95886 435
40.53549 -21.09070 206.86018 432
37.52824 -21.33220 209.86403 430
-179.70996 -37.80556 223.23058 384
85.05511 -18.56910 177.37042 463
83.04603 -18.73119 179.39235 461
68.84503 -19.89902 178.64204 459
66.57723 -20.11123 180.91536 457
64.23163 -20.28266 183.23082 454
61.83436 -20.46555 185.59517 452
59.39719 -20.66557 188.02721 450
56.88287 -20.89336 190.49112 447
54.28874 -21.08722 193.02890 445
51.65077 -21.31797 195.64240 442
48.93407 -21.53673 198.33972 440
46.17088 -21.75962 201.08871 437
43.29390 -21.99359 203.91389 435
40.38634 -22.25807 206.83690 432
37.39904 -22.47191 209.84813 429
-179.77309 -40.31269 223.24324 383
84.99336 -19.45783 177.33882 463
82.96337 -19.63678 179.33826 461
68.80642 -20.86816 178.59738 459
66.51264 -21.07632 180.88698 456
64.15117 -21.31965 183.19012 454
61.74532 -21.51280 185.54434 452
59.31412 -21.70857 187.99611 449
56.79985 -21.92985 190.47966 447
54.19938 -22.16129 193.04871 445
51.54479 -22.40376 195.63866 442
48.85523 -22.67052 198.32370 439
46.05125 -22.88618 201.09874 437
43.16835 -23.14993 203.91801 434
40.25651 -23.41299 206.84930 432
37.24844 -23.66516 209.88034 429
-179.72859 -42.80340 223.24458 383
84.93772 -20.32822 177.29289 463
82.88725 -20.53368 179.34076 461
68.72563 -21.88359 178.58630 458
66.41330 -22.08679 180.85411 456
64.05095 -22.30024 183.17073 454
61.67102 -22.54627 185.55429 452
59.20696 -22.75678 187.96159 449
56.71286 -23.00564 190.47400 447
54.11042 -23.23834 193.00177 444
51.48222 -23.52460 195.63800 442
48.74371 -23.74120 198.31033 439
45.94842 -24.03491 201.06929 437
43.07860 -24.30033 203.92044 434
40.10936 -24.58302 206.85730 432
37.11840 -24.84669 209.88750 429
-179.75194 -45.31143 223.26321 383
84.86803 -21.21834 177.24736 463
82.80848 -21.41840 179.29053 461
68.61381 -22.85999 178.55003 458
66.33219 -23.09504 180.80217 456
63.96299 -23.29973 183.11879 454
61.59290 -23.58496 185.48920 451
59.09511 -23.80306 187.95711 449
56.60174 -24.05629 190.43864 447
54.00981 -24.31614 192.97192 444
51.35578 -24.60843 195.60597 442
48.64833 -24.88187 198.28773 439
45.84900 -25.14321 201.05304 436
42.94023 -25.43250 203.88177 434
39.98899 -25.71644 206.84775 431
36.94249 -26.06771 209.84161 429
-179.76794 -47.88287 223.28314 383
84.81206 -22.09240 177.22217 463
82.73814 -22.31280 179.23961 460
68.56970 -23.84126 178.49341 458
66.25180 -24.07573 180.79146 456
63.88683 -24.32035 183.10321 453
61.49681 -24.59530 185.47272 451
59.03704 -24.86326 187.89410 449
56.48526 -25.12493 190.40788 446
53.89941 -25.40582 192.94423 444
51.26175 -25.70273 195.56403 441
48.55074 -25.97426 198.25662 439
45.73388 -26.30212 201.05934 436
42.84573 -26.61471 203.89948 433
39.89192 -26.92069 206.81857 431
36.83740 -27.26163 209.86876 428
-179.79396 -50.40144 223.33076 383
84.71185 -22.97366 177.18092 462
82.67689 -23.19666 179.22177 460
68.46037 -24.84142 178.44952 458
66.17576 -25.06660 180.72636 455
63.81047 -25.35353 183.09048 453
61.42092 -25.61365 185.43182 451
58.96250 -25.90228 187.87227 449
56.38895 -26.18810 190.37274 446
53.80210 -26.50082 192.94051 444
51.14009 -26.77273 195.54692 441
48.44042 -27.12603 198.23068 439
45.63560 -27.42103 201.01813 436
42.72759 -27.72294 203.89450 433
39.67482 -28.11554 206.79123 416
36.39296 -28.47025 209.83884 406
-179.76663 -52.94684 223.24994 383
84.67758 -23.87492 177.15720 462
82.63158 -24.12281 179.17432 460
68.43093 -25.84854 178.44431 457
66.09873 -26.08630 180.68994 455
63.74176 -26.38756 183.03131 453
61.34843 -26.66916 185.43359 451
58.83408 -26.97482 187.84830 448
56.31585 -27.25544 190.37384 446
53.72279 -27.58341 192.89336 443
51.06876 -27.89462 195.53165 441
48.30183 -28.21710 198.25142 438
45.41087 -28.54943 200.98862 420
42.37518 -28.91463 203.83818 418
39.18477 -29.29041 206.77664 415
35.79357 -29.73662 209.82236 406
-179.83554 -55.45113 223.37032 383
84.58971 -24.74247 177.11295 462
82.53890 -25.02948 179.15469 460
68.35617 -26.83656 178.39819 457
66.03522 -27.08281 180.67932 455
63.68598 -27.38895 182.99370 453
61.23470 -27.69836 185.40619 450
58.75818 -28.00362 187.83966 448
56.22772 -28.35820 190.33972 446
53.63582 -28.64799 192.89908 443
50.83361 -29.03077 195.50500 425
47.95122 -29.39543 198.19733 422
44.93601 -29.75927 200.93343 420
41.87327 -30.12030 203.81989 417
38.68435 -30.52060 206.74982 414
35.22143 -30.96961 209.81366 405
-179.75929 -58.07323 223.30530 383
84.54690 -25.63974 177.08984 462
82.50304 -25.92200 179.12259 459
68.28699 -27.78825 178.36282 457
65.96874 -28.13199 180.62933 455
63.59518 -28.43960 182.96619 452
61.16749 -28.75149 185.37219 450
58.67253 -29.07312 187.81851 448
56.03594 -29.43788 190.29686 429
53.24328 -29.79028 192.84921 427
50.40480 -30.17798 195.46451 424
47.46719 -30.55308 198.16008 422
44.47511 -30.95695 200.90709 419
41.38821 -31.33881 203.77043 416
38.07607 -31.80651 206.71838 407
34.59257 -32.26763 209.78162 405
-180.29338 -60.67354 223.37189 361
84.49477 -26.55032 177.05997 461
82.42469 -26.81602 179.06804 459
68.22524 -28.79366 178.32030 457
65.86494 -29.12073 180.61032 454
63.49701 -29.44372 182.92757 452
60.95213 -29.79632 185.28354 433
58.29578 -30.14244 187.69754 431
55.61211 -30.55318 190.19388 428
52.82406 -30.94741 192.75543 426
49.97736 -31.30881 195.38844 424
47.02281 -31.74430 198.08641 421
44.02545 -32.15753 200.88701 418
40.87172 -32.57882 203.75018 416
37.53339 -33.03285 206.68478 407
34.00439 -33.54287 209.77104 404
-180.90218 -63.24776 223.31261 362
84.43279 -27.45826 176.98831 461
82.37547 -27.74289 179.04501 459
68.12746 -29.82149 178.27615 456
65.66904 -30.14529 180.54187 437
63.13289 -30.52246 182.82372 435
60.55672 -30.91679 185.21841 433
57.93872 -31.26049 187.62038 430
55.19206 -31.67515 190.12236 428
52.38534 -32.07521 192.67188 425
49.51370 -32.50227 195.33589 423
46.57763 -32.90642 198.04178 420
43.56223 -33.36430 200.84146 418
40.34974 -33.82004 203.69418 409
36.93273 -34.31674 206.63896 406
33.39249 -34.85474 209.70026 403
-181.59908 -65.92030 223.33659 362
84.35699 -28.35441 176.96060 461
82.29367 -28.62797 178.97629 459
67.78509 -30.84966 178.17360 439
65.32556 -31.23617 180.43358 437
62.78990 -31.60484 182.76227 434
60.20045 -31.99018 185.12341 432
57.51733 -32.38147 187.52907 430
54.78662 -32.80297 190.06253 427
51.98563 -33.23288 192.60429 425
49.08549 -33.66267 195.27655 422
46.10209 -34.09325 197.98192 420
43.06935 -34.56807 200.75980 417
39.77077 -35.07998 203.63359 408
36.31876 -35.57408 206.60225 405
32.76449 -36.11757 209.70734 403
-182.24878 -68.52625 223.43901 361
84.29421 -29.23170 176.93076 460
82.25510 -29.58225 178.93654 458
67.46052 -31.88225 178.07451 438
64.95082 -32.29491 180.31557 436
62.41947 -32.70091 182.62135 434
59.81613 -33.08529 185.02959 431
57.11675 -33.49195 187.44885 429
54.36081 -33.93232 189.95876 427
51.54091 -34.36801 192.52536 424
48.63797 -34.84568 195.19359 422
45.66843 -35.34051 197.93126 419
42.51091 -35.82782 200.73183 410
39.20388 -36.31784 203.59981 407
35.72240 -36.89989 206.60353 405
32.14018 -37.44657 209.69823 402
-183.00540 -71.29175 216.62257 426
-183.12715 -71.28767 223.36281 324
84.26460 -30.12205 176.86168 460
82.18739 -30.45717 178.91118 458
74.14983 -31.79880 179.60327 308
64.61472 -33.35315 180.19583 435
62.06258 -33.78510 182.51921 433
59.40537 -34.17740 184.91734 431
56.71479 -34.63585 187.39104 429
53.97527 -35.09688 189.87657 426
51.14088 -35.58086 192.45821 424
48.19196 -36.05960 195.13026 421
45.21246 -36.55184 197.84470 419
41.96720 -37.07898 200.66968 409
38.62872 -37.62572 203.55096 407
35.12965 -38.19969 206.52571 404
31.49030 -38.73629 209.63095 401
-182.99799 -73.90117 216.62714 425
-185.58778 -74.29515 223.50380 324
84.20491 -31.03760 176.81052 460
82.11548 -31.39577 178.86246 441
74.28683 -32.71486 179.61224 308
64.23576 -34.43981 180.12984 435
61.67520 -34.85094 182.42363 433
59.02476 -35.32630 184.84679 430
56.33693 -35.79056 187.25853 428
53.53996 -36.26223 189.80319 426
50.68201 -36.74492 192.40437 423
47.78007 -37.22099 195.06755 421
44.71450 -37.75491 197.79706 411
41.43970 -38.32202 200.57240 409
38.04000 -38.87271 203.48822 406
34.50604 -39.46671 206.49933 403
30.84576 -40.09413 209.60048 401
-182.93581 -76.46869 216.62344 425
-188.10052 -77.35373 223.49667 323
84.03771 -31.96803 176.73326 443
81.84345 -32.37064 178.75186 440
74.44133 -33.65182 179.58313 308
63.89689 -35.53181 180.00447 434
61.32834 -35.96455 182.35777 432
58.65613 -36.46340 184.73610 430
55.91808 -36.93141 187.19965 427
53.12669 -37.38756 189.70462 425
50.25003 -37.93134 192.31882 422
47.32697 -38.44897 194.95711 420
44.19037 -39.01450 197.71431 411
40.86301 -39.60213 200.56398 408
37.41691 -40.18431 203.46648 405
33.88942 -40.81325 206.45154 403
30.21986 -41.42705 209.59074 400
-182.94637 -78.97659 216.63403 425
-190.74608 -80.41270 223.51923 322
83.79048 -32.91505 176.63196 442
81.52799 -33.31612 178.66602 440
74.56551 -34.58710 179.58882 308
63.53382 -36.61444 179.87036 434
60.94785 -37.10738 182.24461 431
58.25363 -37.54506 184.62430 429
55.50791 -38.07486 187.11774 427
52.74060 -38.60516 189.63313 424
49.83007 -39.08778 192.23781 422
46.87554 -39.65140 194.93079 413
43.60517 -40.24580 197.66727 410
40.29077 -40.83990 200.49931 407
36.85064 -41.46964 203.43298 405
33.27057 -42.12187 206.43141 402
29.58953 -42.83762 209.58939 399
-182.92819 -81.63758 216.56764 425
83.52197 -33.84603 176.52251 441
81.28212 -34.29658 178.54092 439
74.70953 -35.53829 179.60667 308
63.17303 -37.69156 179.79419 433
60.56841 -38.22365 182.13541 431
57.87301 -38.72551 184.54338 428
55.13466 -39.25003 186.99625 426
52.30337 -39.75738 189.51785 424
49.37099 -40.31191 192.15428 421
46.34822 -40.88945 194.81764 412
43.07156 -41.49615 197.58200 409
39.71106 -42.14400 200.44232 407
36.25747 -42.77954 203.34325 404
32.63594 -43.48289 206.41615 401
28.90298 -44.18358 209.55559 399
-182.85379 -84.21221 216.63139 440
83.24358 -34.81256 176.41911 441
81.00088 -35.26589 178.43944 439
74.86866 -36.44249 179.61098 308
62.80248 -38.82848 179.66771 432
60.17677 -39.32888 182.03648 430
57.48717 -39.85691 184.41779 428
54.73417 -40.38666 186.89728 425
51.85987 -40.94329 189.45866 423
48.95288 -41.53154 192.06709 421
45.77935 -42.13985 194.75984 411
42.52229 -42.77032 197.52431 409
39.12312 -43.41633 200.36763 406
35.62766 -44.11509 203.32753 403
32.04889 -44.83172 206.33916 401
28.29190 -45.59122 209.49437 398
-182.81172 -86.74883 216.59764 439
82.98279 -35.77415 176.32762 440
80.71113 -36.22161 178.35022 436
75.00547 -37.37911 179.61526 308
62.44131 -39.89839 179.55338 432
59.80519 -40.47521 181.90927 429
57.10735 -41.01810 184.34727 427
54.29067 -41.57587 186.82426 425
51.46615 -42.12931 189.38692 422
48.44952 -42.74309 191.99507 413
45.24795 -43.40672 194.64384 411
41.94706 -44.06880 197.43172 408
38.53646 -44.73471 200.30696 405
35.03531 -45.45069 203.28085 403
31.38591 -46.16233 206.30693 400
27.60287 -46.93777 209.51477 397
-183.87032 -89.61251 216.64055 299
82.70729 -36.74140 176.19382 440
80.41174 -37.23345 178.23508 436
75.17294 -38.33112 179.58760 308
62.12068 -41.02069 179.41785 431
59.41019 -41.59839 181.81447 429
56.68421 -42.17435 184.22957 427
53.93332 -42.73387 186.70673 424
51.04953 -43.32935 189.26562 422
47.94019 -43.99913 191.87061 413
44.69727 -44.66072 194.55960 410
41.37797 -45.36116 197.32860 407
37.99622 -46.05885 200.24432 405
34.42077 -46.78255 203.18144 402
30.76600 -47.57899 206.26573 399
26.95351 -48.34163 209.47438 397
-188.15112 -93.11413 209.60538 485
-190.37033 -93.62611 216.65106 298
82.43647 -37.71011 176.09874 439
80.15665 -38.19727 178.12929 435
75.30892 -39.22591 179.57961 308
61.74708 -42.17733 179.32585 430
59.05479 -42.72565 181.67064 428
56.33270 -43.34136 184.11319 426
53.50813 -43.92962 186.59171 424
50.55823 -44.55777 189.17433 414
47.40586 -45.25215 191.78337 412
44.16242 -45.91996 194.47162 409
40.81830 -46.66860 197.29250 407
37.36517 -47.37909 200.18274 404
33.80193 -48.17707 203.15997 401
30.12208 -48.98552 206.20979 399
26.24530 -49.80976 209.46326 359
-187.65251 -95.68281 209.67516 485
82.16591 -38.67658 175.97430 438
79.85462 -39.21989 177.99701 435
75.47799 -40.16980 179.60753 308
61.35533 -43.28637 179.20639 430
58.67972 -43.91496 181.55438 428
55.92796 -44.48519 184.02231 425
53.07829 -45.12529 186.48552 423
50.03939 -45.78816 189.05786 414
46.91411 -46.47966 191.69972 411
43.63087 -47.20557 194.42160 409
40.25663 -47.93943 197.18156 406
36.77222 -48.70950 200.09859 403
33.17692 -49.53243 203.08029 401
29.44009 -50.38319 206.19818 398
25.49573 -51.21249 209.40056 358
-187.17705 -98.30013 209.56566 485
81.91094 -39.69569 175.83026 438
79.57845 -40.22401 177.87955 434
75.65462 -41.09527 179.58522 308
61.02020 -44.42442 179.06375 429
58.28923 -45.06788 181.45651 427
55.53981 -45.67349 183.87152 425
52.66281 -46.32494 186.42198 415
49.55649 -47.05433 188.95164 413
46.35338 -47.75175 191.59712 410
43.08687 -48.52102 194.32625 408
39.69326 -49.28925 197.13661 405
36.19032 -50.10290 200.01637 403
32.56287 -50.89189 203.06210 400
28.78930 -51.74427 206.15062 397
24.49986 -52.77010 209.39255 343
-186.75594 -100.83547 209.57857 486
81.63863 -40.66259 175.70421 437
79.30967 -41.23684 177.74467 433
75.82430 -42.03268 179.59889 308
60.63754 -45.59063 178.91144 429
57.90451 -46.21024 181.30714 426
55.13585 -46.90528 183.77753 424
52.14616 -47.56155 186.30396 415
49.03593 -48.32067 188.82466 412
45.85624 -49.06738 191.47232 410
42.54115 -49.80312 194.22246 407
39.10838 -50.63326 197.05650 405
35.56952 -51.43813 199.96053 402
31.94513 -52.32727 202.95094 399
28.00989 -53.22573 206.11386 386
23.36118 -54.31800 209.33458 343
-187.95084 -103.77136 209.62981 297
81.34892 -41.66936 175.61519 437
79.02081 -42.24436 177.64973 433
76.04549 -42.94616 179.56744 308
60.26077 -46.72248 178.80827 428
57.53088 -47.42724 181.19191 426
54.69525 -48.07436 183.64545 416
51.65870 -48.79350 186.15593 414
48.52428 -49.56017 188.72189 412
45.33611 -50.36295 191.37273 409
42.00001 -51.17677 194.11653 407
38.53862 -51.99374 196.98306 404
34.98988 -52.84921 199.86662 401
31.15063 -53.76741 202.93721 388
27.07975 -54.72315 206.02513 375
22.12616 -55.92443 209.30507 340
81.09936 -42.68581 175.46999 436
78.71776 -43.26788 177.51480 432
76.20387 -43.88750 179.59100 308
59.87780 -47.89088 178.70120 427
57.16180 -48.60134 181.05672 425
54.22940 -49.32166 183.51898 416
51.18716 -50.04956 186.04289 413
48.02572 -50.82004 188.63469 411
44.76094 -51.62986 191.30629 408
41.40892 -52.48016 194.01184 406
37.97405 -53.35521 196.86450 403
34.23196 -54.27178 199.78603 390
30.26931 -55.25528 202.81889 387
26.00844 -56.30624 205.95871 374
20.67373 -57.61631 209.23596 263
80.85164 -43.68990 175.34334 435
78.43262 -44.29528 177.40570 432
76.01799 -44.91307 179.47968 429
59.52699 -49.07356 178.54321 427
56.77472 -49.78392 180.94774 424
53.78230 -50.54309 183.40318 415
50.68091 -51.33603 185.91881 413
47.51473 -52.10960 188.52220 410
44.24673 -52.95490 191.19298 408
40.85439 -53.80997 193.92822 405
37.16592 -54.76018 196.76785 391
33.38427 -55.70592 199.69469 389
29.41297 -56.71391 202.74246 376
24.89089 -57.86149 205.91391 373
-187.76793 -111.86399 202.55145 495
80.57095 -44.70616 175.19986 435
78.15479 -45.31963 177.25371 431
75.71362 -45.95051 179.36798 429
59.14484 -50.26690 178.41351 426
56.28950 -51.01789 180.80786 417
53.29861 -51.78850 183.24225 414
50.17200 -52.61838 185.79593 412
46.99072 -53.45711 188.40196 409
43.68819 -54.26808 191.06238 407
40.08941 -55.21458 193.80112 393
36.39888 -56.17162 196.66589 391
32.54203 -57.21408 199.60133 388
28.34654 -58.29824 202.69994 375
23.78118 -59.49744 205.85753 372
80.30021 -45.72833 175.10081 434
77.89333 -46.36953 177.15417 430
75.42719 -47.00326 179.25529 428
58.78592 -51.43647 178.26639 425
55.85872 -52.23755 180.69470 416
52.83779 -53.02923 183.12805 414
49.68906 -53.87495 185.66983 411
46.44746 -54.75181 188.26201 397
42.95670 -55.70335 190.93748 395
39.31591 -56.63693 193.72261 392
35.59996 -57.64048 196.58777 390
31.68812 -58.66594 199.50783 387
27.30400 -59.85413 202.59715 374
22.69591 -61.09993 205.80231 371
80.02085 -46.75787 174.94211 433
77.60719 -47.40618 177.01601 430
75.10608 -48.10742 179.13232 427
58.37036 -52.67552 178.14273 418
55.38113 -53.47508 180.51115 415
52.33727 -54.32225 183.00137 413
49.16628 -55.15399 185.51743 399
45.77685 -56.12048 188.11032 396
42.20939 -57.06640 190.82236 394
38.55934 -58.06699 193.58247 392
34.78271 -59.11582 196.43538 389
30.69171 -60.23387 199.41249 376
26.20676 -61.45494 202.51820 373
21.51120 -62.75045 205.72025 370
79.75172 -47.77534 174.82864 433
77.32435 -48.45222 176.88420 429
74.82250 -49.15984 178.97258 427
65.61139 -51.73214 179.65813 304
54.92612 -54.73201 180.37311 414
51.80739 -55.60259 182.85054 400
48.46736 -56.54870 185.36066 398
45.05667 -57.52685 187.94594 396
41.48559 -58.49171 190.66545 393
37.79999 -59.52652 193.43951 391
33.92014 -60.62611 196.36108 388
29.65292 -61.79388 199.28616 375
25.14516 -63.08584 202.39490 372
20.39646 -64.40958 205.62990 370
79.49970 -48.81300 174.69594 432
77.03956 -49.51330 176.76111 428
74.50781 -50.24835 178.86430 426
65.83773 -52.73532 179.68083 304
54.46148 -55.98659 180.21921 402
51.15249 -56.93723 182.67412 400
47.78835 -57.91319 185.21872 397
44.29644 -58.90777 187.79491 395
40.68279 -59.94189 190.50732 392
36.97440 -61.01627 193.29753 390
33.05090 -62.13210 196.20471 377
28.63464 -63.41417 199.20253 374
24.04328 -64.71368 202.30763 371
19.20572 -66.12555 205.54623 369
79.19250 -49.86404 174.54062 432
76.75610 -50.60883 176.59578 428
74.20697 -51.35496 178.70833 425
66.12122 -53.69963 179.68475 304
53.79341 -57.30809 180.01985 401
50.49168 -58.31100 182.51361 399
47.10980 -59.29328 185.02371 396
43.59761 -60.30161 187.66260 394
39.95079 -61.38783 190.35483 392
36.16204 -62.51479 193.20786 389
32.01543 -63.74468 196.09637 376
27.58558 -65.05671 199.05038 373
22.89818 -66.41753 202.23706 371
18.03644 -67.82297 205.46890 368
78.93048 -50.92800 174.38608 431
76.43362 -51.66465 176.48434 427
73.89423 -52.42998 178.58324 425
66.35957 -54.71054 179.65868 304
53.16954 -58.67781 179.83174 400
49.82708 -59.66245 182.31749 398
46.40137 -60.68560 184.87836 396
42.86741 -61.76902 187.48232 393
39.15078 -62.86285 190.24883 391
35.33732 -64.03947 193.04996 378
31.01940 -65.34893 195.94965 375
26.47159 -66.66244 198.95555 372
21.75915 -68.07135 202.10353 370
16.87721 -69.56254 205.43495 367
78.65275 -51.98962 174.23096 429
76.15878 -52.77187 176.33568 426
73.58881 -53.51407 178.44051 424
66.64056 -55.66473 179.69519 304
52.48340 -60.03139 179.65211 399
49.14825 -61.06187 182.14461 397
45.69125 -62.11461 184.66975 395
42.10184 -63.22295 187.31050 392
38.40155 -64.34544 190.09029 390
34.32725 -65.60208 192.90887 377
29.95078 -66.93741 195.78242 374
25.38874 -68.36296 198.81879 371
20.62918 -69.82211 202.03967 369
15.64034 -71.33041 205.32770 366
78.39427 -53.06285 174.09995 428
75.88598 -53.83768 176.16808 426
73.30149 -54.64444 178.30627 423
66.89056 -56.65086 179.67380 304
51.84874 -61.39018 179.45039 399
48.46813 -62.44928 181.90727 396
44.95967 -63.53432 184.51083 394
41.32476 -64.66725 187.16669 391
37.57590 -65.87678 189.94672 389
33.36789 -67.21255 192.74887 376
28.93477 -68.58879 195.69083 373
24.29660 -70.00570 198.73607 370
19.43575 -71.56534 201.88445 368
14.15845 -73.19377 205.23692 337
78.11002 -54.14703 173.96225 427
75.60101 -54.95365 176.02299 425
72.96889 -55.77652 178.18115 423
67.15663 -57.63433 179.65916 304
51.19439 -62.73380 179.25648 398
47.79848 -63.84379 181.73015 395
44.26265 -65.01398 184.33856 393
40.60881 -66.15119 186.99641 391
36.66299 -67.43427 189.76376 377
32.35819 -68.78340 192.58194 375
27.84765 -70.26241 195.52603 372
23.18351 -71.73969 198.58368 370
18.26423 -73.34518 201.83090 367
11.46649 -75.49233 205.10931 320
77.83824 -55.22125 173.80951 427
75.26745 -56.05051 175.90088 424
72.69795 -56.92355 178.03491 422
67.46808 -58.61395 179.64992 304
50.51145 -64.16228 179.04143 397
47.09726 -65.27998 181.56857 395
43.49746 -66.42325 184.12395 392
39.80241 -67.68346 186.81850 390
35.67942 -69.01352 189.58420 376
31.33002 -70.43475 192.42284 374
26.80195 -71.94840 195.35318 371
22.04147 -73.49536 198.44086 369
16.11905 -75.40725 201.65451 337
8.41736 -77.92879 204.88959 319
77.57770 -56.29395 173.61815 426
75.01270 -57.15630 175.73242 424
72.36418 -58.05555 177.89085 421
67.72157 -59.61320 179.68228 304
49.89030 -65.57772 178.81868 396
46.40082 -66.73347 181.37128 394
42.75594 -67.90257 183.94051 391
38.95156 -69.23514 186.64343 378
34.73684 -70.63951 189.37512 376
30.30758 -72.12689 192.25049 373
25.71367 -73.62395 195.21126 370
20.21665 -75.43261 198.25308 338
13.59674 -77.69326 201.42207 320
5.36122 -80.47791 204.74265 318
77.25739 -57.40141 173.48827 425
74.70646 -58.29578 175.57086 423
72.05750 -59.20440 177.71701 421
68.00816 -60.54128 179.66919 304
49.21823 -66.98223 178.63617 395
45.66227 -68.19059 181.14120 393
41.99825 -69.45438 183.74127 390
38.04063 -70.82822 186.43808 377
33.69827 -72.26550 189.20151 375
29.27595 -73.77277 192.06494 372
24.18192 -75.49931 195.05696 340
18.13793 -77.61663 198.06950 337
10.66080 -80.16169 201.20409 319
2.13171 -83.06503 204.57269 317
77.00121 -58.53028 173.33763 424
74.42162 -59.42022 175.40691 422
71.48156 -60.43104 177.52162 392
68.32125 -61.51774 179.67793 304
48.51278 -68.45493 178.38466 394
44.93490 -69.66386 180.96939 392
41.24744 -70.97599 183.55862 379
37.06905 -72.39579 186.22667 376
32.72226 -73.92542 189.01669 374
28.08215 -75.55667 191.85687 341
22.20400 -77.57658 194.78847 339
15.76110 -79.81870 197.82555 321
7.60812 -82.63997 201.00371 318
-1.20295 -85.71346 204.33253 315
76.71486 -59.62069 173.13817 424
73.97076 -60.61871 175.24704 394
70.87109 -61.69638 177.30469 391
67.91135 -62.74600 179.48019 403
47.83564 -69.87508 178.20776 393
44.24371 -71.15352 180.75970 391
40.33570 -72.56776 183.36206 378
36.08001 -74.04030 186.02299 375
31.69341 -75.62920 188.80925 373
26.14923 -77.58869 191.62767 340
20.10156 -79.71980 194.49788 338
12.88244 -82.33183 197.54613 319
4.49242 -85.26364 200.73163 317
-4.61926 -88.47268 204.15189 314
76.40005 -60.76730 172.96120 395
73.34200 -61.89133 174.99088 393
70.21925 -63.01960 177.08376 390
67.28455 -64.06165 179.28696 402
55.69902 -68.24726 179.74986 300
43.50846 -72.67910 180.53592 390
39.38335 -74.16757 183.09995 377
35.11334 -75.74096 185.83195 374
29.97298 -77.60715 188.51598 341
24.11740 -79.70145 191.32793 339
17.91930 -81.95309 194.25066 321
9.89647 -84.86687 197.27510 318
1.22160 -88.00167 200.44968 316
-16.01039 -94.24228 203.56006 260
75.84553 -62.00335 172.71938 394
72.73005 -63.17028 174.76031 392
69.57081 -64.33881 176.82724 389
66.65524 -65.38902 179.04617 401
56.08570 -69.33334 179.75278 300
42.60373 -74.25566 180.29329 378
38.46841 -75.79926 182.85699 376
33.70135 -77.58783 185.50543 343
28.04438 -79.61913 188.16959 340
22.09225 -81.83254 191.00575 338
15.10436 -84.40862 193.92159 320
6.77908 -87.50266 196.95840 317
-2.71000 -90.99564 200.17534 289
75.20590 -63.27763 172.46939 393
72.11562 -64.46293 174.50285 391
68.90496 -65.66491 176.58505 389
66.02250 -66.74178 178.82199 400
56.43739 -70.35394 179.75310 300
41.73818 -75.90453 180.05545 378
37.33921 -77.53691 182.61888 344
31.87398 -79.61176 185.17944 342
26.13746 -81.74551 187.83736 339
20.02249 -84.04908 190.72748 337
12.19276 -86.98373 193.54070 319
3.64673 -90.23853 196.65471 316
-14.04981 -96.84831 199.35843 270
74.62156 -64.55676 172.21341 392
71.47707 -65.75807 174.22897 390
68.23620 -66.98731 176.32147 388
65.35780 -68.10474 178.60362 399
56.76522 -71.40938 179.76297 300
40.80493 -77.52124 179.78813 377
35.54400 -79.52573 182.21646 343
29.99740 -81.65634 184.82906 341
24.14728 -83.90995 187.50430 338
17.33406 -86.50562 190.31134 320
9.15801 -89.65298 193.17976 317
-1.58570 -93.79319 196.14313 289
74.02415 -65.86462 171.91519 391
70.86832 -67.10072 173.94698 389
67.56725 -68.36453 176.06087 387
64.68818 -69.50700 178.36983 398
57.13246 -72.45230 179.76607 300
39.17221 -79.46939 179.40736 344
33.79058 -81.56147 181.85541 342
28.07960 -83.76218 184.42819 339
22.05933 -86.08728 187.21005 337
14.47356 -89.12925 189.92783 319
5.81939 -92.46169 192.77779 290
-13.17674 -99.87407 195.07104 270
73.96729 -66.94440 171.82361 316
70.21526 -68.43555 173.67863 388
66.90191 -69.73655 175.81929 386
64.03678 -70.87150 178.13358 398
57.53064 -73.49044 179.76604 300
37.47841 -81.45805 178.95906 343
31.93979 -83.62997 181.45201 341
26.12340 -85.93577 184.07587 338
19.54962 -88.55199 186.76738 320
11.46783 -91.74165 189.47780 318
-0.43154 -96.50655 192.13298 289
74.28430 -67.87444 171.82690 316
69.55166 -69.81989 173.44817 387
66.20279 -71.12925 175.55731 385
63.37661 -72.28763 177.87650 397
57.88551 -74.53419 179.76279 300
35.70476 -83.50237 178.52202 342
30.06622 -85.76391 181.05695 340
24.11335 -88.14816 183.68163 337
16.77224 -91.14164 186.32544 319
6.97126 -95.07577 188.89244 290
-12.20178 -102.85654 190.80713 270
74.63173 -68.83138 171.79041 316
68.87059 -71.18495 173.13525 386
65.49558 -72.57849 175.26175 384
62.72507 -73.72626 177.65506 396
58.27476 -75.57555 179.71536 300
33.91386 -85.55183 178.12210 341
28.16273 -87.93933 180.61302 339
21.79479 -90.51560 183.21196 320
13.86736 -93.84985 185.78291 318
0.70869 -99.25106 188.07379 289
75.00891 -69.73146 171.82153 316
68.22238 -72.55617 172.86232 385
64.84773 -73.98815 175.01239 397
62.02842 -75.18877 177.38477 395
58.67568 -76.60723 179.75684 300
32.10281 -87.73080 177.65028 340
26.20568 -90.17097 180.18988 337
19.03491 -93.16059 182.73343 319
8.18467 -97.72760 184.94759 290
75.37206 -70.68939 171.81966 316
67.56196 -73.99240 172.58275 384
64.16769 -75.44449 174.76953 396
61.30721 -76.65850 177.14491 394
58.39767 -77.86235 179.58305 392
43.85868 -84.10850 179.87654 296
24.09137 -92.49162 179.73557 321
15.30324 -96.26700 182.02859 291
2.01220 -101.89338 184.00981 289
75.69688 -71.60420 171.78558 316
66.89423 -75.43926 172.28101 383
63.48271 -76.91368 174.45526 395
60.62678 -78.14847 176.88005 393
57.69440 -79.39264 179.37978 391
44.28521 -85.17831 179.84058 296
21.40392 -95.13375 179.15643 320
9.52402 -100.32146 180.97710 290
-27.27145 -116.20168 179.72493 336
76.10268 -72.53213 171.81754 316
66.19126 -76.86806 171.99890 383
62.81340 -78.38701 174.20670 394
59.93228 -79.62299 176.63194 392
56.92888 -80.94180 179.09865 390
44.75852 -86.34189 179.87206 296
16.59851 -98.73688 178.22429 291
3.34336 -104.57635 179.94620 289
-22.56709 -115.99732 180.34232 338
76.47928 -73.43851 171.79871 316
66.20385 -78.05098 171.87537 312
62.13849 -79.86007 173.92310 393
59.18251 -81.17755 176.33849 391
55.68965 -82.77826 178.70222 334
45.23243 -87.44418 179.83958 296
10.85142 -102.81136 177.07294 290
-18.00023 -115.73132 176.40085 339
-21.37426 -117.26175 180.43895 284
76.82701 -74.33265 171.79988 316
66.59081 -79.05033 171.90337 312
61.45901 -81.38826 173.64034 392
58.37438 -82.75787 176.05281 334
53.70452 -84.90622 178.20865 332
45.68824 -88.59052 179.83627 296
4.79512 -107.17318 175.84175 288
-13.55491 -115.55798 177.04251 340
-20.73103 -118.79959 180.42528 284
77.21529 -75.24695 171.77855 316
67.01351 -80.01807 171.86452 312
60.74556 -82.91494 173.34288 391
56.46981 -84.87149 175.48306 333
51.64210 -87.14265 177.67384 331
46.11335 -89.66684 179.87289 296
28.26821 -97.93545 180.00800 292
-2.83401 -112.33620 178.62897 284
-20.08530 -120.33552 180.41165 284
77.61040 -76.18954 171.78041 316
67.41898 -80.95953 171.88438 312
59.22690 -84.86038 172.83952 334
54.47338 -87.07862 174.92986 332
49.54716 -89.38715 177.11145 331
44.50435 -91.78886 179.39597 329
28.80213 -99.12855 180.01007 292
7.25631 -109.26788 180.17812 288
78.00069 -77.10226 171.76555 316
67.87128 -81.95861 171.89111 312
57.29686 -86.96937 172.24792 333
52.46165 -89.34079 174.33627 331
47.38718 -91.75726 176.49725 330
42.18548 -94.20782 178.86508 328
-74.55081 -35.62072 -13.51952 292
7.82296 -110.67086 180.18042 288
78.41528 -78.00386 171.77640 316
68.30813 -82.94662 171.88481 312
56.75098 -88.52612 171.98059 308
50.36287 -91.61701 173.68524 330
45.18858 -94.17159 175.91640 329
39.87532 -96.72626 178.31451 327
29.84884 -101.60059 180.00703 292
8.44995 -112.03256 180.18092 288
78.84206 -78.91837 171.77516 316
68.72621 -83.88496 171.88196 312
57.25797 -89.57101 171.96744 308
48.19432 -94.01047 173.08858 328
42.87166 -96.61802 175.31651 327
37.42751 -99.35594 177.68346 325
29.03394 -103.46213 179.75513 279
9.03086 -113.33572 180.16585 288
79.22982 -79.83343 171.76410 316
69.16132 -84.85175 171.85910 312
57.69443 -90.61892 171.97610 308
45.98073 -96.44855 172.39276 327
40.50896 -99.18575 174.67809 326
34.82578 -102.03882 177.08368 278
20.49001 -109.24938 178.08736 278
79.68101 -80.73956 171.74725 316
69.63376 -85.83691 171.85176 312
58.18617 -91.62679 171.94383 308
45.09485 -98.28558 172.08121 304
38.07785 -101.84566 173.98837 325
26.32264 -107.85482 175.20433 277
11.09579 -115.59501 176.21257 277
80.08462 -81.60302 171.75725 316
70.07828 -86.78031 171.86218 312
58.67848 -92.66635 171.93617 308
45.62016 -99.43129 172.07919 304
32.93254 -105.97775 172.73489 277
17.00143 -114.21340 173.22781 275
-55.91709 -151.82782 163.77344 367
80.55283 -82.49657 171.76796 316
70.52911 -87.77034 171.84976 312
59.17567 -93.70487 171.96422 308
46.17378 -100.50992 172.04187 304
31.12183 -108.40865 172.19499 300
13.39921 -117.72773 172.34959 296
-51.94221 -151.88809 164.33504 369
80.97559 -83.39386 171.75627 316
70.98473 -88.69353 171.82745 312
59.70359 -94.73694 171.96513 308
46.70659 -101.63781 172.06451 304
31.69694 -109.60034 172.17058 300
14.06190 -118.97799 172.30692 296
-47.94752 -151.98894 164.90733 370
81.40117 -84.27406 171.74977 316
71.48463 -89.66888 171.86754 312
60.18981 -95.76197 171.95410 308
47.23964 -102.74020 172.02763 304
32.26320 -110.81534 172.18118 300
14.66964 -120.30168 172.36073 296
-45.41189 -152.76576 165.22174 286
81.83318 -85.18791 171.75642 316
71.93517 -90.60440 171.84851 312
60.73381 -96.75206 171.94209 308
47.81090 -103.80663 172.06239 304
32.91285 -112.02837 172.19264 300
15.36987 -121.62267 172.35249 296
-44.46244 -154.44533 165.22900 286
82.32480 -86.08526 171.74481 316
72.44083 -91.56741 171.84555 312
61.24798 -97.79403 171.90492 308
48.41146 -104.93888 172.06461 304
33.49762 -113.23000 172.16724 300
16.05821 -122.89953 172.30725 296
-43.59630 -156.09032 165.24281 286
82.77621 -86.94175 171.74657 316
72.94213 -92.47869 171.83414 312
61.77959 -98.79663 171.90349 308
48.96033 -106.00904 172.03403 304
34.10142 -114.40676 172.16728 300
16.70945 -124.23371 172.34119 296
-42.73767 -157.77972 165.18637 286
83.23560 -87.81362 171.74657 316
73.44868 -93.42347 171.84171 312
62.31266 -99.82792 171.89828 308
49.51543 -107.12272 172.04503 304
34.74450 -115.59997 172.17459 300
-28.16344 -151.56406 162.84396 367
-41.78253 -159.36925 165.25523 286
83.68735 -88.68979 171.74750 316
73.95206 -94.39385 171.82967 312
62.81621 -100.81281 171.89262 308
50.10087 -108.20813 172.04640 304
35.35767 -116.74049 172.17711 300
-24.41693 -151.50124 163.43715 368
84.18942 -89.57879 171.75771 316
74.45071 -95.30535 171.80037 312
63.39904 -101.84190 171.93034 308
50.73526 -109.28980 172.04097 304
36.03252 -117.96382 172.16243 300
-20.75911 -151.36975 163.96495 369
84.65398 -90.43379 171.74522 316
74.94891 -96.21075 171.81749 312
63.92466 -102.84197 171.93279 308
51.28003 -110.36977 172.00116 304
36.67341 -119.08472 172.12526 300
-17.23802 -151.28180 164.57512 371
85.14260 -91.29601 171.73836 316
75.47256 -97.15012 171.79416 312
64.51414 -103.82486 171.92252 308
51.87989 -111.45836 172.00214 304
37.32380 -120.30640 172.14519 300
-13.76529 -151.18935 165.13055 372
85.61710 -92.19122 171.74547 316
75.98397 -98.09235 171.80299 312
65.08147 -104.82803 171.88223 308
52.53666 -112.52323 172.02975 304
38.00140 -121.43362 172.16261 300
-10.36947 -151.11308 165.61818 373
86.11884 -93.02780 171.73018 316
76.54530 -99.01433 171.82660 312
65.65478 -105.77934 171.91058 308
53.15067 -113.55641 172.01894 304
38.63163 -122.62210 172.09222 300
-9.15736 -152.39725 165.73264 291
86.62309 -93.89010 171.69824 316
77.08880 -99.90893 171.81346 312
66.20669 -106.75730 171.86861 308
53.75509 -114.67375 172.02051 304
39.31626 -123.72282 172.09344 300
-8.21966 -153.78719 165.68823 291
87.12840 -94.74741 171.72839 316
77.64476 -100.83295 171.80536 312
66.78941 -107.75311 171.88417 308
54.40668 -115.71888 171.97815 304
0.95552 -149.87013 162.93639 285
-7.32339 -155.22958 165.73010 291
87.65800 -95.59081 171.73480 316
78.17539 -101.77644 171.77229 312
67.36958 -108.73978 171.90030 308
55.03061 -116.76864 172.00528 304
2.50454 -150.83913 163.09450 378
-6.39948 -156.59756 165.75690 290
88.19595 -96.44229 171.69081 316
78.71523 -102.67918 171.80948 312
67.98975 -109.71550 171.87621 308
55.68473 -117.83841 171.98276 304
5.51309 -150.78952 163.62628 379
-5.47376 -158.05290 165.76564 290
88.69261 -97.30078 171.72301 316
79.27949 -103.55558 171.77087 312
68.59532 -110.71994 171.85455 308
56.30636 -118.89544 171.99509 304
8.56537 -150.70950 164.10789 381
-4.58457 -159.42799 165.73878 290
89.20567 -98.13291 171.70267 316
79.83305 -104.48387 171.76160 312
69.20216 -111.66553 171.86305 308
57.00258 -119.89330 171.94823 304
11.50724 -150.61049 164.61995 382
89.76287 -98.97485 171.67506 316
80.43868 -105.39538 171.78986 312
69.79094 -112.62222 171.86130 308
57.63090 -120.95486 171.98024 304
14.33642 -150.54811 165.07266 383
90.31897 -99.83662 171.70804 316
80.98269 -106.26390 171.76070 312
70.42806 -113.60558 171.87924 308
58.30315 -121.99789 171.96313 304
17.18653 -150.46082 165.58009 384
90.83343 -100.64488 171.70570 316
81.56792 -107.14027 171.76518 312
71.05811 -114.52686 171.88142 308
58.95457 -123.04362 171.96414 304
19.95608 -150.39363 166.06322 386
91.40171 -101.46741 171.66577 316
82.16953 -108.03568 171.77838 312
71.67446 -115.48051 171.87668 308
26.74926 -147.50789 163.28607 296
21.16693 -151.40102 166.09160 296
91.94199 -102.30523 171.69025 316
82.75485 -108.93174 171.73451 312
72.34597 -116.47464 171.85320 308
27.39127 -148.85466 163.22928 296
22.07162 -152.68071 166.11743 296
92.49704 -103.13613 171.67245 316
83.36745 -109.82034 171.76898 312
72.98888 -117.38604 171.84663 308
28.13780 -150.09714 163.15994 386
22.93237 -153.92020 166.14973 296
93.07591 -103.96059 171.64304 316
83.97704 -110.67054 171.72293 312
73.60873 -118.35197 171.81451 308
30.78578 -150.03957 163.66620 387
23.86334 -155.12982 166.11327 297
93.63622 -104.75690 171.64302 316
84.59863 -111.56984 171.72853 312
74.25327 -119.27868 171.84370 308
33.38223 -149.92166 164.12238 389
24.74314 -156.36424 166.11871 297
94.22079 -105.54948 171.67004 316
85.21634 -112.42745 171.73709 312
74.95554 -120.21307 171.84453 308
35.91970 -149.85835 164.58224 390
25.68913 -157.59689 166.09746 297
94.82515 -106.36431 171.66025 316
85.81451 -113.30019 171.75157 312
75.61076 -121.12899 171.81322 308
38.37224 -149.74976 165.00594 391
26.59353 -158.79547 166.08615 297
95.40434 -107.17564 171.65213 316
86.45381 -114.15250 171.70180 312
76.25733 -122.08052 171.78658 308
40.87260 -149.64749 165.43204 392
95.98670 -107.98306 171.62589 316
87.07457 -114.99293 171.69597 312
48.55782 -145.37457 163.39984 300
43.25047 -149.52110 165.84117 394
96.57202 -108.79520 171.64207 316
87.68779 -115.87012 171.72374 312
49.27032 -146.59555 163.38661 300
45.42806 -149.60548 166.19904 301
97.15611 -109.57731 171.64310 316
88.36646 -116.71193 171.70924 312
49.95557 -147.77509 163.34424 300
46.36554 -150.65869 166.20456 301
97.76832 -110.35546 171.65164 316
88.99119 -117.58421 171.72092 312
50.70088 -148.96098 163.26575 300
47.24864 -151.79028 166.26251 301
98.39699 -111.13768 171.61823 316
89.62853 -118.37753 171.70790 312
52.47728 -149.18748 163.58440 398
48.13633 -152.82135 166.24989 301
98.99616 -111.95844 171.61870 316
90.28603 -119.25929 171.67667 312
54.72075 -149.09409 164.00388 399
49.02744 -153.92386 166.20755 301
99.63351 -112.72115 171.59254 316
90.94687 -120.09224 171.66281 312
56.88531 -149.04549 164.36009 400
49.91985 -154.97670 166.25081 301
100.25028 -113.51067 171.59622 316
91.63432 -120.90901 171.66943 312
59.03214 -148.98061 164.76921 401
50.82467 -156.05629 166.23412 301
100.87952 -114.24915 171.60405 316
67.76218 -143.15118 163.58118 304
61.18051 -148.85896 165.16978 402
51.73505 -157.12190 166.25996 301
101.49940 -115.03294 171.59283 316
68.45071 -144.20000 163.51285 304
63.26462 -148.78986 165.53690 404
52.61199 -158.18762 166.24835 301
102.15805 -115.80219 171.61259 315
69.20392 -145.22086 163.51186 304
65.31175 -148.69026 165.90460 405
102.77039 -116.56735 171.58379 315
69.92249 -146.26566 163.47543 304
67.33246 -148.61963 166.26274 406
103.43259 -117.29950 171.56255 315
70.70815 -147.34337 163.42628 303
68.36269 -149.48141 166.32454 305
104.09396 -118.06622 171.58714 315
71.45692 -148.35281 163.36772 303
69.26987 -150.37863 166.31601 305
104.75790 -118.81425 171.56262 315
73.19156 -148.43121 163.69420 409
70.12880 -151.34135 166.32524 305
105.39644 -119.55946 171.56215 315
75.13114 -148.32867 164.05927 410
70.99999 -152.26076 166.33742 305
84.85261 -140.74768 163.71997 307
76.98024 -148.27979 164.40620 411
71.89888 -153.16739 166.34535 305
85.56253 -141.65105 163.64119 307
78.86732 -148.22379 164.72636 412
72.80931 -154.08347 166.32893 305
86.29314 -142.57486 163.63477 307
80.67471 -148.12186 165.11035 413
73.74981 -155.00999 166.38440 305
87.05585 -143.53642 163.59012 307
82.50631 -148.05539 165.43445 414
74.62042 -155.91827 166.33852 305
87.80982 -144.42984 163.54831 307
84.26174 -148.00432 165.76883 415
75.54649 -156.85089 166.33659 305
88.53627 -145.37730 163.55330 307
86.04615 -147.94437 166.07060 417
89.30720 -146.26926 163.48790 307
87.79095 -147.90472 166.36670 418
90.09143 -147.14925 163.50319 307
88.72503 -148.62666 166.40053 309
91.16410 -147.73454 163.53889 419
89.57822 -149.42729 166.40944 309
92.82197 -147.70566 163.87640 420
90.47035 -150.22156 166.42172 309
94.47177 -147.63019 164.18373 421
91.34828 -151.02762 166.43889 309
96.10744 -147.54472 164.49838 422
92.22604 -151.85260 166.43974 309
97.77561 -147.42767 164.82689 413
93.12610 -152.59711 166.44621 309
99.47717 -147.25304 165.18794 414
94.02474 -153.39276 166.43651 309
-45797.19531 -52045.17188 3688.73608 1000
101.12676 -147.11172 165.49547 415
94.94229 -154.19580 166.44238 309
102.82114 -146.92120 165.82379 416
95.85950 -154.95535 166.47598 309
104.42392 -146.78697 166.15298 417
96.79881 -155.74637 166.48067 310
106.02933 -146.60571 166.46092 418
106.88809 -147.26709 166.47324 314
107.76175 -147.95822 166.46193 314
108.61314 -148.69754 166.43860 314
109.49017 -149.37558 166.47395 314
110.35568 -150.06233 166.46890 314
111.22462 -150.77264 166.46474 314
112.09840 -151.46989 166.47949 314
115.26619 -149.15050 167.45810 316
116.12394 -149.80942 167.46892 316
116.99657 -150.52153 167.44139 316
117.84616 -151.14133 167.47168 316
120.48476 -149.42230 168.23721 490
124.60053 -149.10802 168.93568 490
126.47150 -148.24715 169.39642 436
