# .PCD v.7 - Point Cloud Data file format
VERSION .7
FIELDS x y z rgb
SIZE 4 4 4 4
TYPE F F F U
COUNT 1 1 1 1
WIDTH 1415
HEIGHT 1
VIEWPOINT 5814.644043 -3985.139648 147.564697 -0.019115 -0.133897 -0.006897 0.990787
POINTS 1415
DATA ascii
432.68170 72.52213 164.85771 308
436.30566 73.80064 167.80000 301
14904.15430 5080.54590 -1316.48547 1000
381.53278 55.86753 171.60381 316
392.16306 59.63680 171.70636 312
431.80502 73.59258 164.95645 423
435.95346 75.11327 167.79660 301
381.26364 56.84424 171.58290 316
417.79599 70.01950 164.74953 312
430.15616 74.43745 165.30165 424
435.61096 76.37770 167.78561 301
380.97882 57.79404 171.59846 316
417.40860 71.16484 164.79813 312
428.47467 75.22974 165.57703 425
435.24780 77.68794 167.80644 301
380.67462 58.77926 171.56377 316
416.98672 72.33606 164.79131 312
426.83728 76.02768 165.88789 426
434.86255 79.02088 167.77112 301
380.37909 59.70920 171.57477 316
416.59970 73.50564 164.76424 312
425.27435 76.83058 166.20886 427
434.42401 80.31866 167.75345 301
380.06357 60.70254 171.58685 316
416.18903 74.70111 164.77632 312
423.65009 77.57952 166.47401 428
379.75940 61.61567 171.58142 316
415.76813 75.83495 164.77913 312
422.10901 78.38616 166.75819 429
379.43204 62.57649 171.58072 316
415.32278 76.98888 164.79900 312
420.52911 79.09994 167.02580 430
379.09595 63.53742 171.58138 316
414.90234 78.14063 164.78934 312
419.03448 79.88409 167.34232 431
378.77124 64.47516 171.56480 316
414.46686 79.32785 164.80122 312
417.52750 80.63329 167.61949 432
378.45163 65.39931 171.53789 316
414.01776 80.50249 164.82700 312
416.33899 81.45885 167.76344 305
378.08853 66.35728 171.56367 316
413.55630 81.62273 164.78436 312
415.90988 82.61656 167.79485 305
401.13290 77.54733 164.68362 317
413.08472 82.79459 164.79736 434
415.44983 83.83768 167.75879 305
29536.27148 12839.88281 1256.12048 1000
400.72870 78.59688 164.71048 317
411.60327 83.44721 165.11215 435
415.03635 85.03387 167.76091 305
400.25455 79.67693 164.72383 317
410.20453 84.17939 165.37224 436
414.62506 86.17816 167.75830 305
399.82581 80.75133 164.71298 317
408.78183 84.86752 165.63959 437
414.17447 87.33907 167.76770 305
399.40222 81.81490 164.69057 317
407.39020 85.54292 165.85947 438
413.68747 88.49583 167.74365 305
398.89697 82.88326 164.71478 317
405.81171 86.15715 166.16669 420
413.24911 89.66887 167.73314 305
398.44553 83.90907 164.74091 317
404.23785 86.72244 166.45479 421
412.78964 90.86651 167.74153 305
397.97418 84.96646 164.70514 317
402.64255 87.25105 166.80772 422
412.34869 92.03782 167.70091 305
397.50250 86.04240 164.74940 317
401.04239 87.82372 167.07028 423
396.99353 87.04251 164.70418 317
399.53043 88.36381 167.39450 424
16797.57617 8372.97949 -1617.50452 1000
396.46829 88.09006 164.74712 317
398.01306 88.85323 167.67255 425
395.95740 89.13023 164.75351 317
397.34103 89.87773 167.72255 311
394.99362 89.88957 164.87939 426
396.85397 90.91154 167.72881 311
393.50446 90.42938 165.17992 427
396.37375 91.96065 167.72188 309
392.08054 90.95377 165.49684 428
395.87744 93.05645 167.68610 309
390.63458 91.42879 165.78445 429
395.40558 94.07757 167.66373 309
389.20776 91.94572 166.01512 430
394.92868 95.12804 167.69441 309
387.79578 92.41305 166.33022 431
394.41019 96.19462 167.68507 309
386.41559 92.88244 166.56177 432
393.90109 97.23289 167.64157 309
385.01315 93.38345 166.83224 433
393.39276 98.28272 167.65512 309
383.68500 93.84629 167.11461 434
382.32339 94.32454 167.35796 435
380.99225 94.79681 167.62859 436
380.38327 95.68912 167.62407 315
379.84155 96.65269 167.62805 315
379.35251 97.55595 167.63847 315
378.81693 98.53194 167.63367 315
378.23264 99.43477 167.61174 315
377.72916 100.36749 167.63896 315
377.15665 101.33086 167.63297 315
376.60367 102.22118 167.60884 313
376.03143 103.18967 167.63315 313
375.48154 104.11323 167.61781 313
374.94348 105.00715 167.60300 313
374.35623 105.96186 167.57051 313
2368.11426 1716.74353 80.93784 495
2373.18848 1721.09387 125.38036 471
17035.92773 20757.92773 4621.30225 1000
3390.75488 4491.44189 36.37039 298
3371.02515 4522.27148 34.95056 429
3498.01343 4704.39404 121.25963 439
3356.07544 4558.35547 34.97971 425
3455.84033 4704.72021 122.11137 439
3339.42236 4595.46924 34.28408 418
3414.96362 4705.74805 122.97390 440
3325.09717 4635.23047 33.87450 400
3373.69849 4707.12598 123.27750 441
3312.59204 4677.80762 32.80252 398
3332.28516 4707.04150 124.02496 442
3302.64062 4724.04346 31.13860 382
3301.08887 4722.14941 123.75272 485
3299.44531 4782.83105 29.97058 364
3289.84058 4769.91064 122.97121 382
3299.23145 4849.40625 27.64354 363
3298.21313 4913.61719 26.14308 376
3299.50854 4981.53662 25.39882 374
3299.46021 5052.10156 22.86727 373
3301.66064 5125.72510 21.39680 366
2214.46753 3673.74463 70.55567 435
1925.15466 4749.51123 39.81235 438
1830.58569 5656.96289 106.53665 350
1790.17407 5646.48975 107.34445 414
1753.89026 5646.81104 106.49534 393
1731.05115 5701.11230 8.91848 409
1717.29614 5646.99316 107.19411 347
1691.50745 5690.67578 10.98387 420
1681.90601 5650.90771 107.25287 347
1652.83997 5682.02100 11.23716 413
1690.54834 5833.97998 103.38096 496
1613.94788 5675.35107 12.18568 428
1576.38025 5671.48975 11.43558 432
1573.95081 5662.57031 106.76831 485
1595.13220 5754.14648 203.20624 494
1535.50623 5658.13721 13.42050 492
1536.31262 5659.46045 108.36713 485
1534.14221 5648.14844 202.06155 499
7971.52197 34307.91016 -6269.23926 1000
1496.71777 5639.48438 13.56232 306
1499.09277 5654.54346 108.11188 486
1498.94006 5653.24609 202.65176 498
1458.61536 5634.88330 13.66542 306
1463.47461 5658.71143 107.30698 499
1462.84021 5657.68701 203.48402 499
1423.45142 5635.52002 13.56723 380
1428.54053 5664.51318 108.72798 499
1429.25806 5664.96045 202.64400 499
1387.65173 5638.01855 14.11158 382
1393.35291 5665.20557 107.54850 499
1392.31360 5663.65430 202.56766 499
1352.35339 5643.21533 15.37900 382
1357.36621 5670.14648 109.04149 499
1357.62732 5670.48438 203.68677 499
1317.06628 5649.47705 15.15203 382
1323.80261 5679.89404 107.80689 499
1323.84229 5680.15479 203.14836 498
3496.80884 17459.54688 -1869.30969 1000
1282.96973 5653.79541 14.39389 382
1288.62463 5685.82764 107.57030 499
1289.43018 5685.64893 203.13196 499
1247.59973 5660.26025 14.00318 382
1253.19434 5691.30273 108.95871 499
1254.55469 5692.19092 202.40828 499
1213.01440 5665.23535 15.04570 382
1219.48157 5695.72852 109.04082 499
1219.03748 5696.58154 202.25218 499
1235.16418 5793.50488 298.41159 357
1178.81213 5671.40869 14.98890 382
1144.36938 5677.72998 14.86194 307
1171.31213 5843.42969 299.87610 474
1109.55444 5683.53955 14.61315 307
1127.88171 5805.35938 298.55130 433
1074.61572 5690.45850 15.36206 307
1040.40356 5695.48389 15.30088 307
1006.29175 5701.98145 15.03451 313
971.38068 5708.20508 14.29647 313
973.91254 5725.22754 108.93288 489
972.25519 5996.02783 103.37460 499
877.24176 5811.23340 108.07716 488
839.94781 5805.42383 107.10921 489
800.19873 5763.40186 108.24350 499
2782.17896 40604.42578 -3212.85449 1000
342.72318 4491.96631 59.85621 413
166.17656 3583.99829 91.36703 284
147.41502 3431.43188 97.15778 285
130.34851 3290.50903 101.22032 286
110.24634 3304.88257 46.75057 282
113.51830 3211.65430 104.30087 340
112.85548 3226.30127 156.73161 328
93.51195 3214.14526 51.22112 312
94.96938 3167.86768 106.14541 356
93.17806 3209.78223 156.98956 451
75.73057 3168.38403 54.25669 331
77.87624 3131.26514 107.04034 380
73.81729 3207.06494 157.00757 355
58.89169 3130.01733 56.00784 336
60.39124 3101.02368 108.59618 398
54.21264 3208.62036 156.64079 474
41.21923 3097.51782 57.06390 359
42.39208 3076.32910 109.11997 405
34.63543 3210.42358 157.03864 474
24.48261 3070.03198 59.01096 367
25.84290 3051.15625 109.54347 398
14.84082 3212.83154 156.85973 474
7.12266 3043.80615 59.69446 368
8.60992 3029.29614 110.26215 397
-5.03769 3214.84546 156.71231 473
-9.28131 3016.66748 61.28457 374
-8.37159 3008.18530 111.11878 393
-24.70581 3216.96118 156.67485 473
-27.91362 3017.15234 61.21954 299
-25.64995 2989.04077 111.65692 402
-44.75168 3218.37915 156.74736 473
-46.74799 3024.03906 60.58391 295
-42.42557 2974.35327 112.59045 383
-64.88235 3220.35840 157.12262 473
-66.10407 3032.11255 60.80633 295
-63.97979 3007.48901 111.00200 323
-84.92391 3222.27808 156.92972 473
-93.89208 3119.50171 55.70779 287
-87.33347 3056.67896 109.78133 314
-104.34547 3224.16528 156.32487 472
-113.51055 3123.43042 107.54869 304
-126.98047 3245.26123 156.40759 389
126.29889 150.21349 167.32228 316
125.44879 149.56718 167.36777 316
125.21643 149.86946 170.44865 312
124.61853 148.85867 167.39606 490
124.35606 149.21672 170.45914 312
123.74877 148.26019 167.37694 316
123.49570 148.55266 170.45760 312
122.86884 147.59280 167.36452 440
122.28789 148.43282 170.30930 438
-39561.50781 54042.34766 -3162.27222 1000
121.56572 147.57561 167.11317 439
120.86105 148.50356 170.08458 430
120.14759 147.59926 166.87596 428
119.42192 148.63423 169.79321 429
118.70567 147.77505 166.60660 427
117.96693 148.73566 169.53415 428
117.36208 147.74248 166.37968 314
116.50700 147.03699 166.39581 314
115.63759 146.33754 166.38040 314
114.83243 145.60965 166.40872 314
113.38751 145.63919 166.14151 421
105.82100 154.94215 166.40144 310
111.82375 145.77553 165.86122 419
104.92261 154.16846 166.37820 310
110.27911 145.95129 165.52979 418
104.01031 153.35890 166.37480 310
108.66637 146.09137 165.19287 417
103.12789 152.60583 166.36766 310
107.01108 146.26906 164.88084 416
102.28992 151.81378 166.36465 310
105.38184 146.42651 164.55711 415
101.37963 151.04419 166.37674 310
103.74445 146.58958 164.20724 414
100.54195 150.20047 166.36073 310
102.00725 146.73941 163.84294 413
99.70094 149.38995 166.41504 310
100.32690 146.90915 163.54111 412
98.82858 148.59033 166.40953 310
99.25668 146.36951 163.40468 312
97.97840 147.79677 166.38800 310
98.45147 145.51099 163.44554 311
96.82413 147.27846 166.25682 410
97.68618 144.61110 163.47987 311
95.14428 147.34595 165.98463 420
96.94409 143.69296 163.47578 311
93.40845 147.42410 165.66663 419
85.18321 156.15849 166.31421 305
96.20632 142.81155 163.51976 311
91.71112 147.46356 165.35455 418
84.26976 155.25398 166.34915 306
-686.21716 960.86859 106.36622 330
-685.01703 959.46344 128.27844 399
-684.39838 958.75183 150.18150 399
-683.30457 957.86157 171.67378 454
-682.99554 957.16309 193.49010 454
-682.35730 956.68256 215.31410 454
-681.76538 956.12738 236.97215 454
-681.01123 955.49896 258.48550 489
-680.79596 955.03595 280.07928 489
-680.23474 954.51257 301.58807 488
95.41945 141.89990 163.55220 311
89.99046 147.53351 164.99458 417
83.37262 154.36324 166.35109 306
-689.79663 952.91296 84.47425 484
-689.30774 952.67932 106.33489 484
-689.11963 952.45251 128.30838 485
-688.97137 952.18555 150.18680 448
-688.83142 951.90942 171.74820 448
-688.74133 951.86206 193.55705 448
-688.84821 951.98926 215.35695 392
-688.93774 952.22351 236.73164 392
-689.40338 952.69330 258.66129 321
94.69297 140.99562 163.57846 311
88.21893 147.63765 164.70084 416
82.47579 153.50803 166.30620 306
93.97318 140.11157 163.57831 311
86.38206 147.71196 164.31548 415
81.55117 152.60016 166.32419 306
113.84505 118.66260 171.43770 316
84.55881 147.74507 163.96916 414
80.68303 151.64474 166.30176 306
113.18970 117.92919 171.46815 316
82.72272 147.81485 163.61487 413
79.78997 150.72949 166.28601 306
112.54057 117.18653 171.43909 316
81.05370 147.73885 163.32262 304
78.89570 149.82077 166.32170 306
111.87531 116.41772 171.45831 316
80.31489 146.69666 163.38365 304
78.01777 148.88261 166.30519 306
111.23965 115.67214 171.46877 316
79.57885 145.65776 163.42194 304
77.06978 148.04170 166.23891 410
110.58433 114.88372 171.45395 316
78.88461 144.62326 163.42682 304
75.09628 148.14621 165.88033 409
109.99318 114.12566 171.48059 316
78.12907 143.61095 163.50121 304
73.15387 148.19176 165.54988 408
109.33553 113.37762 171.46313 316
77.42043 142.51453 163.51561 304
71.11683 148.31744 165.19324 407
61.80966 156.80185 166.20027 301
108.74617 112.59286 171.46896 316
76.70200 141.46088 163.54819 304
69.08620 148.36244 164.81117 405
60.95842 155.75610 166.19427 301
108.12350 111.83355 171.49422 316
99.64783 119.34418 171.58205 312
67.04502 148.46950 164.44884 404
60.02773 154.68019 166.19803 301
107.51319 111.03208 171.51035 316
99.00660 118.53182 171.54153 312
64.88950 148.51527 164.04443 403
59.11583 153.62991 166.18863 301
106.88808 110.27359 171.48561 316
98.33446 117.71953 171.57915 312
62.77014 148.59291 163.66847 402
58.27928 152.54932 166.22208 302
106.30185 109.46084 171.51749 316
97.71700 116.87540 171.56348 312
60.71761 148.61641 163.26109 300
57.35925 151.52385 166.22755 302
105.70663 108.65662 171.49684 316
97.05797 115.99525 171.57414 312
59.95150 147.44844 163.26836 300
56.50639 150.46414 166.22993 302
105.10461 107.87751 171.53265 316
96.40027 115.14014 171.58673 312
59.27514 146.27829 163.33124 300
55.61335 149.33517 166.19794 302
104.52064 107.05862 171.52782 316
95.80821 114.29851 171.58377 312
58.56843 145.08839 163.38972 300
53.92769 148.93060 165.96101 398
103.92169 106.28056 171.54643 316
95.14267 113.45699 171.59520 312
57.84613 143.91565 163.44897 300
51.63712 149.03313 165.58685 397
103.36388 105.44808 171.51494 316
94.51817 112.55977 171.59119 312
84.53458 120.67336 171.70357 308
49.22916 149.11336 165.12219 395
102.80503 104.65868 171.53752 316
93.93146 111.71152 171.61105 312
83.89628 119.73954 171.66711 308
46.87055 149.25905 164.70642 394
36.30126 157.65874 166.08989 297
102.23462 103.81676 171.53752 316
93.31865 110.82639 171.60580 312
83.22027 118.80074 171.71716 308
44.46542 149.29897 164.31244 393
35.39158 156.45740 166.11255 297
101.66472 103.03189 171.53893 316
92.70092 109.97814 171.60019 312
82.54810 117.87881 171.67882 308
41.97629 149.44215 163.85318 392
34.46829 155.26160 166.08685 297
101.12238 102.21372 171.53395 316
92.12839 109.07819 171.61348 312
81.89900 116.89441 171.68790 308
39.47797 149.53308 163.39265 391
33.59317 154.02406 166.07658 297
-4655.01221 3752.39917 -599.27136 1000
100.52458 101.39441 171.56523 316
91.50353 108.23186 171.62746 312
81.29128 115.97570 171.73090 308
37.79681 148.95634 163.14273 296
32.69182 152.80768 166.11641 297
99.98120 100.55766 171.57014 316
90.93548 107.33591 171.65759 312
80.64792 115.02120 171.73616 308
-184.89755 138.32635 -50.03756 296
31.79239 151.59546 166.10110 297
99.45266 99.68822 171.57402 316
90.35353 106.43999 171.61516 312
80.01439 114.08469 171.70358 308
68.18979 122.78825 171.83310 304
30.96149 150.31570 166.12619 298
98.90961 98.87620 171.56937 316
89.77676 105.53831 171.63242 312
79.38921 113.08984 171.74687 308
67.50571 121.75642 171.81808 304
28.95616 149.95361 165.81926 386
98.40553 98.05738 171.56273 316
89.18833 104.62881 171.66815 312
78.79042 112.12564 171.74391 308
66.83741 120.72186 171.80840 304
26.17702 150.04193 165.34146 385
97.84336 97.19289 171.56911 316
88.64932 103.76376 171.64328 312
78.17055 111.15715 171.73251 308
66.18918 119.67912 171.83023 304
23.36472 150.14186 164.87323 384
97.35729 96.32250 171.59781 316
88.07995 102.82728 171.64606 312
77.56282 110.21946 171.76965 308
65.54482 118.65681 171.85449 304
20.49924 150.21887 164.38646 385
96.81105 95.47521 171.60889 316
87.53897 101.93913 171.64651 312
76.96691 109.25053 171.77237 308
64.90977 117.63220 171.85675 304
17.68292 150.28143 163.90538 384
6.17482 158.26375 165.81015 290
96.28013 94.62199 171.61050 316
86.96105 101.02094 171.68880 312
76.39194 108.24875 171.74988 308
64.21745 116.54164 171.85497 304
14.75230 150.37398 163.38394 383
5.24432 156.88664 165.83849 291
95.77785 93.76945 171.57896 316
86.42708 100.11314 171.68571 312
75.78029 107.29843 171.77049 308
63.58099 115.48421 171.84274 304
12.12464 150.23737 162.94917 285
4.28617 155.46742 165.80406 291
95.31139 92.93713 171.62596 316
85.90594 99.19941 171.66928 312
75.19324 106.31784 171.75644 308
62.94865 114.44530 171.85144 304
48.79963 123.86012 171.98206 300
3.38220 154.13417 165.77405 291
94.79180 92.04449 171.60666 316
85.34907 98.29088 171.66225 312
74.61219 105.31134 171.75206 308
62.33525 113.38297 171.84987 304
48.12076 122.72835 171.97157 300
2.48874 152.72353 165.81973 291
94.30791 91.21165 171.61713 316
84.80910 97.35892 171.66922 312
74.06940 104.29816 171.79474 308
61.75930 112.32848 171.89763 304
47.47552 121.56748 171.96355 300
1.58375 151.31015 165.82182 291
93.84224 90.31121 171.62114 316
84.30553 96.40144 171.67903 312
73.52634 103.33685 171.79657 308
61.15228 111.24104 171.87364 304
46.77002 120.39375 171.98967 300
-0.68909 150.77403 165.48982 377
93.35009 89.46097 171.62476 316
83.78286 95.50507 171.70734 312
72.92949 102.31245 171.80336 308
60.51498 110.14709 171.89975 304
46.11510 119.22892 171.98438 300
-4.01353 150.82616 164.99908 376
92.85258 88.60166 171.61731 316
83.28838 94.55876 171.71761 312
72.41473 101.32004 171.79749 308
59.95876 109.10243 171.91760 304
45.48059 118.08406 172.01289 300
-7.34690 150.95193 164.42459 374
92.38396 87.70607 171.62650 316
82.77419 93.61588 171.72067 312
71.86164 100.33133 171.77370 308
59.31641 107.98259 171.87248 304
44.87527 116.88049 172.00024 300
-10.74359 150.98521 163.92116 373
91.90667 86.80250 171.64034 316
82.29056 92.67773 171.73479 312
71.28861 99.29668 171.82565 308
58.76699 106.88406 171.87624 304
44.21256 115.70531 172.04791 300
-14.21999 151.08083 163.31516 372
-29.36107 160.28061 165.29662 286
91.46452 85.91731 171.64436 316
81.77259 91.69519 171.69731 312
70.78822 98.27260 171.83260 308
58.17976 105.83044 171.90576 304
43.58422 114.51987 172.03609 300
26.47304 124.73675 172.19855 296
-30.26439 158.61320 165.30621 286
91.02250 85.04217 171.65302 316
81.26891 90.77314 171.71027 312
70.23351 97.26312 171.81369 308
57.62740 104.70700 171.91945 304
42.98867 113.35486 172.02122 300
25.80963 123.44717 172.16125 296
-31.16611 157.00642 165.28493 286
90.58824 84.17549 171.64709 316
80.80820 89.81103 171.71741 312
69.73826 96.24730 171.81493 308
57.04013 103.60629 171.90736 304
42.35746 112.16054 172.03609 300
25.17216 122.14124 172.15056 296
-32.09846 155.40138 165.34959 286
90.12265 83.28046 171.64551 316
80.34480 88.87427 171.74738 312
69.20883 95.21203 171.84564 308
56.48568 102.52380 171.94223 304
41.76661 110.93909 172.07056 300
24.45932 120.86029 172.21329 296
-32.93176 153.73064 165.30927 286
89.70425 82.33755 171.63516 316
79.86574 87.90523 171.75665 312
68.70453 94.17841 171.83401 308
55.92136 101.40157 171.91255 304
41.14046 109.74950 172.02390 300
23.79744 119.57708 172.17543 296
-33.90248 152.08542 165.34435 287
89.27121 81.47919 171.64178 316
79.37370 86.95328 171.71179 312
68.19866 93.15342 171.84584 308
55.38550 100.27748 171.91087 304
40.56945 108.57622 172.06174 300
23.15637 118.26155 172.17136 296
-36.90298 151.63249 164.86627 364
88.81075 80.55997 171.65225 316
78.92186 85.99894 171.72176 312
67.73946 92.16096 171.81363 308
54.84421 99.20399 171.96768 304
39.98965 107.34962 172.08861 300
22.55705 116.92518 172.21660 296
-41.00400 151.78683 164.26929 363
88.42253 79.65285 171.67015 316
78.47359 85.03217 171.73073 312
67.23851 91.11858 171.82722 308
54.34631 98.04759 171.97134 304
39.40423 106.13208 172.05753 300
21.90116 115.57777 172.18381 296
-45.16853 151.87416 163.62636 361
87.99954 78.74838 171.65695 316
78.01742 84.04196 171.72359 312
66.72147 90.08865 171.83932 308
53.80158 96.96741 171.93314 304
38.80676 104.91033 172.05966 300
21.27422 114.24770 172.23877 296
0.43050 125.36401 172.42307 292
87.59061 77.84892 171.64963 316
77.59061 83.09132 171.73837 312
66.27760 89.00964 171.84802 308
53.30848 95.80950 171.93062 304
38.25009 103.70246 172.09018 300
20.67150 112.93413 172.19766 296
-0.27319 123.93658 172.36076 292
87.19012 76.94266 171.69577 316
77.14906 82.07687 171.74617 312
65.79610 87.98242 171.84352 308
52.75509 94.71729 171.96173 304
39.85479 101.41631 172.53612 323
29.06181 106.98426 174.06392 276
11.93824 115.82984 174.81136 276
-72.26212 159.36842 164.88713 284
86.76851 75.99887 171.68500 316
76.71988 81.10094 171.75647 312
65.34098 86.91543 171.83623 308
52.25469 93.60185 171.97214 304
42.40929 98.58817 173.28897 324
36.51585 101.62984 175.71941 323
22.03078 108.97811 176.78682 277
-73.02521 157.44617 164.97322 284
86.35688 75.07449 171.67567 316
76.29323 80.12201 171.78792 312
64.84330 85.89767 171.84714 308
51.74611 92.44524 171.94408 304
44.89332 95.87619 173.95000 325
39.14344 98.77841 176.37605 324
31.43990 102.65928 178.65167 276
16.58228 110.12283 180.02367 276
85.99576 74.14928 171.67580 316
75.90458 79.14875 171.76459 312
64.41360 84.81915 171.86960 308
52.77987 90.57533 172.33067 329
47.28285 93.28905 174.59457 326
41.68302 96.02187 176.99780 326
35.83422 98.92085 179.59601 324
16.27549 108.58113 180.02083 288
85.61933 73.23023 171.68193 316
75.47541 78.16696 171.77769 312
63.98184 83.73575 171.85605 308
54.96272 88.12337 172.99258 330
49.62743 90.71193 175.24191 328
44.19929 93.39885 177.62506 327
37.02363 96.88855 179.89507 292
15.70917 107.22761 180.07014 288
-10.61459 120.00869 180.29681 284
85.21809 72.30125 171.70628 316
75.04040 77.18545 171.78012 312
63.50579 82.68607 171.87804 308
57.12499 85.76463 173.60405 331
51.91373 88.29086 175.83978 329
46.55319 90.80166 178.19249 328
36.51781 95.67583 179.86578 292
15.11085 105.86829 180.04987 288
-11.25897 118.51163 180.25755 284
84.84917 71.40199 171.68268 316
74.67872 76.16638 171.77382 312
63.10983 81.62284 171.85878 308
59.15794 83.47200 174.22720 332
54.11009 85.86804 176.44582 330
48.90025 88.32452 178.75700 329
35.96902 94.43327 179.89108 292
0.17731 111.27504 177.71657 286
-11.88601 116.99732 180.28714 284
84.48857 70.45976 171.70595 316
74.28933 75.19445 171.77335 312
63.63119 80.10829 172.11479 378
60.28865 81.68565 174.60475 389
56.26909 83.51670 176.97597 331
51.15564 85.90966 179.30191 330
35.51198 93.18805 179.92432 292
-10.61230 114.57260 176.01442 284
-12.46108 115.47988 180.28535 284
84.12989 69.53007 171.69847 316
73.89223 74.20008 171.77121 312
64.40599 78.54540 172.40666 378
61.05822 80.02867 174.88554 390
57.93085 81.46279 177.46069 388
52.83776 83.82561 179.72888 296
35.01172 91.92544 179.91241 292
-16.80162 115.61368 175.10762 340
-16.75210 115.55775 179.79977 341
83.74364 68.60268 171.68695 316
73.49362 73.21828 171.80750 312
65.18680 76.94167 172.73676 379
61.79873 78.44930 175.14754 391
58.69626 79.86382 177.73338 389
52.34899 82.66595 179.76221 296
21.00703 96.76912 177.42978 290
7.16655 102.99760 179.13655 287
-21.41749 115.83643 179.21194 339
83.42564 67.65508 171.70224 316
73.09170 72.18083 171.77960 312
65.91508 75.35000 173.02145 380
62.55627 76.88680 175.45630 392
59.50449 78.22249 177.99866 390
51.94149 81.55508 179.75633 296
24.41285 93.73402 178.16347 319
13.65812 98.47760 180.31705 289
-3.56202 106.08817 181.88960 269
83.04885 66.72180 171.71172 316
72.76568 71.18880 171.80182 312
66.65620 73.80345 173.33015 381
63.30198 75.32249 175.68384 393
60.26461 76.64056 178.24130 391
51.53077 80.38590 179.78297 296
26.73047 91.15048 178.68646 335
19.07861 94.52053 181.26653 318
5.88010 100.27773 183.32735 288
-48.81088 124.01929 180.56131 280
82.71357 65.76360 171.72523 316
72.39027 70.17722 171.80505 312
67.40063 72.27669 173.63847 382
64.04073 73.74149 175.98933 394
61.01322 75.04189 178.52678 392
51.13472 79.29874 179.75473 296
28.86367 88.78030 179.14833 337
22.02567 91.72310 181.80408 319
12.38111 95.81868 184.34052 289
-4.71698 103.12882 186.21420 269
82.39878 64.81374 171.71468 316
72.03321 69.16634 171.79811 312
68.18542 70.79482 173.91069 383
64.74525 72.23604 176.24057 395
61.78058 73.50624 178.75912 393
50.72836 78.13396 179.74910 296
30.89376 86.46621 179.58519 338
24.58806 89.06571 182.32950 335
16.65044 92.43042 184.99808 317
4.62112 97.47965 187.42415 288
82.06472 63.87933 171.73192 316
72.35124 67.86404 171.99529 386
68.89352 69.28718 174.17513 384
65.42782 70.73455 176.48070 396
62.51369 71.92564 178.99626 394
50.28071 77.00117 179.79398 296
32.87337 84.17638 180.04807 339
26.72123 86.69427 182.76208 336
19.71531 89.64671 185.52686 318
11.07526 93.16277 188.34576 316
-5.67454 100.09380 190.55008 269
81.74747 62.91284 171.73402 316
73.05673 66.42628 172.29794 387
69.63279 67.84527 174.48065 385
66.17077 69.22041 176.75206 397
63.26847 70.42841 179.26176 395
40.56467 79.64272 177.91913 342
34.85466 81.92149 180.50276 340
28.81174 84.38651 183.14981 337
22.47182 86.98779 185.98758 335
14.30014 90.31635 188.75410 317
3.41458 94.67343 191.61552 288
81.42487 61.96476 171.70276 316
73.74243 65.04659 172.55659 388
70.33079 66.40382 174.73831 386
66.84940 67.78576 176.96077 398
63.99738 68.91261 179.48343 396
42.30836 77.54674 178.38937 375
36.75038 79.75841 180.91241 341
30.88662 82.14330 183.52043 339
24.63314 84.61568 186.35823 336
17.37200 87.49162 189.22615 318
8.59843 91.00094 192.22169 316
-6.59388 97.03593 194.89626 269
81.11712 61.01359 171.70438 316
74.43365 63.65633 172.81581 389
71.02654 64.97319 174.99921 387
67.53958 66.30801 177.22466 384
64.46281 67.54324 179.64917 300
43.25734 75.82385 178.63429 376
38.62653 77.67281 181.29324 342
32.87501 79.91025 183.94937 340
26.73437 82.31747 186.70889 337
20.32813 84.83362 189.63857 335
11.89830 88.14415 192.59782 317
2.30915 91.87849 195.74246 288
-22.69806 101.64893 198.11067 268
80.83161 60.05259 171.74567 316
75.07442 62.27168 173.10129 390
71.72363 63.53340 175.22638 388
68.30377 64.88551 177.49333 385
64.13467 66.48388 179.65056 300
44.20372 74.11684 178.90796 377
39.81328 75.78054 181.59145 375
34.79751 77.73254 184.31706 341
28.83647 80.05728 187.04607 338
22.57163 82.49077 190.01308 336
15.01921 85.37253 193.00197 318
6.14434 88.75191 196.11272 315
-7.35874 93.95858 199.21149 269
80.53128 59.09614 171.73546 316
75.73518 60.91814 173.36882 391
72.45264 62.13325 175.50208 389
69.01194 63.44752 177.71281 386
63.81058 65.40828 179.68205 300
44.98341 72.50377 179.10701 389
40.83637 74.07551 181.86053 375
36.34826 75.78634 184.64296 373
30.85412 77.86565 187.43056 339
24.67921 80.19971 190.31429 337
18.06095 82.67957 193.37274 319
9.46767 85.88813 196.46495 317
0.26781 89.41502 199.76765 314
80.23244 58.14397 171.75175 316
76.19585 59.60223 173.56873 420
73.13840 60.75428 175.77538 390
69.76099 61.99103 177.95990 387
63.48114 64.34641 179.66115 300
45.80551 70.91728 179.36090 389
41.78831 72.34886 182.05573 376
37.38572 74.00481 184.84660 374
32.74276 75.75092 187.73692 371
26.80619 77.90141 190.60017 338
20.44379 80.30097 193.64037 336
12.66749 83.17850 196.75456 318
3.73566 86.47196 200.06805 315
-8.03041 90.84425 203.50131 269
79.95708 57.16039 171.71704 316
76.50963 58.42459 173.74689 421
73.74845 59.42529 175.97856 419
70.42828 60.59292 178.21048 388
63.12001 63.26457 179.66577 300
46.54083 69.28395 179.60228 390
42.66814 70.70869 182.32706 388
38.41342 72.30206 185.06107 375
33.81498 73.92189 187.96350 372
28.86804 75.75169 190.91254 339
22.66823 77.97496 193.91185 337
15.80602 80.47791 197.07545 319
7.12342 83.65836 200.32898 316
-2.27741 87.08038 203.86197 314
79.66426 56.21665 171.76048 316
76.82336 57.20641 173.87312 422
74.05803 58.19592 176.13396 419
71.17281 59.23335 178.46564 389
62.82975 62.22603 179.69157 300
47.32642 67.73301 179.77409 391
43.50836 69.11702 182.48544 389
39.38067 70.57681 185.32355 376
34.89492 72.17822 188.14095 373
30.20280 73.84657 191.12714 371
24.79779 75.78259 194.17137 338
18.39552 78.09032 197.31651 335
10.37409 80.91501 200.60025 317
1.29144 84.16971 204.07309 315
79.80490 55.06731 171.87910 426
77.15897 56.01328 174.04170 422
74.37180 56.98803 176.29590 420
71.54520 57.99543 178.59421 418
62.49804 61.11909 179.69495 300
48.08450 66.17451 179.99609 392
44.27530 67.51344 182.73787 390
40.39263 68.90715 185.49985 387
35.94075 70.43333 188.38672 374
31.34044 72.04028 191.29497 372
26.47616 73.75455 194.42679 369
20.60858 75.82358 197.55438 336
13.53851 78.31840 200.84761 318
4.72310 81.34230 204.28549 316
80.08450 53.91698 172.04118 427
77.43465 54.84687 174.22348 423
74.72028 55.76655 176.47342 421
71.88818 56.75360 178.74741 418
62.18524 60.03775 179.66977 300
48.82192 64.68066 180.19675 393
45.05512 65.93881 182.89291 391
41.18590 67.27917 185.71661 388
36.96426 68.71921 188.52876 375
32.39295 70.29421 191.52390 372
27.62508 71.90888 194.60544 370
22.63900 73.66840 197.76579 367
16.32501 75.81770 201.08131 335
8.02256 78.68470 204.45308 317
80.38333 52.79554 172.16145 428
77.75539 53.65600 174.37268 424
75.02571 54.56606 176.58620 421
72.25320 55.52996 178.91663 419
61.92476 58.99401 179.66982 300
49.56183 63.15242 180.45300 394
45.83810 64.40065 183.12691 391
42.02718 65.70237 185.87430 389
38.02458 67.05772 188.74370 376
33.46502 68.57191 191.70129 373
28.75524 70.11877 194.72118 371
23.84444 71.78075 197.90419 368
18.59502 73.53041 201.23253 336
11.25634 76.02052 204.65659 318
80.66859 51.63210 172.32591 428
78.06281 52.47623 174.53831 424
75.36726 53.39682 176.75539 422
72.59470 54.27449 179.02159 420
53.83760 60.46150 178.06789 397
50.27483 61.64756 180.61232 395
46.60015 62.86102 183.30539 392
42.81893 64.11610 186.05974 390
38.87356 65.39295 188.89325 387
34.53507 66.80663 191.83052 374
29.89465 68.34405 194.87602 372
25.05549 69.96082 198.06160 369
19.95891 71.62096 201.36137 366
14.24739 73.52164 204.83376 335
80.93970 50.50618 172.48769 429
78.37379 51.33304 174.68188 425
75.68851 52.22361 176.88280 423
72.94682 53.08078 179.17357 421
54.53968 59.01624 178.25842 398
50.98829 60.18067 180.84421 396
47.37443 61.35379 183.48460 393
43.60190 62.52573 186.25555 391
39.71763 63.80510 189.07622 388
35.56328 65.14239 192.04198 375
30.98845 66.65516 195.02357 373
26.19206 68.17743 198.17113 370
21.20422 69.77829 201.47154 367
15.95232 71.45432 204.94711 365
81.27450 49.39199 172.65463 430
78.68378 50.17634 174.83476 426
76.02234 51.03320 177.02641 424
73.24863 51.90156 179.32509 421
55.23150 57.60904 178.47466 399
51.71438 58.69315 181.02391 396
48.09856 59.82471 183.65158 394
44.41758 61.02193 186.40070 392
40.51828 62.21704 189.21837 389
36.54821 63.49374 192.17967 387
32.10679 64.93423 195.16939 373
27.35279 66.42552 198.35025 371
22.40001 67.98560 201.58405 368
17.25507 69.59721 205.02054 365
81.53002 48.25447 172.78368 430
79.00822 49.03692 174.98888 426
76.35378 49.88310 177.17670 424
73.60945 50.68763 179.44560 422
55.90523 56.19608 178.67380 400
52.41874 57.27735 181.20023 397
48.84717 58.37146 183.85329 395
45.20027 59.49868 186.56358 392
41.36885 60.65460 189.40167 390
37.40811 61.87109 192.32304 387
33.18873 63.21376 195.34726 374
28.46719 64.67386 198.43755 372
23.59149 66.18190 201.72432 369
18.50037 67.76390 205.11081 366
81.81900 47.14682 172.96191 431
79.30535 47.91785 175.13242 429
76.63989 48.70523 177.30330 425
73.94650 49.52386 179.59093 423
56.43546 54.84354 178.82999 413
53.13000 55.79354 181.38622 398
49.58006 56.87327 184.00984 396
45.95745 57.98062 186.72337 393
42.17243 59.15715 189.58430 391
38.26383 60.32295 192.48958 388
34.17480 61.53520 195.45149 386
29.61624 62.92259 198.58621 373
24.80634 64.38850 201.81073 370
19.72739 65.94411 205.19910 367
82.12062 46.02142 173.07367 432
79.62318 46.75278 175.23322 429
76.96524 47.57183 177.45959 426
73.70808 48.52404 179.56680 304
56.91622 53.50953 179.00749 413
53.68776 54.42079 181.56519 411
50.35159 55.44373 184.20364 397
46.70247 56.53077 186.89545 394
43.00037 57.60894 189.68681 392
39.10960 58.75178 192.62521 389
35.10548 59.93204 195.58118 387
30.73907 61.21463 198.69917 374
25.97450 62.68296 201.91605 371
20.99978 64.13390 205.24658 368
82.42577 44.94371 173.24605 432
79.90189 45.64566 175.40277 430
77.30708 46.41250 177.59784 426
73.50432 47.49785 179.60152 304
57.41211 52.17510 179.14952 414
54.21911 53.09764 181.69882 412
50.95365 54.04132 184.34476 409
47.47004 55.04062 187.07146 395
43.79514 56.12424 189.83684 392
39.93913 57.19009 192.72055 390
35.94395 58.39647 195.71365 387
31.80180 59.59200 198.81717 374
27.10848 60.92838 202.01030 372
22.18020 62.36079 205.32884 369
82.72231 43.84782 173.37427 433
80.21379 44.55961 175.50322 431
77.59908 45.25040 177.70105 427
73.25877 46.51153 179.56796 304
57.88822 50.84232 179.31020 422
54.70947 51.75128 181.88687 412
51.45048 52.64448 184.51404 410
48.07717 53.60127 187.20682 407
44.55677 54.64220 189.97960 393
40.74326 55.69685 192.85233 391
36.79548 56.82030 195.85086 388
32.73798 57.95716 198.92268 386
28.20986 59.24992 202.10637 373
23.39192 60.63312 205.41771 370
83.00645 42.74654 173.49350 434
80.50293 43.41285 175.66154 431
77.93252 44.16671 177.84485 428
73.04184 45.48974 179.61598 304
58.31957 49.55495 179.43965 422
55.24201 50.41305 182.02011 413
51.95851 51.32642 184.63713 411
48.64595 52.25204 187.36478 408
45.20886 53.16804 190.12192 406
41.57685 54.19080 193.01584 392
37.67777 55.27215 195.95485 389
33.60513 56.37645 199.00800 387
29.33692 57.58156 202.19559 374
24.57446 58.86800 205.50137 371
19.16120 60.36497 208.92505 336
83.30486 41.66169 173.62939 434
80.81891 42.35640 175.80591 432
78.27539 43.03742 177.95596 428
72.83459 44.50148 179.60516 304
58.68913 48.28194 179.58505 423
55.75485 49.08449 182.13506 414
52.49443 49.94394 184.79233 411
49.20876 50.84940 187.44075 409
45.76648 51.80495 190.24736 406
42.21304 52.72669 193.11180 404
38.52779 53.71171 196.07909 390
34.50448 54.81884 199.10170 387
30.37087 55.91339 202.28903 385
25.74332 57.16517 205.55565 372
20.47501 58.59751 209.00778 336
83.55145 40.61197 173.76262 435
81.09948 41.25181 175.92729 433
78.56563 41.88889 178.09912 429
72.64208 43.47107 179.58125 304
59.14433 47.04009 179.69728 424
56.15467 47.80953 182.28395 421
53.02661 48.64041 184.88379 412
49.71668 49.48555 187.57263 410
46.30429 50.40253 190.37715 407
42.83635 51.31976 193.20859 405
39.16997 52.25369 196.17233 402
35.38342 53.24680 199.21886 388
31.27517 54.32504 202.36409 386
26.90035 55.53486 205.67422 373
21.77054 56.86590 209.03964 340
83.85963 39.55033 173.91234 435
81.40343 40.15034 176.05457 433
78.89181 40.79234 178.21542 429
72.43118 42.43219 179.62227 304
59.54077 45.74269 179.84685 424
56.62240 46.54242 182.42633 422
53.56847 47.29828 185.01645 413
50.25925 48.13736 187.73012 410
46.89738 48.99655 190.44197 408
43.40593 49.92139 193.32944 405
39.77912 50.83909 196.26164 403
36.09806 51.80587 199.33392 400
32.15965 52.75974 202.47249 386
27.94493 53.87558 205.73015 384
23.05419 55.14049 209.09280 341
84.15785 38.45189 174.04391 436
81.70007 39.06714 176.18727 434
79.18986 39.69788 178.35960 430
72.23481 41.43180 179.62234 304
59.91964 44.53777 179.98926 425
57.00312 45.25916 182.50246 423
54.03188 46.01994 185.15396 420
50.79422 46.79661 187.83427 411
47.45621 47.65904 190.59030 409
43.96767 48.48513 193.44237 406
40.39896 49.40877 196.33870 403
36.73293 50.33882 199.40158 401
32.90124 51.26033 202.53499 398
28.89105 52.30074 205.80208 385
24.29455 53.44896 209.17633 342
84.44818 37.43518 174.15434 437
82.01184 38.01628 176.31641 435
79.53197 38.61641 178.44749 431
72.05734 40.43866 179.59618 304
60.33306 43.26414 180.12672 426
57.44733 43.97638 182.64818 423
54.48542 44.69040 185.25552 421
51.34930 45.47187 187.95787 412
48.03346 46.26122 190.67645 409
44.56966 47.11398 193.52959 407
41.00422 48.00363 196.45760 404
37.34484 48.86642 199.46210 402
33.53353 49.79036 202.56830 399
29.58804 50.75274 205.84076 396
25.53766 51.78067 209.21234 383
-186.87592 103.40134 209.13293 485
84.74430 36.36445 174.31334 437
82.32747 36.92415 176.40729 435
79.85493 37.54322 178.58450 431
71.86961 39.39140 179.60851 304
60.75186 42.04166 180.20976 426
57.87936 42.70490 182.76691 424
54.89545 43.44818 185.38312 422
51.87359 44.13797 188.06792 419
48.55684 44.95127 190.79892 410
45.17289 45.73996 193.59943 407
41.64328 46.58727 196.52042 405
37.98243 47.43410 199.54073 402
34.20665 48.32335 202.62379 400
30.27878 49.23255 205.89606 397
26.25961 50.24916 209.20857 394
-186.99106 100.69771 209.13042 485
85.02916 35.30037 174.41522 438
82.60652 35.88189 176.53934 436
80.17398 36.42546 178.72150 432
71.74292 38.39382 179.61209 304
61.14824 40.82732 180.33173 427
58.30502 41.48772 182.86487 425
55.31587 42.18459 185.47911 422
52.29036 42.85270 188.17731 420
49.12506 43.61356 190.91377 411
45.72531 44.35659 193.71335 408
42.23521 45.20878 196.59468 406
38.62253 46.00490 199.59737 403
34.87194 46.86194 202.71455 400
30.96006 47.78473 205.93449 398
26.95664 48.70666 209.27347 395
-187.40230 98.10602 209.12611 485
85.28359 34.28800 174.54213 439
82.89619 34.82412 176.65561 436
80.44955 35.35068 178.83122 433
71.52880 37.38697 179.61784 304
61.58474 39.57476 180.45015 428
58.68134 40.25077 182.97432 425
55.78206 40.90319 185.57217 423
52.78455 41.59928 188.24681 421
49.65940 42.28863 190.99454 411
46.28625 43.02462 193.77177 409
42.79758 43.81941 196.69412 406
39.22208 44.62462 199.66356 404
35.53598 45.45324 202.77136 401
31.67046 46.27659 205.98347 398
27.67204 47.18694 209.28552 396
-187.87662 95.47243 209.12613 485
-195.20758 97.05562 216.31204 295
85.59482 33.24801 174.65518 439
83.20026 33.78876 176.76332 437
80.79283 34.28062 178.94319 433
64.74658 37.76727 178.13301 430
61.96300 38.37803 180.59250 428
59.10752 39.00473 183.09286 426
56.17990 39.63042 185.70689 424
53.19623 40.31620 188.37154 421
50.14479 40.99274 191.10196 419
46.87800 41.68362 193.90465 410
43.40277 42.41073 196.74660 407
39.81512 43.18542 199.76627 404
36.17929 44.03100 202.80397 402
32.33811 44.82643 206.04735 399
28.35824 45.72707 209.30844 396
-188.31184 92.79844 209.23087 485
-188.22044 92.76306 216.31349 297
85.86374 32.24972 174.79312 440
83.48935 32.71363 176.88730 438
81.08616 33.23943 179.03864 434
65.11374 36.61336 178.27094 431
62.38248 37.17725 180.69698 429
59.53222 37.77343 183.23567 427
56.62720 38.38975 185.79808 424
53.64213 39.00734 188.42317 422
50.61919 39.69496 191.14857 419
47.42272 40.37004 193.98801 410
44.00718 41.09806 196.86377 408
40.43399 41.81871 199.82535 405
36.80480 42.57286 202.87184 402
32.97869 43.41629 206.07777 400
29.07448 44.23743 209.32985 397
-182.95732 89.01324 216.28770 439
86.09121 31.22178 174.86496 458
83.78876 31.70626 176.97580 438
81.39388 32.18707 179.12242 436
65.51969 35.41457 178.39032 432
62.76777 36.02098 180.84435 429
59.93123 36.59347 183.34210 427
57.07046 37.18962 185.89766 425
54.12627 37.76394 188.51624 422
51.08017 38.40770 191.28516 420
47.90548 39.05853 194.06377 418
44.59913 39.74198 196.90402 408
41.07914 40.45531 199.85510 406
37.44268 41.20536 202.95312 403
33.63372 41.94630 206.11441 400
29.77976 42.75620 209.40640 398
-183.04614 86.33698 216.25305 439
86.13367 30.24009 174.92166 459
83.97296 30.70903 177.05273 457
81.69601 31.13272 179.26628 437
65.89915 34.28359 178.48439 432
63.16144 34.80022 180.95877 430
60.36484 35.34556 183.42653 428
57.50514 35.95350 185.99516 425
54.57049 36.51592 188.61293 423
51.51249 37.10820 191.35385 421
48.41285 37.76896 194.14676 418
45.14408 38.40197 197.02614 409
41.64596 39.09332 199.97290 406
38.04815 39.78377 203.01842 404
34.29116 40.51787 206.15471 401
30.45171 41.33772 209.40520 398
-183.18190 83.69879 216.30623 439
86.21220 29.29376 174.98750 459
84.00652 29.69165 177.13608 457
81.79009 30.15166 179.30482 455
66.27378 33.13230 178.59047 433
63.54918 33.61507 181.05081 431
60.75301 34.14997 183.52470 428
57.93789 34.70760 186.09251 426
55.01152 35.29864 188.71997 424
51.97985 35.88593 191.43983 421
48.90843 36.47327 194.22717 419
45.67652 37.08341 197.07620 416
42.29362 37.74724 200.02623 407
38.66779 38.40343 203.07353 404
34.95799 39.10721 206.18051 402
31.10043 39.88988 209.43475 399
-183.23691 80.96551 216.28586 424
86.24521 28.32742 175.02467 459
84.08266 28.70569 177.16615 457
81.85881 29.13945 179.34656 455
66.63376 31.94195 178.73715 434
63.93251 32.46637 181.13979 431
61.19558 32.99587 183.66768 429
58.34509 33.49540 186.18530 427
55.45699 34.06823 188.83405 424
52.45902 34.62749 191.49857 422
49.36666 35.15667 194.28029 419
46.17292 35.75916 197.13660 417
42.86550 36.41018 200.09106 408
39.30407 37.02700 203.09305 405
35.63246 37.70230 206.21333 402
31.79063 38.44760 209.49377 400
-183.19595 78.40468 216.26143 425
-189.69041 79.49850 223.41478 322
86.31654 27.37824 175.08131 460
84.13486 27.75929 177.21924 458
81.91756 28.14849 179.41278 456
67.03588 30.79390 178.84682 434
64.35208 31.27942 181.28644 432
61.59314 31.81475 183.75891 430
58.74899 32.32673 186.29007 427
55.88903 32.81352 188.92598 425
52.91605 33.37381 191.58034 423
49.81438 33.91138 194.37260 420
46.70190 34.49015 197.19092 418
43.41731 35.04795 200.11952 415
39.91256 35.67036 203.13484 406
36.26728 36.35092 206.30174 403
32.46783 37.01522 209.51930 400
-183.21095 75.73309 216.25775 425
-187.04333 76.34290 223.32979 323
86.35496 26.39267 175.13585 460
84.22678 26.76849 177.25569 458
82.00861 27.14098 179.42955 456
67.41107 29.66365 178.96812 435
64.75001 30.14824 181.38011 433
61.98624 30.64210 183.84801 430
59.21341 31.11999 186.38425 428
56.30423 31.58936 188.99138 426
53.34069 32.12047 191.67377 423
50.30875 32.66057 194.42107 421
47.15791 33.18598 197.24879 418
43.92681 33.74950 200.21169 416
40.51879 34.32600 203.18008 406
36.89989 34.96735 206.31244 404
33.13874 35.58807 209.50478 401
-183.25069 73.08286 216.27507 425
-184.39012 73.30373 223.30267 323
86.46059 25.42271 175.18001 460
84.26704 25.78391 177.31709 458
82.08611 26.17373 179.47159 456
67.53288 28.58308 179.02843 454
65.00772 29.02341 181.44092 451
62.39716 29.42310 183.92197 431
59.63136 29.90844 186.49963 429
56.75262 30.37161 189.10370 426
53.80193 30.90528 191.76732 424
50.76889 31.41073 194.47691 421
47.64061 31.91647 197.33002 419
44.43522 32.43099 200.27187 416
41.15311 32.97458 203.27260 414
37.51064 33.60428 206.33453 404
33.79433 34.23850 209.53827 402
-182.43071 70.27126 223.27431 361
86.49969 24.50032 175.22246 461
84.36251 24.83217 177.34265 459
82.17052 25.17762 179.51593 456
67.58445 27.52926 179.06816 454
65.09216 27.91759 181.48926 452
62.57656 28.31166 183.97545 449
59.96490 28.71975 186.56761 447
57.19837 29.21090 189.15034 427
54.24801 29.64927 191.80499 424
51.27065 30.14801 194.59418 422
48.15653 30.62454 197.38208 419
44.94992 31.15615 200.31863 417
41.64080 31.70584 203.28110 414
38.17942 32.23043 206.39030 405
34.46154 32.85812 209.57971 402
-181.78409 67.51801 223.22386 361
86.55589 23.50723 175.23775 461
84.40755 23.87372 177.39851 459
82.05567 24.20154 179.51639 308
67.65513 26.45818 179.10564 454
65.16595 26.80567 181.51505 452
62.61618 27.23394 184.02766 450
60.02918 27.60899 186.58298 447
57.35352 28.05203 189.22290 445
54.66455 28.46384 191.90434 442
51.68652 28.90126 194.64780 422
48.65224 29.38067 197.47629 420
45.45438 29.86521 200.35599 417
42.16547 30.36054 203.33118 415
38.77874 30.91634 206.44055 406
35.08813 31.44160 209.62111 403
-181.09001 64.74883 223.24283 362
86.62269 22.59180 175.28848 461
84.49995 22.87031 177.42456 459
81.99657 23.26238 179.51888 308
67.72877 25.36121 179.10690 454
65.24887 25.72999 181.58826 452
62.72902 26.09440 184.07059 450
60.14054 26.50605 186.63049 447
57.47248 26.86155 189.22371 445
54.72178 27.30026 191.94223 443
51.92493 27.67978 194.68440 440
49.07909 28.14279 197.50133 437
45.94271 28.59124 200.41412 418
42.71907 29.05070 203.41083 415
39.35084 29.59689 206.46513 413
35.74686 30.09200 209.65500 404
-180.53165 62.06046 223.19003 361
86.70972 21.60915 175.34659 461
84.57000 21.93617 177.44351 459
81.88652 22.29731 179.52754 308
67.84573 24.30521 179.17348 455
65.34834 24.63638 181.60822 452
62.78943 25.02863 184.12299 450
60.21875 25.36151 186.66074 448
57.54041 25.73206 189.28145 445
54.81873 26.14267 191.97635 443
52.02320 26.54753 194.72935 440
49.15208 26.93995 197.54366 438
46.23091 27.33786 200.44739 435
43.19553 27.81394 203.40503 432
39.87698 28.27078 206.48772 413
36.41088 28.72654 209.65091 404
-179.84169 59.40479 223.29024 361
86.79008 20.64703 175.35696 462
84.63131 20.94879 177.48929 460
81.82272 21.35602 179.50394 308
67.89735 23.21456 179.21367 455
65.42667 23.53573 181.62531 453
62.90132 23.89127 184.14421 450
60.31857 24.25550 186.66934 448
57.63843 24.60550 189.30159 446
54.92799 24.96699 191.96127 443
52.16760 25.34142 194.75388 441
49.28932 25.75134 197.53593 438
46.34454 26.12804 200.47673 435
43.29831 26.55638 203.46265 433
40.18327 26.97966 206.50928 430
36.96325 27.40501 209.68187 427
-179.65038 56.72532 223.19028 383
86.84978 19.72500 175.41107 462
84.68378 20.01251 177.52283 460
81.78671 20.38805 179.53952 308
67.97284 22.13545 179.23019 455
65.51955 22.45188 181.67271 453
62.99469 22.80152 184.17499 451
60.42211 23.15607 186.72746 448
57.75602 23.46804 189.35123 446
55.02143 23.81086 192.00914 443
52.23416 24.19858 194.77086 441
49.38268 24.55507 197.56311 438
46.47285 24.92620 200.45554 436
43.43193 25.31438 203.47842 433
40.30919 25.71471 206.53606 430
37.12227 26.14145 209.70100 428
-179.61708 54.19613 223.22205 383
86.92587 18.75690 175.43814 462
84.79816 19.03751 177.57393 460
81.72790 19.41301 179.53575 308
68.07588 21.10383 179.27742 455
65.58385 21.40566 181.69409 453
63.09341 21.71977 184.22015 451
60.51196 21.99842 186.72858 448
57.84042 22.35057 189.36098 446
55.13878 22.70097 192.04385 444
52.36067 23.02137 194.74831 441
49.52623 23.39156 197.57561 439
46.58144 23.70954 200.47562 436
43.54680 24.10936 203.48955 433
40.41849 24.51451 206.52394 431
37.23529 24.86975 209.68513 428
-179.59584 51.51297 223.22945 383
87.00567 17.81219 175.47189 462
84.84579 18.07403 177.59302 460
81.63435 18.46747 179.52364 308
68.14589 20.02430 179.29735 456
65.67833 20.28807 181.72195 453
63.18981 20.58941 184.21181 451
60.56908 20.88309 186.76663 449
57.94793 21.20760 189.39273 446
55.23708 21.51353 192.04919 444
52.48223 21.83542 194.82092 441
49.63063 22.19307 197.59511 439
46.66788 22.53805 200.49879 436
43.66475 22.89484 203.46927 433
40.56184 23.24453 206.54604 431
37.42029 23.61633 209.71892 428
-179.69742 48.96318 223.15984 383
87.06938 16.88409 175.51581 463
84.93417 17.13010 177.63359 461
81.58271 17.47933 179.51764 308
68.21786 18.93950 179.35565 456
65.76199 19.23106 181.78792 454
63.24109 19.50370 184.26501 451
60.68370 19.78579 186.78101 449
58.05069 20.09865 189.40816 447
55.33786 20.40166 192.07188 444
52.59510 20.68919 194.83397 442
49.73117 21.02423 197.63472 439
46.77401 21.35837 200.51642 436
43.81355 21.64394 203.50627 434
40.69859 22.03393 206.56290 431
37.54631 22.34044 209.73970 429
-179.68924 46.41939 223.23087 383
87.12063 15.93857 175.53375 464
84.99797 16.17288 177.66713 461
81.54369 16.53122 179.50929 308
68.34943 17.90560 179.37534 456
65.89386 18.17488 181.79224 454
63.37394 18.39719 184.29372 452
60.79304 18.68916 186.82353 449
58.15829 18.96962 189.42876 447
55.43827 19.23688 192.10489 444
52.65810 19.53836 194.82370 442
49.84434 19.85423 197.66576 439
46.91737 20.13285 200.55864 437
43.92101 20.46774 203.51648 434
40.85806 20.76201 206.57385 432
37.72804 21.10784 209.73479 429
-179.60217 43.75044 223.17296 384
