# .PCD v.7 - Point Cloud Data file format
VERSION .7
FIELDS x y z rgb
SIZE 4 4 4 4
TYPE F F F U
COUNT 1 1 1 1
WIDTH 1393
HEIGHT 1
VIEWPOINT 6270.469727 -4103.468262 141.161301 0.102737 -0.124703 0.018293 0.986691
POINTS 1393
DATA ascii
69.29936 -5.75476 179.74181 461
67.08638 -5.78640 181.99516 459
64.83749 -5.82405 184.28183 457
62.52536 -5.84338 186.60190 455
60.14127 -5.88629 188.98607 452
57.74075 -5.88239 191.44267 450
55.24394 -5.94790 193.93738 448
52.72023 -5.93989 196.50461 445
50.10015 -6.00657 199.11845 443
47.40747 -6.01018 201.81055 440
44.69125 -6.04232 204.58899 437
41.84783 -6.11398 207.42294 435
38.93618 -6.12096 210.40724 432
-159.85292 -8.00839 222.81944 499
-162.24419 -8.13067 229.25131 499
-150.80334 -7.94554 235.01373 497
-184.15979 -8.28758 243.37766 472
-162.67085 -8.18666 248.43723 499
-166.66806 -8.25365 255.26022 377
-160.84787 -8.20644 261.07483 498
-149.31523 -8.09286 265.99875 498
-152.39041 -8.13788 272.74573 376
-136.24696 -7.99954 276.46533 284
-111.11491 -7.74047 278.01480 495
-198.50632 -8.70901 301.12766 495
-198.43900 -8.62246 308.33945 494
-198.40421 -8.75811 315.73279 493
-198.30864 -8.65820 323.07376 492
85.25729 -6.45555 178.55540 466
79.39215 -6.55646 179.56206 312
69.21045 -6.72539 179.74457 461
66.96523 -6.74943 181.98442 459
64.73418 -6.81400 184.25063 457
62.41869 -6.83710 186.58104 455
60.05185 -6.87509 188.94344 452
57.64441 -6.95052 191.40512 450
55.13275 -6.99939 193.88710 448
52.60464 -7.01967 196.47345 445
49.97495 -7.08785 199.10115 442
47.29492 -7.11186 201.81906 440
44.52655 -7.16714 204.57913 437
41.72848 -7.21261 207.44333 435
38.80011 -7.25733 210.36044 432
-159.89117 -10.43306 222.85072 499
-178.22919 -10.69453 229.79305 476
-151.25412 -10.31618 235.10777 471
-181.39645 -10.87093 270.23071 487
-178.76137 -10.84878 276.72980 283
-141.67244 -10.31277 277.38754 291
85.17163 -7.32276 178.52722 465
79.42366 -7.46865 179.54054 312
69.12463 -7.66728 179.71637 461
66.90460 -7.74904 181.92424 459
64.59589 -7.79828 184.20651 457
62.29372 -7.83288 186.54170 455
59.92323 -7.90773 188.95410 452
57.50499 -7.95304 191.36630 450
55.02739 -8.03235 193.86516 447
52.47945 -8.11426 196.46046 445
49.85452 -8.17708 199.10727 442
47.18408 -8.21736 201.77870 440
44.40688 -8.27893 204.55457 437
41.55611 -8.37789 207.43867 434
38.67778 -8.44608 210.37215 432
-159.91370 -12.75741 222.79280 499
-152.37521 -12.62479 235.07677 470
-181.43571 -13.39352 270.22598 487
-184.76390 -13.46014 277.58615 286
-153.05450 -12.79939 279.26224 269
85.09837 -8.18903 178.48541 465
79.41846 -8.37453 179.53749 312
69.02530 -8.64548 179.70218 461
66.81631 -8.70415 181.93007 458
64.50787 -8.78262 184.18953 457
62.20254 -8.86515 186.54738 454
59.80750 -8.92573 188.93515 452
57.38158 -9.03481 191.36861 450
54.92354 -9.10656 193.84967 447
52.37173 -9.16037 196.43176 445
49.75815 -9.25954 199.08266 442
47.04121 -9.33705 201.78476 440
44.30978 -9.41738 204.55844 437
41.47036 -9.49361 207.40450 434
38.51449 -9.57484 210.35460 431
-179.41251 -15.71952 223.08972 384
-153.59195 -15.02382 235.16415 399
-181.43431 -15.94606 270.18988 487
-189.04221 -16.15183 278.14743 283
85.04268 -9.05009 178.46513 465
79.43481 -9.27266 179.57141 312
68.96106 -9.60849 179.65735 460
66.73977 -9.70944 181.90625 458
64.43684 -9.76415 184.17946 456
62.09059 -9.85818 186.51045 454
59.70781 -9.94014 188.91379 452
57.29563 -10.06459 191.35330 449
54.80605 -10.12630 193.85750 447
52.26604 -10.24149 196.41400 445
49.62452 -10.34873 199.06361 442
46.92570 -10.44139 201.74466 439
44.15784 -10.54451 204.52214 437
41.31214 -10.62371 207.38063 434
38.36772 -10.74122 210.36806 431
-179.45769 -18.26718 223.09213 384
-156.59416 -17.51596 235.35266 398
-181.34126 -18.45159 270.21271 487
84.95949 -9.93467 178.45607 465
79.47865 -10.14342 179.54654 312
68.88694 -10.59273 179.63257 460
66.63747 -10.67956 181.87790 458
64.35054 -10.77004 184.16235 456
61.97922 -10.87457 186.50627 454
59.62807 -10.97863 188.85747 452
57.17458 -11.09405 191.31213 449
54.68979 -11.20639 193.81834 447
52.12347 -11.31638 196.38875 444
49.50121 -11.39865 199.05389 442
46.79689 -11.52122 201.73315 439
44.04483 -11.66654 204.51788 437
41.19667 -11.79835 207.40842 434
38.22415 -11.92398 210.31793 431
-179.41798 -20.74988 223.11882 384
-181.34297 -20.88157 270.21600 486
84.88525 -10.79376 178.42149 465
79.48823 -11.07752 179.56462 312
68.78460 -11.53686 179.59909 460
66.56882 -11.67643 181.82938 458
64.25772 -11.76169 184.11015 456
61.89632 -11.90580 186.45741 453
59.50480 -12.01309 188.83350 452
57.08781 -12.14469 191.28711 449
54.56824 -12.27067 193.79892 447
52.02930 -12.36848 196.39178 444
49.36930 -12.49149 199.01550 442
46.67075 -12.64076 201.71249 439
43.91122 -12.78801 204.53302 436
41.03761 -12.93214 207.37807 434
38.09315 -13.09666 210.35181 431
-179.47516 -23.22300 223.10092 384
-181.42601 -23.45312 270.25583 486
84.81568 -11.68947 178.40645 465
79.53870 -11.95380 179.53407 312
68.71258 -12.52893 179.57536 460
66.48710 -12.64487 181.80794 458
64.15941 -12.76757 184.08682 456
61.82518 -12.90632 186.41708 453
59.42636 -13.05943 188.82321 451
56.94724 -13.16386 191.27202 449
54.47771 -13.32426 193.77678 447
51.89547 -13.44817 196.35129 444
49.25195 -13.60201 199.00545 441
46.58308 -13.74465 201.73329 439
43.76953 -13.89968 204.49416 436
40.90776 -14.08799 207.36092 434
37.94910 -14.22216 210.35048 431
-179.48236 -25.71819 223.07483 384
-181.40202 -25.95069 270.21332 486
84.77111 -12.55245 178.36336 464
79.57301 -12.84194 179.54610 312
68.65314 -13.49208 179.56847 460
66.40502 -13.61469 181.79033 458
64.08439 -13.78274 184.06767 455
61.73426 -13.90166 186.42216 453
59.33907 -14.05154 188.81166 451
56.84504 -14.23607 191.26172 448
54.34170 -14.35853 193.77161 446
51.78359 -14.52214 196.34627 444
49.15508 -14.68838 198.98103 441
46.41694 -14.88108 201.67758 439
43.66232 -15.02104 204.47978 436
40.80657 -15.22272 207.34109 433
37.83982 -15.37713 210.31494 431
-179.46732 -28.17866 223.08597 384
-181.32448 -28.49806 270.24942 486
84.67384 -13.39724 178.33514 464
79.61384 -13.73093 179.57074 312
68.57476 -14.44231 179.50992 460
66.33848 -14.63683 181.75465 457
63.99379 -14.76303 184.03197 455
61.66443 -14.91343 186.38091 453
59.23384 -15.11672 188.78983 451
56.76330 -15.27359 191.21165 448
54.25355 -15.42850 193.75780 446
51.66925 -15.59884 196.30759 444
49.00284 -15.78680 198.98228 441
46.30870 -15.97349 201.65773 438
43.50177 -16.16351 204.46988 436
40.64815 -16.35238 207.32307 433
37.70263 -16.56362 210.32271 430
-179.40594 -30.73936 223.08858 384
-181.36661 -31.00519 270.29327 486
84.62782 -14.27422 178.30923 464
79.66291 -14.65464 179.53752 312
68.48705 -15.45641 179.49623 459
66.23312 -15.60276 181.71330 457
63.93091 -15.77120 184.00342 455
61.56470 -15.96720 186.37285 453
59.16858 -16.13326 188.74026 450
56.69812 -16.29311 191.18434 448
54.14114 -16.51660 193.72398 445
51.55131 -16.69111 196.30707 443
48.92064 -16.87230 198.93636 441
46.16630 -17.07343 201.67566 438
43.54334 -16.70869 204.39912 436
40.51002 -17.53772 207.31615 433
37.55734 -17.75079 210.29877 430
-179.42717 -33.24877 223.09868 384
-181.38145 -33.47274 270.30872 486
84.53413 -15.15351 178.26071 464
79.73193 -15.55459 179.54362 312
68.41504 -16.40828 179.44077 459
66.16650 -16.57254 181.68025 457
63.84259 -16.77802 184.00543 455
61.49012 -16.96379 186.30920 453
59.05934 -17.15847 188.70772 450
56.57924 -17.34471 191.18542 448
54.06619 -17.58138 193.69273 445
51.42785 -17.78802 196.29274 443
48.80142 -18.01091 198.94150 441
46.04876 -18.22447 201.62752 438
43.28156 -18.45461 204.45398 435
40.42143 -18.68244 207.30110 433
37.41125 -18.89075 210.31226 430
-179.43675 -35.74995 223.08371 384
-181.36931 -35.99810 270.26205 486
-186.84981 -36.47202 277.97812 496
-186.81029 -36.48332 284.84332 496
-186.75136 -36.47852 291.81918 495
84.50388 -16.05532 178.23943 464
79.81033 -16.44054 179.56992 312
68.34035 -17.38318 179.43756 459
66.06252 -17.57509 181.68683 457
63.76229 -17.76652 183.95940 455
61.41575 -17.98566 186.32159 452
58.96009 -18.20905 188.69078 450
56.49212 -18.41205 191.13470 448
53.95109 -18.63504 193.66664 445
51.36630 -18.87033 196.24934 443
48.69594 -19.08452 198.91844 440
45.93634 -19.32920 201.62309 438
43.15858 -19.57191 204.40187 435
40.28403 -19.81422 207.30670 432
37.27715 -20.08868 210.29070 430
-179.41992 -38.19418 223.08856 384
84.41148 -16.92089 178.18294 463
79.87938 -17.33961 179.54861 312
68.25441 -18.37551 179.37367 459
66.01431 -18.58690 181.61385 457
63.67775 -18.80598 183.91406 454
61.30357 -19.01914 186.27357 452
58.89337 -19.23892 188.68019 450
56.41139 -19.45968 191.13144 447
53.86323 -19.68366 193.65958 445
51.23529 -19.94524 196.21486 442
48.57756 -20.19236 198.89421 440
45.84472 -20.42559 201.62401 438
43.01685 -20.71740 204.39693 435
40.13846 -20.95485 207.28128 432
37.12753 -21.27259 210.24968 430
-179.35551 -40.67071 223.07890 384
84.37530 -17.80957 178.16566 463
79.94611 -18.22806 179.56528 312
68.21510 -19.36414 179.34038 459
65.92947 -19.58312 181.60806 456
63.62011 -19.79059 183.88303 454
61.24429 -20.03890 186.24841 452
58.79782 -20.28599 188.62479 450
56.32415 -20.51487 191.08060 447
53.75586 -20.80360 193.63176 445
51.14511 -21.02643 196.19246 442
48.45961 -21.31602 198.87888 440
45.70423 -21.57164 201.56754 437
42.87999 -21.86781 204.38023 435
39.98650 -22.14549 207.28371 432
37.03555 -22.42753 210.25743 429
-179.36081 -43.27130 223.05289 384
84.29423 -18.68887 178.13800 463
80.02725 -19.10671 179.56244 312
68.12772 -20.32648 179.31989 458
65.84690 -20.57656 181.56424 456
63.54380 -20.80586 183.86499 454
61.15615 -21.06263 186.19661 452
58.74770 -21.32816 188.60643 449
56.23721 -21.56933 191.04655 447
53.65904 -21.84861 193.57738 444
51.04143 -22.11891 196.16504 442
48.37826 -22.41421 198.85416 439
45.58888 -22.70714 201.54356 437
42.76693 -22.99462 204.35471 434
39.84468 -23.31093 207.27191 432
36.86567 -23.64408 210.22563 429
-179.40253 -45.79211 223.06604 384
84.21700 -19.56717 178.10092 463
80.10845 -20.02000 179.55811 312
68.04926 -21.30588 179.27242 458
65.78777 -21.57854 181.53802 456
63.47795 -21.82560 183.82449 454
61.08184 -22.08822 186.19312 451
58.64646 -22.37796 188.59703 449
56.15306 -22.65521 191.04216 447
53.59472 -22.91546 193.57025 444
50.96006 -23.20094 196.17415 442
48.26945 -23.51826 198.81210 439
45.49150 -23.85509 201.55420 437
42.66348 -24.12250 204.32877 434
39.74905 -24.48714 207.22484 432
36.75640 -24.82413 210.21201 429
-179.36412 -48.21658 223.09840 384
84.19093 -20.45018 178.03053 463
80.18012 -20.90369 179.56674 312
67.97096 -22.28624 179.22018 458
65.72571 -22.54493 181.47081 456
63.40290 -22.83695 183.76776 454
61.00936 -23.13576 186.14116 451
58.57632 -23.39699 188.55379 449
56.05572 -23.69628 190.99045 446
53.49957 -24.02313 193.54094 444
50.85033 -24.33003 196.14307 441
48.15202 -24.62088 198.79283 439
45.39259 -24.97436 201.49686 436
42.56507 -25.29126 204.31578 434
39.58574 -25.63713 207.23137 431
36.60174 -25.98006 210.21889 429
-179.38759 -50.78318 223.06140 384
84.12743 -21.32535 177.99568 462
80.28097 -21.79962 179.55969 312
67.93112 -23.29205 179.21046 458
65.63985 -23.56901 181.46057 456
63.31598 -23.86543 183.75682 453
60.90646 -24.17929 186.09314 451
58.46987 -24.46927 188.50200 449
55.97670 -24.79317 190.99454 446
53.40805 -25.06371 193.52318 444
50.78057 -25.39488 196.08452 441
48.07327 -25.72314 198.78241 439
45.27667 -26.11476 201.51910 436
42.45350 -26.41929 204.33841 433
39.50598 -26.82403 207.24495 431
36.46497 -27.20992 210.23039 428
-179.41890 -53.32509 223.07562 383
84.06898 -22.21556 177.96558 462
80.38064 -22.70421 179.55571 312
67.85846 -24.27909 179.17326 457
65.58726 -24.55520 181.40854 455
63.21170 -24.86655 183.71199 453
60.86319 -25.20171 186.04335 451
58.39420 -25.51046 188.47443 448
55.88050 -25.82611 190.95270 446
53.33276 -26.16325 193.46362 443
50.67477 -26.49545 196.07953 441
47.99063 -26.84075 198.72766 438
45.16945 -27.20984 201.48242 436
42.31432 -27.58105 204.32545 433
39.33261 -27.96247 207.18866 415
36.04466 -28.43717 210.18660 405
-179.42801 -55.84160 223.07901 383
84.00998 -23.10744 177.93698 462
80.50191 -23.56323 179.54239 312
67.77196 -25.26408 179.09923 457
65.49753 -25.58337 181.37421 455
63.16655 -25.90108 183.65730 453
60.77480 -26.23524 186.02840 450
58.31818 -26.57395 188.46123 448
55.81337 -26.91130 190.90503 446
53.21347 -27.23932 193.42775 443
50.58057 -27.59520 196.03514 441
47.89237 -27.97482 198.73117 438
45.04132 -28.35774 201.45052 419
41.98293 -28.76278 204.27637 417
38.85798 -29.22808 207.14929 414
35.47262 -29.67275 210.14177 405
-179.35587 -58.36431 223.00188 383
83.94714 -23.99277 177.86386 462
80.59299 -24.48226 179.56296 312
67.71909 -26.26600 179.07802 457
65.43106 -26.58293 181.34308 455
63.06981 -26.93311 183.64204 453
60.69562 -27.24308 185.96783 450
58.22574 -27.64155 188.40282 448
55.74140 -27.99256 190.88329 445
53.12096 -28.32904 193.42073 443
50.44406 -28.70424 195.98784 424
47.53971 -29.12317 198.67445 421
44.56669 -29.54875 201.38960 419
41.50294 -30.01701 204.20601 416
38.32970 -30.42478 207.15242 407
34.87963 -30.96004 210.12433 404
-179.90633 -61.00687 223.07251 362
83.86848 -24.87964 177.84201 461
80.69439 -25.36585 179.55299 312
67.66193 -27.25212 179.02007 457
65.34882 -27.61369 181.27136 455
63.01762 -27.97634 183.59052 452
60.61740 -28.28786 185.94804 450
58.14250 -28.70178 188.36676 448
55.61986 -29.07170 190.83571 428
52.84656 -29.48862 193.37088 426
50.01368 -29.88430 195.93323 423
47.10732 -30.29790 198.60373 421
44.09922 -30.74119 201.37184 418
41.01219 -31.21368 204.19109 416
37.73971 -31.70427 207.11037 406
34.28300 -32.20604 210.10464 404
-180.54323 -63.57785 223.10750 362
83.82920 -25.79616 177.77864 461
80.81567 -26.23561 179.52425 312
67.60055 -28.24627 178.96939 456
65.29469 -28.61896 181.22736 454
62.93598 -28.97262 183.55296 452
60.53250 -29.36765 185.90131 432
57.89265 -29.74552 188.29407 430
55.18573 -30.16333 190.76373 428
52.46009 -30.59750 193.25201 425
49.58196 -31.06142 195.88072 423
46.69214 -31.50313 198.53508 420
43.63560 -31.96549 201.30612 418
40.53286 -32.42743 204.12630 415
37.16341 -32.98549 207.06764 406
33.63743 -33.52854 210.05872 403
-181.12994 -66.28613 223.01685 362
83.77132 -26.67878 177.71490 461
80.95058 -27.13248 179.54361 312
67.55660 -29.24050 178.90092 456
65.24884 -29.61859 181.17021 436
62.72472 -30.01834 183.46043 434
60.16808 -30.45176 185.81577 432
57.49123 -30.89388 188.19200 429
54.81512 -31.33239 190.67871 427
52.00906 -31.75365 193.20859 425
49.16438 -32.23671 195.79556 422
46.23012 -32.69503 198.45970 420
43.18449 -33.16399 201.21695 417
39.96506 -33.72380 204.07907 408
36.54945 -34.25605 207.02748 405
33.05979 -34.83709 210.01996 402
-181.76695 -68.93992 223.11945 361
83.73566 -27.59509 177.69798 461
81.06947 -28.00585 179.56134 312
67.34981 -30.27002 178.81960 438
64.88902 -30.70312 181.06874 436
62.34443 -31.14144 183.34668 433
59.78559 -31.56794 185.72063 431
57.12774 -31.97885 188.09869 429
54.37906 -32.47082 190.59520 426
51.57710 -32.90570 193.13983 424
48.74818 -33.39617 195.74757 421
45.77881 -33.90073 198.41245 419
42.73262 -34.40914 201.16397 416
39.43830 -34.96090 204.01924 407
35.97049 -35.56496 206.97485 404
32.43700 -36.13388 210.01407 402
-183.20593 -71.66881 216.31061 425
-182.52364 -71.58212 223.12492 324
83.68648 -28.46131 177.61496 460
81.22015 -28.92063 179.55096 312
67.02092 -31.33372 178.72404 437
64.54698 -31.75983 180.97154 435
61.99751 -32.22698 183.27271 433
59.38574 -32.67889 185.62395 431
56.74594 -33.10590 187.99820 428
53.98027 -33.59964 190.47491 426
51.18067 -34.08311 193.06033 423
48.28382 -34.56808 195.63141 421
45.30865 -35.08921 198.35645 418
42.20255 -35.62637 201.13406 409
38.85311 -36.21971 203.96330 406
35.39914 -36.85089 206.90543 404
31.80909 -37.44106 209.99619 401
-183.22333 -74.35499 216.30168 425
-185.04132 -74.68324 223.14362 323
83.63769 -29.37845 177.57596 460
81.34705 -29.78527 179.52948 312
66.68812 -32.40525 178.60318 437
64.18578 -32.82640 180.83466 434
61.63503 -33.32611 183.12389 432
59.01516 -33.77648 185.48383 430
56.33871 -34.26904 187.93710 428
53.59975 -34.74936 190.42458 425
50.77825 -35.26691 192.93964 423
47.86013 -35.77469 195.58682 420
44.82074 -36.31916 198.28612 418
41.63139 -36.92006 201.06291 408
38.24870 -37.51315 203.93680 406
34.79417 -38.13265 206.90271 403
31.15097 -38.78724 209.96773 400
-183.24698 -76.89291 216.24333 425
-187.58119 -77.65421 223.11127 323
83.58816 -30.26954 177.51294 460
81.51205 -30.65643 179.55663 312
66.32469 -33.44244 178.48164 436
63.82283 -33.93904 180.72585 434
61.25487 -34.40757 183.03050 432
58.64965 -34.91794 185.39502 429
55.96106 -35.37853 187.83685 427
53.18103 -35.91941 190.30859 425
50.31476 -36.45778 192.89220 422
47.40520 -36.98987 195.48596 420
44.32526 -37.55032 198.22968 410
41.07943 -38.14329 200.99146 408
37.66537 -38.82582 203.87569 405
34.16798 -39.46933 206.85744 402
30.52185 -40.16141 209.90527 400
-183.26915 -79.51859 216.31119 425
-190.09190 -80.80173 223.19533 324
83.51659 -31.17631 177.47633 459
81.40417 -31.60780 179.45067 438
65.98459 -34.51457 178.36646 435
63.48189 -35.03808 180.63184 433
60.88072 -35.50638 182.92529 431
58.26957 -36.04550 185.30212 429
55.56121 -36.56912 187.71886 426
52.77828 -37.07895 190.23277 424
49.88005 -37.63663 192.80887 422
46.98167 -38.20171 195.42226 419
43.81128 -38.79599 198.15616 410
40.53222 -39.46681 200.91263 407
37.06675 -40.08854 203.81796 404
33.57476 -40.80035 206.78549 402
29.91013 -41.49344 209.88663 399
-183.24178 -82.03938 216.27065 424
83.31647 -32.12275 177.38017 441
81.11033 -32.55890 179.37453 437
65.63313 -35.60723 178.24686 435
63.11146 -36.14129 180.50938 433
60.54715 -36.63085 182.81172 430
57.89576 -37.15438 185.20447 428
55.16911 -37.69749 187.64128 426
52.34006 -38.25091 190.11830 423
49.45816 -38.82919 192.68915 421
46.47854 -39.41910 195.34729 412
43.28811 -40.08493 198.03192 409
39.96904 -40.75334 200.87949 406
36.53344 -41.43712 203.74396 404
32.92851 -42.10304 206.74867 401
29.24541 -42.85252 209.84346 364
-183.12889 -84.66376 216.28110 439
83.08145 -33.08021 177.24377 441
80.83828 -33.56128 179.23384 437
65.29516 -36.69821 178.08667 434
62.77275 -37.24475 180.35129 432
60.15258 -37.75941 182.67601 430
57.50277 -38.32775 185.06389 427
54.76027 -38.89224 187.53108 425
51.91848 -39.45879 190.00609 423
49.02379 -40.04690 192.62004 420
45.96532 -40.69434 195.24467 411
42.72212 -41.36033 197.96597 408
39.39612 -42.01832 200.78899 406
35.89107 -42.75331 203.70525 403
32.31799 -43.48502 206.69992 400
28.55199 -44.25090 209.80412 363
-183.01028 -87.25060 216.29294 439
82.80264 -34.05025 177.14311 440
80.58664 -34.51564 179.13922 436
64.97067 -37.78068 178.00064 434
62.43099 -38.32941 180.26752 431
59.81177 -38.87423 182.57317 429
57.09622 -39.44946 184.98894 427
54.33763 -40.03413 187.43903 424
51.54494 -40.64849 189.92509 422
48.60491 -41.26204 192.51543 420
45.44635 -41.95432 195.18806 410
42.16381 -42.60252 197.88101 408
38.81019 -43.33850 200.72000 405
35.29325 -44.09597 203.63780 402
31.70015 -44.85336 206.67503 400
27.87855 -45.64498 209.77934 360
-183.62206 -89.96973 216.27553 298
82.55299 -35.01350 177.00659 439
80.30534 -35.51625 179.00595 436
72.02510 -37.29001 179.62787 308
62.04649 -39.43117 180.11728 431
59.41054 -40.01384 182.43715 428
56.75000 -40.61039 184.84892 426
53.94063 -41.23940 187.29994 424
51.09199 -41.84306 189.85381 421
48.09302 -42.48444 192.43138 412
44.93458 -43.18895 195.09317 410
41.63991 -43.88750 197.83601 407
38.25181 -44.66878 200.63664 404
34.70361 -45.42448 203.57082 402
31.05869 -46.23236 206.58687 399
27.16147 -47.08383 209.73346 359
-188.18001 -93.57113 209.29491 485
-190.09346 -94.03898 216.19916 297
82.29129 -36.00924 176.89482 439
80.01608 -36.49023 178.88144 435
72.23489 -38.23875 179.63165 308
61.69918 -40.59299 180.02298 430
59.05639 -41.18397 182.32550 428
56.34658 -41.75826 184.75862 426
53.55192 -42.39518 187.17830 423
50.69577 -43.07897 189.71696 421
47.59145 -43.77033 192.31261 411
44.38846 -44.45078 194.97475 409
41.06062 -45.22875 197.72044 406
37.64614 -45.99679 200.55957 404
34.07646 -46.78294 203.49864 401
30.40633 -47.62003 206.57870 398
26.43776 -48.49159 209.73792 359
-187.74228 -96.11846 209.34863 485
82.02294 -36.95067 176.77933 438
79.75182 -37.50253 178.78123 434
72.42318 -39.17514 179.60400 308
61.35445 -41.72974 179.88635 429
58.68855 -42.30690 182.19568 427
55.96014 -42.95907 184.62494 425
53.13752 -43.59124 187.08366 423
50.21427 -44.26172 189.64313 413
47.09249 -44.99738 192.21640 411
43.85991 -45.74890 194.86565 408
40.50941 -46.55652 197.63997 406
37.06686 -47.34388 200.48071 403
33.48029 -48.17565 203.46193 400
29.79262 -49.03580 206.50964 398
25.70257 -49.94421 209.65405 358
-187.24261 -98.69814 209.27202 485
81.75936 -37.93569 176.62924 438
79.46026 -38.49907 178.66924 434
72.63461 -40.12312 179.59926 308
60.97015 -42.85684 179.73845 429
58.31788 -43.48947 182.10025 427
55.54666 -44.13797 184.49394 424
52.73739 -44.80828 186.97690 422
49.73225 -45.55241 189.52267 413
46.53926 -46.28788 192.10678 410
43.31375 -47.07344 194.80704 408
39.95532 -47.84250 197.58582 405
36.47087 -48.69876 200.42780 402
32.86196 -49.52363 203.40840 400
29.11749 -50.40804 206.45166 397
25.00653 -51.40132 209.62143 357
-186.84229 -101.26378 209.28809 486
81.51646 -38.92591 176.53539 437
79.20213 -39.50088 178.52960 433
72.80955 -41.03485 179.61156 308
60.61633 -44.02914 179.58414 428
57.94343 -44.66978 181.95518 426
55.18643 -45.31832 184.36163 424
52.29895 -46.05058 186.86813 414
49.21178 -46.79018 189.41647 412
46.01501 -47.54514 192.01573 409
42.77098 -48.36283 194.68544 407
39.36395 -49.18043 197.47607 404
35.88318 -50.05279 200.36626 402
32.22084 -50.91098 203.31554 399
28.49463 -51.86721 206.41681 396
23.91468 -52.93904 209.60158 342
-187.67403 -104.11788 209.27814 296
81.24715 -39.91848 176.40048 436
78.91380 -40.52768 178.38857 433
73.05814 -41.97967 179.61688 308
60.25960 -45.17650 179.45161 427
57.57323 -45.85294 181.83771 425
54.77241 -46.55748 184.25439 423
51.82322 -47.26786 186.72084 414
48.73040 -48.03260 189.25264 411
45.51403 -48.88177 191.91132 409
42.18790 -49.69862 194.60071 406
38.78862 -50.51987 197.38142 404
35.28532 -51.40182 200.28783 401
31.61883 -52.33185 203.25655 398
27.66996 -53.34187 206.35037 385
22.00504 -54.76135 209.51547 264
80.97355 -40.94965 176.25330 436
78.62823 -41.53631 178.25133 432
73.28038 -42.90244 179.63312 308
59.89930 -46.33493 179.31178 427
57.17881 -47.00888 181.71768 425
54.36886 -47.76949 184.11604 415
51.32215 -48.52695 186.58766 413
48.23678 -49.34406 189.16736 410
44.99868 -50.16843 191.76204 408
41.65181 -51.02319 194.48689 405
38.20592 -51.92580 197.32202 403
34.66842 -52.80189 200.21864 400
30.78924 -53.80785 203.18637 387
26.67701 -54.87170 206.26762 373
-188.29951 -109.67776 202.21809 495
80.73653 -41.94435 176.12325 435
78.37529 -42.58392 178.12804 431
73.47056 -43.83156 179.61421 308
59.53972 -47.52227 179.19431 426
56.81228 -48.21611 181.56355 424
53.91276 -48.99200 184.00822 415
50.83147 -49.78857 186.49643 412
47.67620 -50.60468 189.03018 410
44.45595 -51.49124 191.68523 407
41.08829 -52.36707 194.39824 405
37.66051 -53.29606 197.22540 402
33.88483 -54.29263 200.09904 388
29.93445 -55.33581 203.10115 386
25.59498 -56.46699 206.19682 373
-187.67474 -112.19280 202.21967 495
80.44136 -42.94890 176.00768 434
78.08080 -43.59575 177.98616 431
73.70383 -44.80452 179.61739 308
59.17544 -48.70441 179.06116 425
56.41988 -49.40268 181.45029 423
53.45304 -50.24220 183.86082 414
50.35356 -51.06226 186.36632 411
47.18071 -51.90637 188.92740 409
43.92591 -52.81671 191.53148 406
40.52299 -53.72905 194.27409 404
36.84808 -54.69555 197.08449 390
33.06704 -55.72387 200.00436 387
29.04351 -56.85218 203.04402 374
24.52757 -58.06391 206.15749 372
80.19398 -43.98468 175.86186 434
77.78697 -44.65815 177.88470 430
73.96898 -45.68398 179.60356 308
58.78482 -49.87992 178.89465 425
55.97951 -50.64099 181.27461 415
52.94395 -51.47687 183.70702 413
49.86932 -52.35166 186.22746 411
46.64993 -53.21709 188.78893 408
43.38551 -54.14251 191.42249 406
39.79783 -55.14145 194.16058 392
36.08030 -56.18283 196.98062 389
32.17780 -57.21804 199.92612 387
27.97742 -58.41555 202.90999 373
23.37547 -59.69187 206.08397 371
79.91042 -45.01431 175.69461 433
77.53340 -45.71528 177.71916 429
74.22205 -46.64490 179.62431 308
58.41881 -51.08342 178.75594 424
55.51078 -51.89942 181.15300 415
52.50082 -52.73753 183.58018 412
49.39950 -53.65269 186.09279 410
46.15430 -54.57627 188.64006 408
42.64436 -55.55610 191.30124 393
39.02932 -56.55358 194.00264 391
35.25449 -57.64861 196.84776 388
31.34464 -58.75625 199.80492 386
26.92657 -60.01091 202.81390 373
22.29564 -61.34616 205.98233 370
79.65529 -46.04787 175.56224 432
77.25008 -46.76051 177.58778 429
74.45839 -47.55775 179.60869 308
58.05255 -52.26052 178.61308 416
55.06274 -53.16555 180.96286 414
51.99517 -54.04315 183.43689 412
48.86582 -54.97142 185.95676 409
45.43528 -55.93301 188.51234 395
41.90517 -56.99133 191.12784 393
38.22777 -58.02343 193.90138 390
34.44001 -59.14498 196.76164 388
30.30767 -60.30603 199.68498 374
25.82331 -61.64215 202.71120 372
21.11065 -62.99509 205.89948 369
79.38497 -47.09721 175.43811 430
76.97674 -47.82560 177.45871 428
74.44983 -48.53936 179.56425 426
57.59527 -53.54259 178.45557 416
54.62844 -54.40949 180.81897 413
51.56391 -55.33738 183.27934 411
48.20910 -56.31347 185.77257 397
44.72665 -57.35574 188.33601 394
41.16133 -58.38612 191.00233 392
37.44265 -59.50486 193.74989 389
33.62137 -60.64394 196.62901 387
29.31835 -61.93847 199.53882 373
24.72358 -63.26776 202.64536 371
19.95620 -64.69764 205.79480 368
79.15050 -48.13124 175.27113 430
76.69028 -48.88150 177.30701 427
74.17719 -49.63659 179.40392 425
57.17848 -54.76389 178.30145 415
54.17488 -55.69399 180.64314 401
50.88465 -56.68737 183.06200 398
47.50309 -57.71170 185.60655 396
44.00221 -58.78041 188.16660 393
40.41608 -59.85427 190.82780 391
36.65205 -61.02343 193.62907 388
32.67446 -62.20438 196.48216 375
28.23898 -63.55227 199.40836 373
23.60685 -64.94341 202.51927 370
18.77936 -66.40365 205.74080 367
78.88155 -49.18906 175.12961 429
76.41437 -49.97951 177.15613 427
73.85172 -50.73855 179.27037 424
56.69279 -56.01384 178.10612 402
53.50883 -57.04819 180.47786 400
50.18904 -58.04331 182.89980 397
46.81261 -59.11942 185.40471 395
43.28123 -60.17729 187.99606 393
39.64287 -61.35341 190.68552 390
35.83817 -62.52278 193.49791 388
31.67906 -63.77329 196.32747 374
27.18396 -65.17498 199.30980 372
22.48279 -66.66116 202.40137 369
17.62154 -68.15516 205.66705 366
-16532.16406 -5181.80225 4590.98877 1000
78.59795 -50.27103 174.95674 428
76.12518 -51.04164 177.03709 426
73.59441 -51.86974 179.11481 424
63.98459 -54.88489 179.70830 304
52.88257 -58.38383 180.24625 399
49.53825 -59.43118 182.72600 397
46.09315 -60.53234 185.22525 394
42.53139 -61.64269 187.81555 392
38.85064 -62.82786 190.53264 389
35.01132 -64.04950 193.31721 376
30.65286 -65.44581 196.20370 373
26.09564 -66.86460 199.16074 371
21.35396 -68.35747 202.32095 368
16.39495 -69.96531 205.54915 365
78.32748 -51.34101 174.79579 428
75.82127 -52.12967 176.85133 425
73.25741 -52.97206 178.96811 423
64.30550 -55.88028 179.69559 304
52.22758 -59.74012 180.05611 398
48.88052 -60.81754 182.50578 396
45.38828 -61.95921 185.03508 393
41.77981 -63.11762 187.64334 391
38.08259 -64.34443 190.37549 388
34.00716 -65.65499 193.16199 375
29.59785 -67.04043 196.03142 372
25.01199 -68.56903 199.06972 370
20.20604 -70.08742 202.20155 367
15.19706 -71.74636 205.48482 364
78.05278 -52.39752 174.66969 427
75.54819 -53.23914 176.71201 425
72.95617 -54.07495 178.82602 422
64.57365 -56.84597 179.67772 304
51.55994 -61.14589 179.85442 397
48.19930 -62.22624 182.30534 395
44.68899 -63.43093 184.87233 392
41.05270 -64.62199 187.48149 390
37.26352 -65.86281 190.21657 377
32.97523 -67.26031 193.00462 374
28.55254 -68.73260 195.89009 372
23.90731 -70.27941 198.94069 369
19.02987 -71.91126 202.04881 366
13.38015 -73.76247 205.37451 319
77.77734 -53.49907 174.51933 426
75.27347 -54.35954 176.57326 424
72.69512 -55.20981 178.66797 422
64.90423 -57.84384 179.67393 304
50.94307 -62.54235 179.64311 396
47.50618 -63.64965 182.09041 394
43.94751 -64.87102 184.68463 392
40.29649 -66.12542 187.30119 389
36.31980 -67.44343 190.04951 376
31.97165 -68.92094 192.82851 373
27.49348 -70.41915 195.72795 371
22.76849 -72.01447 198.78064 368
17.60627 -73.74781 201.93484 336
10.42834 -76.15281 205.14685 318
77.51134 -54.61442 174.32283 425
74.96442 -55.44936 176.42435 423
72.37214 -56.35600 178.53061 421
65.23248 -58.81168 179.67906 304
50.26643 -63.96080 179.41278 395
46.77768 -65.11693 181.89017 393
43.22620 -66.38476 184.46100 391
39.51252 -67.64879 187.10457 388
35.32047 -69.04541 189.84598 375
30.94179 -70.57842 192.66922 372
26.40327 -72.12481 195.60016 370
21.61147 -73.77785 198.62364 367
15.43945 -75.89809 201.78943 335
7.33925 -78.70883 204.99762 317
77.25235 -55.70853 174.17339 425
74.68082 -56.59859 176.26074 423
72.07404 -57.48758 178.39464 420
65.53696 -59.80181 179.68896 304
49.60743 -65.37760 179.22690 395
46.10293 -66.60561 181.71083 392
42.47467 -67.87815 184.25829 390
38.64213 -69.23623 186.91022 377
34.34625 -70.69950 189.66444 374
29.89287 -72.24995 192.44891 371
25.25462 -73.89073 195.40784 369
19.58692 -75.88221 198.40234 336
12.63566 -78.35269 201.49989 318
4.08411 -81.34350 204.79280 316
76.94617 -56.82947 174.00618 424
74.39587 -57.71268 176.07050 422
71.78436 -58.64228 178.24548 420
65.84993 -60.78134 179.69693 304
48.90611 -66.82903 178.98555 394
45.36362 -68.08193 181.50867 391
41.71033 -69.35899 184.05014 389
37.67257 -70.83820 186.71483 376
33.36104 -72.36057 189.41904 373
28.86179 -74.00954 192.28690 370
23.60850 -75.86502 195.18286 338
17.40592 -78.04690 198.22386 335
9.54485 -80.89957 201.27480 317
0.81890 -83.98141 204.57390 315
76.69328 -57.93530 173.82457 423
74.12553 -58.85931 175.93378 421
71.32651 -59.90273 178.00714 391
66.17795 -61.73111 179.65257 304
48.20953 -68.28216 178.73798 393
44.65789 -69.55427 181.24890 390
40.90809 -70.92390 183.86958 377
36.69673 -72.46655 186.49980 375
32.36531 -74.05814 189.22314 372
27.52926 -75.83459 192.04164 339
21.57834 -78.00710 194.93904 337
14.83523 -80.44749 197.92574 319
6.40731 -83.48843 201.03152 316
-2.65612 -86.80229 204.37555 313
76.40795 -59.05148 173.65866 423
73.79381 -60.02900 175.77481 392
70.68636 -61.19897 177.80556 390
66.52319 -62.71270 179.66443 304
47.51886 -69.73500 178.51610 392
43.95502 -71.09871 181.03621 390
40.01836 -72.53258 183.62209 376
35.73441 -74.12860 186.28461 374
31.33305 -75.77328 189.05281 371
25.58529 -77.93386 191.77655 338
19.46249 -80.22002 194.66441 336
11.82543 -83.00244 197.60115 317
3.16048 -86.24708 200.78558 315
-7.42638 -90.18988 204.06339 269
76.13477 -60.20941 173.50517 422
73.18118 -61.32671 175.51778 391
70.04372 -62.50431 177.52556 389
66.88535 -63.71441 179.67491 304
46.84142 -71.24852 178.31252 391
43.19372 -72.65271 180.79655 389
39.07325 -74.18568 183.37909 375
34.78394 -75.83998 186.01750 373
29.44978 -77.82802 188.69637 339
23.50982 -80.05427 191.47495 337
16.99847 -82.56980 194.32616 319
8.76439 -85.68347 197.30351 316
-0.19067 -89.05767 200.46474 314
75.64797 -61.43533 173.27528 392
72.59349 -62.61398 175.25883 390
69.37256 -63.81765 177.29115 388
66.55620 -64.92744 179.51834 400
46.13568 -72.76003 178.07118 390
42.33577 -74.23416 180.55447 377
38.12471 -75.84307 183.14882 374
33.25089 -77.72664 185.70325 341
27.50267 -79.97838 188.35867 338
21.46553 -82.25211 191.11885 336
14.08011 -85.10229 193.96173 318
5.59159 -88.43150 196.96948 315
-6.70345 -93.15062 199.99449 269
75.04168 -62.67791 172.96930 392
71.96903 -63.93130 174.98535 389
68.71319 -65.20081 177.02260 387
65.94103 -66.29646 179.26665 399
54.55873 -70.74765 179.76576 300
41.38266 -75.88992 180.28609 376
36.88857 -77.64403 182.84129 342
31.36972 -79.80779 185.37964 340
25.52487 -82.09549 188.00360 337
19.22765 -84.60320 190.81657 319
11.02513 -87.77068 193.59969 317
2.21699 -91.27723 196.62225 288
-21.71554 -100.65296 198.84863 268
74.45598 -63.98409 172.71620 391
71.32539 -65.26771 174.72664 388
68.05476 -66.56296 176.79092 386
65.27899 -67.65974 179.03191 398
54.97248 -71.75764 179.77997 300
40.47610 -77.55607 180.03690 375
35.14067 -79.70277 182.46640 341
29.47713 -81.94491 184.97081 339
23.47484 -84.35698 187.64133 336
16.33979 -87.17403 190.36642 318
7.90253 -90.55932 193.23546 315
-5.91630 -96.08320 195.82021 269
73.84155 -65.31281 172.43675 390
70.65918 -66.59811 174.45381 387
67.39233 -67.94233 176.50993 385
64.62704 -69.08518 178.80006 397
55.36388 -72.84360 179.75114 300
38.79890 -79.54208 179.63792 342
33.29533 -81.78277 182.03986 340
27.50461 -84.12458 184.55453 337
21.38858 -86.62748 187.25078 335
13.36554 -89.87045 189.94714 317
3.34326 -93.92799 192.65056 288
73.22422 -66.61413 172.11940 389
70.01710 -67.94263 174.15001 387
66.68941 -69.33288 176.24815 384
63.96180 -70.47720 178.56517 396
55.77734 -73.85149 179.75575 300
37.03913 -81.59039 179.17976 341
31.45197 -83.89587 181.62566 339
25.52744 -86.36922 184.17407 336
18.63601 -89.19122 186.82393 318
10.33253 -92.64407 189.48006 316
-5.01646 -98.98396 191.69089 269
72.60428 -67.96491 171.84669 388
69.38330 -69.35603 173.85185 386
66.04037 -70.72662 175.98009 383
63.28252 -71.92912 178.26634 395
56.20192 -74.88158 179.77440 300
35.26375 -83.67332 178.73744 340
29.55947 -86.11541 181.19882 338
23.45948 -88.64690 183.77718 335
15.73097 -91.93893 186.31593 317
4.47804 -96.62857 188.66286 288
72.92906 -68.92474 171.83604 316
68.71155 -70.74911 173.59241 385
65.36251 -72.17358 175.68893 396
62.60442 -73.36440 178.03963 394
56.60812 -75.94753 179.73265 300
33.42440 -85.82713 178.24576 339
27.56041 -88.32415 180.72977 337
20.93396 -91.21963 183.26408 318
11.94383 -95.03845 185.67339 289
-3.94317 -101.84679 187.52448 269
73.28571 -69.87972 171.82217 316
68.04406 -72.16792 173.28802 384
65.16761 -72.78407 175.50047 394
61.90137 -74.84757 177.79008 393
57.04962 -76.97322 179.77019 300
31.55258 -88.02879 177.81592 338
25.59248 -90.66173 180.30286 335
18.06761 -93.92479 182.68723 317
5.74884 -99.24072 184.70732 288
73.71448 -70.79099 171.83318 316
67.37257 -73.61916 172.96904 383
64.04842 -75.07925 175.11171 394
61.19662 -76.32413 177.48819 392
57.46729 -77.97443 179.75423 300
42.49834 -84.58971 179.84946 296
23.21301 -93.13990 179.73801 319
13.20012 -97.52911 181.83701 289
-2.85369 -104.62467 183.35022 269
74.09718 -71.73694 171.82347 316
66.68591 -75.06882 172.68581 382
63.36148 -76.57826 174.83582 393
60.50648 -77.86829 177.22186 391
57.55800 -79.18909 179.69707 389
43.00008 -85.74926 179.88837 296
20.34570 -95.91894 179.11575 290
7.02041 -101.88243 180.73671 287
-24.60642 -116.08065 180.09280 339
74.47136 -72.65781 171.80449 316
65.99495 -76.54512 172.35469 381
62.70292 -78.04287 174.57234 392
59.77757 -79.37770 176.93430 390
56.78992 -80.72898 179.41937 388
43.42821 -86.87077 179.85251 296
14.53623 -100.01308 177.99049 289
-1.51002 -107.39236 179.20723 269
-21.79850 -116.64328 180.44128 284
74.89424 -73.56221 171.81517 316
65.30897 -78.03526 172.04718 380
62.03708 -79.58371 174.25305 391
59.09784 -80.93283 176.67668 389
55.58901 -82.54084 179.03276 331
43.95431 -87.95154 179.88635 296
8.47310 -104.44075 176.71198 287
-15.66200 -115.60525 176.80801 342
-21.13854 -118.19031 180.40700 284
75.30087 -74.48023 171.81267 316
65.16944 -79.25969 171.91861 312
61.30299 -81.08386 173.96454 390
58.33289 -82.49968 176.35977 388
53.53932 -84.77393 178.48741 330
44.41006 -89.09808 179.83702 296
-8.46727 -113.99863 173.52165 286
-8.45427 -113.99747 177.83012 286
-20.43939 -119.72144 180.44089 284
75.73479 -75.43162 171.79999 316
65.60258 -80.26011 171.87119 312
60.60493 -82.63954 173.66762 389
56.37537 -84.69353 175.79845 331
51.45873 -87.03982 177.90610 330
44.91148 -90.21306 179.85812 296
27.41891 -98.55420 180.03802 292
1.41412 -111.07414 179.38922 287
-19.77346 -121.22195 180.39146 284
76.15085 -76.33712 171.78867 316
66.06255 -81.23892 171.86781 312
59.19926 -84.58775 173.18520 332
54.34651 -86.93607 175.18355 330
49.30268 -89.38444 177.34161 329
44.13914 -91.91853 179.61485 327
27.96618 -99.78098 180.00128 292
6.91782 -110.09011 180.19353 288
76.56953 -77.26253 171.82170 316
66.53207 -82.21989 171.86253 312
57.21677 -86.82307 172.54434 331
52.29829 -89.24207 174.56750 328
47.07389 -91.83581 176.69246 327
41.81007 -94.47290 179.01411 325
28.56037 -100.99297 179.97742 292
7.51586 -111.40459 180.19771 288
76.98273 -78.16216 171.79031 316
66.96085 -83.17648 171.89104 312
55.60065 -88.90961 171.99741 308
50.14129 -91.63215 173.91011 327
44.78909 -94.33144 176.04736 326
39.34993 -97.04943 178.38264 324
29.12676 -102.21414 180.01756 292
8.12787 -112.76773 180.16220 288
77.43803 -79.05199 171.78566 316
67.44795 -84.13940 171.85216 312
56.13799 -89.90683 171.98402 308
47.92674 -94.13293 173.22380 326
42.48706 -96.90900 175.40750 325
36.84744 -99.79913 177.76770 323
26.72596 -104.93002 179.41545 277
8.80071 -114.05713 180.18448 288
77.85439 -79.96399 171.79366 316
67.90985 -85.13722 171.89479 312
56.64688 -90.97685 171.97859 308
45.63222 -96.67417 172.52853 325
40.00814 -99.54667 174.75264 324
32.86673 -103.29907 176.79092 275
17.17028 -111.40678 177.52351 275
78.32288 -80.88599 171.80170 316
68.41258 -86.06721 171.86134 312
57.12566 -91.98603 171.95381 308
44.28488 -98.78245 172.07339 304
37.53226 -102.34991 174.03137 323
23.44438 -109.75295 174.75089 274
-56.71967 -151.79807 163.55554 369
78.76043 -81.79462 171.79982 316
68.87614 -87.02851 171.88475 312
57.67420 -93.03709 171.96353 308
44.82823 -99.89761 172.09276 304
30.62410 -107.44868 172.33957 275
12.96333 -116.86092 172.44850 273
-52.73298 -151.93185 164.13345 370
79.22200 -82.69041 171.78473 316
69.34547 -88.00098 171.85580 312
58.19217 -94.05066 171.95164 308
45.39195 -100.96914 172.04930 304
30.56057 -109.01449 172.19075 300
13.28031 -118.42507 172.30350 296
-48.81769 -151.95331 164.64905 371
79.70764 -83.58220 171.78308 316
69.86446 -88.96138 171.83377 312
58.71534 -95.07817 171.97540 308
45.94557 -102.13054 172.08357 304
31.20640 -110.18235 172.18964 300
13.92373 -119.72450 172.32649 296
-44.86088 -152.01462 165.20363 287
80.17269 -84.43186 171.74799 316
70.37717 -89.93617 171.87042 312
59.25952 -96.08401 171.97298 308
46.52749 -103.22260 172.08397 304
31.85879 -111.42091 172.20097 300
14.60900 -120.97809 172.32585 296
-43.99645 -153.66650 165.23492 286
80.63887 -85.36235 171.76292 316
70.85764 -90.88506 171.85750 312
59.79866 -97.14639 171.94081 308
47.15989 -104.30946 172.03038 304
32.46704 -112.58644 172.19299 300
15.27484 -122.29544 172.33791 296
-43.04162 -155.26268 165.26271 286
81.14503 -86.24253 171.75624 316
71.41292 -91.80019 171.83749 312
60.38537 -98.16258 171.96527 308
47.74333 -105.40254 172.03732 304
33.08122 -113.77222 172.18347 300
15.99983 -123.61253 172.34821 296
-42.13215 -156.94054 165.26416 286
81.60995 -87.12791 171.77940 316
71.92781 -92.74448 171.83766 312
60.92739 -99.13173 171.92137 308
48.29642 -106.47431 172.01714 304
33.75645 -114.95090 172.15602 300
16.73352 -124.90260 172.28342 296
-41.20896 -158.60616 165.18585 286
82.09997 -87.98438 171.75104 316
72.41640 -93.71574 171.82306 312
61.44710 -100.15415 171.94333 308
48.90906 -107.58533 172.03448 304
34.42770 -116.15753 172.14859 300
-25.54168 -151.45830 163.18750 369
-40.24523 -160.21219 165.24016 286
82.58269 -88.88190 171.77374 316
72.95531 -94.63368 171.84557 312
62.05833 -101.16973 171.92540 308
49.52144 -108.65377 172.02943 304
35.09666 -117.32163 172.17638 300
-21.89118 -151.40511 163.74112 371
83.08075 -89.73978 171.72456 316
73.52080 -95.56661 171.80849 312
62.59734 -102.15842 171.91391 308
50.15757 -109.71539 172.02478 304
35.71788 -118.50271 172.17651 300
-18.41554 -151.34924 164.31468 372
83.60284 -90.62451 171.75969 316
74.06535 -96.50014 171.83636 312
63.21168 -103.14755 171.92734 308
50.77398 -110.82993 172.01808 304
36.43519 -119.61836 172.12202 300
-14.96918 -151.24727 164.82982 373
84.10735 -91.50333 171.74596 316
74.58501 -97.40639 171.82730 312
63.80489 -104.16139 171.92949 308
51.41260 -111.90693 172.00227 304
37.12800 -120.77299 172.13959 300
-11.60063 -151.16486 165.38457 375
84.61527 -92.32368 171.71193 316
75.12943 -98.33226 171.80562 312
64.36932 -105.17001 171.89941 308
52.04584 -112.96027 172.00314 304
37.82084 -121.95273 172.13684 300
-9.15638 -151.65004 165.70332 291
85.16242 -93.22370 171.71533 316
75.70542 -99.25738 171.79330 312
64.97415 -106.13295 171.92746 308
52.70063 -114.00443 172.00064 304
38.48696 -123.13237 172.13759 300
-8.15543 -153.07259 165.72560 291
85.67519 -94.04431 171.74257 316
76.23820 -100.17961 171.80763 312
65.55402 -107.12049 171.91357 308
53.33600 -115.06976 172.00157 304
39.22369 -124.27417 172.13330 300
-7.22573 -154.48340 165.75468 291
86.20956 -94.91981 171.70947 316
76.83785 -101.08937 171.80247 312
66.20187 -108.10432 171.91647 308
54.02098 -116.11404 171.98305 304
1.49226 -150.70325 162.90826 285
-6.25404 -155.82283 165.73363 291
86.74907 -95.76149 171.73178 316
77.41738 -102.02700 171.78165 312
66.79596 -109.05894 171.86476 308
54.68877 -117.18141 172.01172 304
4.28479 -150.83513 163.39700 381
-5.32931 -157.25662 165.77682 290
87.27444 -96.60388 171.71623 316
77.98428 -102.93324 171.81137 312
67.44430 -110.03082 171.89024 308
55.32154 -118.24755 171.99510 304
7.30347 -150.73907 163.83559 382
-4.38590 -158.63333 165.73866 290
87.84457 -97.45142 171.71495 316
78.54824 -103.82755 171.77321 312
68.06638 -111.00136 171.90453 308
56.00102 -119.31367 171.95757 304
10.24941 -150.63736 164.37210 383
88.41267 -98.32014 171.68491 316
79.15543 -104.70926 171.80286 312
68.69784 -111.97444 171.87849 308
56.71608 -120.29801 171.96033 304
13.12002 -150.56401 164.87009 384
88.93906 -99.14693 171.71680 316
79.77046 -105.58933 171.76851 312
69.31265 -112.96281 171.84576 308
57.39688 -121.36810 171.94128 304
15.97712 -150.51633 165.34363 386
89.50822 -99.96379 171.71945 316
80.36864 -106.51667 171.78008 312
69.97010 -113.89049 171.87833 308
58.07156 -122.38706 171.96484 304
18.71112 -150.41522 165.75116 387
90.06656 -100.81206 171.67682 316
80.94735 -107.40075 171.75841 312
70.62644 -114.88889 171.88147 308
58.76185 -123.45781 171.98071 304
20.99702 -150.70732 166.12064 297
90.66690 -101.62482 171.69910 316
81.59264 -108.25114 171.76109 312
71.29311 -115.78699 171.87782 308
27.19871 -148.05417 163.23685 297
21.89465 -151.97871 166.11845 297
91.21704 -102.48660 171.69554 316
82.20843 -109.13687 171.74100 312
71.92381 -116.76329 171.84999 308
27.90846 -149.39667 163.18597 297
22.79050 -153.18460 166.11967 297
91.81437 -103.30524 171.66643 316
82.81309 -110.02601 171.77901 312
72.58595 -117.72315 171.82251 308
29.46250 -150.07362 163.38976 389
23.67546 -154.42554 166.08820 297
92.40228 -104.12453 171.68730 316
83.44952 -110.92339 171.74780 312
73.30280 -118.64097 171.84738 308
32.08471 -149.95847 163.88745 390
24.63967 -155.65054 166.14133 297
93.00396 -104.92963 171.69131 316
84.08077 -111.77483 171.73361 312
73.97524 -119.59119 171.80762 308
34.59579 -149.87366 164.27832 391
25.52134 -156.89781 166.14993 297
93.59556 -105.73715 171.65665 316
84.69960 -112.66508 171.75113 312
74.63570 -120.51090 171.82689 308
37.14293 -149.74364 164.75362 392
26.48515 -158.05432 166.14386 297
94.19698 -106.52779 171.68073 316
85.36203 -113.51574 171.75473 312
75.34820 -121.43994 171.81572 308
39.58138 -149.67441 165.15729 394
94.80762 -107.32903 171.65414 316
86.00877 -114.39394 171.73416 312
76.01746 -122.33707 171.81573 308
42.01253 -149.58102 165.64001 395
95.41792 -108.12683 171.64185 316
86.67910 -115.22910 171.73335 312
48.87258 -145.84604 163.38190 300
44.33051 -149.50710 166.05182 396
96.02489 -108.93969 171.64680 316
87.32132 -116.08400 171.69864 312
49.60458 -147.01244 163.35995 300
45.96749 -150.01283 166.20107 302
96.67169 -109.71034 171.65784 316
88.00757 -116.92397 171.70653 312
50.39241 -148.17003 163.30319 300
46.84735 -151.07845 166.20490 302
97.26627 -110.52962 171.65349 316
88.64777 -117.76855 171.73074 312
51.26181 -149.23042 163.34090 399
47.78971 -152.13469 166.27190 302
97.92599 -111.29742 171.64740 316
89.35092 -118.62177 171.72461 312
53.43309 -149.18321 163.72527 400
48.67443 -153.22748 166.23058 301
98.53810 -112.07807 171.62735 316
89.99563 -119.43169 171.70514 312
55.62687 -149.07596 164.15083 401
49.63520 -154.26854 166.22656 301
99.20095 -112.86011 171.59558 316
90.72262 -120.28737 171.68343 312
57.78883 -149.00992 164.53680 403
50.55116 -155.32726 166.23480 301
99.85862 -113.63310 171.59048 316
91.36725 -121.10244 171.70882 312
59.92610 -148.93404 164.92621 404
51.45549 -156.39789 166.25682 301
100.50220 -114.41280 171.58385 316
68.01935 -143.46965 163.54143 304
61.99569 -148.86954 165.29793 405
52.40598 -157.46579 166.21977 301
101.12121 -115.15605 171.58279 316
68.80976 -144.52066 163.52905 304
64.06976 -148.80042 165.63971 406
101.79276 -115.92523 171.61656 316
69.53271 -145.52707 163.45490 304
66.13280 -148.71548 166.03029 407
-20887.38672 -19393.36328 3471.36694 1000
102.48454 -116.70628 171.60141 316
70.28273 -146.60114 163.40836 304
67.93384 -148.79391 166.35089 306
103.11469 -117.43637 171.57687 316
71.06649 -147.63602 163.38802 304
68.82377 -149.76700 166.33167 306
103.82050 -118.20312 171.55801 316
72.04850 -148.49191 163.44179 410
69.73724 -150.66200 166.32452 306
104.51672 -118.94788 171.57306 316
73.93468 -148.38945 163.77998 411
70.62271 -151.60852 166.34804 306
105.15072 -119.67484 171.56436 316
75.80471 -148.35229 164.15698 412
71.51266 -152.53612 166.36945 306
85.07680 -140.97125 163.66862 308
77.69891 -148.27812 164.49896 413
72.43083 -153.47568 166.35521 306
85.82404 -141.89708 163.63986 308
79.54936 -148.16920 164.86923 414
73.37146 -154.35759 166.35724 306
86.58433 -142.79091 163.64005 308
81.35474 -148.10068 165.18358 415
74.27785 -155.26849 166.35742 305
87.34728 -143.70953 163.60324 308
83.13050 -148.06094 165.49239 417
75.23188 -156.17657 166.35304 305
88.09975 -144.64467 163.56377 308
84.90913 -147.95990 165.80302 418
76.16560 -157.10681 166.35905 305
-954.81042 -1228.03369 74.42998 440
88.89594 -145.57646 163.54288 308
86.68248 -147.94176 166.16345 419
-943.89630 -1231.42236 74.92277 499
-945.79773 -1233.18506 102.53390 499
-948.78925 -1236.77344 130.49908 469
89.67188 -146.46481 163.51273 308
88.26189 -147.95653 166.43103 310
-937.39832 -1240.12158 74.78983 462
-939.81427 -1242.13879 102.52954 462
-941.97003 -1244.67908 130.38481 407
90.49439 -147.35500 163.46259 308
89.14991 -148.79425 166.41824 310
-3657.57642 -4185.77295 -830.54602 1000
91.77632 -147.74200 163.62589 421
90.05894 -149.59691 166.40392 310
93.40777 -147.67741 163.95262 422
90.96471 -150.37701 166.45023 310
95.08358 -147.62265 164.24780 423
91.84261 -151.20027 166.45317 310
