# .PCD v.7 - Point Cloud Data file format
VERSION .7
FIELDS x y z rgb
SIZE 4 4 4 4
TYPE F F F U
COUNT 1 1 1 1
WIDTH 1380
HEIGHT 1
VIEWPOINT 6409.424805 -4077.297119 143.954895 0.010813 -0.128158 0.026735 0.991334
POINTS 1380
DATA ascii
54.36510 -40.64560 187.14946 425
51.52517 -41.22652 189.70343 423
48.57994 -41.82137 192.29022 414
45.38704 -42.44802 194.97722 411
42.07822 -43.10396 197.75916 409
38.73057 -43.78748 200.58777 406
35.21767 -44.49467 203.53928 403
31.56972 -45.24701 206.56940 401
27.75007 -45.99043 209.76965 360
-182.72028 -87.97134 216.56200 439
82.66313 -35.92083 176.57634 440
80.35802 -36.38754 178.59337 436
73.60967 -37.77733 179.62869 308
62.09608 -40.14643 179.78438 432
59.47734 -40.68706 182.15576 429
56.73042 -41.27256 184.56923 427
53.95650 -41.80847 187.06636 425
51.09425 -42.42307 189.60739 422
48.03910 -43.06202 192.20161 413
44.84057 -43.71495 194.89801 410
41.54790 -44.41362 197.64931 408
38.11663 -45.12955 200.50482 405
34.61042 -45.86485 203.47015 403
30.91809 -46.63631 206.52631 400
27.00909 -47.42380 209.70619 360
-188.46718 -91.75055 209.63702 485
-186.53664 -91.32881 216.53204 298
82.37088 -36.86271 176.44714 440
80.11211 -37.38666 178.48531 436
73.77144 -38.70280 179.59552 308
61.75615 -41.27187 179.65445 431
59.10755 -41.80376 182.03940 429
56.36298 -42.43011 184.47206 426
53.53262 -43.01733 186.93158 424
50.67072 -43.62476 189.51167 415
47.51551 -44.30332 192.12115 412
44.30762 -45.01376 194.79210 410
41.00883 -45.70234 197.59694 407
37.56802 -46.41848 200.44609 405
33.99276 -47.22854 203.42369 402
30.29873 -47.97984 206.52591 399
26.32467 -48.83766 209.67700 359
-187.93655 -94.25540 209.62590 485
-193.12805 -95.36776 216.49907 298
82.13618 -37.84595 176.35933 439
79.80269 -38.37821 178.36182 435
73.96278 -39.64600 179.60371 308
61.38829 -42.36779 179.55162 430
58.69278 -42.97344 181.91805 428
55.96448 -43.58551 184.34671 426
53.15762 -44.20296 186.83749 423
50.17532 -44.85373 189.37352 414
47.04327 -45.57129 191.99945 412
43.77757 -46.28225 194.71692 409
40.41448 -47.01169 197.47736 407
36.97080 -47.75961 200.40582 404
33.35065 -48.58220 203.35042 401
29.68490 -49.41034 206.47070 399
25.58378 -50.30193 209.65341 359
-187.54707 -96.85732 209.55534 485
81.86380 -38.82438 176.20804 438
79.55289 -39.37862 178.23746 435
74.17906 -40.56787 179.59290 308
61.02246 -43.54208 179.40932 430
58.32430 -44.12384 181.79387 427
55.58719 -44.74232 184.21104 425
52.72507 -45.42478 186.71068 423
49.69671 -46.10575 189.26212 413
46.48983 -46.84603 191.90622 411
43.23333 -47.55364 194.60710 408
39.86417 -48.34013 197.40077 406
36.39108 -49.11435 200.31967 403
32.76107 -49.93512 203.29004 401
29.01966 -50.78293 206.40791 398
24.87072 -51.71177 209.59077 344
-187.02876 -99.43127 209.60031 485
81.59766 -39.83115 176.11174 438
79.26737 -40.37928 178.14658 434
74.36258 -41.52592 179.58046 308
60.68390 -44.69166 179.28046 429
57.93526 -45.33398 181.68604 427
55.15482 -45.96163 184.09915 424
52.27641 -46.61905 186.59904 415
49.18353 -47.35993 189.19394 413
45.95502 -48.08786 191.82843 410
42.69165 -48.88718 194.53136 408
39.30164 -49.65456 197.32039 405
35.78001 -50.51179 200.23180 403
32.14417 -51.34669 203.23950 400
28.38706 -52.23929 206.36526 397
23.67715 -53.28093 209.58548 343
-186.82364 -101.99121 209.50943 486
81.32649 -40.80146 175.96793 437
78.96202 -41.39996 178.02032 433
74.53357 -42.45324 179.60860 308
60.30649 -45.80711 179.13351 428
57.57579 -46.48625 181.55705 426
54.77748 -47.15279 184.01819 424
51.79927 -47.87415 186.51416 415
48.66803 -48.64573 189.03831 412
45.45123 -49.38287 191.67874 410
42.15607 -50.18552 194.41730 407
38.70866 -51.00253 197.25978 404
35.15580 -51.84071 200.15016 402
31.47154 -52.75697 203.18053 388
27.45612 -53.69576 206.29688 386
21.68330 -55.11038 209.51146 264
-190.71048 -105.58749 209.49298 297
81.07066 -41.82394 175.84789 437
78.69566 -42.41515 177.87671 433
74.78152 -43.35529 179.58539 308
59.95393 -46.98273 179.02794 428
57.17554 -47.65860 181.41164 425
54.34418 -48.38768 183.84724 416
51.31992 -49.09565 186.34593 414
48.18569 -49.90029 188.96513 411
44.94019 -50.66735 191.61790 409
41.57627 -51.51182 194.31856 406
38.13111 -52.38438 197.15947 404
34.53254 -53.25745 200.09270 390
30.62081 -54.20589 203.11760 388
26.46166 -55.21900 206.24512 375
-188.46104 -107.76486 202.49596 484
80.81329 -42.83529 175.70566 436
78.40170 -43.42875 177.75400 432
74.95271 -44.31747 179.60538 308
59.54530 -48.17607 178.87552 427
56.80617 -48.87302 181.27563 425
53.89886 -49.61884 183.72339 416
50.80795 -50.36543 186.25232 413
47.65247 -51.18610 188.84448 411
44.38503 -52.01628 191.49574 408
41.04234 -52.87107 194.25348 406
37.53731 -53.74407 197.09627 392
33.74316 -54.69484 199.96681 389
29.78843 -55.68811 203.04849 387
25.39063 -56.83994 206.15051 374
-188.19849 -110.44778 202.47873 495
80.50958 -43.83633 175.60161 435
78.16169 -44.47813 177.63759 431
75.17634 -45.22114 179.58359 308
59.21093 -49.32155 178.76224 426
56.42886 -50.05883 181.14038 417
53.40053 -50.82191 183.61295 415
50.32988 -51.62772 186.10905 412
47.14008 -52.44836 188.69519 410
43.85296 -53.32010 191.36990 407
40.43987 -54.22319 194.12421 394
36.72153 -55.17879 196.97598 391
32.91347 -56.19440 199.87263 389
28.84457 -57.20869 202.94370 376
24.31945 -58.40907 206.08434 373
-187.51566 -112.95322 202.45808 495
80.26879 -44.86209 175.43669 435
77.85015 -45.50600 177.47650 431
75.38583 -46.17606 179.59933 429
58.82325 -50.53732 178.62662 426
55.96492 -51.27779 181.00735 416
52.94910 -52.12096 183.46921 414
49.83419 -52.90627 185.97429 412
46.60699 -53.75797 188.56960 409
43.24493 -54.65032 191.27017 395
39.64809 -55.64751 193.98401 393
35.92395 -56.65329 196.83742 390
32.05872 -57.67044 199.81978 388
27.77551 -58.79910 202.83949 375
23.22317 -60.02795 206.00714 372
79.99073 -45.86916 175.29030 434
77.59280 -46.55330 177.36310 430
75.09131 -47.22746 179.47725 428
58.45910 -51.74193 178.44276 425
55.49598 -52.54116 180.85533 416
52.46262 -53.34300 183.29253 413
49.34235 -54.19335 185.85770 411
46.02752 -55.12601 188.44705 397
42.54122 -56.05244 191.11249 395
38.90623 -57.03487 193.85539 392
35.12150 -58.10823 196.75826 390
31.20520 -59.16803 199.66672 376
26.75430 -60.37183 202.77061 374
22.07302 -61.63421 205.91376 371
79.73843 -46.92692 175.17278 433
77.27269 -47.60043 177.22914 430
74.79733 -48.31461 179.32991 427
58.03122 -52.92260 178.29199 417
55.05226 -53.79723 180.71051 415
51.99747 -54.63603 183.15045 413
48.77707 -55.53385 185.70955 399
45.33803 -56.47334 188.29796 396
41.78607 -57.50699 190.97397 394
38.13165 -58.52716 193.75496 391
34.28226 -59.55141 196.63170 389
30.17386 -60.70862 199.60178 376
25.63572 -61.98642 202.65167 373
20.91395 -63.29155 205.85498 370
79.44469 -47.96372 175.01488 433
77.02678 -48.64955 177.08865 429
74.47426 -49.36389 179.19084 427
57.58767 -54.18848 178.14482 417
54.60460 -55.02715 180.56985 414
51.42262 -55.95352 183.02010 400
48.06812 -56.90130 185.55110 398
44.60083 -57.89564 188.14264 395
41.05191 -58.93779 190.81580 393
37.30929 -59.95219 193.58417 390
33.46515 -61.10140 196.47449 388
29.10043 -62.33009 199.43907 375
24.54864 -63.64658 202.55739 372
19.80540 -64.97188 205.77562 369
79.19471 -49.00200 174.88451 432
76.70302 -49.74794 176.96703 428
74.20168 -50.44387 179.05562 426
64.71145 -53.22420 179.68996 304
54.05994 -56.29982 180.38034 402
50.74910 -57.29081 182.83429 399
47.37696 -58.29265 185.33655 397
43.90925 -59.30738 187.95898 395
40.29547 -60.33201 190.68951 392
36.51241 -61.45290 193.47389 390
32.49920 -62.64555 196.33449 376
28.06696 -63.94361 199.33730 374
23.46613 -65.25237 202.42743 371
18.63425 -66.66315 205.67871 368
78.89684 -50.06608 174.74301 430
76.44501 -50.80198 176.82173 428
73.91782 -51.55603 178.92654 425
64.96482 -54.23877 179.69588 304
53.44177 -57.66137 180.20200 401
50.09509 -58.62436 182.63838 399
46.70082 -59.67781 185.18234 396
43.15091 -60.74409 187.78735 394
39.48458 -61.82744 190.54254 391
35.71745 -62.93260 193.36290 389
31.48703 -64.19984 196.24234 376
27.00151 -65.53323 199.19846 373
22.35523 -66.93884 202.36011 370
17.43660 -68.43732 205.64810 368
78.65054 -51.12879 174.59805 429
76.13579 -51.89019 176.66768 427
73.58863 -52.65888 178.80768 425
65.26214 -55.21337 179.66371 304
52.79989 -58.98515 180.00211 400
49.44986 -60.04410 182.45256 398
45.97110 -61.05586 185.00725 395
42.43664 -62.17818 187.61649 393
38.71749 -63.28186 190.39180 390
34.79548 -64.52371 193.20175 377
30.47131 -65.81847 196.05031 375
25.95286 -67.23093 199.06606 372
21.18268 -68.66017 202.22130 369
16.26748 -70.19268 205.54355 367
78.35930 -52.19402 174.42920 428
75.85113 -52.96921 176.52431 426
73.31344 -53.78181 178.63615 424
65.56183 -56.19264 179.69485 304
52.12070 -60.34238 179.78401 399
48.78143 -61.43021 182.29245 397
45.30658 -62.52082 184.81587 394
41.68854 -63.64243 187.48763 392
37.95094 -64.77534 190.20584 390
33.81483 -66.10645 193.04341 376
29.44886 -67.45113 195.95961 374
24.86727 -68.90623 198.98715 371
20.03192 -70.39580 202.16029 368
15.02260 -71.99529 205.45695 366
78.09956 -53.25462 174.29785 428
75.59651 -54.05153 176.35707 426
72.98295 -54.89841 178.50990 423
65.81387 -57.18684 179.68407 304
51.50279 -61.74281 179.60281 398
48.08974 -62.84404 182.05762 396
44.57744 -63.95830 184.64365 394
40.92527 -65.09579 187.29359 391
37.13739 -66.33625 190.03094 378
32.84121 -67.67842 192.84892 375
28.40171 -69.12762 195.76518 373
23.72222 -70.62547 198.84065 370
18.84228 -72.13261 202.05685 368
13.11869 -74.00919 205.35075 321
77.84240 -54.36055 174.15053 427
75.27689 -55.16904 176.21526 425
72.70313 -56.03454 178.36008 423
66.14781 -58.13654 179.66122 304
50.80330 -63.12162 179.38779 398
47.40114 -64.23573 181.85509 395
43.84019 -65.39956 184.48016 393
40.17818 -66.59653 187.10783 390
36.17462 -67.89493 189.85498 377
31.82649 -69.30648 192.71162 375
27.34609 -70.77737 195.63441 372
22.59750 -72.31723 198.69939 369
17.33504 -74.05186 201.89680 338
10.13527 -76.39710 205.14566 320
77.55803 -55.44122 173.96994 426
74.99200 -56.26623 176.05882 424
72.41057 -57.16768 178.23463 422
66.43391 -59.15665 179.66687 304
50.17163 -64.52296 179.17982 397
46.70991 -65.68642 181.66649 394
43.11034 -66.90016 184.26247 392
39.39604 -68.13114 186.97684 389
35.18203 -69.48971 189.65216 376
30.80897 -70.96373 192.54788 374
26.26027 -72.48286 195.46158 371
21.38258 -74.08263 198.59401 339
15.18734 -76.17589 201.72833 337
7.14064 -78.83021 205.00165 318
77.27920 -56.51506 173.81975 426
74.71502 -57.40169 175.93216 424
72.10648 -58.29077 178.04837 421
66.75120 -60.11925 179.67476 304
49.50372 -65.94950 178.97357 396
45.96499 -67.16076 181.48766 393
42.38298 -68.34800 184.09720 391
38.46181 -69.70538 186.73125 378
34.22112 -71.11600 189.50221 375
29.78908 -72.67390 192.35945 373
25.14370 -74.20860 195.31871 370
19.35745 -76.22030 198.33698 338
12.36148 -78.59091 201.47108 320
3.99270 -81.38632 204.80698 317
76.98587 -57.66166 173.65698 425
74.44405 -58.55299 175.75880 423
71.77655 -59.46629 177.91971 393
67.05648 -61.09578 179.64879 304
48.83423 -67.39687 178.74719 395
45.27065 -68.58609 181.27652 393
41.60741 -69.86623 183.89522 390
37.52509 -71.27377 186.51315 377
33.21054 -72.77192 189.30286 374
28.74060 -74.34348 192.18404 372
23.35938 -76.22868 195.10597 339
17.24125 -78.35020 198.15150 337
9.36088 -81.07109 201.21803 319
0.72346 -84.01604 204.62883 316
76.72948 -58.74571 173.50815 424
74.14962 -59.68812 175.59639 422
71.12411 -60.72069 177.65405 392
67.34441 -62.04578 179.64781 304
48.15109 -68.85368 178.49507 394
44.56323 -70.09827 181.05730 392
40.76067 -71.46172 183.68161 378
36.56110 -72.92825 186.32906 376
32.22812 -74.43719 189.08742 373
27.25299 -76.20371 191.92230 341
21.31583 -78.31459 194.82773 338
14.56393 -80.70305 197.84483 320
6.34401 -83.62162 200.99605 318
-2.59708 -86.77124 204.37366 315
76.43212 -59.89206 173.32317 424
73.61172 -60.88214 175.35645 393
70.48857 -62.04967 177.44551 391
67.57612 -63.08317 179.64243 403
47.46506 -70.30179 178.29095 393
43.81437 -71.62157 180.82240 391
39.88993 -73.04868 183.41592 378
35.64121 -74.58561 186.10930 375
31.06005 -76.23730 188.84949 342
25.28633 -78.30711 191.64206 340
19.22586 -80.45384 194.58691 337
11.65023 -83.22412 197.55014 319
3.10763 -86.25453 200.72710 316
-6.86906 -89.84215 204.17894 271
76.07245 -61.04903 173.11411 395
73.02767 -62.18958 175.13522 392
69.83730 -63.35114 177.19026 390
66.98970 -64.41018 179.42651 402
46.74879 -71.77625 178.06369 392
43.09038 -73.12488 180.59392 379
38.95734 -74.66177 183.21536 377
34.65512 -76.26398 185.89818 374
29.18402 -78.24792 188.53821 341
23.30231 -80.41460 191.36684 339
16.80590 -82.78811 194.26973 320
8.65264 -85.76950 197.25124 318
-0.13115 -89.01507 200.46135 315
75.46536 -62.28764 172.85081 394
72.40450 -63.47029 174.87617 391
69.19783 -64.67226 176.94550 389
66.33600 -65.72368 179.20975 401
55.19586 -69.87212 179.76859 300
42.16969 -74.75718 180.35020 378
37.97635 -76.30068 182.96758 376
32.96300 -78.23435 185.55351 342
27.22930 -80.34296 188.22128 340
21.28944 -82.56045 191.01122 337
13.90609 -85.29400 193.88670 319
5.49156 -88.48382 196.97119 317
-5.99219 -92.80847 199.99712 271
74.87029 -63.57591 172.58974 393
71.75943 -64.76465 174.61229 391
68.53442 -66.01104 176.67033 388
65.70982 -67.07290 178.98111 400
55.58839 -70.93098 179.74425 300
41.29019 -76.35809 180.09233 377
36.58312 -78.13535 182.62321 344
31.07073 -80.23769 185.19583 341
25.32363 -82.48147 187.87125 339
18.98868 -84.86804 190.70865 321
10.94456 -87.93475 193.52664 318
2.25797 -91.22794 196.58521 290
-19.66766 -99.54269 199.07440 270
74.28069 -64.85485 172.32277 392
71.10590 -66.07765 174.36372 390
67.85060 -67.36456 176.45732 387
65.03220 -68.48048 178.73349 399
55.93571 -71.98622 179.78436 300
40.17437 -78.06710 179.82709 345
34.86789 -80.15208 182.24187 343
29.24807 -82.35886 184.83990 340
23.31757 -84.65199 187.52888 338
16.18968 -87.41377 190.30589 320
7.90773 -90.63467 193.13591 317
-5.14294 -95.63883 195.91138 271
73.65762 -66.18811 172.04343 391
70.49094 -67.40920 174.07661 389
67.18958 -68.73262 176.20047 386
64.37731 -69.86638 178.48711 398
56.33916 -73.03680 179.73726 300
38.48317 -80.04200 179.41431 344
33.04647 -82.24014 181.85088 341
27.29696 -84.48653 184.41258 339
21.23361 -86.90472 187.18542 321
13.29053 -90.01450 189.87701 318
3.42814 -93.89892 192.65144 290
-18.67690 -102.61094 194.66019 270
73.24593 -67.41538 171.81697 316
69.85686 -68.75493 173.81140 388
66.53133 -70.09879 175.92329 386
63.72769 -71.23666 178.26820 397
56.71120 -74.06610 179.77417 300
36.74507 -82.06710 178.97662 343
31.20650 -84.29835 181.42554 340
25.33400 -86.66997 184.02036 338
18.47286 -89.47039 186.69682 320
10.27268 -92.74806 189.41702 317
-4.14635 -98.51243 191.79753 271
73.59846 -68.33392 171.80196 316
69.20037 -70.16787 173.53709 387
65.83493 -71.53722 175.64627 385
63.05548 -72.67038 177.98679 396
57.12749 -75.07448 179.74724 300
34.98988 -84.13730 178.53111 342
29.30439 -86.46915 181.04024 339
23.32907 -88.90472 183.63034 337
15.62441 -92.08281 186.22842 319
4.66602 -96.60132 188.66505 289
74.00446 -69.29016 171.83223 316
68.55381 -71.51280 173.23271 386
65.14319 -72.97060 175.36224 397
62.38605 -74.08615 177.71960 395
57.51197 -76.13294 179.77393 300
33.22263 -86.27131 178.08467 341
27.41700 -88.66584 180.60805 338
20.76990 -91.43748 183.12234 320
11.84902 -95.13348 185.59970 291
-3.00695 -101.35905 187.63785 271
74.35033 -70.22157 171.83430 316
67.89288 -72.94222 172.98035 385
64.50353 -74.38118 175.10175 396
61.69309 -75.59068 177.47762 394
57.92588 -77.17911 179.73607 300
31.33223 -88.38511 177.62952 339
25.38774 -90.91401 180.11078 337
17.95223 -94.09415 182.59561 319
5.92393 -99.19046 184.65489 289
74.71577 -71.13025 171.81096 316
67.21073 -74.37535 172.68826 384
63.87336 -75.79860 174.83041 395
61.00838 -77.05693 177.23865 393
58.05868 -78.31502 179.70201 391
43.26959 -84.72221 179.89587 296
23.08085 -93.39619 179.64471 320
13.14699 -97.67762 181.73326 290
-1.77238 -104.08765 183.51279 271
75.11508 -72.07323 171.82840 316
66.55235 -75.82620 172.37965 383
63.16203 -77.27016 174.57098 394
60.28425 -78.57032 176.97530 392
57.36458 -79.84297 179.42030 390
43.73769 -85.82800 179.85138 296
20.07627 -96.16156 178.98425 292
7.21016 -101.78409 180.67424 289
-25.57733 -116.12251 180.02403 337
75.49905 -72.96326 171.78362 316
65.84982 -77.27052 172.04413 382
62.51570 -78.76765 174.29655 393
59.60050 -80.07810 176.67194 391
56.62033 -81.40686 179.18929 389
44.15493 -86.93600 179.86322 296
14.49327 -100.13251 177.88585 290
-0.38059 -106.75043 179.34679 270
-21.87456 -116.32311 180.39890 284
75.88367 -73.88105 171.81174 316
65.61260 -78.53083 171.91199 312
61.84129 -80.29279 173.97325 392
58.89309 -81.59614 176.42789 390
54.94159 -83.40842 178.69362 333
44.64946 -88.04503 179.86501 296
8.63578 -104.33007 176.73143 289
-16.37455 -115.70003 176.63191 340
-21.29393 -117.90874 180.44336 284
76.28014 -74.81767 171.79547 316
66.05456 -79.53728 171.87265 312
61.14115 -81.78714 173.67079 391
57.69549 -83.36330 176.00557 334
52.92309 -85.57030 178.18872 332
45.12833 -89.15143 179.86983 296
-9.83795 -114.46280 173.27136 283
-9.78776 -114.42889 177.60686 283
-20.62792 -119.43832 180.41029 284
76.66651 -75.76352 171.81665 316
66.50012 -80.49859 171.88792 312
60.40510 -83.34709 173.40491 335
55.76828 -85.52238 175.46658 333
50.84554 -87.82136 177.58908 331
45.62854 -90.25637 179.86215 296
27.90127 -98.54990 180.02626 292
0.77032 -111.21958 179.26414 285
-19.90428 -120.90495 180.42657 284
77.10473 -76.66751 171.78052 316
66.92426 -81.49178 171.88107 312
58.53820 -85.46373 172.76164 333
53.76981 -87.73915 174.87277 331
48.76809 -90.13957 177.04454 331
43.69931 -92.55477 179.38297 329
28.43581 -99.78339 179.98531 292
7.10651 -109.92077 180.20103 288
77.51494 -77.58514 171.79660 316
67.37911 -82.47680 171.86343 312
56.62372 -87.65131 172.15640 332
51.73141 -90.02750 174.25020 330
46.58960 -92.50574 176.42752 329
41.36805 -95.05428 178.80040 327
29.00269 -100.97491 180.02132 292
7.70958 -111.26003 180.16373 288
77.91850 -78.47306 171.80125 316
67.80844 -83.44643 171.88013 312
56.35092 -89.04963 171.96259 308
49.61253 -92.33456 173.63580 329
44.33771 -94.91978 175.79622 328
38.96426 -97.60280 178.18939 326
29.55126 -102.21697 179.99133 292
8.35440 -112.59085 180.14864 288
-25367.52734 -12567.22266 5399.87061 1000
78.32374 -79.38609 171.79663 316
68.25099 -84.38023 171.88921 312
56.86479 -90.07240 171.97093 308
47.41029 -94.78459 172.98917 328
42.02029 -97.46175 175.16621 327
36.47424 -100.23614 177.55600 325
26.02178 -105.47122 179.24791 279
8.92994 -113.96343 180.19159 288
78.74995 -80.30572 171.76004 316
68.74600 -85.34998 171.86420 312
57.33709 -91.10757 171.97324 308
45.16993 -97.25837 172.31436 327
39.67182 -100.04033 174.50684 326
31.91984 -103.96307 176.51978 277
17.14316 -111.44026 177.44301 277
79.22762 -81.19847 171.77390 316
69.21281 -86.32948 171.87749 312
57.84628 -92.16712 171.97546 308
44.83074 -98.80334 172.04790 304
37.22235 -102.76130 173.88258 324
23.12748 -110.01201 174.58711 276
-58.39989 -151.77257 163.35257 367
79.66229 -82.10495 171.77522 316
69.65503 -87.28295 171.85097 312
58.35768 -93.17278 171.96577 308
45.40289 -99.94972 172.05562 304
30.38459 -107.77587 172.20456 300
13.42801 -116.61637 172.45215 275
-54.29322 -151.85403 163.94179 368
80.07920 -82.99529 171.77823 316
70.13128 -88.26252 171.84459 312
58.84989 -94.19894 171.97365 308
45.95438 -101.02527 172.07159 304
30.94665 -108.96349 172.17374 300
13.46864 -118.22788 172.34268 296
-50.28281 -151.98160 164.51788 369
80.55704 -83.88862 171.74612 316
70.63054 -89.16827 171.83583 312
59.36650 -95.23148 171.93088 308
46.48823 -102.17048 172.04420 304
31.56975 -110.16756 172.20578 300
14.08932 -119.55668 172.35925 296
-46.29131 -152.01205 165.08556 361
80.98818 -84.74979 171.75714 316
71.12081 -90.12185 171.82776 312
59.91170 -96.26885 171.95836 308
47.06435 -103.26930 172.04375 304
32.21049 -111.37659 172.18846 300
14.75755 -120.84458 172.35629 296
-44.54391 -153.21909 165.27112 286
81.47208 -85.66418 171.73619 316
71.62929 -91.10013 171.82181 312
60.43114 -97.25892 171.94528 308
47.66064 -104.36336 172.03886 304
32.79624 -112.55330 172.19392 300
15.44775 -122.19017 172.28960 296
-43.64136 -154.79280 165.19080 286
81.90837 -86.55098 171.76399 316
72.11856 -92.05164 171.83936 312
60.94987 -98.28400 171.92119 308
48.20698 -105.43587 172.01978 304
33.42461 -113.76836 172.14136 300
16.13520 -123.46107 172.31929 296
-42.77938 -156.49973 165.19818 286
82.42156 -87.42791 171.76706 316
72.61375 -92.97516 171.81943 312
61.49405 -99.33059 171.95177 308
48.78514 -106.55045 172.02306 304
34.08699 -114.94044 172.19296 300
16.84005 -124.72050 172.29514 296
-41.83509 -158.17378 165.22374 286
82.88960 -88.30173 171.75488 316
73.13738 -93.93349 171.84579 312
62.05748 -100.33868 171.94867 308
49.41202 -107.63187 172.02129 304
34.75945 -116.12447 172.15181 300
-26.60419 -151.55119 163.00183 367
-40.92586 -159.74809 165.23940 286
83.36880 -89.17943 171.76511 316
73.64553 -94.84521 171.81233 312
62.62562 -101.31489 171.93654 308
49.99235 -108.69444 172.02591 304
35.37410 -117.29891 172.17984 300
-22.95847 -151.44069 163.60535 369
83.84065 -90.02108 171.74773 316
74.15491 -95.77402 171.83838 312
63.16247 -102.30033 171.90871 308
50.60639 -109.78216 172.00194 304
36.05535 -118.42004 172.14220 300
-19.34316 -151.34773 164.16418 370
84.32607 -90.89769 171.72031 316
74.69267 -96.69514 171.81886 312
63.74178 -103.29766 171.88797 308
51.20400 -110.87663 172.00897 304
36.70420 -119.61832 172.11063 300
-15.84721 -151.22607 164.69212 371
84.82716 -91.79214 171.71645 316
75.25192 -97.66153 171.81923 312
64.34740 -104.29887 171.88351 308
51.85082 -111.94536 172.02318 304
37.40203 -120.78387 172.12851 300
-12.44085 -151.17833 165.27995 373
85.35860 -92.63779 171.72330 316
75.75205 -98.59148 171.81245 312
64.90344 -105.28645 171.91765 308
52.47102 -113.00672 172.02641 304
38.06914 -121.96239 172.12874 300
-9.45441 -151.32057 165.74274 291
85.84863 -93.48052 171.73251 316
76.33639 -99.50591 171.78123 312
65.52105 -106.28929 171.90083 308
53.07976 -114.06149 171.99664 304
38.74105 -123.10528 172.15462 300
-8.48592 -152.75642 165.72472 291
86.38656 -94.34985 171.69690 316
76.85400 -100.41553 171.81750 312
66.08898 -107.29597 171.89746 308
53.73478 -115.13226 172.01308 304
39.41038 -124.23685 172.09846 300
-7.54205 -154.17159 165.75533 291
86.87941 -95.21337 171.70425 316
77.43221 -101.29823 171.79427 312
66.66968 -108.24884 171.87651 308
54.36477 -116.18162 171.98865 304
1.36422 -150.35368 162.92526 285
-6.62124 -155.55475 165.75983 291
87.40885 -96.04041 171.71135 316
78.00723 -102.20440 171.79831 312
67.31239 -109.21147 171.90126 308
55.01138 -117.25658 171.97383 304
3.70021 -150.80350 163.28961 379
-5.64672 -156.97191 165.71149 290
87.96601 -96.90563 171.72260 316
78.56182 -103.15425 171.79955 312
67.89275 -110.19517 171.86182 308
55.68807 -118.27419 171.95772 304
6.77954 -150.71976 163.77135 380
-4.77526 -158.36064 165.73347 290
88.49314 -97.73531 171.69746 316
79.11110 -104.02245 171.80051 312
68.48860 -111.17841 171.88116 308
56.32286 -119.36657 171.95183 304
9.69332 -150.63832 164.29445 381
-3.79251 -159.76390 165.70038 290
89.03394 -98.58442 171.71375 316
79.72691 -104.91445 171.77904 312
69.15498 -112.13206 171.84958 308
57.00224 -120.38734 171.96768 304
12.65555 -150.59407 164.75372 383
-1281.95581 -1031.74170 36.07102 366
89.55384 -99.44237 171.70007 316
80.28465 -105.85555 171.77223 312
69.77806 -113.11045 171.84663 308
57.67107 -121.44384 171.94270 304
15.52670 -150.52739 165.24731 384
-1268.06409 -1036.08215 36.96961 497
-1271.41418 -1038.50049 66.31695 473
-1276.30225 -1041.82617 95.70495 473
90.13045 -100.25876 171.70329 316
80.88791 -106.70901 171.75517 312
70.41376 -114.05028 171.86699 308
58.39832 -122.43661 171.98096 304
18.34373 -150.46677 165.75220 385
-1262.77527 -1045.80688 36.72961 471
-1265.47058 -1048.03833 66.53620 471
-1267.95789 -1049.54614 95.94382 469
90.68549 -101.09021 171.67607 316
81.50089 -107.60145 171.75662 312
71.05244 -115.02129 171.85162 308
59.09593 -123.46912 171.96805 304
20.86878 -150.57518 166.08968 297
91.24927 -101.93932 171.66637 316
82.07562 -108.47723 171.75653 312
71.69067 -115.96648 171.83806 308
27.15604 -147.91692 163.26460 297
21.75289 -151.84160 166.08159 297
91.83163 -102.76738 171.65846 316
82.67006 -109.35766 171.76537 312
72.32946 -116.92028 171.82495 308
27.82747 -149.25937 163.22466 297
22.59221 -153.08356 166.09708 297
92.36765 -103.58659 171.64938 316
83.30404 -110.25862 171.74136 312
72.98022 -117.84315 171.81439 308
29.22940 -150.09911 163.33699 387
23.49218 -154.26053 166.10565 297
92.95157 -104.40755 171.66257 316
83.94040 -111.13608 171.72264 312
73.67606 -118.77071 171.83899 308
31.80449 -149.98535 163.82094 388
24.39898 -155.47742 166.11475 297
93.55927 -105.19447 171.68475 316
84.51821 -111.98604 171.75140 312
74.30926 -119.71180 171.84941 308
34.38053 -149.91106 164.26477 389
25.34850 -156.70047 166.12537 297
94.14588 -106.01054 171.64986 316
85.16084 -112.86595 171.72482 312
74.97381 -120.68141 171.84285 308
36.91502 -149.78905 164.68779 391
26.29127 -157.92685 166.15099 297
94.71037 -106.82774 171.63589 316
85.78556 -113.72339 171.70824 312
75.69307 -121.60012 171.84038 308
39.42159 -149.68074 165.18130 392
27.21169 -159.17915 166.15057 297
95.32000 -107.62971 171.63509 316
86.45183 -114.60911 171.73218 312
48.15664 -144.59450 163.44183 300
41.82721 -149.63222 165.57516 393
95.90637 -108.41225 171.65787 316
87.07683 -115.46067 171.69980 312
48.90158 -145.81894 163.41463 300
44.19894 -149.50906 165.98128 394
96.49698 -109.20574 171.63173 316
87.74734 -116.27881 171.70445 312
49.63629 -146.98534 163.37688 300
45.89044 -149.98143 166.19969 302
-1744.47168 -1592.39856 7.78049 492
-1750.12634 -1596.35742 48.95216 456
97.13561 -109.99669 171.61861 316
88.38022 -117.11920 171.71559 312
50.34274 -148.14738 163.30452 300
46.79990 -151.01335 166.23222 302
-1737.15332 -1605.90381 7.44144 440
-1743.12244 -1611.23010 48.63781 380
97.74043 -110.81178 171.63412 316
89.04092 -117.96828 171.68314 312
51.18771 -149.25928 163.27646 397
47.69185 -152.13644 166.20456 302
98.37999 -111.56214 171.62279 316
89.72575 -118.84492 171.68166 312
53.43507 -149.18506 163.72874 398
48.61812 -153.18500 166.22542 301
99.00224 -112.35713 171.61275 316
90.38001 -119.67546 171.70708 312
55.60474 -149.11006 164.13954 400
49.52768 -154.27664 166.22672 301
99.62833 -113.13824 171.61237 316
91.04361 -120.49039 171.66489 312
57.81213 -149.00002 164.52904 401
50.43137 -155.33769 166.21867 301
100.27249 -113.91216 171.60454 316
67.35616 -142.48578 163.56606 304
59.91459 -148.92433 164.89937 402
51.30928 -156.35753 166.22112 301
-2206.08960 -2116.96533 3.53488 482
100.87827 -114.67191 171.61761 316
68.06784 -143.54112 163.54376 304
62.00256 -148.87531 165.31027 403
52.24636 -157.41071 166.22389 301
101.54977 -115.44318 171.60124 316
68.77666 -144.54700 163.51067 304
64.09497 -148.75764 165.65419 404
102.17187 -116.18421 171.61745 316
69.57355 -145.64105 163.46461 304
66.13932 -148.70998 166.04144 406
102.84888 -116.95560 171.59311 316
70.31025 -146.67902 163.46069 304
67.89041 -148.83957 166.35281 306
103.50703 -117.69122 171.56732 316
71.05525 -147.69138 163.42719 304
68.80788 -149.79604 166.31749 306
104.17101 -118.44263 171.57228 316
72.07657 -148.45743 163.47633 408
69.70111 -150.74350 166.33705 306
104.83230 -119.20921 171.58121 316
74.00996 -148.37878 163.80688 409
70.59857 -151.67754 166.31750 306
105.49509 -119.92705 171.57787 316
75.91465 -148.32491 164.20172 411
71.49641 -152.57062 166.31448 306
85.12295 -141.10922 163.66211 308
77.76508 -148.26120 164.54762 412
72.36109 -153.49826 166.36517 306
85.86342 -142.05615 163.62906 308
79.63689 -148.20624 164.88100 413
73.32939 -154.40450 166.36736 306
86.63651 -142.96446 163.61755 308
81.44051 -148.09293 165.19925 414
74.22521 -155.32742 166.35442 305
87.36256 -143.90184 163.57271 308
83.23107 -148.02792 165.55145 415
75.11723 -156.25662 166.36102 305
88.13230 -144.78279 163.52844 308
85.00950 -147.97731 165.87039 416
76.04721 -157.14215 166.34036 305
88.91169 -145.70673 163.50769 308
86.75930 -147.91618 166.17232 417
89.70138 -146.58684 163.48337 308
88.24827 -148.08710 166.40086 310
90.44557 -147.51411 163.47060 307
89.13799 -148.89203 166.39609 310
91.90833 -147.71318 163.67889 420
90.04503 -149.73337 166.43605 310
93.54573 -147.68280 163.98016 421
90.90342 -150.50891 166.45302 310
95.18618 -147.61566 164.29497 422
91.79913 -151.33333 166.42168 310
96.85589 -147.54218 164.62321 412
92.73275 -152.12032 166.44919 310
98.54955 -147.34605 164.97075 413
93.62665 -152.93202 166.46318 310
-33205.53906 -37687.73047 7649.34473 1000
100.20641 -147.18860 165.30354 414
94.50578 -153.71120 166.44803 310
101.88105 -147.00430 165.59851 415
95.45789 -154.47514 166.42264 310
103.49651 -146.87637 165.93279 417
96.36157 -155.23302 166.43539 310
105.12193 -146.71545 166.23647 418
97.26665 -155.99857 166.43221 310
106.45183 -146.85439 166.47450 314
107.29855 -147.55399 166.44067 314
108.20456 -148.25327 166.45244 314
109.08060 -148.96469 166.47502 314
109.91571 -149.64696 166.48372 314
110.78951 -150.32533 166.43695 314
111.68014 -151.03496 166.44865 314
114.81135 -148.76532 167.44862 316
115.72110 -149.42479 167.43491 316
116.53792 -150.12094 167.45303 316
-27130.03320 -36772.65625 -5856.16309 1000
117.40878 -150.77797 167.45990 316
120.06076 -149.04741 168.23827 490
120.84728 -149.73933 168.20985 490
124.16810 -148.77440 168.95442 489
124.98047 -149.44305 168.90822 489
127.11333 -148.20258 169.49866 436
127.73790 -149.11183 169.41808 401
-19830.23828 -63487.12109 1246.24707 1000
-7309.60205 -65512.32812 9944.85059 1000
-5753.05029 -66317.20312 -4198.99756 1000
10795.12207 -47521.32812 11545.57129 1000
15652.00391 -24127.98047 6798.51514 1000
358.03806 -112.16366 167.58331 316
358.72440 -111.26172 167.57710 316
359.43088 -110.35435 167.59584 315
360.15253 -109.47466 167.60603 315
360.86981 -108.56036 167.58263 315
361.58499 -107.66087 167.60641 315
362.30475 -106.76429 167.60844 315
362.99289 -105.81183 167.60716 315
363.68509 -104.93745 167.59554 315
364.32751 -104.00286 167.61299 315
365.00558 -103.05708 167.60408 315
365.67871 -102.12871 167.63841 315
366.35800 -101.17713 167.60709 315
367.02448 -100.25278 167.61557 315
368.27646 -99.73520 167.44684 438
369.70044 -99.22798 167.20259 437
371.09427 -98.76054 166.97327 436
379.50809 -103.93520 167.64909 310
1608.87097 -858.05151 51.98880 282
372.52722 -98.22688 166.69691 435
380.18637 -102.91100 167.65065 310
1602.00366 -842.09613 53.20375 469
1605.44910 -844.43872 79.93961 468
1609.02344 -846.66144 106.25257 489
1612.75354 -848.99689 132.92126 492
373.96191 -97.73080 166.47205 434
380.83032 -101.87881 167.68504 310
1605.95825 -832.62219 53.77514 496
1610.65051 -835.65167 79.63384 474
1615.79883 -839.10596 106.03454 439
375.41766 -97.23575 166.20526 433
381.47455 -100.82169 167.65318 310
1615.40637 -826.78076 53.00218 429
376.87741 -96.72548 165.97050 432
382.12097 -99.76606 167.69870 310
378.37897 -96.22235 165.68941 431
382.78198 -98.76398 167.67967 311
379.87903 -95.68743 165.43912 430
383.44299 -97.71693 167.68689 311
381.39886 -95.19903 165.14825 429
384.07169 -96.68402 167.67897 311
382.90814 -94.64563 164.90707 428
384.70233 -95.63918 167.72047 311
384.06699 -93.90241 164.71124 317
385.32867 -94.56023 167.73552 311
384.70093 -92.85865 164.73961 317
386.01428 -93.61103 167.66951 427
385.36322 -91.86033 164.74153 317
387.61951 -93.04379 167.42982 426
385.99725 -90.82967 164.71048 317
389.20267 -92.49912 167.13553 425
386.60995 -89.74223 164.70731 317
390.86102 -91.94027 166.83559 424
400.47397 -96.79592 167.70468 306
387.18759 -88.72002 164.68999 317
392.47388 -91.36977 166.58739 423
401.08783 -95.64770 167.73997 306
387.80460 -87.66879 164.69296 317
394.09924 -90.81166 166.28311 422
401.67892 -94.47884 167.70464 306
388.43033 -86.63524 164.68211 317
395.80481 -90.21149 165.97107 421
402.26410 -93.31121 167.74313 306
389.02441 -85.57089 164.71008 317
397.47665 -89.62316 165.65126 420
402.86035 -92.16617 167.72632 306
389.62970 -84.50894 164.68161 317
399.19540 -89.01920 165.33200 419
403.42993 -91.00417 167.78061 306
390.19467 -83.44660 164.69577 317
400.96524 -88.44162 165.01155 418
403.98349 -89.83975 167.78059 306
390.80127 -82.38453 164.67300 317
402.36530 -87.68975 164.78482 313
404.55280 -88.67025 167.76901 306
368.28653 -71.01399 171.48975 318
402.96405 -86.54012 164.79007 313
405.10367 -87.49015 167.79535 306
368.76462 -70.08698 171.49011 318
403.58826 -85.36949 164.81606 313
406.26468 -86.60719 167.63844 415
369.22598 -69.11441 171.52150 317
404.19580 -84.26256 164.80585 313
407.90500 -85.85229 167.38574 434
369.68192 -68.15149 171.51123 317
404.76334 -83.05768 164.78909 313
409.48019 -85.09396 167.09796 433
370.11337 -67.21932 171.49254 317
405.33331 -81.91840 164.78531 313
411.03720 -84.35102 166.87839 432
370.58963 -66.25790 171.51172 317
405.85657 -80.78191 164.78159 313
412.63528 -83.52779 166.59865 431
370.98837 -65.29550 171.51195 317
406.40369 -79.62070 164.78432 313
414.29892 -82.79408 166.36415 430
423.73248 -86.58183 167.81262 302
371.46750 -64.37953 171.52512 317
406.96140 -78.43123 164.81697 313
415.89993 -81.95138 166.06894 429
424.26199 -85.28730 167.76736 302
371.88205 -63.40059 171.54915 317
407.47827 -77.27499 164.78773 312
417.57126 -81.18715 165.79364 428
424.81534 -83.98481 167.82536 302
372.30460 -62.44321 171.53201 317
408.01834 -76.08428 164.77184 312
419.24115 -80.39005 165.54547 427
425.37476 -82.74014 167.82196 302
372.69687 -61.49665 171.53471 317
408.59070 -74.90182 164.81007 312
420.90442 -79.54954 165.26447 426
425.85028 -81.39363 167.83745 302
373.12717 -60.51046 171.53354 317
383.56714 -64.35766 171.62379 313
422.57785 -78.72750 164.96933 425
426.41779 -80.13322 167.83914 302
373.52109 -59.52816 171.53160 317
383.98029 -63.30951 171.62798 313
423.40628 -77.54240 164.89706 308
426.87747 -78.80944 167.85677 302
373.94064 -58.57581 171.54707 317
384.41684 -62.26866 171.65244 313
423.97171 -76.26601 164.88893 308
427.39722 -77.50253 167.87192 302
374.33432 -57.61595 171.56609 317
384.81140 -61.26673 171.63884 313
424.52637 -75.00008 164.89026 308
427.87140 -76.21741 167.83669 302
374.72296 -56.63794 171.55856 317
385.24179 -60.22677 171.65489 313
425.05939 -73.73380 164.83614 308
429.59189 -75.28300 167.60118 422
375.13193 -55.64881 171.53270 317
385.63754 -59.17344 171.67506 313
425.58478 -72.46299 164.86224 308
431.41299 -74.43958 167.31178 420
375.48605 -54.67197 171.55014 317
386.02786 -58.13588 171.67731 313
426.10205 -71.18476 164.84422 308
433.26199 -73.50798 167.01364 419
375.85208 -53.68784 171.55388 317
386.43555 -57.07314 171.64830 313
426.58847 -69.88216 164.85617 308
435.10208 -72.60325 166.70628 418
376.23087 -52.70421 171.56433 317
386.85458 -56.01967 171.68523 313
427.08197 -68.59033 164.84441 308
436.97391 -71.71159 166.33910 417
263.28967 -17.08880 203.47507 294
387.22220 -54.96733 171.67850 313
427.55411 -67.36067 164.81787 308
438.88086 -70.81254 166.05487 416
449.10614 -73.93021 167.88829 298
263.36435 -16.77234 203.50204 315
387.61008 -53.91866 171.66095 313
428.02637 -66.04226 164.83789 308
440.61810 -69.81461 165.79282 430
449.53308 -72.47713 167.87599 298
263.50323 -16.50131 203.50354 315
387.94205 -52.85767 171.70000 313
400.04660 -56.43140 171.76985 309
442.31757 -68.75610 165.51924 429
450.01624 -71.06391 167.86673 298
263.65286 -16.21458 203.49973 315
388.33224 -51.81100 171.68330 313
400.40585 -55.31950 171.82001 309
444.03604 -67.75092 165.22992 428
450.45422 -69.57985 167.85945 298
263.79462 -15.92873 203.50577 315
388.66220 -50.78545 171.68559 313
400.79037 -54.14382 171.79590 309
445.66827 -66.69717 164.92278 304
450.85294 -68.17013 167.88757 298
263.93719 -15.64176 203.50298 315
389.03534 -49.69185 171.70828 313
401.15692 -53.01655 171.79987 309
446.14444 -65.26218 164.97795 304
451.25208 -66.67910 167.94125 298
264.07465 -15.35622 203.50761 314
389.38950 -48.62549 171.67259 313
401.56052 -51.89549 171.80235 309
446.60089 -63.87475 164.97560 304
451.70264 -65.22161 167.94403 298
264.20367 -15.06836 203.50014 314
389.68842 -47.56986 171.67247 313
401.91772 -50.77710 171.81975 309
446.99103 -62.48722 164.96564 304
452.06580 -63.75096 167.92680 298
264.34332 -14.78261 203.50301 314
390.03418 -46.53730 171.68303 313
402.26031 -49.63568 171.80348 309
447.46228 -61.04995 164.96461 304
452.92581 -62.45212 167.87653 423
264.46832 -14.48898 203.50792 314
390.38092 -45.48238 171.68697 313
402.60696 -48.46170 171.80214 309
447.89218 -59.60305 164.98341 304
454.75720 -61.35502 167.60724 422
264.60370 -14.20570 203.49847 314
390.66827 -44.38148 171.71744 313
402.94727 -47.32652 171.82784 309
448.33295 -58.17548 164.98604 304
456.60498 -60.18222 167.28738 421
264.73523 -13.91431 203.50130 314
390.99292 -43.31236 171.70590 313
403.27997 -46.19749 171.84229 309
448.67880 -56.79377 164.96858 304
458.49460 -59.06260 167.00685 420
264.85721 -13.62761 203.50040 314
391.27872 -42.24560 171.72992 313
403.56363 -45.03727 171.80415 309
449.13971 -55.33369 164.92401 304
460.40756 -57.91394 166.66460 419
264.98749 -13.34094 203.50381 314
391.57837 -41.16376 171.73627 313
403.92065 -43.90145 171.83528 309
449.53250 -53.94797 164.94759 304
462.30243 -56.75641 166.35735 451
265.11874 -13.05375 203.50963 314
391.86957 -40.11484 171.72858 313
404.21945 -42.76606 171.84303 309
418.28882 -45.74369 171.95213 305
463.73032 -55.45196 166.14395 451
265.24039 -12.75720 203.50876 314
392.17554 -39.04892 171.73683 313
404.53290 -41.59772 171.85867 309
418.63922 -44.50471 171.96353 305
465.11383 -54.13492 165.98610 450
265.35934 -12.46141 203.50430 314
392.47818 -37.97114 171.69957 313
404.80362 -40.42058 171.82892 309
418.95242 -43.27083 171.97580 305
466.48807 -52.86850 165.74112 449
265.47992 -12.17283 203.50040 314
392.71307 -36.91034 171.73019 313
405.09561 -39.28310 171.82639 309
419.24286 -42.02872 171.99019 305
467.96231 -51.48222 165.55209 448
477.90186 -53.44261 167.97276 293
265.59476 -11.88463 203.50020 314
392.97092 -35.81887 171.71619 313
405.37601 -38.13868 171.84929 309
419.51819 -40.79834 171.98425 305
469.36929 -50.17208 165.33656 447
478.26007 -51.83382 168.03671 294
265.71072 -11.59149 203.50269 314
269.06631 -12.19580 203.48206 286
405.65759 -36.96112 171.87105 309
419.84335 -39.57929 171.98967 305
470.81555 -48.78668 165.08931 446
478.55273 -50.19151 168.04320 294
265.81662 -11.29962 203.50937 314
269.08380 -11.86669 203.50539 310
405.89825 -35.80832 171.82756 309
420.11893 -38.32490 171.96106 305
471.35236 -47.25819 165.09344 300
478.84802 -48.61205 168.01204 294
265.93448 -11.01101 203.50377 314
269.20322 -11.56263 203.50540 310
406.19949 -34.66130 171.87347 309
420.41330 -37.09066 171.97185 305
471.69281 -45.71844 165.08353 300
479.14526 -46.99150 168.06985 294
266.04419 -10.70805 203.50314 314
269.31378 -11.24059 203.50882 310
406.43338 -33.49260 171.85788 309
420.66434 -35.79896 171.96681 305
472.02060 -44.14410 165.06804 300
479.37943 -45.36392 168.05118 294
266.14383 -10.41487 203.50160 314
269.42252 -10.92705 203.49786 310
406.69711 -32.36023 171.83618 309
420.91971 -34.57024 171.99370 305
472.33890 -42.56545 165.05948 300
479.65802 -43.78612 168.04033 294
266.25107 -10.12434 203.50211 314
269.52896 -10.61501 203.51038 310
406.90091 -31.18541 171.84428 309
421.15787 -33.33459 171.99463 305
472.63229 -41.02234 165.12122 300
479.88419 -42.15089 168.06879 294
266.36572 -9.83430 203.50732 314
269.64096 -10.30563 203.49838 310
407.14236 -30.03136 171.87393 309
421.41589 -32.04670 172.00156 305
472.91412 -39.44063 165.09613 300
480.11581 -40.54539 168.08710 294
266.46472 -9.52922 203.50568 314
269.75296 -9.97987 203.50783 310
407.41049 -28.87889 171.87529 309
421.65314 -30.84202 171.99455 305
438.16504 -33.11304 172.16220 301
481.34619 -39.05326 167.92879 440
266.55933 -9.24263 203.50700 314
269.85773 -9.67288 203.50128 310
407.62204 -27.69417 171.84430 309
421.91412 -29.57180 172.03058 305
438.43448 -31.73739 172.14098 301
482.74323 -37.51379 167.73044 459
266.66431 -8.94094 203.50369 314
269.94827 -9.34972 203.50520 310
407.79889 -26.50432 171.85231 309
422.14328 -28.33375 171.98920 305
438.63242 -30.37823 172.15111 301
483.99063 -36.06658 167.57455 458
266.76590 -8.65173 203.50929 314
270.05630 -9.03425 203.50737 310
408.03003 -25.35686 171.88823 309
422.35162 -27.07892 172.01447 305
438.90103 -29.03840 172.16585 301
485.25085 -34.49561 167.40709 457
266.85345 -8.35800 203.50507 314
270.15161 -8.71743 203.50467 310
408.22617 -24.16135 171.84633 309
422.56116 -25.77041 171.99400 305
439.10513 -27.67036 172.16103 301
486.51328 -32.97087 167.21063 457
266.95288 -8.05944 203.50560 314
270.24445 -8.40428 203.50182 310
408.40338 -23.02335 171.88014 309
422.78152 -24.52669 172.03909 305
439.33261 -26.30231 172.19937 301
487.70532 -31.46198 167.01280 456
267.04883 -7.76092 203.49948 314
270.34808 -8.09352 203.50832 310
408.59042 -21.83635 171.86407 309
422.94711 -23.30375 172.00906 305
439.52805 -24.92441 172.16902 301
489.00781 -29.84876 166.83571 455
267.13687 -7.46339 203.50230 314
270.43231 -7.76844 203.50066 310
408.80328 -20.65248 171.85942 309
423.15765 -22.01847 172.03934 305
439.74893 -23.60625 172.18655 301
490.31580 -28.33777 166.65773 454
267.22748 -7.17041 203.50810 314
270.52924 -7.44910 203.50473 310
408.97208 -19.52103 171.84750 309
423.30664 -20.74965 172.01738 305
439.92209 -22.18955 172.16193 301
491.56519 -26.74598 166.46994 453
267.30984 -6.86452 203.50322 314
270.61859 -7.13268 203.50873 310
409.09583 -18.33126 171.89767 309
423.46603 -19.48442 172.02113 305
440.09061 -20.82582 172.20384 301
492.84183 -25.15497 166.24313 452
267.38809 -6.56517 203.50020 314
270.69980 -6.82281 203.49690 310
409.26770 -17.16338 171.90010 309
423.65692 -18.23046 172.03307 305
440.25687 -19.46623 172.16087 301
494.16855 -23.49029 166.04779 452
267.46957 -6.27335 203.50157 314
270.79581 -6.50472 203.49794 310
409.43750 -16.01040 171.86574 309
423.81860 -16.97347 171.99658 305
440.45862 -18.12827 172.16595 301
495.49548 -21.86328 165.86072 451
267.55371 -5.96895 203.49960 314
270.86508 -6.17812 203.50131 310
409.58896 -14.82921 171.87657 309
423.96268 -15.69746 172.03522 305
440.58441 -16.76764 172.15248 301
460.05005 -17.99092 172.36896 297
267.63086 -5.67656 203.50252 314
270.94611 -5.85751 203.50246 310
409.69815 -13.62418 171.88643 309
424.13245 -14.46425 171.99814 305
440.75443 -15.40312 172.17633 301
460.26660 -16.50900 172.33911 297
267.71725 -5.38206 203.50969 314
271.03860 -5.54602 203.49744 310
409.83807 -12.44080 171.85657 309
424.23953 -13.21098 172.04610 305
440.93536 -14.02190 172.16632 301
460.39590 -14.96788 172.38791 297
267.79340 -5.07363 203.49791 314
271.10333 -5.22594 203.50264 310
409.96735 -11.27712 171.87027 309
424.39877 -11.94954 172.04056 305
441.06549 -12.62953 172.19678 301
460.52158 -13.53800 172.37138 297
267.85675 -4.78293 203.50560 314
271.18137 -4.90897 203.50967 310
410.06100 -10.08805 171.87125 309
424.49683 -10.65208 172.03905 305
441.14957 -11.31339 172.19470 301
460.68277 -12.04570 172.40253 297
267.92783 -4.47592 203.50577 314
271.25815 -4.59211 203.50018 310
410.17606 -8.91674 171.87703 309
424.62497 -9.39972 172.03104 305
441.28766 -9.89739 172.19072 301
460.79843 -10.55338 172.39609 297
268.00903 -4.18630 203.49886 314
271.32257 -4.27212 203.50731 310
410.29163 -7.73704 171.86188 309
424.73795 -8.13737 172.04675 305
441.38837 -8.54874 172.18184 301
460.92746 -9.07850 172.37437 297
510.11832 -10.25503 168.28740 288
268.06827 -3.88896 203.49815 314
271.39105 -3.94471 203.50182 310
410.34848 -6.58711 171.90521 309
424.80231 -6.83999 172.00438 305
441.48483 -7.17015 172.19952 301
461.03271 -7.57668 172.39626 297
510.16458 -8.50154 168.24323 288
268.14059 -3.58105 203.50772 314
271.46951 -3.62390 203.49828 310
410.43362 -5.39768 171.90811 309
424.92627 -5.57157 172.00316 305
441.61292 -5.80318 172.19336 301
461.10760 -6.09460 172.38591 297
510.25308 -6.71781 168.30246 288
268.20300 -3.27876 203.50116 314
271.52670 -3.30808 203.50993 310
410.56525 -4.21819 171.90990 309
425.00116 -4.29353 172.04379 305
441.70444 -4.44451 172.19760 301
461.19611 -4.59282 172.36021 297
510.34131 -4.89741 168.29712 288
268.26993 -2.98609 203.50455 314
271.59219 -2.98719 203.50656 310
410.62915 -3.05232 171.86305 309
425.08987 -3.05554 172.03297 305
441.76938 -3.07979 172.19095 301
452.09915 -3.05489 174.04787 424
510.31226 -3.07795 168.30284 288
268.32886 -2.68726 203.49994 314
271.64838 -2.66739 203.51022 310
410.70218 -1.88116 171.87976 309
425.15887 -1.78572 172.02016 305
441.86072 -1.68674 172.17514 301
452.32339 -1.63050 174.04097 423
510.34906 -1.29960 168.28386 288
268.38168 -2.38203 203.50769 314
271.71490 -2.34420 203.50133 310
410.73935 -0.71342 171.88722 309
425.19034 -0.49189 172.02911 305
441.90005 -0.31417 172.15926 301
461.39465 -0.09742 172.40739 297
510.42667 0.46051 168.29289 288
268.44781 -2.09054 203.50658 314
271.76694 -2.02341 203.50060 310
410.77762 0.48616 171.87961 309
425.25244 0.76127 172.00931 305
441.94525 1.01661 172.18056 301
451.88446 1.24467 174.12744 427
510.53104 2.23787 168.29979 288
268.49844 -1.78558 203.50423 314
271.82639 -1.71236 203.50220 310
410.85965 1.66284 171.88094 309
425.28110 2.03973 172.03642 305
441.97845 2.40836 172.17012 301
461.54111 2.89394 172.39528 297
510.65182 4.04841 168.31979 288
268.54999 -1.48726 203.50223 314
271.87381 -1.38602 203.50423 310
410.85379 2.85655 171.90076 309
425.32083 3.27651 172.04172 305
442.03320 3.76754 172.17589 301
461.57968 4.38747 172.39317 297
510.75528 5.88997 168.25616 288
268.60229 -1.18569 203.50220 314
271.93677 -1.07071 203.49733 310
410.88446 4.01146 171.90868 309
425.37888 4.56695 172.05693 305
442.03226 5.17642 172.15962 301
461.57031 5.85858 172.39728 297
510.85562 7.62617 168.28084 288
268.65207 -0.89363 203.50565 314
271.98282 -0.75374 203.50821 310
410.93765 5.23306 171.88205 309
425.39798 5.81093 172.01254 305
442.06726 6.52927 172.20163 301
461.59720 7.37242 172.36758 297
268.70441 -0.59247 203.50017 314
272.02243 -0.42394 203.50385 310
410.93976 6.36158 171.88550 309
425.39664 7.11475 172.04153 305
442.06454 7.90359 172.18205 301
461.61179 8.81959 172.36343 297
268.74777 -0.28666 203.50491 314
272.06888 -0.10224 203.50374 310
410.94406 7.53935 171.86015 309
425.42755 8.36074 172.05191 305
442.11166 9.26357 172.19888 301
461.61774 10.34941 172.37167 297
268.78601 0.00821 203.49739 314
272.11368 0.21062 203.50084 310
410.93903 8.76535 171.87569 309
425.39981 9.63553 172.02162 305
442.11209 10.62772 172.19751 301
461.58234 11.85257 172.40041 297
268.83795 0.31276 203.50641 314
272.16415 0.53397 203.50642 310
410.96890 9.89592 171.86401 309
