# .PCD v.7 - Point Cloud Data file format
VERSION .7
FIELDS x y z rgb
SIZE 4 4 4 4
TYPE F F F U
COUNT 1 1 1 1
WIDTH 1354
HEIGHT 1
VIEWPOINT 6844.079102 -3374.051270 144.167786 -0.765922 -0.124482 -0.063055 0.627608
POINTS 1354
DATA ascii
42.39563 -49.98088 194.27678 407
39.01052 -50.76481 197.09584 405
35.45854 -51.59800 199.97684 402
31.81194 -52.42527 203.03284 399
27.87065 -53.38047 206.12616 386
23.19540 -54.47585 209.36549 343
-187.79243 -103.73512 209.49101 297
81.17075 -41.84356 175.69017 437
78.82397 -42.41830 177.75974 433
75.45981 -43.20401 179.59868 308
60.10287 -46.88892 178.89981 428
57.38358 -47.58182 181.29056 426
54.54571 -48.23732 183.72641 417
51.51039 -48.93858 186.21535 414
48.42538 -49.69296 188.78706 412
45.16584 -50.46965 191.47662 409
41.82583 -51.30037 194.16029 407
38.41549 -52.13166 197.03185 404
34.86125 -52.97678 199.92667 401
31.00900 -53.89910 202.93013 388
26.88977 -54.90511 206.05495 375
21.98827 -56.05255 209.28214 340
80.91962 -42.84155 175.57127 436
78.57040 -43.43644 177.64000 432
75.67630 -44.11240 179.57143 308
59.71959 -48.05233 178.76462 427
56.96911 -48.74154 181.18582 425
54.07381 -49.46166 183.61192 416
51.02024 -50.20935 186.11470 413
47.91246 -50.98085 188.69492 411
44.65351 -51.79882 191.36247 408
41.29692 -52.59779 194.06993 406
37.82421 -53.48440 196.90349 403
34.06891 -54.38085 199.86143 390
30.14752 -55.34703 202.89026 387
25.85492 -56.40990 206.00450 374
20.09120 -57.84822 209.23860 263
80.65051 -43.82480 175.44443 436
78.30148 -44.44013 177.50525 432
75.84906 -45.08308 179.58656 429
59.35908 -49.24419 178.62454 427
56.59912 -49.93572 181.05923 424
53.61188 -50.68113 183.48970 415
50.52845 -51.48375 185.99178 413
47.38041 -52.28653 188.54816 410
44.11995 -53.12533 191.22624 408
40.71808 -53.97514 193.99919 394
37.05015 -54.87700 196.81589 392
33.24669 -55.83629 199.75119 389
29.28175 -56.88091 202.78986 376
24.75165 -58.01078 205.94321 373
-187.75710 -111.79999 202.53148 495
80.37102 -44.87152 175.32990 435
78.01702 -45.47323 177.35275 431
75.52581 -46.12150 179.48082 429
58.99336 -50.41699 178.50531 426
56.12865 -51.15622 180.88669 417
53.16769 -51.91680 183.33464 414
50.06351 -52.75296 185.83856 412
46.85368 -53.54424 188.46291 410
43.56094 -54.41708 191.10556 396
39.96965 -55.37069 193.88513 393
36.28987 -56.30805 196.69365 391
32.44489 -57.30432 199.66016 388
28.20819 -58.44006 202.68538 375
23.67520 -59.59114 205.88049 372
-187.17741 -114.29111 202.51532 495
80.11403 -45.87642 175.18707 434
77.69829 -46.51278 177.22797 430
75.21814 -47.19075 179.34894 428
58.62583 -51.59233 178.36157 425
55.67984 -52.37803 180.73726 416
52.67283 -53.16949 183.22649 414
49.54868 -54.04031 185.71602 411
46.28521 -54.89535 188.35358 397
42.81447 -55.83027 190.96901 395
39.19663 -56.76607 193.75739 392
35.43788 -57.75875 196.59842 390
31.55259 -58.78585 199.58806 387
27.16553 -59.95764 202.59459 374
22.55504 -61.24599 205.81949 371
79.84041 -46.89541 175.04440 434
77.41992 -47.55353 177.11229 430
74.94876 -48.23466 179.21696 428
58.22179 -52.81166 178.19241 418
55.23839 -53.60561 180.62065 415
52.21090 -54.47638 183.06198 413
48.99572 -55.29762 185.61285 399
45.60221 -56.27021 188.16971 397
42.09959 -57.21153 190.83466 394
38.41337 -58.23565 193.61238 392
34.62454 -59.26020 196.51648 389
30.58315 -60.38906 199.46843 376
26.12588 -61.57426 202.55199 373
21.42992 -62.84264 205.71048 371
79.59560 -47.91884 174.91585 433
77.15385 -48.62092 176.97134 429
74.65846 -49.29470 179.10234 427
57.75606 -54.02280 178.04613 417
54.79479 -54.84082 180.44888 415
51.66714 -55.73608 182.93542 401
48.33538 -56.69378 185.42769 398
44.87193 -57.65031 188.04091 396
41.30313 -58.62074 190.73387 393
37.64709 -59.69061 193.50139 391
33.80587 -60.70604 196.39906 388
29.52089 -61.94133 199.36102 375
25.00340 -63.17953 202.43695 372
20.27747 -64.52292 205.62939 370
79.30744 -48.96814 174.80092 432
76.86765 -49.65377 176.85985 429
74.32392 -50.38950 178.93726 426
65.32204 -52.97120 179.66678 304
54.26922 -56.13938 180.29868 402
50.99069 -57.08179 182.75162 400
47.63750 -58.03205 185.24861 397
44.15313 -59.05396 187.86568 395
40.59669 -60.06509 190.60056 392
36.86040 -61.13661 193.38664 390
32.90670 -62.27753 196.25667 377
28.49175 -63.50185 199.25595 374
23.91584 -64.84848 202.34735 372
19.11142 -66.23611 205.59407 369
79.02111 -50.01970 174.65936 432
76.58134 -50.73779 176.71021 428
74.04458 -51.50012 178.83411 426
65.56966 -53.98099 179.66780 304
53.63284 -57.43276 180.12024 401
50.34867 -58.43650 182.56848 399
46.95826 -59.44057 185.11143 397
43.46863 -60.42881 187.70967 394
39.80866 -61.51438 190.45059 392
36.07502 -62.62813 193.21742 389
31.90503 -63.82991 196.11874 376
27.44161 -65.13581 199.11980 373
22.78673 -66.46852 202.22134 371
17.93098 -67.91373 205.52136 368
78.76366 -51.07274 174.50423 429
76.27910 -51.80937 176.55759 427
73.75449 -52.56581 178.70197 425
65.81175 -54.91949 179.66106 304
52.97734 -58.79664 179.93718 400
49.67271 -59.80039 182.38092 398
46.26811 -60.80023 184.93550 396
42.70522 -61.86571 187.53766 393
39.02748 -63.00168 190.28183 391
35.20194 -64.12543 193.10587 378
30.89496 -65.44981 195.97910 375
26.38945 -66.79421 199.02104 372
21.65953 -68.16049 202.13840 370
16.75115 -69.63444 205.43823 367
78.48287 -52.11175 174.33911 429
75.98181 -52.89288 176.42500 427
73.45432 -53.66325 178.54971 424
66.10174 -55.90876 179.66183 304
52.32693 -60.14721 179.72379 400
48.98587 -61.14275 182.19305 397
45.51657 -62.20698 184.73196 395
41.97174 -63.34319 187.41852 392
38.27094 -64.44530 190.14006 390
34.20487 -65.69981 192.94437 377
29.82408 -67.02694 195.81697 374
25.29074 -68.42702 198.89120 372
20.54869 -69.88301 202.06583 369
15.54633 -71.43631 205.32539 366
78.22400 -53.20071 174.21646 428
75.70448 -53.98306 176.28645 426
73.12802 -54.76712 178.40450 424
66.39110 -56.89711 179.67642 304
51.68156 -61.47232 179.51526 399
48.29768 -62.57314 182.02007 396
44.84576 -63.67829 184.54333 394
41.23960 -64.77248 187.25417 392
37.45313 -65.94917 189.99805 389
33.23941 -67.27110 192.79092 376
28.77180 -68.68773 195.67809 373
24.20685 -70.10584 198.75435 371
19.38287 -71.64767 201.91135 368
14.04143 -73.29272 205.25415 337
77.93085 -54.25842 174.06610 427
75.41683 -55.08103 176.14493 425
72.83518 -55.92451 178.28526 423
66.64066 -57.89257 179.69211 304
51.04390 -62.85415 179.31506 398
47.61134 -63.95551 181.83206 396
44.09450 -65.09764 184.40184 393
40.46455 -66.28025 187.04936 391
36.52162 -67.49947 189.82057 378
32.22418 -68.91010 192.61841 375
27.71675 -70.35602 195.52704 372
23.05600 -71.81023 198.63284 370
18.17253 -73.40766 201.81807 338
11.29665 -75.58266 205.09731 320
77.65796 -55.36468 173.90562 427
75.15009 -56.17073 175.97153 424
72.51446 -57.01726 178.11215 422
66.91357 -58.84277 179.65981 304
50.36647 -64.24461 179.08905 397
46.95244 -65.38519 181.59416 395
43.38301 -66.54378 184.21616 392
39.67688 -67.74381 186.89748 390
35.54881 -69.09837 189.62891 377
31.23348 -70.51315 192.43913 374
26.69674 -72.01894 195.39471 371
21.94310 -73.57326 198.48018 369
16.01065 -75.51153 201.67677 337
8.30099 -78.05032 204.90253 319
77.39638 -56.42843 173.74359 426
74.85551 -57.29441 175.81531 424
72.20972 -58.14920 177.97278 422
67.23771 -59.84730 179.64352 304
49.72931 -65.65856 178.91922 396
46.21768 -66.81666 181.44443 394
42.62914 -68.02788 184.01439 391
38.83338 -69.31499 186.70164 378
34.58335 -70.73338 189.42905 376
30.20720 -72.21628 192.27730 373
25.58092 -73.73146 195.24300 371
20.10169 -75.57970 198.32503 339
13.43008 -77.74999 201.42627 320
5.20926 -80.53355 204.77235 318
77.12613 -57.54699 173.59393 425
74.56940 -58.40802 175.66663 423
71.90854 -59.28378 177.85258 421
67.54462 -60.79000 179.64532 304
49.05871 -67.09883 178.67050 395
45.52141 -68.29413 181.21240 393
41.88094 -69.53156 183.83243 391
37.88559 -70.90686 186.48854 377
33.62479 -72.34631 189.26320 375
29.13701 -73.85760 192.14584 372
24.08207 -75.61169 195.04442 340
18.02818 -77.68086 198.12114 337
10.53816 -80.23091 201.23901 319
2.00598 -83.09055 204.59645 317
76.86129 -58.65195 173.43320 425
74.28094 -59.52942 175.51143 422
71.33606 -60.57875 177.62065 392
67.82445 -61.76078 179.65347 304
48.34876 -68.53370 178.46423 394
44.79663 -69.76861 180.99332 392
41.11589 -71.06309 183.61887 379
36.91046 -72.51978 186.26965 376
32.59462 -73.99264 189.03078 374
27.91916 -75.66531 191.93286 341
22.06464 -77.67085 194.79036 339
15.59737 -79.91915 197.82907 321
7.50547 -82.72462 201.01715 318
-1.30221 -85.80087 204.37312 316
76.56860 -59.75539 173.27269 424
73.79449 -60.72187 175.33424 394
70.70764 -61.83343 177.39122 391
67.75861 -62.86809 179.56317 403
47.68273 -69.99255 178.27222 394
44.06409 -71.26534 180.80881 391
40.21179 -72.63459 183.38350 378
35.98079 -74.15747 186.08131 375
31.56081 -75.69316 188.84050 373
25.99410 -77.65434 191.61259 340
20.00484 -79.79148 194.53021 338
12.73549 -82.40427 197.54355 320
4.35408 -85.31962 200.74741 317
-4.65412 -88.57065 204.14984 314
76.22575 -60.88967 173.08540 395
73.16816 -61.98560 175.08784 393
70.02093 -63.14650 177.16237 390
67.14512 -64.16339 179.37999 402
47.00272 -71.45657 178.04398 393
43.37385 -72.75665 180.60786 390
39.25551 -74.24286 183.19414 377
35.01354 -75.80622 185.84253 375
29.79976 -77.68887 188.57568 342
24.03084 -79.78904 191.35495 339
17.78364 -82.03953 194.27751 321
9.78110 -84.91636 197.29013 318
1.16418 -88.03938 200.52434 316
-16.29776 -94.32784 203.52939 259
75.61446 -62.15211 172.80138 394
72.56391 -63.28340 174.84120 392
69.37502 -64.42619 176.88573 390
66.52300 -65.50827 179.12474 402
55.56477 -69.52737 179.76416 300
42.47319 -74.33953 180.37030 379
38.33441 -75.86453 182.92401 376
33.51437 -77.65964 185.54726 343
27.92317 -79.71011 188.24219 340
21.97512 -81.91242 191.02748 338
14.96133 -84.50977 193.96365 320
6.69782 -87.55370 196.94862 317
-2.83448 -91.02512 200.21480 289
75.04484 -63.39905 172.56296 393
71.92384 -64.55852 174.59204 391
68.74423 -65.76621 176.66255 389
65.86833 -66.86073 178.92900 401
55.94452 -70.56314 179.75351 300
41.61630 -75.93861 180.10712 378
37.12866 -77.61303 182.64920 344
31.69830 -79.67184 185.20909 342
25.98989 -81.85854 187.92679 339
19.93618 -84.08868 190.75359 337
12.04638 -87.04832 193.59894 319
3.52235 -90.24561 196.66518 316
-14.19647 -96.89861 199.37715 270
74.44878 -64.67455 172.29265 392
71.30151 -65.86570 174.33580 390
-113.71043 -43.44542 -28.22700 388
65.23349 -68.21488 178.69955 400
56.31269 -71.61307 179.74118 300
40.65703 -77.60474 179.86992 377
35.39646 -79.61189 182.28795 343
29.87944 -81.74078 184.84081 341
24.01534 -83.95481 187.55450 338
17.16710 -86.56856 190.38416 320
9.05111 -89.68095 193.22589 318
-1.75219 -93.77190 196.13583 289
73.81696 -65.98142 172.04015 391
70.68752 -67.22193 174.07626 389
67.40032 -68.48605 176.15317 387
64.58269 -69.58276 178.47809 399
56.67252 -72.63304 179.76353 300
39.00181 -79.55124 179.45102 344
33.61985 -81.62656 181.88066 342
27.95392 -83.85769 184.46481 340
21.93685 -86.17250 187.21654 337
14.30711 -89.15794 189.92412 319
5.67735 -92.50011 192.86479 290
-13.31233 -99.93634 195.08112 270
73.47511 -67.16394 171.84044 316
70.05183 -68.53037 173.79753 388
66.72689 -69.86691 175.88266 386
63.93079 -70.94599 178.20180 398
57.05019 -73.67692 179.78079 300
37.31388 -81.49065 179.01312 343
31.78365 -83.70027 181.52417 341
26.01577 -85.98131 184.13518 339
19.43303 -88.59772 186.77725 320
11.39265 -91.83725 189.50809 318
-0.55913 -96.57982 192.14682 289
73.83126 -68.12430 171.81813 316
69.37537 -69.89783 173.53015 387
66.05149 -71.26559 175.65382 385
63.25430 -72.38977 177.98817 397
57.41444 -74.73372 179.76627 300
35.58847 -83.57537 178.57735 342
29.92184 -85.85381 181.10994 340
23.97943 -88.24144 183.69476 337
16.64081 -91.22561 186.36102 319
6.81260 -95.12464 188.89351 290
-12.36236 -102.89997 190.85869 270
74.17442 -69.05542 171.82147 316
68.71184 -71.28786 173.25670 386
65.33889 -72.63885 175.35695 384
62.58520 -73.81422 177.72758 396
57.81752 -75.76381 179.73686 300
33.80349 -85.62647 178.15033 341
28.05224 -88.01904 180.64841 339
21.64562 -90.62314 183.28282 321
13.74752 -93.91911 185.88184 318
0.63297 -99.25955 188.09421 289
-23121.63672 -9596.37207 -2240.06201 1000
74.54071 -69.99146 171.82091 316
68.08735 -72.69354 172.95506 385
64.70340 -74.09837 175.10516 397
61.89874 -75.25568 177.46675 395
58.21399 -76.77328 179.72397 300
31.98053 -87.76243 177.72293 340
26.09931 -90.22803 180.24527 338
18.96428 -93.20016 182.77284 319
8.07903 -97.77682 185.01160 290
74.90115 -70.90942 171.80370 316
67.39658 -74.08039 172.66501 385
64.01921 -75.48885 174.84137 396
61.22730 -76.71606 177.20729 394
58.31213 -77.96413 179.69812 392
43.45849 -84.27943 179.88493 296
23.96043 -92.56221 179.78262 321
15.09092 -96.30382 182.05746 291
1.87522 -101.95455 184.06198 289
75.26031 -71.84381 171.81001 316
66.72562 -75.52715 172.38605 384
63.38049 -76.94665 174.57321 395
60.50962 -78.18460 176.98988 393
57.59660 -79.48434 179.41435 391
43.87443 -85.37901 179.89670 296
21.29165 -95.17164 179.21175 320
9.38032 -100.31145 181.06262 290
-27.42514 -116.22109 179.76376 336
75.63725 -72.75142 171.82123 316
66.06419 -76.96384 172.09235 383
62.71020 -78.45063 174.27075 394
59.79555 -79.71177 176.67441 392
56.85079 -80.98562 179.16948 390
44.31770 -86.51244 179.84529 296
16.42550 -98.78321 178.25908 291
3.23526 -104.60694 179.94434 289
-22.69146 -116.03264 180.38962 338
76.01746 -73.66810 171.78654 316
65.72202 -78.24429 171.87187 312
62.04059 -79.90346 173.99272 393
59.07383 -81.23491 176.44014 391
55.53325 -82.82716 178.82318 334
44.77862 -87.66177 179.87779 296
10.72548 -102.84233 177.14377 290
-18.08584 -115.75963 176.45293 339
-21.63928 -117.33624 180.44879 284
76.37848 -74.56432 171.81491 316
66.16336 -79.22526 171.90662 312
61.34900 -81.41113 173.73657 392
58.21989 -82.81873 176.12503 335
53.51995 -84.96519 178.29471 333
45.22878 -88.75224 179.84573 296
4.72972 -107.16897 175.95560 289
-13.64757 -115.53870 177.08392 340
-20.94672 -118.83868 180.39459 284
76.77769 -75.47082 171.78377 316
66.54454 -80.21472 171.89461 312
60.63210 -82.93533 173.42039 391
56.31564 -84.95817 175.55345 333
51.50341 -87.15767 177.71318 331
45.69424 -89.82533 179.83942 296
27.90533 -98.08650 179.97743 292
-3.07024 -112.39450 178.66565 284
-20.33443 -120.38786 180.41429 284
77.15872 -76.39860 171.80754 316
66.97645 -81.19690 171.87799 312
59.05345 -84.92830 172.91905 334
54.37470 -87.14145 174.95836 332
49.39396 -89.45406 177.16693 331
44.39204 -91.82294 179.50905 329
28.40299 -99.27438 179.99007 292
6.92036 -109.39970 180.16948 288
77.58495 -77.33301 171.79619 316
67.41067 -82.17714 171.85677 312
57.15525 -87.06000 172.30234 333
52.34108 -89.38019 174.40364 331
47.25383 -91.76327 176.57230 330
42.10118 -94.25874 178.95284 328
28.93594 -100.50690 179.97896 292
7.52623 -110.75204 180.21060 288
77.95451 -78.21777 171.79974 316
67.85848 -83.13869 171.89136 312
56.33336 -88.72133 171.98929 308
50.26754 -91.65861 173.75368 330
45.04247 -94.17735 176.00560 329
39.76635 -96.74083 178.36615 327
29.49084 -101.73283 180.01129 292
8.08035 -112.10551 180.15439 288
78.40173 -79.13360 171.79555 316
68.29897 -84.10565 171.86240 312
56.80854 -89.74085 171.97787 308
48.11626 -94.04866 173.12886 328
42.78757 -96.68297 175.39037 327
37.35620 -99.35743 177.76074 325
28.97486 -103.45708 179.77859 280
8.73456 -113.47149 180.15312 288
78.79828 -80.03164 171.77345 316
68.73441 -85.07677 171.84378 312
57.28049 -90.78707 171.96440 308
45.93127 -96.47318 172.51634 327
40.42572 -99.19884 174.74815 326
34.74575 -102.07014 177.13161 278
20.45628 -109.17840 178.12592 278
79.22192 -80.91315 171.78476 316
69.18974 -86.04501 171.84062 312
57.78445 -91.84125 171.95248 308
44.70447 -98.46313 172.09792 304
38.02171 -101.82961 174.07162 325
26.29576 -107.80613 175.29604 277
11.19138 -115.52427 176.27379 277
79.65891 -81.81883 171.77625 316
69.63284 -86.97379 171.84909 312
58.26832 -92.85690 171.97272 308
45.22086 -99.58867 172.06804 304
32.86201 -105.95509 172.81375 278
17.06564 -114.07030 173.28244 275
-56.15630 -151.83644 163.77026 367
80.07442 -82.70078 171.78291 316
70.13042 -87.94595 171.85381 312
58.76333 -93.85796 171.96732 308
45.75740 -100.71003 172.08334 304
30.75016 -108.56461 172.20401 300
13.06567 -117.83070 172.35205 296
-52.11173 -151.88597 164.34859 368
80.53661 -83.59792 171.78264 316
70.57999 -88.91210 171.83905 312
59.28613 -94.91757 171.94878 308
46.30530 -101.80292 172.05147 304
31.31066 -109.76094 172.20103 300
13.68808 -119.11940 172.35234 296
-48.17305 -152.04417 164.92851 370
80.97195 -84.48235 171.74348 316
71.05496 -89.84611 171.84435 312
59.79189 -95.90498 171.92224 308
46.86620 -102.90392 172.02718 304
31.89912 -110.97372 172.18449 300
14.34992 -120.44789 172.34790 296
-45.58290 -152.79631 165.23488 286
81.43395 -85.41109 171.76579 316
71.52149 -90.81769 171.84923 312
60.29210 -96.95190 171.92357 308
47.44620 -103.98351 172.05862 304
32.54406 -112.14652 172.18939 300
15.04015 -121.76821 172.34079 296
-44.76464 -154.44154 165.20572 286
81.85901 -86.24435 171.74513 316
72.02660 -91.75737 171.81581 312
60.82107 -97.94722 171.91592 308
48.00386 -105.10270 172.01605 304
33.14984 -113.36221 172.13959 300
15.72546 -123.04306 172.29683 296
-43.86411 -156.07004 165.17397 286
82.35999 -87.14859 171.76492 316
72.51786 -92.66388 171.82021 312
61.38379 -98.99443 171.91618 308
48.54827 -106.16722 172.03876 304
33.72638 -114.53738 172.18098 300
16.37968 -124.31213 172.32463 296
-43.00362 -157.77336 165.23743 286
82.81419 -88.05288 171.72577 316
73.00674 -93.61259 171.84659 312
61.91992 -99.99068 171.93245 308
49.13695 -107.25224 172.04987 304
34.37564 -115.69505 172.16191 300
-28.37152 -151.58234 162.80417 366
-42.06911 -159.36003 165.18643 286
83.28506 -88.91656 171.72459 316
73.53749 -94.57979 171.84448 312
62.46688 -100.96922 171.90359 308
49.76280 -108.33939 172.03004 304
34.99137 -116.89794 172.14796 300
-24.66397 -151.47839 163.40182 368
83.75524 -89.76388 171.72406 316
74.03159 -95.48965 171.83722 312
62.99246 -101.98473 171.92596 308
50.33003 -109.45492 172.02507 304
35.65447 -118.05438 172.14735 300
-21.03034 -151.37807 163.98586 369
84.26163 -90.62895 171.72449 316
74.54900 -96.41886 171.82315 312
63.54686 -102.98280 171.93738 308
50.92538 -110.49955 172.05026 304
36.27894 -119.25901 172.12296 300
-17.48449 -151.28354 164.58490 370
84.73110 -91.50329 171.75208 316
75.07162 -97.37612 171.80110 312
64.12997 -103.98401 171.90524 308
51.51448 -111.61363 172.03236 304
36.99079 -120.39220 172.11270 300
-14.01233 -151.21567 165.12146 372
85.20846 -92.39078 171.73518 316
75.62399 -98.27486 171.78693 312
64.66016 -104.98647 171.88394 308
52.13350 -112.64236 171.99355 304
37.60136 -121.57322 172.15399 300
-10.62703 -151.15157 165.63531 373
85.73331 -93.25707 171.70085 316
76.11327 -99.20409 171.81068 312
65.24484 -105.99078 171.89142 308
52.77729 -113.75616 171.97951 304
38.29749 -122.69720 172.12593 300
-9.49208 -152.44341 165.73834 291
86.24540 -94.07906 171.72992 316
76.66203 -100.12968 171.79068 312
65.82472 -106.96728 171.88489 308
53.36427 -114.78201 172.00755 304
38.97269 -123.86317 172.12276 300
-8.55656 -153.83081 165.70653 291
86.72697 -94.94559 171.71152 316
77.21981 -101.04072 171.81639 312
66.40082 -107.94518 171.88297 308
54.00388 -115.84789 171.97635 304
0.62797 -149.99310 162.96558 285
-7.76235 -155.06914 165.69287 291
87.23199 -95.78541 171.69466 316
77.79199 -101.93253 171.78690 312
67.00111 -108.91476 171.90659 308
54.66150 -116.88960 171.98801 304
2.27706 -150.83607 163.10172 378
-6.67690 -156.61026 165.73567 290
87.77604 -96.66613 171.68375 316
78.33524 -102.87010 171.80589 312
67.58018 -109.86996 171.88164 308
55.28264 -117.96779 171.96744 304
5.34314 -150.80185 163.64243 379
-5.74587 -158.07591 165.72034 290
88.29699 -97.48946 171.68250 316
78.86826 -103.72337 171.80780 312
68.21842 -110.85630 171.87036 308
55.96511 -118.98692 171.98270 304
8.33623 -150.68266 164.13950 380
-4.86365 -159.45102 165.74536 290
88.84324 -98.34004 171.68001 316
79.43896 -104.62865 171.76468 312
68.79199 -111.79768 171.85686 308
56.63284 -120.02717 171.97058 304
11.30371 -150.61304 164.67590 382
89.33618 -99.16853 171.67786 316
80.00385 -105.54722 171.75815 312
69.43204 -112.78344 171.85890 308
57.28989 -121.07665 171.95837 304
14.17806 -150.56171 165.09344 383
89.90723 -100.00751 171.67847 316
80.63421 -106.42626 171.77937 312
70.03754 -113.73014 171.84706 308
57.92368 -122.12273 171.98714 304
17.02298 -150.47473 165.61409 384
90.45411 -100.83986 171.71123 316
81.21383 -107.31592 171.78682 312
70.68304 -114.69127 171.85637 308
58.60357 -123.17837 171.93463 304
19.77241 -150.41612 166.03430 386
90.99441 -101.66933 171.67355 316
81.77860 -108.21343 171.74655 312
71.31474 -115.68374 171.84673 308
26.40761 -147.59708 163.23157 296
20.91421 -151.52797 166.12714 297
91.56753 -102.51488 171.69067 316
82.37806 -109.10976 171.76701 312
71.92174 -116.63046 171.86272 308
27.06293 -148.94745 163.24609 296
21.75158 -152.72104 166.12471 297
92.10665 -103.30161 171.66553 316
82.95954 -109.95071 171.74051 312
72.60630 -117.56189 171.85252 308
27.94266 -150.10287 163.22464 386
22.65226 -153.96402 166.08890 297
92.66516 -104.12988 171.67955 316
83.60031 -110.85020 171.74934 312
73.25345 -118.51790 171.81949 308
30.60557 -150.02975 163.67621 387
23.56787 -155.22615 166.11943 297
93.27496 -104.94743 171.64348 316
84.20710 -111.71246 171.74036 312
73.90582 -119.44212 171.81175 308
33.15252 -149.94319 164.15813 388
24.43978 -156.48709 166.09769 297
93.83808 -105.75335 171.66769 316
84.80593 -112.58237 171.71973 312
74.59314 -120.37050 171.79967 308
35.71144 -149.86481 164.62236 390
25.39301 -157.67314 166.11331 297
94.40304 -106.56171 171.66087 316
85.43357 -113.44218 171.73053 312
75.25333 -121.27675 171.80904 308
38.18724 -149.72409 165.03931 391
26.28059 -158.90073 166.11507 297
94.98769 -107.34482 171.65579 316
86.04455 -114.30316 171.71986 312
75.88876 -122.20311 171.80145 308
40.65400 -149.64819 165.49867 392
95.59111 -108.16456 171.66417 316
86.70813 -115.14874 171.71602 312
48.17512 -145.47879 163.41367 300
43.06799 -149.57384 165.86540 393
96.17725 -108.96848 171.64571 316
87.31168 -116.02431 171.69733 312
48.86809 -146.66565 163.37059 300
45.10089 -149.70311 166.22484 301
96.80019 -109.77694 171.62013 316
87.98579 -116.85307 171.70352 312
49.58070 -147.89212 163.33527 300
45.99434 -150.80444 166.22539 301
97.37354 -110.55944 171.61099 316
88.62003 -117.69699 171.70032 312
50.34540 -149.05693 163.29561 300
46.92882 -151.83946 166.21152 301
98.01459 -111.31429 171.63803 316
89.30408 -118.56364 171.71046 312
52.31425 -149.21754 163.63623 398
47.78951 -152.95052 166.21272 301
98.63785 -112.10456 171.60211 316
89.94575 -119.37971 171.69057 312
54.49738 -149.15413 163.99501 399
48.70144 -153.99875 166.24268 301
99.25701 -112.87132 171.61365 316
90.62762 -120.24303 171.70035 312
56.70612 -149.07486 164.43388 400
49.57810 -155.08752 166.23155 301
99.88380 -113.67063 171.60858 316
91.25797 -121.05360 171.69025 312
58.83512 -148.99471 164.83730 401
50.47076 -156.12378 166.24585 301
100.49966 -114.43646 171.62521 316
67.37598 -143.27950 163.57033 304
60.95734 -148.91678 165.22911 402
51.40472 -157.21429 166.21156 301
101.12941 -115.21400 171.61415 316
68.10434 -144.34183 163.48944 304
63.03647 -148.78151 165.59923 404
101.79244 -115.96250 171.59712 316
68.84379 -145.35767 163.45290 304
65.09382 -148.71242 165.96349 405
102.42750 -116.70721 171.60846 316
69.60776 -146.42046 163.44925 304
67.13496 -148.64915 166.32886 406
103.06599 -117.47497 171.59099 316
70.34918 -147.48531 163.40898 304
67.99834 -149.56197 166.30087 305
103.74408 -118.24335 171.57631 316
71.07683 -148.48399 163.40059 304
68.90245 -150.53748 166.32796 305
104.40474 -118.96079 171.56313 316
73.02811 -148.42087 163.73502 409
69.76588 -151.42268 166.36317 305
105.04452 -119.73682 171.57568 316
74.89468 -148.38475 164.07091 410
70.68457 -152.35289 166.33908 305
84.48696 -140.89290 163.65881 307
76.81246 -148.30978 164.41757 411
71.60661 -153.33240 166.36667 305
85.19991 -141.79114 163.65440 307
78.65057 -148.21295 164.78816 412
72.46003 -154.22238 166.34399 305
85.95604 -142.72636 163.62225 307
80.44129 -148.17029 165.13808 413
73.37043 -155.12012 166.32584 305
86.71707 -143.69717 163.58571 307
82.27767 -148.09404 165.43570 414
74.27805 -156.04842 166.32106 305
87.41336 -144.61130 163.56728 307
84.03592 -148.02985 165.79808 415
75.18503 -156.96490 166.37151 305
88.22512 -145.53279 163.55316 307
85.82884 -147.97485 166.10570 416
88.98605 -146.43318 163.49214 307
87.50845 -147.88860 166.39485 309
89.74075 -147.32181 163.46742 307
88.39581 -148.73164 166.43170 309
90.97422 -147.75475 163.60118 419
89.26318 -149.53262 166.42784 309
92.64951 -147.67421 163.91055 420
90.14021 -150.34166 166.43826 309
94.25771 -147.62897 164.24850 421
91.01413 -151.17390 166.42847 309
95.87732 -147.56392 164.55347 422
91.90160 -151.95688 166.42061 309
97.54741 -147.45261 164.88832 413
92.79223 -152.75520 166.45398 309
99.26641 -147.30588 165.19603 414
93.72549 -153.55687 166.42252 309
100.92347 -147.11641 165.53088 415
94.60734 -154.27773 166.44147 309
102.53800 -146.92737 165.83185 416
95.54330 -155.05191 166.43068 309
104.17844 -146.79364 166.18684 417
96.43057 -155.86536 166.47920 309
105.74277 -146.69965 166.43748 314
106.56228 -147.39574 166.47310 314
107.44023 -148.13396 166.43669 314
-16485.73047 -20364.05273 6827.49512 1000
108.31207 -148.80988 166.48616 314
109.15477 -149.50143 166.47307 314
110.05241 -150.21594 166.45972 314
110.94201 -150.90639 166.46979 314
111.81606 -151.57701 166.47389 314
114.96008 -149.28435 167.47205 316
115.82668 -149.94298 167.43701 316
116.69971 -150.59897 167.44278 316
117.54458 -151.26843 167.47758 316
120.32172 -149.30000 168.31422 490
124.46492 -149.02054 169.00974 490
126.22896 -148.27670 169.43547 436
127.37875 -148.46161 169.60384 487
-1506.74854 -3020.49121 -298.69083 1000
-413.08395 -2114.94556 -110.61826 360
198.91739 -85.78352 226.17723 1000
-394.42639 -2099.52271 -107.53866 411
-403.62738 -2131.14087 -75.73080 350
-376.90723 -2088.76270 -105.58238 412
-388.63074 -2128.10474 -74.74606 315
-373.87744 -2126.45459 -148.04546 382
-360.70517 -2080.28833 -103.88992 428
-384.68936 -2165.62158 -79.09409 308
-356.31238 -2113.07642 -144.77408 383
-344.85083 -2071.69385 -101.55373 429
-377.51379 -2190.20190 -82.26926 289
-338.40015 -2099.61768 -141.85356 349
-329.33435 -2066.22363 -100.24954 452
-319.94070 -2082.48804 -138.24440 289
-314.54660 -2061.85132 -99.54201 438
-301.01923 -2061.41187 -134.46385 296
-299.99927 -2057.61182 -97.93889 438
-284.83112 -2050.23828 -131.96371 390
-285.97870 -2053.66772 -97.00290 439
-270.42502 -2044.17749 -130.54390 406
-271.70331 -2050.55469 -96.34563 448
-255.71573 -2039.32312 -128.81248 406
-257.86914 -2048.35718 -95.24061 448
-241.37134 -2033.65735 -127.71147 407
-244.06490 -2046.78430 -94.49515 387
-227.16620 -2029.55981 -126.55359 468
-230.65813 -2046.21423 -93.93091 386
-213.03400 -2025.68835 -125.42472 477
-217.31459 -2044.55334 -93.20272 386
-199.41707 -2022.97278 -124.68437 477
-204.31924 -2043.98779 -93.20306 390
-186.44975 -2020.50317 -123.47543 478
-190.73207 -2043.72131 -92.33192 390
-172.71638 -2017.69861 -122.71206 479
-178.16997 -2046.90100 -92.38189 304
-159.14597 -2015.19873 -122.10716 479
-166.39807 -2053.18018 -93.42489 424
-146.08553 -2012.74475 -120.82278 480
-153.10516 -2052.19043 -92.45273 452
-133.17528 -2010.26807 -120.27760 483
-147.57668 -2091.69189 -98.33537 495
-147.75574 -2095.69653 -63.60579 495
-120.25771 -2009.11316 -119.97993 488
-134.41615 -2091.98584 -98.10970 495
-134.59079 -2095.53955 -63.09332 495
-106.82732 -2007.87366 -119.20136 489
-120.58378 -2091.80615 -97.46406 495
-121.65836 -2095.19824 -62.75613 496
-98.73488 -2034.31885 -158.04962 476
-94.28918 -2006.59314 -118.77851 489
-107.77789 -2091.58105 -97.35799 496
-112.42363 -2123.57349 -66.27546 287
-85.48727 -2032.87463 -157.26064 476
-81.53993 -2005.42651 -118.12090 490
-94.20377 -2091.36841 -97.27465 496
-97.24678 -2109.95654 -64.43460 337
-72.62399 -2031.64905 -157.05946 477
-68.45253 -2004.64905 -117.56194 493
-85.85120 -2120.62915 -101.17188 290
-59.46818 -2030.27039 -156.08447 477
-55.85554 -2004.30225 -117.28235 493
-83.63917 -2203.74634 -113.38474 288
-47.05541 -2028.81482 -155.45612 478
-43.19588 -2003.24902 -116.85972 493
-77.10513 -2256.99829 -121.34674 384
-33.94329 -2027.45837 -155.39275 474
-30.98437 -2002.69592 -116.72504 494
-63.32678 -2259.33911 -121.47988 328
-21.21521 -2025.88074 -154.76564 326
-18.36259 -2002.88269 -116.50652 495
-29.23659 -2094.58472 -96.28188 497
-8.21036 -2025.70605 -154.04907 326
-5.75168 -2002.37744 -115.84061 495
-16.54555 -2094.24585 -95.99268 497
4.20967 -2025.28076 -154.07352 326
6.86509 -2002.56104 -115.80338 496
-2.67829 -2089.17456 -94.97157 497
-3.10452 -2092.04761 -60.33447 498
17.03340 -2024.91589 -153.54874 326
19.28310 -2002.04138 -115.61320 496
10.41936 -2088.97778 -94.74327 498
9.78047 -2092.08057 -60.15446 498
4.22552 -2147.77710 39.26437 363
29.76022 -2024.10022 -153.40021 326
31.77046 -2002.34924 -115.29698 496
19.87141 -2127.11621 -100.54520 498
17.08620 -2153.26562 -68.11585 396
17.46266 -2153.13965 -32.13447 498
16.89822 -2156.64087 3.33883 498
18.06861 -2141.21558 40.03539 421
42.01469 -2023.58081 -152.86530 326
43.96636 -2002.20459 -115.06805 496
20.37590 -2266.40381 -121.18708 327
31.59695 -2143.66138 40.21953 431
54.55780 -2023.29443 -152.57280 326
56.22229 -2001.57544 -114.88062 496
34.57130 -2266.21045 -120.72866 327
43.42838 -2162.40283 38.67463 312
67.12271 -2023.05005 -152.45912 326
69.02138 -2001.86157 -114.65196 496
48.31509 -2265.92114 -120.81694 327
54.80354 -2183.53198 36.60675 498
58.05674 -2143.12793 75.64645 380
54.56292 -2190.96094 108.69031 498
79.59546 -2022.98181 -152.51697 326
81.03133 -2001.72400 -114.54597 497
62.52335 -2265.72119 -120.05116 327
92.11780 -2022.78748 -152.02910 326
93.34951 -2001.18848 -114.55405 497
76.72779 -2265.26099 -120.20454 327
104.60598 -2022.58997 -151.75977 326
105.86091 -2001.24463 -114.24900 497
102.87929 -2054.51807 -88.53918 499
117.01210 -2022.31519 -151.76619 326
118.43184 -2000.87573 -114.07773 497
115.52761 -2054.01929 -88.56834 499
115.21526 -2057.54761 -54.88966 499
129.76497 -2022.38110 -151.58632 326
130.80083 -2000.91919 -113.97610 497
127.94418 -2054.04126 -88.57102 499
127.96614 -2057.18896 -54.76577 499
141.99794 -2022.21521 -151.65549 326
143.16327 -2000.71143 -113.68021 497
139.92184 -2069.89722 -90.58871 499
133.75600 -2235.46191 -78.14694 270
154.44627 -2022.44788 -151.66849 326
155.12973 -2000.59302 -113.66576 497
148.03459 -2221.45239 -113.14152 499
167.18396 -2022.39062 -151.24435 326
167.80992 -2000.35474 -113.67002 497
160.33449 -2263.22900 -119.48380 327
179.57980 -2022.66174 -151.20610 326
179.68427 -1999.99597 -113.64403 497
174.06744 -2262.64771 -119.21078 327
192.18106 -2022.55371 -151.46417 326
192.28868 -1999.73743 -113.81898 497
188.23476 -2262.25415 -118.87166 327
204.54480 -2023.01233 -151.18076 326
204.64104 -1999.63037 -113.69164 497
202.12735 -2261.75610 -119.09493 327
216.73872 -2023.01904 -151.69159 326
216.61026 -1999.32434 -113.74636 497
216.07112 -2261.04150 -119.00469 327
228.98265 -2023.42944 -151.69351 326
228.92764 -1999.60840 -113.64005 497
230.19788 -2260.29712 -118.75157 327
241.90686 -2024.75842 -152.02553 456
241.61320 -1999.05542 -113.53539 498
244.06084 -2259.56055 -118.36038 327
254.13074 -2024.88342 -151.84390 456
253.54457 -1998.77209 -113.56043 498
257.61304 -2258.60303 -118.56411 327
266.57556 -2024.57947 -151.72090 456
265.92435 -1998.71338 -113.48360 498
272.02051 -2257.86841 -118.48564 327
278.96567 -2024.77478 -152.18254 456
278.32892 -1998.32227 -113.73747 497
285.50562 -2256.90186 -118.18571 327
291.48761 -2024.69861 -151.96040 456
290.31296 -1998.41248 -113.60740 497
299.15295 -2256.35840 -118.34899 327
304.16812 -2024.27893 -152.32744 456
303.19489 -1998.06665 -113.83553 497
313.52600 -2255.19971 -118.54000 327
316.34656 -2024.61353 -151.97853 456
314.97354 -1998.03674 -113.38687 497
326.89508 -2254.09668 -117.99029 327
328.81940 -2024.67017 -152.34494 456
327.55948 -1997.95581 -113.68590 497
340.98657 -2253.41113 -118.42849 384
341.70789 -2024.21948 -152.30869 456
339.94763 -1997.31299 -113.69196 497
354.64804 -2252.90649 -118.11219 383
353.84503 -2024.20068 -152.60526 455
352.35245 -1997.50659 -114.16476 497
368.90842 -2252.74194 -118.11012 383
366.26050 -2024.32812 -152.50906 455
364.37405 -1996.78137 -113.72532 497
382.82846 -2251.89404 -118.52124 383
379.07462 -2024.34070 -153.00818 455
376.91690 -1996.87073 -114.17403 497
396.35745 -2250.88843 -118.48129 383
391.69351 -2024.64563 -153.14436 455
389.22797 -1996.25720 -114.20209 497
401.30240 -2139.95459 -101.85092 499
401.33127 -2143.09937 -66.54398 499
401.25024 -1996.15271 -114.08406 497
410.89084 -2103.70361 -96.63420 499
414.03793 -1995.73877 -114.72922 497
438.34912 -2248.48364 -118.86172 383
426.48602 -1995.96191 -114.86177 497
452.72751 -2254.10522 -119.65895 318
438.68954 -1995.66772 -114.86676 480
451.61911 -1998.94360 -115.62827 479
464.17059 -2002.45337 -116.77791 478
477.49097 -2006.31482 -117.10556 478
490.64075 -2009.66345 -118.45128 476
503.32773 -2013.50891 -119.14640 475
516.78857 -2017.50098 -120.40972 415
11501.33789 -24662.52539 4237.94482 1000
27990.44531 -44924.35938 1887.07886 1000
1242.36267 -1203.69971 -47.18306 371
1243.37061 -1190.09155 -45.34271 475
1246.07996 -1193.09570 -19.72678 475
1248.44690 -1196.05688 6.07629 475
1251.14990 -1199.20178 31.71969 443
1250.03650 -1183.34167 -45.14982 495
1252.94897 -1186.38403 -19.69103 495
1256.43481 -1190.29297 6.26426 461
1261.37000 -1196.00964 31.50503 285
1260.71838 -1180.89343 -46.25311 421
1269.19739 -1189.89697 -21.57978 283
357.53931 -112.09881 167.55688 316
358.25726 -111.18899 167.59195 316
358.93860 -110.29477 167.59842 316
359.67572 -109.40173 167.60609 315
360.34753 -108.51971 167.60365 315
361.05997 -107.62688 167.58154 315
361.73825 -106.72543 167.58687 315
39877.53125 -28453.76172 157.04063 1000
362.43710 -105.83089 167.61732 315
3941.16064 -2639.56543 -164.14627 260
363.13995 -104.92412 167.58632 315
3849.45776 -2541.83105 -152.75259 398
4091.43579 -2711.07593 -98.87798 348
363.79160 -103.96207 167.60353 315
3879.49927 -2528.33862 -154.60010 385
4091.51440 -2675.83350 -98.33451 458
364.49496 -103.05914 167.59914 315
3914.27319 -2520.16748 -156.66287 412
4097.37354 -2643.35034 -97.20671 459
365.17517 -102.14250 167.62967 315
3951.88696 -2511.52271 -157.86441 406
4102.43213 -2611.98096 -96.41683 459
365.84305 -101.21731 167.62459 315
3989.39111 -2502.94897 -160.51637 405
4107.15381 -2580.78296 -95.87966 460
366.50433 -100.34077 167.58986 441
4029.22485 -2495.75562 -163.05295 387
4111.35645 -2549.70435 -94.18346 461
367.89499 -99.85620 167.36490 440
4074.23999 -2490.45337 -166.28348 380
4117.00098 -2518.01489 -93.08138 461
369.24896 -99.36709 167.14526 439
4123.89355 -2489.29736 -169.52615 366
4135.90625 -2496.80542 -94.34509 475
370.63382 -98.91124 166.89864 438
378.96454 -104.14481 167.63905 309
4186.52686 -2494.21606 -173.30078 329
4185.38281 -2493.52100 -96.33955 343
372.05347 -98.43571 166.70897 437
379.61813 -103.10352 167.66048 309
4267.96631 -2510.84131 -180.42949 328
4261.20801 -2507.02075 -100.97822 341
373.49258 -97.90363 166.45554 436
380.26114 -102.05573 167.64590 309
4346.06592 -2524.75806 -186.64250 337
4357.11084 -2530.87231 -107.48466 405
374.92978 -97.43932 166.20380 435
380.94180 -101.06559 167.67828 309
4427.47559 -2538.47046 -112.56487 298
376.36319 -96.95702 165.95750 434
381.55814 -100.01571 167.70572 311
4504.46094 -2548.98462 -116.74458 333
377.82645 -96.43404 165.71098 433
382.20154 -99.01924 167.71452 311
379.30807 -95.89899 165.44206 432
382.84109 -97.98006 167.71352 311
380.76389 -95.39479 165.18674 431
383.49402 -96.96754 167.67358 311
382.25952 -94.85551 164.89896 430
384.09875 -95.90192 167.68831 311
383.46252 -94.19360 164.69841 317
384.76984 -94.87445 167.68561 311
384.08759 -93.14823 164.74226 317
385.34052 -93.85074 167.69221 311
384.73459 -92.15025 164.69070 317
386.88678 -93.26337 167.44101 428
385.33646 -91.13858 164.71944 317
388.42950 -92.73088 167.18927 427
385.99890 -90.10609 164.73128 317
390.03986 -92.18990 166.93300 426
386.61252 -89.06244 164.73065 317
391.62811 -91.65528 166.63034 425
400.48132 -96.15108 167.71010 306
387.21143 -88.01691 164.71271 317
393.27301 -91.09341 166.31274 424
401.03644 -94.98996 167.71620 306
387.81653 -87.00430 164.68411 317
394.88528 -90.48343 166.03494 423
401.66888 -93.87160 167.75186 306
388.39615 -85.92672 164.66687 317
396.55820 -89.91589 165.72723 422
402.22845 -92.70736 167.74011 306
388.98444 -84.91396 164.67532 317
398.23309 -89.35815 165.44768 421
402.80148 -91.54426 167.78351 306
389.58981 -83.84113 164.70750 317
399.92328 -88.73926 165.12199 419
403.40329 -90.41974 167.74060 306
390.14911 -82.79374 164.67134 317
401.64957 -88.17035 164.80391 418
403.93716 -89.25719 167.77890 306
367.75354 -71.18961 171.48361 318
402.32053 -87.06864 164.82108 313
404.51260 -88.10117 167.78883 306
368.18066 -70.24220 171.50708 318
402.94742 -85.92710 164.80380 313
405.18073 -86.99205 167.76187 417
368.66098 -69.27522 171.48657 318
403.52396 -84.81216 164.77567 313
406.94666 -86.31390 167.48483 436
3203.36353 -1331.12488 -55.49806 455
3213.11279 -1335.77551 -2.57464 458
369.11658 -68.34702 171.51398 317
404.09491 -83.70010 164.78368 313
408.49036 -85.62372 167.19978 435
3208.94629 -1311.89819 -55.31062 482
369.55325 -67.43706 171.48769 317
404.65271 -82.53900 164.81279 313
410.01147 -84.85540 166.95595 434
370.00027 -66.47147 171.49301 317
405.20795 -81.40862 164.76036 313
411.58539 -84.08537 166.69601 433
370.46356 -65.55130 171.49966 317
405.76968 -80.26149 164.80981 313
413.17288 -83.32848 166.45335 432
423.06445 -87.41721 167.79364 301
370.86694 -64.59991 171.49686 317
406.32590 -79.07375 164.78047 313
414.73666 -82.52513 166.19675 431
423.63971 -86.12826 167.79324 301
371.32098 -63.65759 171.52829 317
406.81168 -77.90211 164.79549 313
416.38184 -81.73914 165.89815 430
424.13538 -84.87648 167.81718 301
371.74518 -62.69646 171.54425 317
407.33423 -76.78178 164.76753 312
418.01840 -80.93167 165.62480 429
424.70630 -83.58109 167.82921 302
372.14581 -61.77755 171.51338 317
407.89691 -75.61427 164.78699 312
419.61896 -80.13911 165.37689 428
425.21729 -82.27241 167.81177 302
372.55762 -60.78870 171.55754 317
382.96542 -64.78601 171.64110 313
421.28473 -79.32827 165.07175 427
425.73746 -80.99804 167.84052 302
372.96530 -59.87364 171.53058 317
383.37430 -63.71978 171.65688 313
422.71103 -78.39743 164.85345 308
426.17380 -79.72795 167.82896 302
373.37839 -58.89661 171.54001 317
383.81760 -62.72629 171.63882 313
423.27420 -77.16286 164.88766 308
426.69690 -78.41618 167.81931 302
373.77573 -57.91722 171.52954 317
384.22852 -61.71072 171.66301 313
423.79367 -75.88528 164.85066 308
427.20956 -77.10857 167.87193 302
262.19144 -17.54952 203.49733 293
384.62286 -60.64385 171.64059 313
424.34015 -74.64935 164.88635 308
428.19211 -75.99608 167.75174 423
262.30121 -17.26752 203.50481 314
385.03006 -59.63760 171.65503 313
424.83347 -73.35571 164.86020 308
429.94687 -75.13553 167.48241 422
262.45673 -17.00084 203.50182 314
385.43903 -58.61993 171.63274 313
425.32626 -72.11734 164.86990 308
431.72052 -74.28519 167.18343 421
262.59769 -16.73769 203.50177 314
385.82150 -57.57046 171.64038 313
425.84595 -70.86460 164.87514 308
433.52798 -73.39173 166.84578 420
262.74835 -16.45848 203.50421 314
386.20670 -56.53461 171.69080 313
426.31595 -69.54219 164.86754 308
435.33481 -72.48714 166.58463 419
262.89148 -16.19090 203.50917 314
386.62357 -55.50595 171.64291 313
426.81970 -68.30010 164.85149 308
437.23303 -71.59190 166.26245 418
263.03906 -15.92603 203.50201 314
386.95547 -54.45268 171.66643 313
427.32846 -67.02743 164.83467 308
439.05170 -70.69362 165.92145 417
448.81781 -73.70962 167.82529 298
263.17557 -15.65219 203.50278 314
387.32742 -53.42221 171.67224 313
399.40115 -57.11340 171.79233 309
440.74939 -69.72144 165.67563 431
449.23935 -72.30873 167.87799 298
263.31525 -15.39054 203.50410 314
387.68439 -52.42246 171.66379 313
399.80017 -55.97213 171.79985 309
442.45352 -68.71996 165.38821 430
449.67044 -70.87057 167.88098 298
263.45578 -15.10974 203.51047 314
388.06287 -51.35974 171.65823 313
400.15363 -54.86793 171.79251 309
444.15045 -67.68890 165.11702 429
450.10403 -69.41981 167.89047 298
263.59232 -14.84382 203.50873 314
388.38333 -50.33769 171.68758 313
400.54385 -53.75674 171.82196 309
445.33279 -66.50008 164.91313 304
450.51791 -67.93388 167.90318 298
4313.67432 -1166.08972 2.45657 492
263.72980 -14.56503 203.50476 314
388.75006 -49.28774 171.66936 313
400.88733 -52.64806 171.82198 309
445.77591 -65.07672 164.94853 304
450.96127 -66.51160 167.92387 298
263.86304 -14.30147 203.50758 314
389.09494 -48.24710 171.66634 313
401.24591 -51.54127 171.78319 309
446.21191 -63.70031 164.94917 304
451.29086 -65.08119 167.90041 298
263.99387 -14.02457 203.50700 314
389.42068 -47.19167 171.69025 313
401.60733 -50.37235 171.79887 309
446.68530 -62.28992 164.95113 304
451.74313 -63.62232 167.93852 298
264.11591 -13.75233 203.50925 314
389.72018 -46.09700 171.67879 313
401.91537 -49.28138 171.81325 309
447.11627 -60.88380 164.96266 304
452.92404 -62.39569 167.80322 424
264.24252 -13.47166 203.50735 314
390.04196 -45.04646 171.69733 313
402.23975 -48.14017 171.79645 309
447.51416 -59.48022 164.92555 304
454.71024 -61.31860 167.46642 423
22.71959 -5.55734 -6.29325 314
390.33740 -44.00372 171.67767 313
402.55872 -47.02856 171.81992 309
447.90884 -58.11884 164.93634 304
456.54581 -60.22542 167.22121 422
264.49216 -12.92695 203.50117 314
390.64966 -42.94635 171.72359 313
402.92270 -45.88951 171.82999 309
448.33847 -56.69420 164.93571 304
458.46594 -59.09790 166.93655 421
5190.89355 -1185.59875 43.40933 394
264.62314 -12.64661 203.49948 314
390.96286 -41.92434 171.69048 313
403.21814 -44.76483 171.82381 309
448.68503 -55.26870 164.98636 304
460.29800 -57.95948 166.60051 420
5172.63867 -1149.17468 44.58389 492
264.73642 -12.37774 203.50336 314
268.00461 -13.10628 203.48706 285
403.51718 -43.61280 171.85097 309
449.06433 -53.88717 164.95572 304
462.19977 -56.81675 166.26772 419
5172.81982 -1116.28235 44.65896 490
264.85794 -12.10536 203.50327 314
268.07272 -12.79679 203.50139 310
403.81793 -42.47812 171.80605 309
417.87766 -45.52805 171.94989 305
463.61002 -55.57727 166.09355 451
5172.50439 -1085.25989 45.10710 493
264.97250 -11.82044 203.50520 314
268.19965 -12.51300 203.50931 310
404.11023 -41.33204 171.83969 309
418.23123 -44.33705 171.99399 305
464.97241 -54.24082 165.89857 450
5175.21094 -1053.87000 44.96696 496
265.09290 -11.55157 203.50670 314
268.31818 -12.20317 203.50758 310
404.41827 -40.21667 171.85555 309
418.49353 -43.12277 171.99838 305
466.39236 -52.94897 165.70000 450
5175.09180 -1021.31232 45.94336 497
265.20389 -11.26517 203.50391 314
268.44037 -11.91237 203.50278 310
404.68646 -39.08590 171.83589 309
418.79248 -41.89082 171.98648 305
467.80563 -51.67160 165.48805 449
477.36121 -53.55678 168.00993 293
5178.83008 -990.54919 45.73906 497
265.32193 -10.99699 203.49905 314
268.54654 -11.61286 203.50409 310
404.97223 -37.94295 171.81453 309
419.12033 -40.67404 171.99594 305
469.22372 -50.27934 165.22928 448
477.65674 -51.97946 167.99515 293
5182.50000 -958.87531 45.26674 498
5261.81787 -975.31396 210.85286 347
265.42334 -10.70710 203.50061 314
268.66315 -11.31958 203.50793 310
405.25433 -36.77032 171.82199 309
419.40152 -39.44805 171.99924 305
470.45065 -48.91112 165.04378 300
477.99619 -50.35033 167.98305 293
5182.57666 -927.79132 45.44127 499
5246.98828 -939.88269 211.75928 306
265.54004 -10.43286 203.50722 314
268.78152 -11.02210 203.50098 310
405.49011 -35.63782 171.83226 309
419.65341 -38.16802 171.99867 305
470.80081 -47.37836 165.06436 300
478.25543 -48.74897 168.00340 294
5189.16797 -897.26208 45.58650 499
5313.58447 -919.95819 126.00861 342
5214.06787 -901.78009 210.60139 427
265.64413 -10.14950 203.50053 314
268.88934 -10.71791 203.50781 310
405.75824 -34.48850 171.86894 309
419.93451 -36.93407 171.96684 305
471.13776 -45.88976 165.09004 300
478.54437 -47.12119 168.03407 294
5191.69922 -865.38098 46.39182 499
5264.93799 -878.44513 128.01723 350
5222.68408 -870.80859 211.28757 466
265.74359 -9.87955 203.50021 314
269.00076 -10.41534 203.50902 310
405.97198 -33.37037 171.87329 309
420.15802 -35.73819 171.97699 305
471.43176 -44.33279 165.04442 300
478.80817 -45.56001 168.08136 294
5199.21387 -836.26318 45.33047 499
5236.12695 -842.04639 127.80825 497
5240.83203 -842.21527 210.71289 497
265.85315 -9.60181 203.50543 314
269.09793 -10.12188 203.50758 310
406.23041 -32.21689 171.85399 309
420.46613 -34.50251 171.99332 305
471.72577 -42.74586 165.09093 300
479.03671 -43.93507 168.09964 294
5202.36963 -804.24225 45.59331 498
5247.06641 -811.71411 127.55857 496
5250.10400 -812.51160 210.57320 496
265.95535 -9.31972 203.50876 314
269.20523 -9.81907 203.49786 310
406.46616 -31.08671 171.86130 309
420.68494 -33.27649 171.96605 305
472.05258 -41.23709 165.06369 300
479.30203 -42.32480 168.10661 294
5208.78906 -774.43506 46.64245 497
5256.24756 -781.13116 127.57560 496
5254.59863 -781.33356 212.01393 496
266.05667 -9.03849 203.50641 314
269.31528 -9.52564 203.49846 310
406.67627 -29.90398 171.85069 309
420.90192 -32.04316 172.01955 305
472.33722 -39.68193 165.05554 300
479.48807 -40.68852 168.12018 442
5216.83398 -743.57581 45.99136 496
5262.00391 -750.48969 128.57082 496
5262.99023 -750.96356 211.19124 495
266.14801 -8.76028 203.50426 314
269.41721 -9.22136 203.50706 310
406.94281 -28.75235 171.86475 309
421.14670 -30.80144 171.99174 305
437.64798 -33.12112 172.18076 301
481.05933 -39.31480 167.90871 441
5226.96533 -713.77814 46.01668 496
5271.20312 -720.32928 127.93111 496
5274.63135 -720.11121 211.75870 496
266.24750 -8.47684 203.50201 314
269.51303 -8.91844 203.49799 310
407.14114 -27.59410 171.86365 309
421.40332 -29.54230 171.99988 305
437.84146 -31.79718 172.13210 301
482.48853 -37.84970 167.68169 460
5236.18848 -683.19958 45.99756 494
5286.62744 -690.31891 128.31749 495
5289.69482 -690.42108 211.16118 495
266.34686 -8.19579 203.50464 314
269.60687 -8.62006 203.50026 310
407.34460 -26.45228 171.84248 309
421.59500 -28.29288 171.99681 305
438.07883 -30.41100 172.13831 301
483.72906 -36.35159 167.44769 459
5247.50342 -653.80225 45.28830 475
5296.32324 -659.83478 127.17860 495
5299.89990 -660.84521 211.26321 495
266.43732 -7.90890 203.50253 314
269.70462 -8.31732 203.50705 310
407.52991 -25.28875 171.87778 309
421.80453 -27.08453 171.99730 305
438.32220 -29.09466 172.18530 301
484.91992 -34.85517 167.28371 458
5258.29639 -623.56665 45.66296 474
5306.03613 -629.53516 127.98235 495
5309.22754 -629.48389 212.00438 495
