# .PCD v.7 - Point Cloud Data file format
VERSION .7
FIELDS x y z rgb
SIZE 4 4 4 4
TYPE F F F U
COUNT 1 1 1 1
WIDTH 1380
HEIGHT 1
VIEWPOINT 6323.032227 -4096.066406 142.399429 0.069811 -0.124992 0.022234 0.989449
POINTS 1380
DATA ascii
45.66243 -48.32707 192.01904 409
42.37894 -49.13047 194.73047 407
38.95988 -49.90537 197.51889 404
35.46568 -50.80051 200.39418 402
31.80664 -51.66014 203.39644 399
27.94722 -52.60812 206.50856 386
-188.50391 -104.66112 202.44936 483
-189.42303 -104.89250 209.46251 296
81.07546 -40.71581 176.29872 436
78.69007 -41.27387 178.31079 433
73.16647 -42.67136 179.58978 308
60.02816 -45.91956 179.40671 428
57.29698 -46.59709 181.79866 425
54.49813 -47.25836 184.20627 423
51.49599 -48.01868 186.70178 414
48.35023 -48.80510 189.24760 411
45.13980 -49.61970 191.87360 409
41.82543 -50.44712 194.62758 406
38.36782 -51.28883 197.43108 404
34.84865 -52.13905 200.34389 401
31.09368 -53.08460 203.30334 387
27.04512 -54.09230 206.42540 374
-188.43831 -107.32001 202.49631 484
80.80943 -41.69495 176.12852 436
78.42879 -42.31137 178.15283 432
73.39732 -43.59131 179.60248 308
59.67155 -47.07891 179.26141 427
56.91987 -47.78089 181.65182 425
54.03835 -48.50398 184.11404 415
50.98159 -49.27703 186.56425 413
47.87102 -50.05315 189.13005 411
44.62366 -50.89221 191.76273 408
41.28905 -51.78667 194.53371 405
37.79478 -52.65216 197.34547 403
34.15293 -53.59734 200.24919 389
30.27068 -54.54742 203.23691 387
26.01632 -55.64584 206.37500 374
-188.21999 -109.87441 202.43185 495
80.54408 -42.72747 176.01353 435
78.14315 -43.35464 178.04594 431
73.60640 -44.53299 179.61157 308
59.29166 -48.25700 179.15607 426
56.53113 -48.98701 181.52469 424
53.56767 -49.76519 183.97513 415
50.48221 -50.54612 186.44759 412
47.33131 -51.38028 189.00887 410
44.05682 -52.21376 191.68648 407
40.69856 -53.09458 194.38785 405
37.11804 -54.04064 197.24629 391
33.31834 -55.04544 200.16325 388
29.38309 -56.08629 203.16425 386
24.89862 -57.25549 206.28438 373
-187.60860 -112.45017 202.47638 495
80.26024 -43.72390 175.89055 434
77.89084 -44.36118 177.92490 431
73.82936 -45.45979 179.61763 308
58.93289 -49.42153 178.98039 426
56.09846 -50.15926 181.38150 416
53.11743 -51.00660 183.79352 414
50.02021 -51.83345 186.30147 412
46.82215 -52.68866 188.89633 409
43.54576 -53.57334 191.54257 407
40.08179 -54.48208 194.29951 393
36.33033 -55.51513 197.13191 390
32.52858 -56.53502 200.02625 388
28.38106 -57.65361 203.07558 374
23.83786 -58.85209 206.19632 372
80.01068 -44.73872 175.72505 434
77.61185 -45.42029 177.78612 430
74.08421 -46.38648 179.62378 308
58.54560 -50.62373 178.83475 425
55.66436 -51.41819 181.22896 416
52.63394 -52.26629 183.65744 413
49.53964 -53.10393 186.16287 411
46.32685 -54.00648 188.79114 408
42.90255 -54.90287 191.44615 394
39.26736 -55.90348 194.17404 392
35.55875 -56.97614 197.01570 389
31.66792 -58.00645 199.96233 387
27.32869 -59.20633 202.96184 374
22.72944 -60.48075 206.14577 371
79.73211 -45.78057 175.59962 433
77.29917 -46.44997 177.66008 429
74.30890 -47.30199 179.58220 308
58.14940 -51.84317 178.70384 417
55.20422 -52.64766 181.08153 415
52.17944 -53.50523 183.50856 412
49.05041 -54.40578 186.06839 410
45.68724 -55.36266 188.63058 396
42.16921 -56.36205 191.27811 394
38.50505 -57.36840 194.03818 391
34.76182 -58.43254 196.90929 389
30.71407 -59.57615 199.81827 375
26.27378 -60.81332 202.88969 373
21.57368 -62.15999 206.04382 370
79.44468 -46.81312 175.45795 433
77.02197 -47.51694 177.50063 429
74.54227 -48.25398 179.61679 427
57.71791 -53.06579 178.53075 416
54.73228 -53.91269 180.90681 414
51.68064 -54.78981 183.35957 412
48.44011 -55.74051 185.91516 398
44.96347 -56.72611 188.46788 395
41.41998 -57.77431 191.16020 393
37.75468 -58.83088 193.90422 390
33.92776 -59.90228 196.74690 388
29.67021 -61.16823 199.70370 374
25.18966 -62.44930 202.80130 372
20.43392 -63.80526 205.96223 369
79.20680 -47.88073 175.30785 430
76.73295 -48.59749 177.34999 428
74.22092 -49.32569 179.45560 426
57.29856 -54.29276 178.38266 416
54.29762 -55.17726 180.78796 413
51.09482 -56.11435 183.22031 399
47.75837 -57.11530 185.72534 397
44.25085 -58.13091 188.31468 394
40.65911 -59.19067 191.00826 392
36.92820 -60.32965 193.78319 389
33.03722 -61.44188 196.65150 376
28.63149 -62.77843 199.57130 374
24.06199 -64.10852 202.69655 371
19.24316 -65.50823 205.87947 368
78.91245 -48.90926 175.16409 430
76.48239 -49.65436 177.19725 427
73.92741 -50.42882 179.31352 425
56.83558 -55.56037 178.19368 415
53.72841 -56.51093 180.60826 401
50.45614 -57.48378 183.01469 398
47.02282 -58.51738 185.56007 396
43.51272 -59.58447 188.16699 394
39.88897 -60.66046 190.82503 391
36.13073 -61.79927 193.60764 389
32.06483 -63.00323 196.47447 375
27.61502 -64.36823 199.45905 373
22.95053 -65.75014 202.54849 370
18.06878 -67.24577 205.83356 367
78.65489 -49.96085 175.02458 429
76.17554 -50.73121 177.05202 427
73.65740 -51.50347 179.17046 425
56.32270 -56.82799 177.99664 402
53.06503 -57.83712 180.38722 400
49.74625 -58.85629 182.83914 398
46.34082 -59.93895 185.34499 395
42.79484 -60.98308 187.96556 393
39.15715 -62.14685 190.70206 390
35.33641 -63.29645 193.48163 388
31.00708 -64.61646 196.33069 374
26.53478 -66.03844 199.36978 372
21.82569 -67.47108 202.45335 369
16.90318 -69.00648 205.74103 366
78.40271 -51.06250 174.88326 428
75.87895 -51.81876 176.90831 426
73.36411 -52.63470 179.05602 424
64.03655 -55.55264 179.67871 304
52.45493 -59.16813 180.20436 399
49.08029 -60.22686 182.63841 397
45.62020 -61.33988 185.19170 394
42.07875 -62.48479 187.78940 392
38.37374 -63.60924 190.53522 389
34.34172 -64.87831 193.33759 376
29.97375 -66.28618 196.20779 374
25.41218 -67.67827 199.24504 371
20.67377 -69.22039 202.34937 368
15.66950 -70.79531 205.64575 366
78.10484 -52.11808 174.71867 428
75.62355 -52.94407 176.79189 425
73.02800 -53.73781 178.88626 423
64.31229 -56.56548 179.69475 304
51.78095 -60.53689 179.95901 398
48.42658 -61.62685 182.44608 396
44.91634 -62.79013 185.00421 393
41.33102 -63.92229 187.65814 391
37.56756 -65.12867 190.34105 388
33.37444 -66.51127 193.18594 375
28.97201 -67.88108 196.03801 373
24.35780 -69.39850 199.09604 370
19.48007 -70.97804 202.26715 367
14.47235 -72.57430 205.54332 365
77.82714 -53.20164 174.57579 427
75.30898 -54.05146 176.63045 425
72.75829 -54.86324 178.72926 422
64.64689 -57.53791 179.66284 304
51.13070 -61.93639 179.79729 397
47.71547 -63.05136 182.27251 395
44.20918 -64.21980 184.79959 393
40.55832 -65.39882 187.44550 390
36.70018 -66.71287 190.18880 377
32.39859 -68.08585 192.97510 374
27.92322 -69.58836 195.87918 372
23.20345 -71.12189 198.97858 369
18.33237 -72.73995 202.13956 366
11.88752 -74.85906 205.37917 319
77.56728 -54.27008 174.40384 426
75.04442 -55.11528 176.47731 424
72.41824 -55.99400 178.58923 422
64.93034 -58.53290 179.68236 304
50.46697 -63.37039 179.56795 396
47.04248 -64.52109 182.03279 394
43.48035 -65.71606 184.59476 392
39.78660 -66.92082 187.29076 389
35.72150 -68.29015 190.00398 376
31.35250 -69.76602 192.81781 373
26.79157 -71.28816 195.76982 371
22.10360 -72.84995 198.80563 368
16.43560 -74.77561 201.96907 336
8.85106 -77.28405 205.19588 318
77.32198 -55.38810 174.25410 426
74.73016 -56.24623 176.31602 423
72.14449 -57.13817 178.46953 421
65.26340 -59.49112 179.66832 304
49.84357 -64.77424 179.33928 396
46.35260 -65.97330 181.83685 393
42.74622 -67.15905 184.41022 391
38.98255 -68.47218 187.09203 378
34.76957 -69.91663 189.80164 375
30.35082 -71.41681 192.64311 372
25.72009 -73.02187 195.61346 370
20.52866 -74.79124 198.66010 338
14.05341 -76.98824 201.76036 320
5.70606 -79.87221 205.01579 317
77.01634 -56.50807 174.05013 425
74.47488 -57.40308 176.15852 423
71.82117 -58.28654 178.28874 420
65.59006 -60.50585 179.67305 304
49.12811 -66.19676 179.13470 395
45.64555 -67.44337 181.61739 392
41.97574 -68.71260 184.22646 390
38.02779 -70.07030 186.90129 377
33.73124 -71.54857 189.63329 374
29.27313 -73.11970 192.46826 372
24.52551 -74.80909 195.43301 339
18.44970 -76.89287 198.45351 337
11.10876 -79.50526 201.52747 318
2.49856 -82.49532 204.80827 316
76.74532 -57.59946 173.92322 424
74.16147 -58.54778 176.01053 422
71.50602 -59.48518 178.14647 392
65.86851 -61.44984 179.66107 304
48.45613 -67.67027 178.90295 394
44.89096 -68.89371 181.41006 391
41.25111 -70.20438 184.02974 389
37.10909 -71.69982 186.66711 376
32.75998 -73.23745 189.43918 373
28.22756 -74.84843 192.25301 371
22.52100 -76.86069 195.15579 338
16.22937 -79.10034 198.18056 320
7.99667 -82.02438 201.29778 317
-0.83297 -85.15649 204.63873 315
76.47585 -58.70577 173.72533 423
73.86791 -59.68380 175.81477 421
70.86549 -60.78624 177.90411 391
66.20806 -62.46258 179.65706 304
47.78180 -69.12326 178.67398 393
44.18803 -70.42495 181.20691 391
40.36467 -71.81535 183.82368 377
36.11813 -73.31989 186.45378 375
31.75975 -74.91278 189.23961 372
26.45115 -76.85248 192.01144 339
20.43567 -79.03931 194.88029 337
13.29389 -81.60570 197.89999 319
4.84918 -84.66618 201.02679 316
-4.25825 -87.98762 204.41705 314
76.22247 -59.84397 173.56149 423
73.34944 -60.90915 175.58054 392
70.22508 -62.07660 177.66438 390
66.56016 -63.43858 179.65857 304
47.10244 -70.60458 178.46883 392
43.45535 -71.91882 180.97389 390
39.43354 -73.42222 183.54716 376
35.13611 -74.98880 186.20229 374
30.27797 -76.83539 188.97018 341
24.45873 -78.95232 191.72459 338
18.30855 -81.26228 194.59679 336
10.29826 -84.20030 197.59654 318
1.61742 -87.38831 200.78387 315
-15.22558 -93.61324 203.82018 258
75.82031 -61.04885 173.34532 394
72.73123 -62.19586 175.36253 391
69.55704 -63.38994 177.39355 389
66.75140 -64.46170 179.63493 401
46.41430 -72.10048 178.21860 391
42.64911 -73.49007 180.74930 378
38.51210 -75.08463 183.33562 375
34.00096 -76.75964 185.96011 342
28.41723 -78.88914 188.61082 340
22.46809 -81.12898 191.38815 337
15.52429 -83.72595 194.25220 319
7.22219 -86.87181 197.28075 316
-1.82056 -90.27119 200.45583 288
75.19585 -62.31188 173.08026 393
72.09386 -63.49669 175.08308 390
68.89893 -64.73327 177.13142 388
66.09099 -65.82621 179.38159 400
45.68511 -73.59328 177.94455 390
41.74428 -75.12037 180.47714 377
37.52286 -76.71314 183.05418 375
32.20650 -78.79130 185.64017 341
26.42123 -81.03262 188.28612 339
20.36977 -83.33739 191.10620 336
12.56541 -86.34428 193.93536 318
4.02004 -89.60626 196.95241 315
-12.67162 -95.97279 199.69774 269
74.60324 -63.57039 172.81769 392
71.50799 -64.83170 174.82693 389
68.23698 -66.09197 176.91530 387
65.48266 -67.16217 179.17502 399
54.53409 -71.44487 179.78111 300
40.83086 -76.76888 180.24422 376
35.89378 -78.71392 182.68961 342
30.32667 -80.86670 185.25241 340
24.44079 -83.17372 187.92395 337
17.78344 -85.78710 190.67725 319
9.56578 -88.95850 193.56015 317
-0.74063 -93.02424 196.45111 288
74.03986 -64.88664 172.52272 391
70.86308 -66.12940 174.55046 389
67.59479 -67.45838 176.61212 386
64.80765 -68.56004 178.94145 398
54.90590 -72.48119 179.76544 300
39.54836 -78.60190 179.89906 344
34.11183 -80.71999 182.29153 341
28.44344 -83.01662 184.87544 339
22.39471 -85.41592 187.59431 336
14.86387 -88.40211 190.26326 318
6.41757 -91.72572 193.12805 316
-11.77361 -98.95444 195.42648 269
73.40248 -66.21338 172.27762 390
70.21548 -67.50784 174.27036 388
66.90150 -68.85757 176.38676 385
64.14252 -69.98161 178.67929 397
55.31269 -73.53606 179.78250 300
37.82611 -80.57801 179.46339 342
32.29991 -82.82113 181.88443 340
26.43784 -85.22049 184.45000 338
20.01654 -87.83466 187.15485 320
11.87897 -91.09606 189.81448 317
0.40814 -95.73543 192.41893 288
72.80884 -67.53592 171.96361 389
69.57767 -68.84132 174.01666 387
66.21715 -70.22161 176.10010 384
63.47083 -71.39746 178.44514 396
55.74454 -74.57777 179.76671 300
36.05966 -82.67807 179.01675 341
30.39411 -84.98380 181.48473 339
24.45916 -87.42589 184.05682 337
17.15062 -90.42210 186.68196 318
7.98901 -94.19244 189.26173 289
-10.82176 -101.96211 191.14714 269
72.69818 -68.65654 171.83458 316
68.93246 -70.25201 173.72083 386
65.55716 -71.67495 175.84090 397
62.78933 -72.80544 178.17374 395
56.14130 -75.60099 179.76042 300
34.23582 -84.76225 178.58238 340
28.47274 -87.16780 181.04503 338
22.25044 -89.81519 183.64899 320
14.26610 -93.14663 186.20380 317
1.67686 -98.45416 188.42172 288
73.06432 -69.59158 171.84109 316
68.25433 -71.66747 173.40395 385
64.93890 -73.06847 175.54590 396
62.15421 -74.27896 177.93123 394
56.55595 -76.65185 179.74547 300
32.44417 -86.92455 178.09613 339
26.53814 -89.41753 180.58185 337
19.51476 -92.38999 183.09181 319
9.20398 -96.84558 185.36192 289
-9.69153 -104.84300 186.95020 269
73.44212 -70.51472 171.80701 316
67.56744 -73.07987 173.14627 384
64.27283 -74.53961 175.30034 395
61.42278 -75.74789 177.65691 393
56.99858 -77.66998 179.76776 300
30.54444 -89.13248 177.61710 338
24.51209 -91.73085 180.14175 336
16.35223 -95.27731 182.47391 290
2.88100 -101.08128 184.34959 288
73.81015 -71.46225 171.81206 316
66.89977 -74.51164 172.85747 383
63.62548 -75.97525 175.00272 394
60.75594 -77.25122 177.38000 392
57.39261 -78.69426 179.73300 300
42.35858 -85.34856 179.86720 296
21.87173 -94.36781 179.56548 319
10.49978 -99.37849 181.44070 289
-27.85268 -116.28111 179.85196 338
74.22398 -72.39359 171.79869 316
66.22095 -75.99075 172.55127 382
62.94136 -77.43343 174.74962 393
60.05857 -78.75894 177.10513 391
57.06327 -80.07476 179.58563 389
42.83630 -86.45189 179.86539 296
17.65082 -97.69608 178.72343 290
4.27202 -103.70193 180.34155 288
-23.23111 -115.99511 180.44832 339
74.59499 -73.32671 171.83467 316
65.51028 -77.43296 172.22787 381
62.26809 -78.96243 174.44617 392
59.32347 -80.29327 176.81750 390
56.31647 -81.66727 179.31189 388
43.29986 -87.61301 179.85515 296
11.89828 -101.90931 177.56584 289
-18.68630 -115.81837 176.51186 340
-22.47832 -117.53661 180.43311 284
75.02279 -74.22097 171.81346 316
64.83881 -78.93594 171.90529 380
61.55405 -80.47314 174.16164 391
58.59158 -81.87112 176.53452 389
54.38752 -83.78397 178.75958 332
43.80202 -88.71377 179.88428 296
5.71095 -106.28417 176.28723 288
-14.32856 -115.55560 177.12451 342
-21.81009 -119.03502 180.44708 284
75.45013 -75.18040 171.81793 316
65.24876 -79.95920 171.87265 312
60.84771 -82.00938 173.83270 390
57.15646 -83.78392 176.12476 332
52.34333 -86.03332 178.21149 330
44.27784 -89.84929 179.85930 296
-5.00271 -113.00912 174.22432 285
-4.97405 -112.98995 178.51987 285
-21.08448 -120.56718 180.43822 284
75.83787 -76.07015 171.81857 316
65.68464 -80.92069 171.88332 312
59.92857 -83.69473 173.46988 333
55.20930 -85.97812 175.51047 331
50.25607 -88.30216 177.66367 330
44.77056 -90.91013 179.86678 296
27.15523 -99.37775 180.03140 292
5.83333 -109.52287 180.18661 288
76.27275 -77.01742 171.79643 316
66.11310 -81.89490 171.90097 312
58.00766 -85.87421 172.87567 332
53.16145 -88.20798 174.91782 330
48.06322 -90.67662 177.05707 329
42.90621 -93.22121 179.35991 327
27.73486 -100.58794 179.99391 292
6.43761 -110.91100 180.17212 288
76.68998 -77.93572 171.78041 316
66.56975 -82.89201 171.86687 312
56.04219 -88.07623 172.20764 331
51.06239 -90.53082 174.29028 329
45.87679 -93.13006 176.43462 328
40.52952 -95.74858 178.79645 326
28.26996 -101.82063 180.02727 292
7.06253 -112.24741 180.17651 288
77.13564 -78.82564 171.80511 316
67.02771 -83.84716 171.87755 312
55.62462 -89.58438 171.99736 308
48.92952 -92.96599 173.64204 328
43.53806 -95.61701 175.79457 326
38.04903 -98.35746 178.16649 324
28.86142 -102.99290 180.00211 292
7.75922 -113.58559 180.15805 288
77.54362 -79.73723 171.77554 316
67.52637 -84.84077 171.86227 312
56.14911 -90.58932 171.98267 308
46.65652 -95.44939 172.95470 326
41.17884 -98.24985 175.17889 325
35.56168 -101.07346 177.53638 323
22.53856 -107.67432 178.71217 277
78.00555 -80.63273 171.78732 316
67.97690 -85.79762 171.85487 312
56.62519 -91.65873 171.96317 308
44.36855 -97.99512 172.28024 325
38.73473 -100.89292 174.48329 324
28.57075 -106.17426 175.96632 276
12.89513 -114.23698 176.82436 276
78.45726 -81.52355 171.80702 316
68.47632 -86.75861 171.86642 312
57.17924 -92.66727 171.94608 308
44.20856 -99.48553 172.09613 304
35.24237 -104.16321 173.57539 276
19.04809 -112.69328 173.85410 274
-55.82146 -151.87056 163.76201 368
78.88820 -82.43427 171.77629 316
68.95048 -87.74370 171.85225 312
57.69937 -93.73595 171.95357 308
44.73706 -100.57524 172.06676 304
29.80979 -108.51463 172.22641 300
12.32380 -117.83681 172.32149 296
-51.81705 -151.96927 164.40506 370
79.36691 -83.34464 171.75670 316
69.46772 -88.69945 171.88249 312
58.22388 -94.75161 171.94127 308
45.31726 -101.70520 172.03999 304
30.42168 -109.74490 172.17992 300
13.01919 -119.14622 172.35210 296
-47.92876 -151.98428 164.95911 371
79.80810 -84.21761 171.76144 316
69.95442 -89.64882 171.88115 312
58.75328 -95.74731 171.94426 308
45.89578 -102.79554 172.04350 304
31.03642 -110.91994 172.21210 300
13.70047 -120.48547 172.34929 296
-45.50498 -152.86525 165.21260 286
80.26855 -85.12295 171.77528 316
70.46249 -90.56935 171.84525 312
59.27497 -96.81775 171.94185 308
46.49868 -103.91800 172.08334 304
31.67665 -112.11599 172.19206 300
14.36247 -121.78627 172.35107 296
-44.58903 -154.52608 165.21011 286
80.77107 -85.99097 171.76501 316
70.96463 -91.55805 171.85582 312
59.81451 -97.80859 171.97008 308
47.05748 -104.98862 172.02527 304
32.35243 -113.30569 172.18275 300
15.03635 -123.06547 172.32256 296
-43.68431 -156.14452 165.21962 286
81.21895 -86.90091 171.77257 316
71.48526 -92.47086 171.82108 312
60.35381 -98.81315 171.92302 308
47.68614 -106.12265 172.07149 304
32.94464 -114.54099 172.20189 300
15.73848 -124.35548 172.32390 296
-42.80178 -157.78464 165.23845 286
81.72282 -87.77110 171.76216 316
71.98087 -93.41995 171.84027 312
60.93874 -99.86913 171.92923 308
48.28624 -107.15820 172.01802 304
33.62030 -115.71655 172.16811 300
-28.24271 -151.51791 162.88519 368
-41.83209 -159.48235 165.20572 286
82.19706 -88.64973 171.76854 316
72.52211 -94.38667 171.81831 312
61.47112 -100.85033 171.93265 308
48.90868 -108.29823 172.05965 304
34.26129 -116.86098 172.16650 300
-24.54068 -151.47369 163.48907 369
82.71887 -89.51182 171.75687 316
73.06363 -95.32600 171.85242 312
62.07623 -101.84039 171.91432 308
49.48838 -109.38516 172.01338 304
34.94697 -118.04648 172.14058 300
-20.99907 -151.37910 164.02748 370
83.22181 -90.40785 171.74609 316
73.56390 -96.22891 171.81015 312
62.65351 -102.87104 171.92418 308
50.10649 -110.43829 172.05368 304
35.61069 -119.18424 172.15936 300
-17.44178 -151.32050 164.56422 372
83.70280 -91.28745 171.75316 316
74.09976 -97.17497 171.82019 312
63.22624 -103.83585 171.91316 308
50.73485 -111.54074 172.04056 304
36.30925 -120.37017 172.14197 300
-14.01519 -151.19484 165.09692 373
84.25034 -92.12235 171.73485 316
74.68789 -98.11613 171.83501 312
63.82821 -104.85291 171.89735 308
51.38769 -112.59631 172.03844 304
36.98881 -121.51342 172.15172 300
-10.64318 -151.15056 165.68973 374
84.74189 -93.01637 171.71652 316
75.19096 -99.00201 171.82402 312
64.40806 -105.86254 171.90630 308
52.00776 -113.68044 171.99429 304
37.67528 -122.70125 172.10318 300
-9.54833 -152.46687 165.70154 291
85.29150 -93.87183 171.73759 316
75.77834 -99.95736 171.80316 312
64.97893 -106.84897 171.88318 308
52.65652 -114.74476 171.98540 304
38.34934 -123.88432 172.10042 300
-8.60678 -153.85962 165.75050 291
85.79549 -94.72908 171.71219 316
76.35715 -100.83049 171.80110 312
65.62628 -107.83295 171.92174 308
53.31743 -115.77517 171.99504 304
0.57285 -149.94614 162.91090 285
-7.61713 -155.24495 165.71536 291
86.32776 -95.55974 171.74109 316
76.90009 -101.75329 171.81102 312
66.21561 -108.82067 171.91182 308
53.98005 -116.81570 171.98975 304
2.21207 -150.83324 163.12944 379
-6.64945 -156.66963 165.68904 290
86.87032 -96.44575 171.70490 316
77.46043 -102.70551 171.78706 312
66.82154 -109.75005 171.87834 308
54.65152 -117.91312 171.99794 304
5.22605 -150.75174 163.63008 380
-5.71098 -158.06558 165.71207 290
87.39470 -97.28889 171.71854 316
78.06361 -103.57250 171.78360 312
67.43687 -110.72572 171.87610 308
55.29160 -118.92118 171.99147 304
8.22990 -150.66104 164.11598 382
-4.75995 -159.47392 165.74031 290
87.96371 -98.12843 171.72131 316
78.67406 -104.50077 171.76427 312
68.06159 -111.74039 171.89839 308
55.98867 -119.96056 172.00237 304
11.11683 -150.63449 164.66937 383
88.49337 -98.97686 171.69669 316
79.22487 -105.39790 171.76973 312
68.72678 -112.68497 171.84793 308
56.65575 -121.05979 171.95955 304
13.98625 -150.53873 165.12489 384
89.05440 -99.78342 171.70549 316
79.83389 -106.28445 171.79587 312
69.36397 -113.62545 171.84225 308
57.34299 -122.05305 171.99028 304
16.81182 -150.50139 165.56702 385
89.65250 -100.61912 171.70851 316
80.43719 -107.19994 171.79590 312
70.02281 -114.59090 171.86836 308
58.02080 -123.07851 171.94710 304
19.61256 -150.40128 166.03046 387
90.21799 -101.46951 171.67708 316
81.04708 -108.07761 171.77960 312
70.63692 -115.58247 171.84917 308
26.24524 -147.50038 163.23328 297
20.75439 -151.45149 166.08481 297
90.78881 -102.27990 171.68867 316
81.66662 -108.94698 171.76984 312
71.31423 -116.48122 171.86255 308
26.92034 -148.84978 163.20276 297
21.66708 -152.74493 166.14586 297
91.34528 -103.11440 171.68710 316
82.26953 -109.82944 171.77840 312
71.98565 -117.46449 171.83690 308
27.74949 -150.12836 163.17062 387
22.59198 -153.95079 166.09163 297
91.92989 -103.93067 171.66109 316
82.89075 -110.73739 171.76703 312
72.64066 -118.39353 171.81508 308
30.36611 -150.02682 163.68001 388
23.48638 -155.18161 166.11456 297
-22355.33789 -16906.67773 -4944.73828 1000
92.53014 -104.77357 171.65332 316
83.52758 -111.57593 171.75809 312
73.34252 -119.33170 171.82182 308
32.94139 -149.92122 164.16006 390
24.41212 -156.39546 166.14584 297
93.09650 -105.56841 171.68559 316
84.16676 -112.44666 171.73802 312
74.01099 -120.23961 171.81343 308
35.48616 -149.83789 164.55539 391
25.36432 -157.60529 166.09872 297
93.72251 -106.38992 171.67203 316
84.79958 -113.29974 171.75919 312
74.68597 -121.22052 171.81975 308
37.98602 -149.71956 164.98750 392
26.26307 -158.84618 166.14490 297
94.32819 -107.20052 171.66034 316
85.44592 -114.20173 171.75500 312
75.37537 -122.10131 171.83403 308
40.42830 -149.68269 165.42043 393
94.90744 -107.98048 171.67522 316
86.09476 -115.03940 171.74008 312
48.02219 -145.40012 163.38608 300
42.80371 -149.58946 165.86342 395
95.52467 -108.77027 171.65535 316
86.74107 -115.88202 171.72112 312
48.73914 -146.57457 163.37434 300
44.98890 -149.67485 166.24976 302
-33521.80859 -27294.12109 3016.24463 1000
96.15531 -109.56459 171.64226 316
87.38732 -116.75783 171.69601 312
49.45940 -147.78709 163.33986 300
45.91908 -150.70900 166.26060 302
96.77547 -110.35790 171.64896 316
88.08266 -117.61278 171.70345 312
50.22367 -148.94058 163.28194 300
46.79972 -151.82396 166.23283 302
97.39124 -111.14855 171.61703 316
88.77060 -118.43501 171.69965 312
52.05857 -149.20644 163.59453 399
47.69301 -152.87080 166.25232 301
98.06114 -111.94917 171.62027 316
89.44578 -119.26723 171.67799 312
54.28706 -149.14220 163.98671 400
48.63302 -153.95033 166.20494 301
98.68405 -112.74933 171.63170 316
90.11228 -120.08818 171.68059 312
56.48085 -149.05963 164.38290 401
49.52094 -155.05109 166.23248 301
99.32922 -113.49964 171.62013 316
90.77811 -120.95245 171.69409 312
58.58408 -148.97269 164.79680 402
50.48185 -156.06143 166.24149 301
99.94902 -114.29464 171.63005 316
67.21470 -143.15820 163.52870 304
60.74556 -148.91759 165.16765 404
51.37863 -157.16234 166.26437 301
100.60892 -115.06895 171.60863 316
67.96255 -144.22137 163.48499 304
62.81777 -148.79599 165.56042 405
52.32406 -158.21786 166.26167 301
-44228.92969 -39702.65625 -10694.21484 1000
-1077.60547 -1167.62476 42.52227 375
101.29214 -115.78959 171.58374 316
68.73244 -145.22002 163.47208 304
64.85816 -148.75621 165.93430 406
-1064.49280 -1169.88428 43.30540 478
-1067.48511 -1172.92126 71.75948 478
-1071.57239 -1176.55200 100.21688 433
101.94114 -116.56839 171.58516 316
69.47200 -146.25517 163.45096 304
66.89336 -148.66173 166.26601 407
-1057.59497 -1178.19409 43.53484 494
-1059.93408 -1180.60364 71.72733 494
-1062.16943 -1182.75879 100.45333 494
-1064.73743 -1185.11658 128.74875 490
102.61773 -117.30946 171.59924 316
70.22872 -147.29253 163.41937 304
67.89240 -149.46791 166.32555 306
-1057.69104 -1192.81409 42.32085 351
103.27113 -118.08194 171.58533 316
71.03607 -148.33965 163.36900 304
68.79636 -150.40959 166.35965 306
103.93176 -118.82841 171.56793 316
72.77625 -148.43837 163.70569 410
69.73711 -151.36246 166.33311 306
104.61495 -119.59438 171.57547 316
74.65639 -148.37929 164.04706 411
70.64020 -152.28337 166.35394 306
84.33114 -140.74098 163.68182 308
76.59949 -148.30484 164.37602 412
71.52937 -153.18080 166.33540 306
85.07429 -141.64761 163.64047 308
78.43241 -148.22739 164.76512 413
72.47445 -154.14372 166.36734 306
-19846.25586 -19808.74805 2962.23755 1000
85.84668 -142.58298 163.63101 308
80.28353 -148.14442 165.08519 414
73.40591 -155.03282 166.34599 305
86.60360 -143.50221 163.60172 308
82.06880 -148.07539 165.40048 415
74.31244 -155.93527 166.35765 305
87.37829 -144.44229 163.59151 308
83.87592 -147.99263 165.71654 416
75.21629 -156.83420 166.35062 305
88.16371 -145.32558 163.52477 308
85.64522 -147.97823 166.05901 417
-1485.57043 -1776.40601 52.34657 411
88.90181 -146.24620 163.52759 308
87.33070 -147.87068 166.38890 419
-1472.09595 -1784.00928 52.54577 480
-1475.60022 -1787.96350 92.80350 485
89.72719 -147.16792 163.45522 308
88.34287 -148.61305 166.41292 310
90.76185 -147.79059 163.55096 420
89.21069 -149.41228 166.40854 310
92.44727 -147.72157 163.88176 421
90.09151 -150.21385 166.41982 310
94.06501 -147.62865 164.18359 422
90.99508 -151.01837 166.45555 310
-1894.40442 -2338.86035 6.28900 263
95.72432 -147.56384 164.46600 423
91.90501 -151.84839 166.41563 310
-1870.70483 -2342.29370 6.84478 498
-1877.14685 -2349.83032 58.00981 485
97.39188 -147.45233 164.81819 414
92.80717 -152.65173 166.45261 310
99.08332 -147.32001 165.15927 415
93.76347 -153.38947 166.44876 310
100.76406 -147.15013 165.47443 416
94.65181 -154.19585 166.47557 310
102.38527 -146.97672 165.77243 417
95.60635 -154.95784 166.46158 310
103.99108 -146.81058 166.12254 418
96.49126 -155.70235 166.46198 310
105.64721 -146.67305 166.43323 419
97.40833 -156.46817 166.46147 310
106.59874 -147.27057 166.48039 314
107.45716 -147.99344 166.46840 314
108.32960 -148.66060 166.45325 314
109.18333 -149.35706 166.47110 314
110.07737 -150.05853 166.43550 314
110.97401 -150.76485 166.45351 314
111.84474 -151.45360 166.44684 314
114.98385 -149.11595 167.46400 316
115.85867 -149.78720 167.47691 316
116.73673 -150.48250 167.44736 316
117.62274 -151.13673 167.44827 316
120.32739 -149.25031 168.29892 490
-9831.67676 -14470.94141 -3610.36523 1000
124.43556 -148.97623 168.98540 489
126.21378 -148.27568 169.40399 437
127.37421 -148.43349 169.55440 487
-24683.31836 -41607.56250 -5418.89746 1000
-4942.96045 -16422.02539 4509.05859 1000
-10.03315 -1673.95337 522.12781 1000
7621.93262 -26882.71094 -3929.44067 1000
13546.83301 -20719.38477 3401.09692 1000
19601.62500 -16217.10449 588.24084 1000
24252.31250 -20115.31836 5337.82617 1000
359.46503 -111.92046 167.60968 315
360.15744 -111.02505 167.57338 315
360.88757 -110.08882 167.60719 315
361.57129 -109.19378 167.61978 315
362.27914 -108.27348 167.61386 315
362.99109 -107.39317 167.59346 315
363.68555 -106.45348 167.61230 315
364.34686 -105.55833 167.63208 315
365.02405 -104.62535 167.63652 315
365.70920 -103.70734 167.59979 315
366.37946 -102.78193 167.62637 315
367.05026 -101.82970 167.62265 315
367.70038 -100.87110 167.64676 315
368.34988 -99.97488 167.61937 315
369.45688 -99.33872 167.48878 438
370.86316 -98.82240 167.25302 437
372.27213 -98.34197 166.99641 436
380.94025 -103.64209 167.68112 309
373.70251 -97.83318 166.74098 435
381.58777 -102.60490 167.67375 309
375.15094 -97.33799 166.49263 434
382.22516 -101.53897 167.68246 309
376.60623 -96.86392 166.25931 433
382.84659 -100.49255 167.66774 309
24944.41602 -14486.33496 -1698.15198 1000
378.06955 -96.35017 165.97661 432
383.47455 -99.46094 167.69975 309
379.54486 -95.79666 165.75487 431
384.12463 -98.42791 167.69449 311
381.05582 -95.28758 165.47063 430
384.79282 -97.40060 167.72705 311
382.59268 -94.79173 165.22406 429
385.37994 -96.36011 167.72726 311
384.12231 -94.23813 164.94600 428
386.00668 -95.30001 167.69627 311
385.34720 -93.54200 164.75104 317
386.63126 -94.22952 167.69342 311
385.95923 -92.51409 164.70976 317
387.23563 -93.19212 167.71259 311
386.61618 -91.46438 164.71867 317
388.80472 -92.62731 167.46117 426
387.23694 -90.44660 164.74374 317
390.42087 -92.08672 167.17996 425
387.83038 -89.37683 164.73662 317
392.03641 -91.48373 166.86459 424
388.46896 -88.33686 164.70334 317
393.68387 -90.92920 166.59700 423
402.43057 -95.31786 167.71732 306
389.02408 -87.28827 164.71181 317
395.34058 -90.34940 166.31180 422
403.01953 -94.15480 167.74055 306
389.67044 -86.20615 164.67870 317
397.00671 -89.76537 166.00688 421
403.64508 -92.97853 167.77333 306
390.25180 -85.18478 164.71120 317
398.68362 -89.21532 165.67822 419
404.17560 -91.82027 167.75598 306
390.84109 -84.13239 164.67909 317
400.40851 -88.59521 165.40265 418
404.75500 -90.66309 167.74471 306
391.40442 -83.03894 164.68205 317
402.13995 -87.98866 165.06514 417
405.35873 -89.48055 167.76831 306
391.99527 -81.99728 164.70403 317
403.62781 -87.24825 164.80531 313
405.90555 -88.29814 167.77531 306
369.37939 -70.61916 171.51706 317
404.25537 -86.14133 164.79385 313
406.46268 -87.11327 167.77014 306
369.83206 -69.65204 171.50716 317
404.82666 -84.99385 164.77576 313
407.41284 -86.09541 167.68890 435
370.26636 -68.69304 171.53212 317
405.40759 -83.81567 164.81355 313
408.96469 -85.33115 167.44839 434
370.71408 -67.76804 171.50423 317
405.96011 -82.67166 164.77858 313
410.51923 -84.58826 167.16753 433
1769.56665 -659.71997 76.47236 426
1773.92480 -661.42236 103.85540 425
1779.87000 -664.23505 131.37527 350
371.19351 -66.80172 171.50551 317
406.50128 -81.52773 164.81445 313
412.10846 -83.84866 166.92464 432
1768.80383 -648.16315 77.07912 496
1773.05627 -649.70325 104.48474 495
1777.69299 -652.05353 131.89104 495
1781.63171 -653.72601 159.31799 494
371.62106 -65.82018 171.54330 317
407.04831 -80.31142 164.78539 312
413.71921 -83.01431 166.70004 431
1774.55713 -639.14380 76.64151 471
1780.14124 -641.45197 104.24638 424
1791.87695 -646.07690 131.00868 279
372.06693 -64.88125 171.53758 317
407.59940 -79.17429 164.82687 312
415.34387 -82.22588 166.41505 430
425.13199 -86.18066 167.78047 301
1788.93384 -633.70374 75.96757 360
372.47339 -63.92709 171.55312 317
408.15283 -77.99998 164.82559 312
416.92657 -81.43917 166.13536 429
425.64725 -84.91382 167.81908 301
372.90671 -62.94500 171.52484 317
408.68335 -76.80266 164.80365 312
418.62805 -80.65129 165.83702 428
426.21609 -83.58683 167.80380 301
373.29260 -61.98176 171.53865 317
409.24695 -75.64266 164.80191 312
420.25180 -79.85175 165.59715 427
426.69537 -82.32257 167.83058 301
373.74603 -61.00653 171.54988 317
409.74008 -74.47105 164.75883 312
421.95511 -79.05502 165.29616 426
427.22052 -81.02177 167.79913 301
374.13046 -60.07261 171.55405 317
384.64304 -63.88840 171.65979 313
423.65286 -78.21943 164.98845 425
427.70761 -79.69714 167.84396 302
374.55612 -59.10658 171.53801 317
385.02264 -62.87461 171.63199 313
424.66885 -77.11990 164.88173 308
428.22534 -78.36741 167.81346 302
374.91779 -58.14022 171.55475 317
385.46362 -61.82343 171.63412 313
425.19901 -75.85866 164.89569 308
428.71945 -77.09048 167.87488 302
375.30991 -57.13059 171.56573 317
385.87823 -60.76637 171.63638 313
425.73520 -74.55378 164.84131 308
429.16489 -75.74677 167.87939 302
375.67953 -56.19117 171.57045 317
386.28397 -59.74910 171.68715 313
426.29004 -73.23996 164.83885 308
430.71384 -74.77821 167.61935 421
376.07959 -55.18282 171.55684 317
386.66461 -58.68784 171.69044 313
426.79294 -71.97613 164.83859 308
432.49213 -73.88703 167.33475 420
376.41647 -54.20032 171.55615 317
387.08167 -57.67770 171.65858 313
427.30487 -70.69014 164.85294 308
434.32227 -72.97744 167.01276 419
376.80795 -53.23496 171.54828 317
387.45660 -56.60851 171.67809 313
427.78696 -69.43559 164.88292 308
436.20355 -72.10657 166.74884 418
377.15036 -52.23572 171.56323 317
387.85696 -55.57762 171.69051 313
428.28741 -68.11862 164.83319 308
438.07956 -71.20934 166.38171 417
263.91577 -16.71245 203.48431 294
388.19611 -54.51491 171.66957 313
428.72910 -66.83945 164.87010 308
439.87354 -70.20000 166.13228 431
450.48300 -73.45350 167.87244 298
264.00418 -16.41179 203.50719 314
388.54831 -53.43251 171.71109 313
429.19510 -65.56438 164.86627 308
441.54269 -69.18948 165.86609 430
450.92133 -72.03373 167.90363 298
264.14380 -16.12808 203.50285 314
388.91562 -52.41013 171.70232 313
401.07327 -55.94638 171.80418 309
443.28189 -68.22238 165.56230 429
451.37469 -70.54952 167.85986 298
264.28088 -15.83467 203.50717 314
389.26996 -51.35529 171.69371 313
401.46677 -54.81552 171.80965 309
444.94797 -67.14447 165.27353 428
451.79169 -69.08970 167.91406 298
264.41061 -15.54723 203.50809 314
389.63965 -50.26174 171.71521 313
401.81738 -53.65472 171.83253 309
446.75180 -66.13262 164.96359 427
452.22839 -67.61021 167.89619 298
264.54092 -15.26022 203.50836 314
389.96146 -49.20492 171.68739 313
402.19370 -52.55194 171.79526 309
447.35745 -64.74319 164.97424 304
452.65341 -66.19289 167.89735 298
264.67801 -14.96825 203.50352 314
390.29178 -48.13455 171.68288 313
402.57315 -51.37671 171.79442 309
447.78421 -63.36877 164.93590 304
452.99026 -64.71044 167.90297 298
264.80972 -14.68224 203.50899 314
390.64151 -47.10283 171.68916 313
402.90863 -50.27076 171.81079 309
448.21155 -61.92850 164.94325 304
453.42032 -63.24922 167.92767 298
264.94617 -14.40125 203.50793 314
390.94714 -46.00794 171.72612 313
403.27267 -49.11852 171.84444 309
448.67303 -60.52891 164.94510 304
453.91891 -61.82386 167.91434 423
265.06717 -14.10487 203.50285 314
391.29019 -44.96000 171.72893 313
403.59482 -47.93385 171.82858 309
449.06625 -59.05527 164.92509 304
455.73956 -60.73140 167.62712 422
265.18875 -13.81696 203.50279 314
391.58688 -43.87832 171.71069 313
403.90829 -46.81817 171.80618 309
449.49280 -57.68423 164.96944 304
457.64862 -59.61997 167.34555 421
265.31076 -13.52537 203.50748 314
391.87335 -42.83232 171.73705 313
404.20840 -45.68800 171.84258 309
449.89166 -56.20724 164.94516 304
459.51517 -58.43792 167.05319 420
265.44394 -13.23383 203.49879 314
392.19327 -41.71761 171.70465 313
404.56952 -44.52273 171.86537 309
450.25638 -54.80618 164.99104 304
461.44638 -57.34037 166.75861 419
265.55173 -12.93886 203.50676 314
392.49246 -40.66735 171.70738 313
404.84595 -43.38471 171.86610 309
450.66586 -53.40537 164.93147 304
463.07336 -56.11119 166.46555 451
265.67252 -12.65157 203.50906 314
392.74335 -39.58494 171.70677 313
405.15036 -42.18955 171.86279 309
419.34525 -45.23982 171.99229 305
464.42288 -54.75785 166.30997 450
265.79837 -12.34981 203.50929 314
393.05521 -38.47985 171.70609 313
405.46439 -41.02794 171.82477 309
419.66879 -43.96529 172.00786 305
465.82520 -53.46013 166.11247 450
265.90411 -12.05638 203.50316 314
393.31955 -37.42262 171.73413 313
405.71304 -39.91416 171.86023 309
419.96069 -42.72498 171.96999 305
467.26013 -52.14891 165.83531 449
266.01932 -11.76901 203.50357 314
393.60226 -36.34365 171.75113 313
406.02841 -38.71952 171.85217 309
420.25510 -41.47607 171.97217 305
468.63593 -50.80407 165.66060 448
479.31027 -52.87039 168.02969 293
266.13416 -11.47230 203.50705 314
393.84860 -35.24085 171.71384 313
406.27042 -37.59256 171.86136 309
420.56033 -40.21018 172.00366 305
470.10651 -49.49517 165.46774 447
479.60141 -51.24990 168.02913 293
266.23676 -11.17712 203.50710 314
394.07968 -34.16870 171.73047 313
406.53854 -36.44565 171.82967 309
420.81671 -39.02318 171.98474 305
471.57465 -48.11661 165.24033 446
479.85501 -49.60944 168.04016 293
266.34976 -10.88704 203.51003 314
394.33020 -33.09393 171.74956 313
406.80371 -35.24446 171.84261 309
421.09052 -37.74343 171.98183 305
472.56332 -46.68923 165.07822 300
480.13983 -48.00933 168.05223 293
266.45859 -10.59130 203.50394 314
394.57458 -32.01359 171.72816 313
407.04947 -34.10022 171.84036 309
421.36731 -36.52227 171.99825 305
472.87418 -45.12657 165.09430 300
480.42725 -46.40316 168.04259 293
266.56500 -10.29436 203.49927 314
269.96402 -10.84663 203.47870 282
407.32559 -32.91349 171.88095 309
421.64120 -35.23545 172.00685 305
473.17441 -43.57452 165.05719 300
480.69250 -44.79281 168.05028 293
266.66873 -9.99086 203.50182 314
270.02817 -10.51156 203.48785 282
407.53787 -31.75605 171.86588 309
421.87970 -33.99718 171.98053 305
473.48007 -41.97805 165.11430 300
480.93002 -43.14528 168.07492 293
266.75806 -9.69498 203.50386 314
270.09500 -10.19537 203.50598 282
407.79834 -30.60165 171.88271 309
422.11111 -32.72288 172.01601 305
473.79074 -40.37582 165.09511 300
481.20450 -41.49180 168.09166 293
266.86621 -9.40201 203.50186 314
270.17709 -9.87648 203.50873 310
408.04321 -29.45495 171.84140 309
422.34476 -31.46523 172.02606 305
474.07956 -38.80378 165.11711 300
481.42023 -39.84203 168.12125 293
266.95505 -9.09966 203.50502 314
270.28247 -9.55819 203.50880 310
408.20956 -28.29066 171.88121 309
422.57761 -30.22316 171.99080 305
439.22928 -32.50224 172.15575 301
482.08252 -38.32671 168.06328 440
267.05493 -8.80062 203.50778 314
270.37570 -9.23321 203.49973 310
408.44360 -27.07835 171.85172 309
422.83508 -28.97895 172.03802 305
439.44022 -31.09609 172.15012 301
483.38626 -36.77235 167.88574 459
267.14389 -8.50478 203.50308 314
270.46927 -8.91619 203.50645 310
408.62534 -25.92352 171.87080 309
423.05081 -27.70124 172.03481 305
439.66858 -29.75467 172.20314 301
484.57751 -35.26573 167.71217 458
267.24377 -8.20908 203.49837 314
270.56360 -8.60288 203.50235 310
408.82181 -24.76597 171.88275 309
423.24359 -26.46705 172.01845 305
439.91760 -28.40666 172.18840 301
485.86429 -33.75095 167.47733 457
267.33463 -7.90808 203.50986 314
270.65430 -8.27915 203.50703 310
409.01785 -23.56143 171.87537 309
423.43890 -25.21146 172.01184 305
440.09201 -27.04358 172.17760 301
487.06509 -32.23605 167.35574 456
267.41696 -7.60412 203.50925 314
270.74667 -7.95499 203.50204 310
409.20999 -22.39419 171.85789 309
423.62244 -23.92233 172.04372 305
440.32892 -25.69388 172.20128 301
488.35062 -30.65182 167.11998 456
267.49832 -7.31064 203.49950 314
270.83292 -7.63597 203.50082 310
409.41147 -21.22244 171.87373 309
423.84555 -22.67759 172.04849 305
440.50290 -24.28568 172.17314 301
489.58276 -29.10481 166.93781 455
267.59076 -7.01322 203.50664 314
270.93338 -7.32141 203.50386 310
409.58072 -20.03134 171.89935 309
423.99844 -21.38196 172.03534 305
440.71210 -22.92406 172.18236 301
490.90958 -27.56313 166.75403 454
267.67038 -6.71215 203.50545 314
271.01001 -7.00048 203.50664 310
409.74774 -18.86312 171.88968 309
424.19092 -20.11064 172.04207 305
440.87433 -21.58238 172.20209 301
492.17636 -26.00020 166.53682 453
267.75854 -6.41090 203.50958 314
271.09052 -6.67237 203.50844 310
409.87924 -17.69952 171.89737 309
424.31165 -18.84405 172.00290 305
441.06415 -20.17459 172.16586 301
493.47156 -24.40269 166.38274 452
267.82761 -6.10774 203.50914 314
271.18289 -6.35858 203.50844 310
410.02289 -16.54265 171.91045 309
424.46912 -17.57420 172.02696 305
441.24088 -18.82553 172.17317 301
494.77814 -22.79628 166.17123 451
267.91257 -5.80296 203.50931 314
271.25427 -6.03786 203.49898 310
410.16837 -15.37821 171.89648 309
424.62561 -16.33036 172.03168 305
441.36911 -17.47662 172.17406 301
496.10571 -21.11266 165.96011 451
267.98160 -5.50183 203.50644 314
271.33749 -5.71266 203.50595 310
410.30164 -14.15447 171.89839 309
424.81400 -15.03474 172.00258 305
441.54453 -16.05814 172.19749 301
461.08362 -17.28654 172.34790 297
268.06110 -5.20073 203.49802 314
271.41040 -5.39451 203.50822 310
410.43484 -12.99346 171.88322 309
424.89996 -13.80482 172.04060 305
441.64633 -14.73429 172.17580 301
461.23508 -15.81806 172.36374 297
268.12769 -4.90601 203.50500 314
271.47952 -5.07290 203.50882 310
410.52789 -11.81096 171.90176 309
425.02658 -12.51126 172.01498 305
441.77750 -13.35751 172.20221 301
461.42337 -14.28788 172.40421 297
268.19269 -4.60434 203.49976 314
271.55563 -4.74268 203.50520 310
410.65186 -10.63683 171.90334 309
425.18854 -11.28095 172.03712 305
441.95596 -11.97649 172.16357 301
461.52670 -12.79087 172.41553 297
268.25934 -4.29529 203.50476 314
271.62747 -4.42605 203.49907 310
410.79352 -9.46643 171.86903 309
425.26321 -10.01406 172.04054 305
442.02036 -10.59012 172.19734 301
461.68518 -11.27471 172.38531 297
268.33575 -4.00119 203.50839 314
271.69113 -4.09494 203.50690 310
410.86597 -8.25830 171.90248 309
425.37332 -8.70764 172.00519 305
442.17639 -9.19881 172.19231 301
461.77618 -9.81121 172.39713 297
268.39618 -3.69367 203.51003 314
271.74789 -3.77590 203.50833 310
410.94333 -7.08175 171.87743 309
425.48004 -7.46346 172.00734 305
442.27829 -7.82885 172.19862 301
461.91464 -8.31467 172.38918 297
268.45840 -3.39101 203.49986 314
271.82199 -3.44998 203.50244 310
411.04385 -5.89004 171.88358 309
425.55966 -6.15380 172.01405 305
442.33551 -6.45724 172.18530 301
461.95947 -6.85349 172.36943 297
268.51697 -3.08880 203.49916 314
271.87332 -3.13106 203.50697 310
411.11783 -4.73589 171.88159 309
425.65753 -4.92903 172.04463 305
442.45932 -5.10454 172.19804 301
462.09143 -5.35818 172.35596 297
511.54086 -5.89217 168.29855 288
268.57422 -2.79412 203.49838 314
271.93741 -2.81137 203.51024 310
411.17700 -3.52959 171.90645 309
425.73785 -3.61816 172.04938 305
442.53464 -3.69127 172.20612 301
462.14877 -3.85035 172.41971 297
511.58389 -4.10837 168.26003 288
268.63672 -2.48448 203.51024 314
271.99026 -2.49197 203.50981 310
411.26102 -2.36030 171.90935 309
425.76221 -2.35680 172.03029 305
442.55466 -2.33373 172.18930 301
451.57748 -2.32844 174.34328 424
511.62112 -2.30300 168.32137 288
268.68784 -2.18685 203.50221 314
272.05591 -2.15663 203.50586 310
411.33990 -1.16888 171.90419 309
425.87589 -1.09983 172.03493 305
442.64557 -0.95735 172.18340 301
462.27271 -0.87326 172.40501 297
511.59167 -0.48939 168.32764 288
268.74057 -1.87647 203.49817 314
272.10059 -1.83989 203.50700 310
411.37521 0.01345 171.90994 309
425.88156 0.20125 172.02711 305
442.68250 0.41252 172.20378 301
462.31503 0.67342 172.37885 297
511.70908 1.31974 168.32979 288
268.79538 -1.58141 203.51009 314
272.15433 -1.51445 203.50558 310
411.43329 1.17091 171.88811 309
425.93576 1.42741 172.02263 305
442.72916 1.78878 172.19528 301
451.81735 1.96070 174.27853 421
511.79843 3.05525 168.27856 288
268.84259 -1.27401 203.50826 314
272.20853 -1.18555 203.50087 310
411.44077 2.35960 171.87717 309
425.99954 2.75995 172.04237 305
442.80157 3.13645 172.19415 301
462.41977 3.62875 172.39528 297
511.95844 4.93473 168.24968 288
268.88892 -0.97095 203.50922 314
272.24918 -0.86323 203.50443 310
411.50244 3.55399 171.91684 309
425.99692 3.99096 172.00844 305
442.77734 4.50149 172.21918 301
462.41910 5.13395 172.41006 297
268.92761 -0.66633 203.50220 314
272.29877 -0.54741 203.49698 310
411.50806 4.70706 171.89401 309
426.00345 5.28712 172.04185 305
442.81189 5.92022 172.21458 301
462.47311 6.62141 172.40274 297
268.97366 -0.36192 203.50584 314
272.33377 -0.21578 203.50041 310
411.52530 5.92173 171.87991 309
426.06802 6.53306 172.06110 305
442.80228 7.29563 172.20946 301
462.44458 8.12355 172.39166 297
269.01553 -0.06252 203.50285 314
272.38773 0.10406 203.50230 310
411.52222 7.10044 171.90431 309
426.07123 7.80215 172.03090 305
442.81924 8.65262 172.20045 301
462.50854 9.63095 172.37828 297
269.06046 0.24309 203.50633 314
272.41669 0.42436 203.50214 310
411.50513 8.24934 171.91582 309
426.07263 9.09572 172.02766 305
442.81430 10.04317 172.20700 301
462.47318 11.15623 172.40437 297
269.09863 0.53889 203.50117 314
272.45892 0.75397 203.50130 310
411.53622 9.43216 171.86917 309
426.06067 10.34965 172.02379 305
442.83459 11.38597 172.18063 301
462.47849 12.65568 172.38583 297
269.13162 0.84621 203.50604 314
272.49689 1.08018 203.49731 310
411.48984 10.60930 171.89549 309
426.03912 11.66245 172.04910 305
442.78897 12.75846 172.19803 301
462.39316 14.11376 172.37143 297
269.16324 1.15070 203.49945 314
272.52353 1.39247 203.50319 310
411.47977 11.80282 171.91414 309
426.00504 12.87799 172.02156 305
442.78864 14.13706 172.17079 301
462.36444 15.64343 172.37627 297
269.20572 1.45071 203.50969 314
272.55475 1.71667 203.50645 310
411.44504 12.99510 171.88222 309
425.95551 14.17085 172.05038 305
442.70947 15.53857 172.18073 301
496.59863 19.86418 166.14670 453
269.22958 1.75838 203.50537 314
272.59235 2.04765 203.50171 310
411.41489 14.20316 171.90967 309
425.94019 15.46588 172.04903 305
442.69507 16.89616 172.20529 301
495.24866 21.48920 166.38779 453
269.26328 2.05580 203.50427 314
272.61694 2.36317 203.50438 310
411.39325 15.36565 171.87276 309
425.88016 16.70879 172.01247 305
442.64938 18.27924 172.18869 301
493.96933 23.11473 166.59369 454
269.28992 2.35719 203.50012 314
272.63846 2.69687 203.50337 310
411.34720 16.54725 171.90073 309
425.83109 17.99352 172.02530 305
442.59262 19.67416 172.21043 301
492.70990 24.61403 166.79027 455
269.31870 2.65739 203.50380 314
272.71124 3.02352 203.49500 281
411.24945 17.74028 171.86719 309
425.75006 19.24713 172.00404 305
442.50146 20.99548 172.21964 301
491.46368 26.17539 166.96771 456
269.33463 2.96366 203.50348 314
398.59149 17.48557 171.77455 313
411.20547 18.88944 171.89120 309
425.69733 20.54902 172.02884 305
442.43939 22.38402 172.16162 301
490.19772 27.77196 167.21693 457
269.36273 3.26414 203.50174 314
398.48505 18.59216 171.78227 313
411.15170 20.08789 171.91031 309
425.62903 21.81419 172.01233 305
442.31641 23.73753 172.19438 301
488.96466 29.31982 167.40120 458
269.38257 3.56598 203.50160 314
398.43130 19.69030 171.75668 313
411.09055 21.23487 171.85878 309
425.50266 23.03971 172.04085 305
442.24341 25.11018 172.18942 301
487.69360 30.77756 167.63939 458
269.39954 3.86605 203.50098 314
398.37796 20.80450 171.78105 313
410.98529 22.42120 171.87698 309
425.43787 24.34785 172.05394 305
442.14795 26.52906 172.20462 301
486.48135 32.29929 167.78461 459
269.41089 4.16785 203.49947 314
398.26392 21.88643 171.74570 313
410.91272 23.59799 171.90990 309
425.31302 25.60508 172.03180 305
442.02957 27.86893 172.21089 301
485.27353 33.78205 168.00078 460
269.42496 4.47329 203.50665 314
398.19205 22.97342 171.78239 313
410.79715 24.77082 171.88715 309
425.23093 26.86885 171.99913 305
441.87259 29.24795 172.18535 301
484.51263 35.36095 168.12280 294
269.43533 4.78148 203.50212 314
398.09579 24.06168 171.74382 313
410.71735 25.94885 171.90259 309
425.08203 28.11548 172.00952 305
441.79770 30.59473 172.17793 301
484.46423 37.03952 168.12975 294
269.44135 5.07930 203.50810 314
397.98566 25.16006 171.73865 313
410.60559 27.12482 171.86784 309
424.99249 29.35983 172.04265 305
476.82977 37.49221 165.07697 300
484.38928 38.61375 168.09535 294
269.45142 5.37804 203.50073 314
397.86523 26.28410 171.76379 313
410.46155 28.32811 171.89436 309
424.83270 30.65467 172.02571 305
