# .PCD v.7 - Point Cloud Data file format
VERSION .7
FIELDS x y z rgb
SIZE 4 4 4 4
TYPE F F F U
COUNT 1 1 1 1
WIDTH 1385
HEIGHT 1
VIEWPOINT 6157.127930 -4109.817871 140.980209 0.158781 -0.127337 0.001754 0.979066
POINTS 1385
DATA ascii
51.74038 -14.79323 196.34024 443
49.13501 -14.97421 198.97163 441
46.40319 -15.18814 201.65338 438
43.64761 -15.40594 204.45291 435
40.78215 -15.63098 207.30215 433
37.83764 -15.84729 210.25104 430
-179.58374 -32.54871 223.15242 384
84.64890 -13.08530 178.40739 464
79.28082 -13.54242 179.55399 312
68.53395 -14.43926 179.59132 459
66.25635 -14.63424 181.81752 457
63.96040 -14.81564 184.09595 454
61.58818 -15.01705 186.43266 452
59.19823 -15.23365 188.79474 450
56.74857 -15.41463 191.23994 447
54.19838 -15.63817 193.75282 445
51.62555 -15.84566 196.28789 443
48.98030 -16.07143 198.94769 440
46.31976 -16.32306 201.64214 438
43.53798 -16.55674 204.45538 435
40.66724 -16.78109 207.28255 432
37.67756 -17.03771 210.25085 430
-179.63173 -35.06266 223.19757 384
-186.58328 -35.77010 271.08182 399
-186.82845 -35.72561 277.92001 496
-186.82765 -35.79233 284.87796 496
-186.77646 -35.75763 291.84976 495
84.56937 -13.96665 178.40517 463
79.34211 -14.44809 179.53859 312
68.42431 -15.42367 179.54510 459
66.19118 -15.61027 181.79724 457
63.89093 -15.80169 184.05200 454
61.54688 -16.04347 186.40262 452
59.12923 -16.22655 188.75212 450
56.63088 -16.47163 191.21864 447
54.10855 -16.71099 193.71931 445
51.52804 -16.92361 196.29471 443
48.88048 -17.20801 198.90228 440
46.14764 -17.41125 201.62454 437
43.40937 -17.68973 204.43420 435
40.52980 -17.93190 207.28960 432
37.56437 -18.20676 210.26208 429
-179.61597 -37.60051 223.13321 384
84.51269 -14.83128 178.33521 463
79.40961 -15.31730 179.55843 312
68.34934 -16.40874 179.52127 459
66.10336 -16.59956 181.77036 456
63.82660 -16.84284 184.01793 454
61.42922 -17.05485 186.34589 452
59.01653 -17.27588 188.76083 449
56.54665 -17.53484 191.17249 447
54.01677 -17.76290 193.70262 445
51.41508 -18.05244 196.27448 442
48.74844 -18.28801 198.88087 440
46.03223 -18.53526 201.61304 437
43.24567 -18.83096 204.42957 435
40.37796 -19.12484 207.26089 432
37.41508 -19.38605 210.24573 429
-179.54596 -40.12276 223.12947 384
84.43551 -15.71584 178.30257 463
79.50253 -16.23056 179.53661 312
68.27690 -17.39625 179.46352 458
66.02415 -17.62441 181.72391 456
63.71878 -17.83626 184.01326 454
61.36691 -18.08050 186.33649 452
58.93987 -18.35424 188.73820 449
56.47976 -18.56443 191.15457 447
53.93838 -18.84628 193.67654 444
51.33577 -19.11171 196.25693 442
48.63012 -19.38150 198.85933 439
45.91584 -19.70473 201.62062 437
43.14199 -19.94933 204.40034 434
40.26340 -20.25003 207.26291 432
37.29706 -20.56340 210.24330 429
-179.61313 -42.68988 223.23181 384
84.38277 -16.59947 178.28198 463
79.55086 -17.11729 179.53430 312
68.19535 -18.33784 179.44623 458
65.93581 -18.58595 181.67189 456
63.62479 -18.86257 183.97093 454
61.26620 -19.11847 186.31279 451
58.84595 -19.39827 188.70770 449
56.37217 -19.65301 191.13347 447
53.86123 -19.92771 193.63214 444
51.22896 -20.18878 196.22777 442
48.54804 -20.52803 198.87299 439
45.81945 -20.79107 201.60124 437
43.02130 -21.09712 204.37421 434
40.11491 -21.40084 207.27008 431
37.12335 -21.76910 210.21858 429
-179.52448 -45.16053 223.18823 383
84.30353 -17.47651 178.22864 462
79.66617 -18.00747 179.56952 312
68.13454 -19.31946 179.41911 458
65.85609 -19.58531 181.65607 456
63.58841 -19.87768 183.94322 453
61.18926 -20.13635 186.27237 451
58.79340 -20.40463 188.65967 449
56.28206 -20.70315 191.11365 446
53.76575 -20.98511 193.62077 444
51.11337 -21.30527 196.19302 441
48.47092 -21.60064 198.84692 439
45.71332 -21.94651 201.54874 436
42.88476 -22.25195 204.33856 434
39.95606 -22.58509 207.25682 431
36.99646 -22.94943 210.21028 428
-179.58304 -47.67004 223.14871 383
84.25475 -18.39504 178.21021 462
79.73499 -18.90373 179.56956 312
68.10755 -20.33924 179.35997 458
65.82671 -20.59132 181.61073 455
63.49717 -20.90041 183.86835 453
61.10152 -21.16990 186.24217 451
58.68922 -21.48391 188.63084 448
56.21344 -21.75046 191.09163 446
53.68053 -22.08162 193.57681 444
51.04524 -22.38503 196.16969 441
48.34714 -22.72308 198.80220 439
45.60197 -23.07445 201.54463 436
42.73606 -23.41385 204.31406 433
39.86144 -23.73777 207.23305 431
36.83444 -24.10976 210.17952 428
-179.58714 -50.14649 223.22595 383
84.20822 -19.26525 178.15959 462
79.83228 -19.81214 179.54558 312
67.99364 -21.30578 179.31119 457
65.72855 -21.61487 181.57683 455
63.42894 -21.90527 183.84778 453
61.02419 -22.21715 186.18344 451
58.60818 -22.51978 188.59117 448
56.13470 -22.82708 191.06793 446
53.56752 -23.16884 193.55316 443
50.95805 -23.49619 196.12407 441
48.23869 -23.84501 198.78412 438
45.49978 -24.20841 201.53008 436
42.64064 -24.57616 204.31393 433
39.68131 -24.92082 207.20094 431
36.69544 -25.31595 210.21071 428
-179.57072 -52.68887 223.18265 383
84.12565 -20.14829 178.10493 462
79.93779 -20.69832 179.53745 312
67.92614 -22.30519 179.28525 457
65.65602 -22.60004 181.51505 455
63.33638 -22.90224 183.79678 453
60.95241 -23.26735 186.13571 450
58.52674 -23.57504 188.54376 448
56.02004 -23.91828 191.02846 446
53.45249 -24.23259 193.51463 443
50.84647 -24.59164 196.11391 441
48.15800 -24.97244 198.76073 438
45.40485 -25.34285 201.48465 435
42.51960 -25.73963 204.29996 433
39.61222 -26.13221 207.17766 430
36.57685 -26.49697 210.16771 428
-179.61346 -55.22918 223.14569 383
84.08762 -21.05200 178.07613 461
80.03677 -21.59443 179.56226 312
67.89710 -23.30508 179.25552 457
65.59410 -23.61765 181.48944 455
63.26605 -23.97001 183.77753 452
60.88685 -24.26885 186.13904 450
58.43338 -24.60391 188.53065 448
55.95514 -24.97895 190.96703 445
53.35988 -25.33330 193.51393 443
50.73064 -25.69734 196.10637 440
48.04337 -26.10487 198.75021 438
45.25444 -26.46844 201.46407 435
42.43142 -26.85628 204.27544 432
39.45584 -27.28327 207.20358 430
36.39479 -27.73455 210.19254 411
-179.65956 -57.72956 223.21693 383
84.03051 -21.91629 178.00441 461
80.14925 -22.51233 179.56071 312
67.80925 -24.28185 179.18675 457
65.54662 -24.61547 181.45581 454
63.19002 -24.95134 183.74493 452
60.79667 -25.34458 186.09050 450
58.34871 -25.67401 188.50595 447
55.87544 -26.04720 190.93620 445
53.29128 -26.41430 193.47090 443
50.64577 -26.81603 196.05182 440
47.93288 -27.19340 198.73361 437
45.18621 -27.61622 201.43083 435
42.32281 -28.01722 204.26491 415
39.13885 -28.52825 207.18433 413
35.81009 -29.00280 210.15024 403
-179.96527 -60.39940 223.23792 361
83.98524 -22.82474 177.98441 461
80.29104 -23.37870 179.52702 312
67.75193 -25.30631 179.12840 456
65.45377 -25.65509 181.39278 454
63.11299 -26.01378 183.67117 452
60.71316 -26.35488 186.02469 450
58.26297 -26.72503 188.43826 447
55.78922 -27.11515 190.90094 445
53.21403 -27.52056 193.45558 442
50.58761 -27.92435 196.02109 440
47.84594 -28.33129 198.68286 437
44.91845 -28.78886 201.40033 418
41.83799 -29.23580 204.21303 415
38.63861 -29.72728 207.14052 412
35.23777 -30.25320 210.08728 403
-180.64388 -63.05993 223.26393 362
83.92247 -23.73313 177.94087 461
80.40976 -24.27131 179.53357 312
67.70822 -26.28824 179.10165 456
65.39331 -26.63931 181.33896 454
63.05183 -27.02311 183.65468 452
60.65445 -27.42284 186.02400 449
58.23223 -27.81184 188.40169 447
55.69175 -28.20040 190.89449 444
53.09943 -28.60359 193.42540 442
50.35559 -29.05614 195.96846 422
47.43640 -29.49815 198.61436 419
44.44592 -30.00327 201.37059 417
41.35094 -30.47760 204.20113 414
38.09183 -31.01270 207.08946 405
34.64026 -31.56872 210.07523 402
-181.22112 -65.64561 223.18556 361
83.86081 -24.60970 177.89032 460
80.50893 -25.17046 179.54527 312
67.64898 -27.30646 179.06265 456
65.32449 -27.66322 181.29881 454
62.97238 -28.06309 183.58875 451
60.58185 -28.46463 185.97246 449
58.14124 -28.86885 188.38606 447
55.53251 -29.30776 190.81908 426
52.72747 -29.77280 193.32004 424
49.90871 -30.22005 195.90602 421
46.95530 -30.72896 198.55759 419
43.97184 -31.20427 201.30652 416
40.82539 -31.74210 204.15526 414
37.52533 -32.25581 207.02354 404
34.00248 -32.84498 210.04405 402
-181.94580 -68.28538 223.24347 361
83.80088 -25.52473 177.83940 460
80.63881 -26.07555 179.56430 312
67.56281 -28.31315 179.01636 455
65.25959 -28.69796 181.26187 453
62.90773 -29.11644 183.55934 451
60.47376 -29.52770 185.92497 430
57.81131 -29.98980 188.27238 428
55.08828 -30.44030 190.74382 426
52.33482 -30.90294 193.27512 423
49.48973 -31.41978 195.83989 421
46.52233 -31.92015 198.51787 418
43.46567 -32.44098 201.24730 416
40.32307 -32.96760 204.11061 406
36.88928 -33.56637 207.02766 404
33.36642 -34.17904 210.03938 401
-183.07640 -71.03236 216.42453 425
-182.52089 -70.94229 223.20276 361
83.74792 -26.44948 177.78928 460
80.79665 -26.96407 179.56274 312
67.50282 -29.28508 178.93892 455
65.19046 -29.72941 181.20056 434
62.65198 -30.18590 183.46005 432
60.09262 -30.62173 185.79346 430
57.39589 -31.09220 188.21724 427
54.72191 -31.57850 190.64040 425
51.88831 -32.06945 193.17815 423
49.05044 -32.60619 195.79411 420
46.03463 -33.10637 198.45581 418
42.99845 -33.69224 201.20059 415
39.74969 -34.26528 204.04742 406
36.30228 -34.85980 206.96489 403
32.77188 -35.49422 210.02766 400
-183.12093 -73.64102 216.46478 425
-184.92790 -74.01303 223.30669 323
83.70695 -27.34161 177.74414 460
80.92530 -27.86299 179.56117 312
67.30208 -30.31783 178.84279 436
64.80481 -30.79868 181.10152 434
62.29982 -31.27704 183.37300 432
59.69239 -31.76643 185.70622 429
57.05460 -32.23708 188.08934 427
54.30483 -32.73815 190.56512 424
51.46987 -33.25810 193.11180 422
48.59213 -33.78379 195.67981 420
45.62495 -34.35095 198.36290 417
42.53330 -34.90846 201.13333 408
39.17824 -35.54950 203.97408 405
35.71106 -36.18498 206.94318 402
32.09692 -36.83216 209.99208 400
-183.07745 -76.20036 216.43616 425
-187.47926 -77.07753 223.32243 322
83.67068 -28.25640 177.66211 459
81.08173 -28.74159 179.54794 312
66.96195 -31.38195 178.73422 435
64.47961 -31.89678 180.95534 433
61.92665 -32.34670 183.27121 431
59.33802 -32.88198 185.60191 429
56.65923 -33.38050 188.00562 426
53.87687 -33.92144 190.49548 424
51.07977 -34.45295 193.02470 421
48.13530 -35.01909 195.61629 419
45.14903 -35.59111 198.32616 416
41.95229 -36.18541 201.10458 407
38.59969 -36.79910 203.94431 404
35.12521 -37.47635 206.89787 402
31.46464 -38.17587 209.93367 399
-183.04434 -78.84234 216.44530 425
-190.05267 -80.12336 223.40353 322
83.59963 -29.15985 177.61761 459
81.24725 -29.61722 179.53732 312
66.60425 -32.46538 178.61096 435
64.11230 -32.98164 180.84210 433
61.55553 -33.46880 183.15112 430
58.92574 -34.00956 185.47932 428
56.24410 -34.54493 187.88243 426
53.47386 -35.07853 190.39331 423
50.60057 -35.63501 192.94919 421
47.71000 -36.22392 195.56230 418
44.67154 -36.82430 198.23692 416
41.38545 -37.43097 201.02875 406
38.03347 -38.12841 203.89548 404
34.48069 -38.82949 206.84924 401
30.84827 -39.54182 209.90855 398
-183.07304 -81.47646 216.46124 424
83.57864 -30.05585 177.58281 459
81.42032 -30.51442 179.53754 312
66.28550 -33.55067 178.47453 434
63.78710 -34.06477 180.74512 432
61.18195 -34.61974 183.02913 430
58.53434 -35.11798 185.37227 427
55.85860 -35.69232 187.79015 425
53.05661 -36.26322 190.26857 423
50.21821 -36.84179 192.85760 420
47.25787 -37.43795 195.49167 418
44.13120 -38.07390 198.15149 408
40.83749 -38.72986 200.97403 406
37.40034 -39.41923 203.83572 403
33.88560 -40.17859 206.81294 400
30.21814 -40.88521 209.87738 398
-183.03867 -84.10264 216.41911 439
83.49990 -30.97819 177.49496 458
81.42958 -31.42810 179.49005 436
65.92664 -34.62626 178.38380 433
63.38900 -35.17473 180.59868 431
60.82664 -35.71577 182.93239 429
58.17258 -36.28758 185.28214 427
55.44761 -36.85894 187.70207 424
52.62426 -37.42575 190.18610 422
49.73190 -38.02676 192.77510 420
46.79287 -38.66814 195.40143 417
43.57573 -39.33431 198.09000 408
40.27057 -40.02832 200.90459 405
36.83493 -40.76807 203.74887 402
33.22575 -41.50586 206.77455 400
29.52627 -42.30923 209.87111 397
-182.90839 -86.61639 216.39914 439
83.38871 -31.91884 177.41235 439
81.17088 -32.39841 179.37231 436
65.58923 -35.75707 178.21906 433
63.04483 -36.30924 180.49158 431
60.44225 -36.83759 182.80833 428
57.78313 -37.44474 185.17462 426
55.02871 -38.03377 187.58316 424
52.20649 -38.63597 190.10919 421
49.32253 -39.27775 192.64514 419
46.30130 -39.93190 195.29120 410
43.05115 -40.63261 198.02142 407
39.68398 -41.33878 200.80852 404
36.22609 -42.09106 203.72218 402
32.61164 -42.86915 206.69156 399
28.87467 -43.67389 209.82224 362
-182.81313 -89.21751 216.48341 297
83.13071 -32.87343 177.29512 439
80.87056 -33.39144 179.27557 435
65.24102 -36.82337 178.13002 432
62.69094 -37.42205 180.37216 430
60.06667 -38.01010 182.69604 428
57.41383 -38.59983 185.04184 425
54.61115 -39.20393 187.50305 423
51.77580 -39.82492 189.99602 421
48.85850 -40.48584 192.58270 418
45.73775 -41.16980 195.21230 409
42.47618 -41.92856 197.93526 406
39.09980 -42.63882 200.76920 404
35.63210 -43.45462 203.66783 401
31.96990 -44.27510 206.67122 398
28.13581 -45.11089 209.78757 361
-188.18344 -93.01958 209.51978 485
-189.55528 -93.37893 216.45042 296
82.85374 -33.86217 177.18488 438
80.60719 -34.37160 179.14095 434
64.91391 -37.96526 177.99083 432
62.35014 -38.51557 180.25867 429
59.71248 -39.13733 182.57475 427
56.99072 -39.76307 184.94122 425
54.24791 -40.39920 187.38373 422
51.39564 -41.04431 189.88980 420
48.41872 -41.70390 192.49129 411
45.20815 -42.45830 195.12349 408
41.92012 -43.23459 197.85214 406
38.53293 -43.98132 200.67154 403
35.02105 -44.81644 203.57242 400
31.37097 -45.64856 206.61070 398
27.46105 -46.53094 209.75931 358
-187.72815 -95.55436 209.48344 485
-196.47176 -97.53959 216.38202 295
82.60401 -34.82510 177.05939 437
80.34036 -35.34674 179.02930 434
71.97079 -37.34133 179.63541 308
62.00494 -39.68633 180.13393 429
59.33386 -40.30582 182.44971 426
56.61532 -40.93533 184.82945 424
53.82851 -41.59689 187.26595 422
50.95865 -42.26422 189.77740 419
47.90269 -42.99199 192.37698 410
44.67394 -43.74236 195.03108 407
41.38693 -44.50651 197.77956 405
37.91550 -45.32553 200.60724 402
34.35794 -46.16729 203.55927 400
30.66450 -47.03426 206.60001 397
26.72670 -47.98196 209.73265 357
-187.28850 -98.15015 209.48106 485
82.34553 -35.79809 176.93709 437
80.02999 -36.36814 178.91151 433
72.19527 -38.24209 179.60271 308
61.60704 -40.80237 179.98624 428
58.93106 -41.44322 182.29347 426
56.22174 -42.11697 184.73444 423
53.39964 -42.81023 187.18481 421
50.52642 -43.51244 189.70706 412
47.38186 -44.25597 192.28484 409
44.14565 -45.04721 194.93694 407
40.80738 -45.86660 197.66991 404
37.34061 -46.68827 200.53839 402
33.76759 -47.53685 203.46689 399
30.02302 -48.44534 206.50870 396
25.99641 -49.45433 209.69762 357
-186.78558 -100.70076 209.52814 486
82.07159 -36.82119 176.81787 436
79.79625 -37.39454 178.77016 432
72.40475 -39.19592 179.63815 308
61.25733 -41.96281 179.85175 427
58.57540 -42.60783 182.21059 425
55.82215 -43.29416 184.58691 423
52.98896 -44.02676 187.04964 420
50.03873 -44.76219 189.58127 411
46.86908 -45.56577 192.19029 409
43.61089 -46.34662 194.82401 406
40.24728 -47.20050 197.58679 403
36.71652 -48.04714 200.47464 401
33.12735 -48.95881 203.41266 398
29.39294 -49.87388 206.46793 395
25.24611 -50.93493 209.67975 356
-187.14711 -103.52728 209.45259 295
81.82004 -37.79247 176.66618 436
79.50479 -38.38143 178.66803 432
72.62613 -40.13599 179.62111 308
60.89702 -43.10101 179.73671 427
58.19705 -43.82809 182.07741 424
55.41918 -44.50938 184.48666 422
52.58834 -45.24255 186.94028 420
49.50567 -46.00505 189.45038 410
46.34975 -46.81083 192.04207 408
43.03479 -47.68036 194.72954 405
39.68252 -48.55257 197.53770 403
36.14246 -49.43359 200.37515 400
32.50889 -50.36151 203.36807 397
28.75608 -51.34286 206.45186 395
24.32877 -52.45919 209.59970 341
81.56055 -38.81665 176.53122 435
79.19781 -39.41999 178.51645 431
72.83042 -41.10625 179.63542 308
60.55398 -44.29462 179.59242 426
57.81858 -44.99659 181.92839 424
55.04181 -45.73661 184.33620 421
52.11353 -46.47146 186.80705 412
49.01374 -47.29319 189.32977 410
45.79648 -48.12285 191.97266 407
42.47876 -49.02818 194.64380 405
39.07148 -49.92259 197.40404 402
35.51243 -50.86371 200.32883 399
31.87261 -51.79048 203.26418 397
27.96450 -52.79076 206.38934 383
22.80289 -54.15474 209.56438 263
81.25664 -39.81263 176.39275 434
78.93055 -40.45274 178.38396 431
73.04658 -42.02047 179.62396 308
60.19215 -45.46309 179.43057 425
57.46020 -46.18534 181.79239 423
54.63776 -46.94590 184.24631 421
51.64574 -47.76737 186.71007 411
48.48911 -48.58592 189.23726 409
45.24850 -49.45544 191.84592 406
41.92347 -50.35752 194.54799 404
38.46912 -51.27828 197.32356 401
34.91069 -52.23128 200.20108 399
31.15602 -53.24797 203.24261 385
27.04788 -54.33611 206.28349 372
-187.81032 -111.75220 202.38722 495
81.02034 -40.82647 176.27168 434
78.67090 -41.48512 178.25468 430
73.29453 -42.95519 179.59827 308
59.80386 -46.64309 179.29248 425
57.06649 -47.38904 181.66872 422
54.20990 -48.18581 184.10243 413
51.15629 -49.03957 186.55307 411
48.00438 -49.87695 189.11064 408
44.71621 -50.81820 191.73471 406
41.38717 -51.68330 194.44641 403
37.89636 -52.64717 197.26050 401
34.20610 -53.68188 200.12796 387
30.23603 -54.78800 203.15337 384
25.96388 -55.97247 206.25833 371
-187.16631 -114.31941 202.41125 495
80.72672 -41.85271 176.12914 433
78.37216 -42.53815 178.14413 429
73.52813 -43.90197 179.59863 308
59.43074 -47.83266 179.14845 424
56.66122 -48.59843 181.52655 422
53.71186 -49.43495 183.92195 412
50.67435 -50.32662 186.42639 410
47.45989 -51.22765 189.00066 407
44.17302 -52.11979 191.61725 405
40.80797 -53.05901 194.35921 402
37.21354 -54.11407 197.15518 388
33.39053 -55.18214 200.05081 386
29.38634 -56.27563 203.05559 383
24.80894 -57.56089 206.17365 370
80.46133 -42.88275 175.99913 432
78.10350 -43.58947 177.98950 429
73.79284 -44.80000 179.61102 308
59.06817 -49.02908 179.03030 423
56.28408 -49.86160 181.40593 414
53.26958 -50.70039 183.81821 412
50.15121 -51.58527 186.27612 409
46.92523 -52.52579 188.87137 407
43.64473 -53.45803 191.51323 404
40.12410 -54.50123 194.24043 390
36.41557 -55.58394 197.02132 388
32.54411 -56.70055 199.93965 385
28.34530 -57.90755 202.95673 372
23.68073 -59.20834 206.10005 369
80.23714 -43.91743 175.83565 432
77.82640 -44.62959 177.88153 428
74.02456 -45.75454 179.61055 308
58.69789 -50.26670 178.88643 423
55.79477 -51.10873 181.23569 413
52.79499 -51.97862 183.64433 411
49.66892 -52.90379 186.14691 408
46.41925 -53.89323 188.72734 406
42.98453 -54.87243 191.35632 392
39.33447 -55.93279 194.07719 389
35.54885 -57.05875 196.92679 387
31.65711 -58.20848 199.85631 384
27.23358 -59.50080 202.87654 371
22.53848 -60.88779 206.03314 368
79.95247 -44.97855 175.71880 431
77.55148 -45.69903 177.71286 427
74.28289 -46.66784 179.59970 308
58.29725 -51.49900 178.73840 422
55.37760 -52.37927 181.08408 413
52.30805 -53.28499 183.49571 410
49.15009 -54.23851 186.03027 408
45.78888 -55.23536 188.59201 393
42.26418 -56.30624 191.22949 391
38.56440 -57.40519 193.93860 388
34.75385 -58.59497 196.79337 386
30.65552 -59.81723 199.72070 373
26.12563 -61.19303 202.74968 370
21.38701 -62.60403 205.90572 367
79.68695 -46.04276 175.55363 430
77.25282 -46.76307 177.58379 427
74.56173 -47.58412 179.61343 308
57.87509 -52.74204 178.54272 414
54.88276 -53.65161 180.90651 412
51.81154 -54.58398 183.37117 409
48.53461 -55.59451 185.84975 395
45.06803 -56.64461 188.39307 393
41.47697 -57.74976 191.06218 390
37.76328 -58.90650 193.83017 388
33.92393 -60.10268 196.68973 385
29.60583 -61.46338 199.58629 372
25.02966 -62.81779 202.64426 369
20.17610 -64.33321 205.87463 366
79.41747 -47.09208 175.41602 428
76.97867 -47.83860 177.45268 426
74.44103 -48.65372 179.49785 424
57.42668 -53.97313 178.37523 413
54.41758 -54.91813 180.77885 411
51.26163 -55.93310 183.20634 397
47.83161 -56.98842 185.69696 394
44.35823 -58.11180 188.23048 392
40.74588 -59.25648 190.91762 389
36.97153 -60.41997 193.69733 387
32.98630 -61.69517 196.51851 373
28.55019 -63.07312 199.48836 371
23.91106 -64.54623 202.53024 368
19.00183 -66.10099 205.73660 365
79.15439 -48.14600 175.23761 427
76.68186 -48.95615 177.29271 425
74.15681 -49.76196 179.35896 423
56.97309 -55.24381 178.23126 413
53.88575 -56.22778 180.57123 398
50.59788 -57.31579 183.01810 396
47.13485 -58.39878 185.48888 393
43.59496 -59.53322 188.08183 391
39.96225 -60.73852 190.76808 388
36.16940 -61.94376 193.53821 386
32.00195 -63.29304 196.37143 372
27.45258 -64.78040 199.37477 370
22.71115 -66.25378 202.44215 367
17.79140 -67.84931 205.67273 364
78.89468 -49.19739 175.11313 427
76.42287 -50.04533 177.12973 425
73.84698 -50.84835 179.23203 422
56.45574 -56.55195 178.00557 399
53.25996 -57.63675 180.36742 397
49.90582 -58.69359 182.78960 395
46.40659 -59.83905 185.32280 392
42.86920 -61.03884 187.92059 390
39.16781 -62.21451 190.60817 387
35.32119 -63.48549 193.41013 374
30.92652 -64.94454 196.25220 372
26.32520 -66.43397 199.24591 369
21.58705 -68.00243 202.35970 366
16.57980 -69.67162 205.62762 364
78.63058 -50.30160 174.93535 426
76.10539 -51.12893 176.99094 424
73.55805 -51.99697 179.08197 422
64.15599 -55.14468 179.68561 304
52.58744 -59.01624 180.16347 396
49.20322 -60.12940 182.57773 394
45.71585 -61.30420 185.11589 392
42.11599 -62.51777 187.73997 389
38.36106 -63.77029 190.40956 387
34.31613 -65.10374 193.19926 373
29.88091 -66.61652 196.11267 371
25.23691 -68.16228 199.09982 368
20.36753 -69.76839 202.24478 365
15.32961 -71.46961 205.53700 363
78.35774 -51.39766 174.78928 425
75.81528 -52.24168 176.81065 423
73.27248 -53.12076 178.92973 421
64.45332 -56.12127 179.67432 304
51.93060 -60.38593 179.97437 395
48.51728 -61.56963 182.41154 393
44.98951 -62.75618 184.92337 391
41.34956 -63.99718 187.52740 388
37.56558 -65.33115 190.26054 386
33.29850 -66.79971 193.06566 372
28.78536 -68.34117 195.94069 370
24.10356 -69.93063 198.93748 367
19.16340 -71.62708 202.08670 364
13.63318 -73.49778 205.41255 333
78.05432 -52.50900 174.63872 425
75.54184 -53.34972 176.66559 423
72.96085 -54.27191 178.80402 420
64.78326 -57.09977 179.69368 304
51.26938 -61.80426 179.74577 395
47.80993 -63.02718 182.18976 392
44.27732 -64.24374 184.72211 390
40.56281 -65.52279 187.38812 387
36.62452 -66.90548 190.09785 374
32.26374 -68.44964 192.90027 371
27.68605 -70.03687 195.76366 369
22.92322 -71.68627 198.84064 366
17.88813 -73.47212 201.99213 334
10.56887 -75.98743 205.20932 316
77.77159 -53.59943 174.47903 424
75.27055 -54.49195 176.49805 422
72.66531 -55.43068 178.61821 420
65.10476 -58.10482 179.66765 304
50.59528 -63.24324 179.53001 394
47.10886 -64.47299 182.00058 391
43.53700 -65.78046 184.54018 389
39.77081 -67.12069 187.18398 386
35.64436 -68.56203 189.92139 373
31.23404 -70.14510 192.69745 371
26.61766 -71.74696 195.60893 368
21.78927 -73.47942 198.66058 365
15.63941 -75.69524 201.79053 333
7.39367 -78.60136 204.99811 315
77.50075 -54.70496 174.28995 423
74.95393 -55.63641 176.36731 421
72.33762 -56.59703 178.47464 419
65.43772 -59.08060 179.68063 304
49.88060 -64.69004 179.28067 393
46.39581 -65.99548 181.75441 390
42.77919 -67.26707 184.35774 388
38.91195 -68.66425 186.97075 375
34.66277 -70.21046 189.69986 372
30.15069 -71.88882 192.53877 370
25.46238 -73.55682 195.47169 367
19.83775 -75.58364 198.44388 334
12.77717 -78.18461 201.56390 316
4.05035 -81.33041 204.85181 313
77.22662 -55.80859 174.12799 423
74.67188 -56.78988 176.17004 420
72.03741 -57.75397 178.32500 418
65.75565 -60.06425 179.69905 304
49.21400 -66.18773 179.09000 392
45.66571 -67.47611 181.53944 390
41.98716 -68.82464 184.11813 387
38.00515 -70.33932 186.78461 374
33.64042 -71.95350 189.50285 371
29.08205 -73.61790 192.33229 369
23.92561 -75.50404 195.23358 336
17.64841 -77.83247 198.22711 333
9.63970 -80.76915 201.29929 315
0.60036 -84.13693 204.61497 312
76.95256 -56.97861 173.94528 422
74.40221 -57.92053 176.00816 420
71.71819 -58.94062 178.17113 417
66.09784 -61.03670 179.66989 304
48.54441 -67.61854 178.85211 391
44.95172 -68.98074 181.34273 389
41.25501 -70.41129 183.93861 386
36.98307 -71.99066 186.56781 373
32.57059 -73.63898 189.28145 370
27.90913 -75.38509 192.10443 337
21.80926 -77.70157 194.95546 335
14.99830 -80.25521 197.96588 316
6.39697 -83.49840 201.03484 314
-2.93331 -87.00002 204.41068 311
76.70288 -58.11200 173.75439 421
74.09021 -59.07738 175.83279 419
71.19533 -60.20778 177.93073 388
66.46115 -61.99584 179.66615 304
47.83967 -69.14539 178.58424 390
44.18552 -70.54025 181.09811 388
40.29980 -72.03042 183.71321 374
36.03035 -73.66359 186.35831 372
31.55057 -75.38622 189.10158 369
25.86411 -77.58940 191.81619 336
19.63229 -79.96719 194.73242 334
11.91296 -82.94028 197.66377 315
3.01153 -86.30596 200.78819 313
-9.54572 -91.14516 204.05826 267
76.41538 -59.24503 173.59187 420
73.69916 -60.29915 175.67455 389
70.56237 -61.54794 177.69678 387
66.82855 -62.99137 179.67355 304
47.14085 -70.67599 178.35603 389
43.44660 -72.08814 180.90131 387
39.38114 -73.71867 183.43513 374
35.03793 -75.40152 186.08839 371
29.84785 -77.42762 188.75543 337
23.78648 -79.78929 191.51117 335
17.17101 -82.35880 194.39973 317
8.72220 -85.67654 197.33847 314
-0.51189 -89.29691 200.49054 312
76.13647 -60.39165 173.42319 420
73.11427 -61.62710 175.41391 388
69.88117 -62.90076 177.44502 386
67.03661 -64.03977 179.65515 398
46.40359 -72.19310 178.12772 388
42.61861 -73.68321 180.64725 375
38.41049 -75.40752 183.18016 373
33.67204 -77.29136 185.79932 339
27.79745 -79.60357 188.40425 336
21.65787 -82.02275 191.21436 334
14.13995 -85.03176 193.99281 316
5.36077 -88.52525 197.01468 313
-8.95219 -94.23288 199.89069 267
75.55880 -61.70430 173.14894 390
72.44070 -62.97264 175.13173 387
69.21261 -64.27602 177.17181 385
66.34501 -65.44209 179.39362 397
54.55164 -70.19975 179.76619 300
42.04782 -74.56187 180.57407 374
37.37462 -77.11346 182.92606 340
31.76124 -79.39671 185.43852 338
25.76565 -81.83637 188.04367 335
19.40795 -84.41730 190.87639 317
11.05141 -87.79467 193.62596 314
1.65853 -91.60230 196.61896 285
74.96875 -62.99038 172.88863 389
71.80618 -64.30872 174.85196 387
68.53870 -65.65307 176.90710 384
65.70219 -66.79701 179.13261 396
54.94040 -71.23946 179.75398 300
40.74471 -77.04540 180.09113 373
35.52893 -79.23243 182.51923 339
29.81021 -81.58074 185.05147 336
23.68338 -84.13012 187.70074 334
16.42743 -87.07526 190.42601 316
7.79859 -90.62159 193.20071 313
-8.36622 -97.27707 195.65392 267
74.37698 -64.33630 172.60924 388
71.15630 -65.65724 174.57439 386
67.84949 -67.04413 176.65082 383
65.03436 -68.20640 178.88170 395
55.32664 -72.30074 179.74548 300
39.27615 -79.01456 179.73834 340
33.70060 -81.36547 182.12033 338
27.77280 -83.84208 184.66751 335
21.54171 -86.44521 187.31068 333
13.38201 -89.86323 189.98984 315
2.66893 -94.30990 192.60977 285
73.75530 -65.66644 172.30559 387
70.50099 -67.03224 174.29202 385
67.18259 -68.48542 176.36435 382
64.37434 -69.66712 178.67166 394
55.74374 -73.34349 179.77647 300
37.48534 -81.12794 179.28018 339
31.78234 -83.56549 181.66573 337
25.72253 -86.13987 184.23990 334
18.72429 -89.13486 186.82327 316
10.17290 -92.75436 189.47264 314
-7.59441 -100.29377 191.48145 267
73.11411 -67.02476 172.02170 386
69.83499 -68.45534 174.00269 384
66.47234 -69.92167 176.07867 381
63.65635 -71.12109 178.41019 393
56.15519 -74.37324 179.77071 300
35.63803 -83.23910 178.79811 338
29.81089 -85.77447 181.25533 336
23.59218 -88.45061 183.81793 333
15.72572 -91.90983 186.31958 315
3.82944 -97.02684 188.64346 285
72.90005 -68.22234 171.81065 316
69.21435 -69.87429 173.72401 383
65.78326 -71.35815 175.79774 394
62.96765 -72.60142 178.13408 392
56.60680 -75.42164 179.74339 300
33.74144 -85.47698 178.33711 337
27.78151 -88.12177 180.75761 334
20.99071 -91.08961 183.30754 316
11.64927 -95.18796 185.67657 286
-6.70782 -103.29434 187.24394 266
73.30180 -69.16396 171.82454 316
68.50366 -71.30012 173.39633 382
65.11962 -72.80425 175.53331 393
62.28194 -74.09059 177.84447 391
57.01457 -76.44936 179.74525 300
31.85709 -87.74431 177.86295 336
25.72602 -90.47233 180.33617 333
18.03148 -93.88187 182.70390 315
4.99167 -99.75214 184.63596 285
73.69218 -70.10559 171.84030 316
67.82595 -72.75159 173.11835 381
64.43563 -74.28628 175.25871 392
61.60902 -75.60094 177.60765 390
57.47034 -77.49908 179.75711 300
29.87275 -90.05769 177.37694 335
23.35232 -93.02486 179.79216 316
12.90718 -97.75670 181.76781 286
-5.66066 -106.20758 182.98779 266
74.05988 -71.01620 171.80006 316
67.13283 -74.21822 172.78061 380
63.75342 -75.78427 174.95673 391
60.86307 -77.13935 177.33862 389
57.91114 -78.49090 179.74161 300
42.95580 -85.40121 179.86639 296
20.34684 -95.85542 179.14825 288
6.27778 -102.41802 180.62532 285
-23.19052 -116.02865 180.34961 342
74.49992 -71.95991 171.83189 316
66.43423 -75.74989 172.49347 379
63.08899 -77.32056 174.67075 390
60.13437 -78.72133 177.05075 388
57.13986 -80.14147 179.50481 386
43.46951 -86.53629 179.89659 296
14.20467 -100.29012 177.92931 286
-18.83238 -115.79952 176.36702 343
-22.01441 -117.32524 180.43144 284
74.92208 -72.88784 171.79451 316
65.74860 -77.25679 172.18726 378
62.34955 -78.85928 174.38139 389
59.40740 -80.27403 176.71988 387
56.38179 -81.75825 179.20755 385
43.96003 -87.63204 179.87599 296
7.67178 -104.97066 176.57446 285
-14.54117 -115.62301 176.95824 345
-21.35814 -118.80510 180.39520 284
75.29893 -73.81494 171.82512 316
65.20631 -78.72840 171.89313 312
61.65958 -80.42834 174.07271 388
58.66294 -81.85760 176.45508 386
54.30289 -84.01996 178.62895 328
44.46674 -88.78667 179.87701 296
-6.22390 -113.35798 173.91451 288
-6.22428 -113.34111 178.26549 288
-20.63107 -120.34116 180.43744 284
75.70944 -74.71151 171.80542 316
65.65655 -79.67350 171.90733 312
60.93797 -82.01732 173.72951 387
57.17509 -83.85676 175.97252 329
52.10511 -86.35403 178.03769 327
44.97080 -89.89983 179.85683 296
27.41327 -98.55965 180.01823 292
2.95485 -110.58614 179.63831 290
76.17074 -75.66384 171.81996 316
66.12638 -80.68059 171.89578 312
59.98779 -83.76196 173.37628 329
55.09516 -86.21614 175.33786 327
49.91189 -88.79486 177.42067 326
44.66353 -91.40058 179.70148 324
27.96052 -99.76524 180.02444 292
6.82750 -110.36638 180.20039 288
76.57857 -76.55328 171.81992 316
66.54970 -81.64890 171.90639 312
57.97631 -86.02285 172.68231 328
52.90859 -88.57725 174.67622 326
47.64149 -91.24868 176.82787 325
42.19988 -94.04784 179.06631 323
28.52468 -100.96210 180.01366 292
7.48558 -111.68419 180.18452 288
77.03859 -77.44978 171.77478 316
67.03896 -82.61285 171.89055 312
55.88332 -88.36317 172.01247 327
50.69364 -91.03368 174.02080 325
45.30325 -93.87673 176.18547 324
39.69234 -96.73270 178.43362 322
29.13971 -102.19573 179.98438 292
8.10047 -113.04019 180.17955 288
77.49144 -78.36189 171.80440 316
67.51672 -83.59852 171.86169 312
56.22679 -89.51735 171.99266 308
48.42355 -93.59575 173.32986 324
42.84516 -96.53645 175.48918 323
37.09214 -99.51117 177.77751 321
26.59999 -105.03877 179.42039 274
8.78838 -114.38064 180.14833 288
77.94999 -79.29182 171.78288 316
67.99395 -84.58441 171.88722 312
56.73038 -90.54362 171.95110 308
46.04463 -96.21854 172.61235 323
40.31768 -99.25596 174.81129 321
33.20061 -103.07276 176.84943 273
15.97737 -112.18959 177.32277 273
78.40168 -80.20518 171.80824 316
68.49545 -85.51952 171.86343 312
57.26191 -91.56892 171.93907 308
44.37389 -98.54391 172.07069 304
37.71497 -102.15786 174.05890 320
22.75231 -110.20305 174.55133 272
-54.59900 -151.84682 163.90874 371
78.86147 -81.07146 171.78687 316
68.98552 -86.47304 171.86279 312
57.78291 -92.60387 171.98024 308
44.96366 -99.65812 172.06509 304
30.56800 -107.54285 172.30878 272
12.69077 -117.33405 172.35336 296
-50.63437 -151.90506 164.47395 372
79.31651 -81.99780 171.75508 316
69.47173 -87.44831 171.84744 312
58.31146 -93.68094 171.93913 308
45.48921 -100.76952 172.06329 304
30.69254 -109.00694 172.19844 300
13.31393 -118.64156 172.32643 296
-46.79811 -151.97061 165.08719 364
79.79622 -82.89259 171.75624 316
69.97515 -88.43403 171.85883 312
58.87307 -94.69164 171.92755 308
46.09598 -101.84969 172.08226 304
31.33435 -110.17471 172.16219 300
13.99724 -119.95770 172.30290 296
-44.89257 -153.11957 165.26820 286
80.27345 -83.77953 171.75201 316
70.51015 -89.37704 171.83936 312
59.36820 -95.71471 171.96988 308
46.67356 -102.98288 172.07176 304
31.95628 -111.37421 172.15918 300
14.71010 -121.22570 172.31276 296
-43.97193 -154.81679 165.24104 286
80.75254 -84.66888 171.77892 316
71.02808 -90.31445 171.84990 312
59.94281 -96.75036 171.92168 308
47.25305 -104.06609 172.06398 304
32.58883 -112.56721 172.14375 300
15.42967 -122.54205 172.31946 296
-43.10602 -156.45384 165.18526 286
81.25562 -85.53844 171.78418 316
71.51067 -91.25039 171.86653 312
60.52237 -97.73675 171.92111 308
47.89832 -105.17596 172.06656 304
33.28225 -113.73337 172.16986 300
16.12831 -123.80289 172.32361 296
-42.12835 -158.05582 165.18350 286
81.75695 -86.45953 171.76370 316
72.03935 -92.22940 171.84065 312
61.06258 -98.78980 171.93379 308
48.47441 -106.27104 172.03055 304
33.91763 -114.97829 172.15054 300
16.84945 -125.15260 172.31624 296
-41.21138 -159.72557 165.20064 286
82.23676 -87.32888 171.77214 316
72.59738 -93.13985 171.82045 312
61.66270 -99.79603 171.90323 308
49.11758 -107.36345 172.04893 304
34.62674 -116.14449 172.15860 300
-23.86744 -151.41716 163.44690 372
82.74982 -88.18084 171.74243 316
73.11634 -94.11853 171.81203 312
62.24783 -100.79308 171.90338 308
49.70560 -108.41623 172.01733 304
35.27706 -117.29455 172.13564 300
-20.36176 -151.41299 164.05774 373
83.26178 -89.06664 171.75554 316
73.65563 -95.03887 171.82802 312
62.82573 -101.78424 171.94322 308
50.34448 -109.53812 172.00948 304
35.92949 -118.51099 172.13145 300
-16.88479 -151.25661 164.56985 374
83.74611 -89.93677 171.75562 316
74.20230 -95.94788 171.83511 312
63.37093 -102.77774 171.92786 308
50.99374 -110.58936 172.03336 304
36.63037 -119.65694 172.14664 300
-13.52148 -151.23405 165.10172 376
84.27132 -90.81692 171.72691 316
74.78477 -96.88384 171.83006 312
64.00989 -103.78935 171.92601 308
51.61794 -111.69646 171.98959 304
37.33465 -120.80259 172.13235 300
-10.17105 -151.11519 165.59625 377
84.80853 -91.70706 171.74248 316
75.35440 -97.80134 171.79292 312
64.57728 -104.75474 171.89247 308
52.29922 -112.71201 172.00064 304
38.04062 -121.99582 172.13019 300
-8.85113 -152.33603 165.72389 291
85.32101 -92.56692 171.75038 316
75.88145 -98.74155 171.83005 312
65.18721 -105.74406 171.90134 308
52.90949 -113.80962 172.02866 304
38.73339 -123.14294 172.13564 300
-7.92266 -153.75125 165.72528 291
85.86904 -93.42206 171.72806 316
76.46608 -99.67599 171.81979 312
65.82644 -106.75351 171.89146 308
53.62427 -114.88980 171.99083 304
39.43215 -124.29632 172.13670 300
-6.94992 -155.10834 165.72395 291
86.39896 -94.26013 171.74127 316
77.04887 -100.55158 171.81445 312
66.43845 -107.74821 171.88826 308
54.25674 -115.94759 172.01382 304
2.42494 -150.83260 163.05621 382
-5.98230 -156.51791 165.70894 291
86.95152 -95.11758 171.72757 316
77.64400 -101.47775 171.80708 312
67.07027 -108.70115 171.89886 308
54.94313 -116.96923 171.99103 304
5.45958 -150.75267 163.55667 383
-5.00203 -157.91608 165.73392 290
87.48901 -95.96907 171.72774 316
78.25080 -102.39623 171.81049 312
67.67137 -109.69794 171.88533 308
55.61226 -118.05386 171.98294 304
8.37278 -150.69318 164.02419 384
-4.11812 -159.33958 165.76239 290
88.05157 -96.82389 171.70570 316
78.82094 -103.27809 171.77977 312
68.32807 -110.66844 171.88142 308
56.30725 -119.07755 171.99788 304
11.29579 -150.60672 164.52678 385
88.62731 -97.67188 171.68002 316
79.43409 -104.19511 171.78897 312
68.97911 -111.61349 171.86024 308
56.98163 -120.12165 171.94963 304
14.14174 -150.54315 165.02951 387
89.18781 -98.50378 171.70737 316
79.99888 -105.09335 171.76970 312
69.62382 -112.58199 171.88272 308
57.70636 -121.18937 171.97284 304
16.89304 -150.49014 165.49969 388
89.75272 -99.35271 171.69504 316
80.63679 -106.00153 171.76421 312
70.29743 -113.55330 171.84578 308
58.42996 -122.21686 171.93990 304
19.64224 -150.44347 165.93309 389
90.34955 -100.17441 171.66689 316
81.25150 -106.89778 171.78758 312
70.92872 -114.48447 171.83797 308
59.11756 -123.21107 171.94962 304
21.35003 -151.05196 166.11566 297
90.93933 -101.02303 171.70724 316
81.85084 -107.76041 171.77278 312
71.60701 -115.44463 171.84650 308
27.60424 -148.31662 163.23177 296
22.30787 -152.31645 166.13283 297
91.51031 -101.84369 171.66747 316
82.50799 -108.66343 171.74191 312
72.25615 -116.39546 171.84050 308
28.28444 -149.65884 163.17967 296
23.21954 -153.55144 166.12003 297
92.10149 -102.64207 171.66597 316
83.12112 -109.52081 171.73108 312
72.93434 -117.35768 171.84138 308
30.31216 -150.03238 163.52505 391
24.11679 -154.79588 166.14430 297
92.70731 -103.46333 171.64825 316
83.74706 -110.41444 171.76865 312
73.64592 -118.29238 171.82532 308
32.90714 -149.96260 163.93198 392
25.10650 -156.00470 166.10507 297
93.29327 -104.30338 171.67215 316
84.40903 -111.27715 171.73969 312
74.32157 -119.22911 171.84291 308
35.40417 -149.82822 164.42116 393
25.97878 -157.20755 166.08273 297
93.90005 -105.11629 171.67809 316
85.04911 -112.15956 171.72009 312
75.02554 -120.16618 171.84628 308
37.82530 -149.77188 164.80368 394
26.98128 -158.43652 166.14268 297
94.52009 -105.89835 171.65118 316
85.68845 -113.00738 171.73036 312
75.74580 -121.09574 171.84361 308
40.28027 -149.68515 165.23668 396
95.12372 -106.73216 171.63309 316
86.34413 -113.85722 171.70102 312
76.44084 -122.00280 171.81831 308
42.66502 -149.56740 165.63121 397
95.75189 -107.50517 171.65649 316
87.02522 -114.73476 171.72794 312
49.42255 -145.82899 163.39125 300
45.01300 -149.48087 166.07079 398
96.39678 -108.30901 171.65224 316
87.68652 -115.56137 171.69519 312
50.14008 -147.03889 163.35199 300
46.51404 -150.05392 166.23129 302
96.99068 -109.09219 171.63916 316
88.38609 -116.42349 171.70164 312
50.87890 -148.18773 163.32376 300
47.38584 -151.16187 166.22412 302
97.62572 -109.89937 171.61356 316
89.04367 -117.30273 171.72942 312
51.82969 -149.21414 163.30544 401
48.37753 -152.25525 166.24046 302
98.27020 -110.66874 171.60535 316
89.72693 -118.09743 171.71504 312
54.03201 -149.14243 163.76874 402
49.23273 -153.27998 166.24718 301
98.94172 -111.45960 171.63568 316
90.39786 -118.93950 171.71199 312
56.21251 -149.09517 164.16428 403
50.18745 -154.35579 166.25140 301
99.57669 -112.26802 171.62349 316
91.11797 -119.76727 171.69646 312
58.37106 -148.96959 164.50378 404
51.10679 -155.44876 166.22168 301
100.21268 -113.02695 171.62511 316
91.80240 -120.61358 171.66650 312
60.47162 -148.88483 164.87576 406
52.06622 -156.49084 166.24167 301
100.88055 -113.78307 171.62091 316
68.64268 -143.27866 163.53754 304
62.53831 -148.79704 165.25435 407
52.98733 -157.52158 166.26448 301
101.57336 -114.55260 171.57930 316
69.37649 -144.30017 163.53239 304
64.61008 -148.74561 165.62740 408
102.20470 -115.33985 171.60089 316
70.11311 -145.35374 163.49620 304
66.59528 -148.66664 166.02121 409
102.90047 -116.06041 171.60474 316
70.89880 -146.40599 163.41685 304
68.51215 -148.66049 166.30223 306
103.56884 -116.81139 171.57765 316
71.66914 -147.41751 163.39479 304
69.42137 -149.62331 166.34653 306
104.27091 -117.57048 171.59448 316
72.48820 -148.46683 163.40170 412
70.34538 -150.50734 166.34390 306
104.95329 -118.32469 171.56177 316
74.35940 -148.37457 163.72021 413
71.22218 -151.45192 166.34114 306
105.62095 -119.08376 171.55617 316
76.23392 -148.31500 164.06007 414
72.18353 -152.39124 166.36984 306
106.32405 -119.82483 171.56464 316
78.12048 -148.25450 164.41536 415
73.10236 -153.32114 166.33188 306
86.45243 -141.53284 163.67342 308
79.97578 -148.19231 164.73923 416
74.04337 -154.23422 166.37758 306
87.24709 -142.43929 163.66452 307
81.78835 -148.10321 165.10406 417
74.96720 -155.10484 166.35641 305
88.00098 -143.33618 163.58012 307
83.54308 -148.06212 165.41113 418
75.93533 -156.01617 166.34654 305
88.78873 -144.27112 163.58383 307
85.30811 -147.94063 165.72612 419
76.81877 -156.92075 166.34464 305
89.59171 -145.16415 163.52722 307
87.01946 -147.91136 166.05499 420
90.38209 -146.09949 163.53960 307
88.76627 -147.85184 166.34735 421
91.16527 -146.95914 163.51323 307
89.83305 -148.45941 166.41115 310
92.14482 -147.68446 163.50974 423
90.75129 -149.29324 166.41635 310
93.77299 -147.67639 163.85609 424
91.64885 -150.10643 166.45749 310
95.40854 -147.58897 164.16080 425
92.51884 -150.86984 166.44803 310
97.07854 -147.49298 164.44647 415
93.46080 -151.69188 166.43747 310
98.74013 -147.32457 164.78777 417
94.36002 -152.44771 166.45476 310
100.42534 -147.16075 165.10843 418
95.30957 -153.21205 166.45181 310
102.06414 -147.02232 165.43161 419
96.22202 -154.02444 166.48280 310
103.70596 -146.81241 165.74516 420
97.18543 -154.77007 166.43755 310
105.33550 -146.68452 166.05605 421
98.09975 -155.53091 166.44162 310
106.90405 -146.53152 166.35411 422
99.01355 -156.30507 166.44499 310
108.04282 -146.93723 166.47339 314
108.92858 -147.60902 166.43643 314
109.79237 -148.34581 166.48579 314
110.67990 -148.99731 166.47185 314
111.61543 -149.70432 166.44391 314
112.50691 -150.40343 166.48512 314
115.30888 -148.44289 167.32028 440
-733.73279 -1304.12390 136.17026 396
116.45699 -148.75735 167.43346 316
-721.75189 -1303.94983 136.48418 487
-722.93207 -1305.62415 162.92465 487
-724.28918 -1307.59680 189.26245 449
-726.72614 -1310.68604 215.41345 320
117.33700 -149.40535 167.43689 316
117.13386 -149.75826 170.52667 312
-713.83130 -1310.00964 136.41853 487
-715.05219 -1311.32544 162.84753 487
-717.25983 -1314.92651 188.99596 437
-717.86176 -1315.92676 215.37309 364
118.21900 -150.07198 167.42809 316
118.02541 -150.38406 170.53160 312
-710.74841 -1322.63110 136.06921 327
120.23709 -149.16957 167.93289 490
120.00526 -151.42737 167.44861 316
124.36016 -148.92627 168.66864 489
-1046.14124 -1971.66138 176.75745 347
-1030.08484 -1972.87695 177.28368 496
-1032.74915 -1977.77271 215.23470 496
-1351.67041 -2582.35156 165.71312 407
-1352.06494 -2584.03271 214.69667 316
-1331.64331 -2586.32471 165.22762 499
-1334.76038 -2590.18823 214.71332 444
369.64267 -331.40637 258.19946 1000
25947.29102 -30026.32617 -7041.20361 1000
23055.00781 -18154.61914 -7639.44580 1000
362.25427 -110.51494 167.58820 313
362.92191 -109.58072 167.62830 315
363.63144 -108.70185 167.62604 315
364.30219 -107.77271 167.62772 315
364.98117 -106.82720 167.63362 315
365.63165 -105.95679 167.59259 315
366.33032 -105.00642 167.60822 315
366.98648 -104.05396 167.64601 315
367.61282 -103.16589 167.65353 315
368.26620 -102.21350 167.61397 315
368.91058 -101.24227 167.61920 315
369.52576 -100.29992 167.62080 315
226.48564 -7.96580 215.90082 1000
370.16989 -99.37594 167.64285 315
371.22726 -98.67879 167.50455 438
372.65265 -98.22517 167.28946 437
374.07541 -97.73717 167.03485 436
382.76730 -103.04826 167.63972 309
375.47696 -97.20676 166.78485 435
383.37592 -102.02711 167.67514 309
376.88712 -96.72327 166.52086 434
384.02798 -100.95471 167.67393 309
378.35532 -96.26225 166.28897 433
384.65088 -99.91406 167.68431 309
379.81686 -95.70404 165.99226 432
385.27713 -98.89346 167.71764 309
381.27597 -95.25133 165.74147 431
385.84079 -97.82436 167.69731 309
382.79584 -94.70384 165.46652 430
386.47861 -96.76198 167.73390 311
384.28650 -94.17167 165.19812 429
387.07980 -95.75234 167.68906 311
385.80020 -93.65460 164.92685 428
387.68073 -94.70083 167.69713 311
386.96039 -92.91551 164.75970 317
388.27298 -93.59679 167.69637 311
387.57135 -91.83786 164.71068 317
388.92969 -92.57156 167.68268 427
388.17557 -90.84538 164.75786 317
390.50955 -92.06324 167.43707 426
388.75845 -89.80324 164.71423 317
392.08337 -91.50603 167.15222 425
389.38040 -88.74917 164.70723 317
393.68015 -90.93649 166.88042 424
1269.74963 -535.14154 470.06461 1000
389.94421 -87.70384 164.72989 317
395.31158 -90.39031 166.56798 423
403.99582 -94.70764 167.73294 305
390.53650 -86.61349 164.73087 317
396.96133 -89.79607 166.24164 422
404.61908 -93.52595 167.76479 305
391.12103 -85.56376 164.69087 317
398.62756 -89.25508 165.97762 421
405.13812 -92.37104 167.75916 305
391.64487 -84.49854 164.68028 317
400.34079 -88.62866 165.66078 420
405.70709 -91.22720 167.77336 305
392.24258 -83.43665 164.70979 317
402.03156 -88.05780 165.36325 419
406.24786 -90.01912 167.78302 306
392.82376 -82.38895 164.72229 317
403.78912 -87.46197 165.03967 417
406.80237 -88.82021 167.78607 306
393.31268 -81.28654 164.66397 317
405.08090 -86.61591 164.82002 313
407.34085 -87.67250 167.81393 306
370.70309 -69.88306 171.50887 317
405.60123 -85.47331 164.81902 313
407.84195 -86.46920 167.81348 305
371.10764 -68.90762 171.53291 317
406.18906 -84.32321 164.82762 313
408.79193 -85.47572 167.72652 435
371.53650 -67.96032 171.50906 317
406.74838 -83.16426 164.79092 313
410.28058 -84.70341 167.48334 434
372.00107 -67.02949 171.50758 317
407.30560 -81.99072 164.80724 312
411.84250 -83.96123 167.18002 433
372.41666 -66.07111 171.55287 317
407.81540 -80.85798 164.79556 312
413.43927 -83.16168 166.94571 432
372.85815 -65.11922 171.53499 317
408.36563 -79.67911 164.81694 312
415.02557 -82.42631 166.66580 431
373.22986 -64.15102 171.55029 317
408.90497 -78.50693 164.77965 312
416.62076 -81.64091 166.39896 430
426.48526 -85.59788 167.76572 301
373.64670 -63.18389 171.56491 317
409.38489 -77.33922 164.77269 312
418.23441 -80.85297 166.11377 429
426.97678 -84.29715 167.77051 301
374.04523 -62.21775 171.53821 317
409.92773 -76.12494 164.81418 312
419.90991 -79.99395 165.86575 428
427.49066 -83.01111 167.80392 301
374.44257 -61.24357 171.53015 317
410.41626 -74.98145 164.78467 312
421.53677 -79.20949 165.56763 427
427.97174 -81.70258 167.78569 301
374.82669 -60.28934 171.55721 317
410.94016 -73.76345 164.78397 312
423.23239 -78.42029 165.26326 426
428.47281 -80.39771 167.80405 301
375.23425 -59.31744 171.53549 317
385.72937 -63.20421 171.63635 313
424.94534 -77.60016 164.97946 425
428.94656 -79.06141 167.81523 302
375.59143 -58.36182 171.54425 317
386.15729 -62.14761 171.65994 313
425.87503 -76.46222 164.86137 308
429.41992 -77.75686 167.84209 302
375.98672 -57.37494 171.58148 317
386.52863 -61.10653 171.65190 313
426.36780 -75.18631 164.89020 308
429.91919 -76.42094 167.82898 302
376.35785 -56.39420 171.54893 317
386.92038 -60.06549 171.66139 313
426.86362 -73.87381 164.86702 308
430.34747 -75.11614 167.86130 302
376.73682 -55.41541 171.56367 317
387.30707 -59.04004 171.66508 313
427.37994 -72.58272 164.84724 308
431.96738 -74.18642 167.64546 422
377.05444 -54.43462 171.55763 317
387.68369 -57.99173 171.68205 313
427.85013 -71.36398 164.84126 308
433.74161 -73.26844 167.33189 420
377.42526 -53.45160 171.59641 317
388.05185 -56.93471 171.70406 313
428.30920 -70.03591 164.85083 308
435.56433 -72.40942 167.01982 419
264.63129 -16.35544 203.48109 293
388.42706 -55.86724 171.68074 313
428.82526 -68.78359 164.83156 308
437.38315 -71.49431 166.72806 418
264.69284 -16.04922 203.50714 314
388.78214 -54.82287 171.70966 313
429.30261 -67.44771 164.85970 308
439.23380 -70.59879 166.34973 432
264.81161 -15.76204 203.50169 314
