# .PCD v.7 - Point Cloud Data file format
VERSION .7
FIELDS x y z rgb
SIZE 4 4 4 4
TYPE F F F U
COUNT 1 1 1 1
WIDTH 1398
HEIGHT 1
VIEWPOINT 6798.104004 -3811.517822 143.665115 -0.395048 -0.142913 0.011446 0.907404
POINTS 1398
DATA ascii
480.08575 -40.16386 167.88289 441
266.09015 -9.62030 203.50827 315
269.32294 -10.05633 203.50864 311
406.65140 -28.60497 171.86404 309
420.81470 -30.51432 171.99448 305
437.23608 -32.74420 172.13855 301
481.67319 -38.71595 167.64944 440
266.17886 -9.33371 203.50243 315
269.41882 -9.74990 203.49883 311
406.84744 -27.43306 171.88553 309
421.05731 -29.24546 171.98651 305
437.48642 -31.38732 172.12421 301
482.99768 -37.27336 167.45276 459
266.25735 -9.05009 203.50771 315
269.49530 -9.45027 203.50978 311
407.05774 -26.31704 171.87486 309
421.26050 -28.00587 171.99297 305
437.64850 -30.02697 172.17987 301
484.27948 -35.74055 167.27135 458
266.33722 -8.76891 203.50861 315
269.59659 -9.14749 203.50053 311
407.20499 -25.14603 171.88583 309
421.45184 -26.81927 171.99821 305
437.85010 -28.67066 172.16466 301
485.46094 -34.26767 167.05888 457
266.42740 -8.49535 203.50714 315
269.66962 -8.84359 203.50899 311
407.41187 -23.96550 171.85455 309
421.60388 -25.54369 172.00488 305
438.04700 -27.36286 172.16124 301
486.69220 -32.68104 166.90506 456
266.51028 -8.20541 203.50638 315
269.74927 -8.54659 203.50041 311
407.60602 -22.84063 171.88258 309
421.81406 -24.32503 172.02721 305
438.21619 -26.01105 172.16617 301
487.95978 -31.20411 166.73557 455
266.59094 -7.92420 203.49985 315
269.83554 -8.23724 203.50699 311
407.75858 -21.65453 171.87704 309
422.01245 -23.05450 171.97783 305
438.44464 -24.63819 172.17749 301
489.21347 -29.59066 166.51598 455
266.65457 -7.64121 203.50038 315
269.91171 -7.93362 203.50706 311
407.88419 -20.50510 171.87532 309
422.15469 -21.82974 171.99734 305
438.57822 -23.30861 172.14679 301
490.46964 -28.05459 166.31317 454
34748.30859 -3148.56079 -399.20120 1000
266.74170 -7.35930 203.50912 315
269.98328 -7.63801 203.49820 311
408.03732 -19.35440 171.84914 309
422.31470 -20.56990 172.02451 305
438.77847 -21.99060 172.16656 301
491.73639 -26.47159 166.12903 453
266.80847 -7.07819 203.50670 315
270.06644 -7.33074 203.49890 311
408.20587 -18.20838 171.86586 309
422.47586 -19.33311 172.03285 305
438.90411 -20.63058 172.18266 301
493.03177 -24.87715 165.92911 452
266.87610 -6.79106 203.50888 315
270.13712 -7.02696 203.50273 311
408.33292 -17.05369 171.88467 309
422.59030 -18.06447 172.00758 305
439.11441 -19.27150 172.15982 301
494.37067 -23.30548 165.72215 451
266.94971 -6.51751 203.50882 315
270.20914 -6.72572 203.50160 311
408.46805 -15.90788 171.89139 309
422.74335 -16.81532 172.03455 305
439.23352 -17.89749 172.16486 301
458.46353 -19.18229 172.33859 297
267.01740 -6.22502 203.50322 315
270.27792 -6.42648 203.50035 311
408.59064 -14.70804 171.87997 309
422.86371 -15.53068 171.98683 305
439.35724 -16.56569 172.15016 301
458.63385 -17.71204 172.36427 297
267.08011 -5.94301 203.50641 315
270.33716 -6.11673 203.50476 311
408.69937 -13.57998 171.85838 309
422.97342 -14.32530 171.98354 305
439.47275 -15.20001 172.16728 301
458.77805 -16.22474 172.33423 297
267.14365 -5.66067 203.50983 315
270.41019 -5.82242 203.50822 311
408.80804 -12.39449 171.87195 309
423.07785 -13.06308 172.03651 305
439.60999 -13.88877 172.15134 301
458.89954 -14.75128 172.33736 297
267.20703 -5.38214 203.49805 315
270.46802 -5.51465 203.50203 311
408.90546 -11.25455 171.87607 309
423.18811 -11.82197 171.99422 305
439.72861 -12.51098 172.18219 301
459.01294 -13.27994 172.35710 297
507.73895 -15.29346 168.26028 288
267.26770 -5.09513 203.49901 315
270.53168 -5.20910 203.50125 311
409.00128 -10.07580 171.87808 309
423.32602 -10.56534 172.01570 305
439.81454 -11.12068 172.20868 301
459.11890 -11.86514 172.35298 297
507.81750 -13.51403 168.23666 288
267.32251 -4.81232 203.50175 315
270.58301 -4.90957 203.50926 311
409.07257 -8.91203 171.86536 309
423.40701 -9.34694 172.03075 305
439.90176 -9.77033 172.14671 301
459.20026 -10.36300 172.36377 297
507.89072 -11.75630 168.28958 288
267.38791 -4.52635 203.50397 315
270.64612 -4.60615 203.50464 311
409.17447 -7.75280 171.86581 309
423.47540 -8.08736 172.01720 305
439.98425 -8.46324 172.15356 301
459.29263 -8.93134 172.38332 297
507.88779 -9.98987 168.31248 288
267.43735 -4.23891 203.50217 315
270.70105 -4.30741 203.50789 311
409.24020 -6.55710 171.86813 309
423.55035 -6.85337 172.00786 305
440.06790 -7.13535 172.18901 301
459.37778 -7.43416 172.38104 297
507.93671 -8.20269 168.30771 288
267.49411 -3.95990 203.49960 315
270.74982 -3.99867 203.50743 311
409.32245 -5.41348 171.86372 309
423.61597 -5.56266 172.02010 305
440.16309 -5.73013 172.20523 301
459.44614 -5.93658 172.38747 297
507.94391 -6.44016 168.33498 288
264.08215 -3.66209 204.44144 295
270.80490 -3.69463 203.50899 311
409.34695 -4.26277 171.85745 309
423.69876 -4.31025 172.03598 305
440.17270 -4.38254 172.18585 301
459.54199 -4.46292 172.35924 297
507.97699 -4.68423 168.36044 288
264.11038 -3.39971 204.44382 293
270.85910 -3.38735 203.50517 311
409.40427 -3.11290 171.87628 309
423.72986 -3.08849 172.00914 305
440.25351 -3.00786 172.16545 301
452.04431 -3.02147 173.77394 425
507.98312 -2.88128 168.35953 288
264.16513 -3.14898 204.44519 293
270.90268 -3.08571 203.50151 311
409.47787 -1.92196 171.89928 309
423.76541 -1.80825 172.01192 305
440.32620 -1.67156 172.17329 301
452.34357 -1.55242 173.71915 423
507.97128 -1.12515 168.32655 288
264.21921 -2.88201 204.44267 294
270.94412 -2.78015 203.50844 311
409.52893 -0.76491 171.88667 309
423.81613 -0.55941 171.99373 305
440.33838 -0.33280 172.17509 301
459.69229 -0.05787 172.37607 297
508.05707 0.66998 168.34227 288
264.26279 -2.61755 204.43636 294
270.98874 -2.48365 203.50633 311
409.54623 0.41421 171.87265 309
423.84079 0.69904 172.02023 305
440.38852 1.02203 172.18222 301
451.87317 1.23972 173.90443 428
508.15179 2.41049 168.33482 288
264.30087 -2.35319 204.43501 294
271.04114 -2.17732 203.50729 311
409.56815 1.57335 171.85641 309
423.85181 1.91729 171.99991 305
440.40744 2.36206 172.19135 301
459.73203 2.88477 172.34331 297
508.25540 4.18038 168.33598 288
264.34583 -2.09681 204.43663 294
271.07034 -1.87034 203.50024 311
409.58234 2.72482 171.89531 309
423.88971 3.15432 172.01466 305
440.40375 3.70871 172.18111 301
459.71790 4.33862 172.32669 297
508.27039 6.00719 168.28394 288
264.38373 -1.83438 204.44505 294
271.11023 -1.57727 203.50311 311
409.59540 3.85166 171.85144 309
423.86459 4.43326 171.98738 305
440.43198 5.09790 172.19748 301
459.72980 5.87442 172.34911 297
508.38766 7.74411 168.30142 288
264.41882 -1.57111 204.44469 294
271.14676 -1.26797 203.49736 311
409.61182 5.05943 171.85983 309
423.89795 5.68480 171.98926 305
440.39880 6.41718 172.17442 301
459.70822 7.28136 172.38426 297
508.41183 9.53925 168.27937 288
264.44702 -1.31340 204.44550 294
271.17822 -0.96484 203.49892 311
409.58267 6.20140 171.89951 309
423.92242 6.93193 172.01529 305
440.40469 7.81917 172.20758 301
459.69092 8.75253 172.38097 297
508.43985 11.26745 168.27397 288
264.48221 -1.05402 204.44278 294
271.21127 -0.66547 203.50671 311
409.58865 7.34191 171.87758 309
423.87024 8.15972 172.01358 305
440.37836 9.11342 172.15941 301
459.66815 10.26750 172.37518 297
508.41351 13.08427 168.26144 288
264.50928 -0.79958 204.44749 294
271.24689 -0.36091 203.49779 311
409.58652 8.48586 171.86827 309
423.89090 9.43247 171.99164 305
440.36395 10.47231 172.15077 301
459.66275 11.73742 172.33812 297
7921.65576 490.42499 1351.16760 1000
264.54370 -0.53729 204.44827 294
271.27933 -0.06015 203.49995 311
409.55463 9.67324 171.84860 309
423.83954 10.65510 172.02344 305
440.32919 11.79057 172.18953 301
459.59515 13.16373 172.32156 297
264.55847 -0.27616 204.44687 294
271.29630 0.23975 203.49716 311
409.50555 10.82703 171.89075 309
423.82080 11.93042 172.03748 305
440.28577 13.15551 172.17201 301
459.53223 14.65512 172.36183 297
264.59009 -0.01506 204.44843 314
271.32095 0.53431 203.50752 311
409.51978 11.98750 171.89069 309
423.77222 13.16886 172.00751 305
440.25385 14.55258 172.19136 301
459.48108 16.15748 172.33597 297
264.64447 0.24565 204.43472 293
271.34583 0.84874 203.50853 311
409.45551 13.15038 171.89035 309
423.71646 14.38446 172.00446 305
440.16360 15.87955 172.16913 301
459.42517 17.56913 172.33357 297
268.12115 0.83771 203.50392 314
271.36887 1.14499 203.50923 311
409.39432 14.32337 171.87141 309
423.65802 15.64241 171.99651 305
440.12292 17.20484 172.16043 301
494.53769 22.39643 165.88452 454
268.14542 1.10877 203.50078 314
271.38831 1.44152 203.49681 311
409.31726 15.45899 171.86124 309
423.55396 16.91072 172.01910 305
440.01227 18.56232 172.15474 301
493.23877 24.02695 166.11655 455
268.15759 1.39749 203.50438 314
271.40555 1.74441 203.49767 311
409.24622 16.61803 171.88739 309
423.50897 18.14127 171.98235 305
439.98477 19.90929 172.16559 301
492.01627 25.54127 166.32718 456
268.17627 1.67210 203.50333 314
271.41840 2.04730 203.49771 311
409.18393 17.75315 171.87921 309
423.43088 19.36060 172.02682 305
439.87674 21.25081 172.16121 301
490.72998 27.05679 166.51271 457
268.19690 1.95576 203.50209 314
271.42978 2.34557 203.49940 311
409.13715 18.93742 171.84489 309
423.34360 20.60457 172.00871 305
439.76349 22.58126 172.13890 301
489.49936 28.63716 166.69424 458
268.21393 2.23284 203.50415 314
271.43793 2.64017 203.50511 311
409.02536 20.08124 171.85172 309
423.24384 21.86715 171.98752 305
439.63647 23.94908 172.13673 301
488.25418 30.12837 166.89449 459
268.21619 2.51127 203.50836 314
271.45694 2.94531 203.50371 311
408.96695 21.22777 171.88824 309
423.13986 23.14831 172.01782 305
439.55997 25.33116 172.16263 301
487.01755 31.61691 167.13152 459
268.23657 2.79055 203.50072 314
271.45868 3.25164 203.50496 311
408.85724 22.41147 171.87029 309
423.03137 24.38631 172.03043 305
439.46786 26.63715 172.17381 301
485.83182 33.10167 167.31848 460
268.24338 3.06631 203.50656 314
271.47052 3.54086 203.50519 311
408.75397 23.51686 171.85419 309
422.95682 25.59817 172.02542 305
439.31512 27.99058 172.17921 301
484.63168 34.61818 167.47562 461
268.24734 3.35453 203.50153 314
271.46268 3.84053 203.50674 311
408.61972 24.67664 171.85666 309
422.78867 26.85633 172.01254 305
439.17642 29.29902 172.14108 301
483.46155 36.06915 167.68915 462
268.25754 3.62996 203.50929 314
271.46426 4.13800 203.50983 311
408.52139 25.81119 171.86903 309
422.67081 28.06592 172.00113 305
439.02505 30.62691 172.17805 301
482.27139 37.50661 167.85226 444
268.25613 3.90595 203.50258 314
271.46957 4.42981 203.49731 311
408.36456 26.97856 171.83224 309
422.50623 29.32075 171.97919 305
438.88434 31.98520 172.17284 301
480.83405 38.92657 168.09262 294
268.25836 4.18963 203.50314 314
271.46527 4.73943 203.50902 311
154.56186 26.43715 -36.74162 309
422.35324 30.55675 171.97762 305
473.56256 39.27230 165.05447 300
480.68048 40.50600 168.05157 294
268.26233 4.45935 203.49854 314
271.46628 5.03116 203.50922 311
408.11383 29.24366 171.85989 309
422.24005 31.78333 172.01768 305
473.35522 40.86734 165.06332 300
480.56030 42.16065 168.06725 294
268.24896 4.73911 203.50053 314
271.45514 5.33289 203.50168 311
407.97064 30.44466 171.88205 309
422.05569 33.03373 172.01790 305
473.15280 42.42389 165.07924 300
480.43921 43.73378 168.02467 293
268.25739 5.01327 203.49767 314
271.45544 5.62614 203.49973 311
407.83527 31.55476 171.85155 309
421.88995 34.21997 172.00142 305
472.88568 43.94950 165.09052 300
480.27441 45.36311 168.03699 293
268.25040 5.29042 203.50024 314
271.44388 5.91513 203.50719 311
407.66840 32.70595 171.83493 309
421.71753 35.48973 171.98486 305
472.71362 45.46684 165.08534 300
480.09332 46.95619 168.01276 293
268.23282 5.56643 203.50647 314
271.42380 6.21272 203.51015 310
407.45630 33.84944 171.85764 309
421.51752 36.70263 171.97075 305
472.09045 47.00908 165.13252 449
479.87381 48.55099 168.03577 293
268.22571 5.84479 203.50078 314
271.41431 6.50675 203.50121 310
407.30017 35.01064 171.85069 309
421.37518 37.94592 171.98775 305
470.68747 48.27514 165.40201 450
479.71152 50.18041 167.99031 293
2153.41162 400.69403 149.44258 478
2153.98071 400.92270 181.77693 477
2155.28149 400.96320 213.99260 388
268.22360 6.11509 203.50224 314
271.40198 6.80223 203.50760 310
407.14691 36.12310 171.83250 309
421.15707 39.16673 172.00026 305
469.33002 49.54560 165.62000 451
479.50183 51.72703 167.95642 293
2148.40283 412.41797 149.63547 494
2151.27832 413.24030 182.04681 466
268.20297 6.39069 203.49992 314
271.38245 7.09139 203.50812 310
406.93240 37.27000 171.85721 309
420.92926 40.39164 171.97487 305
212.09241 47.20057 -43.45020 452
2152.63501 425.71140 149.22003 416
59602.12109 13208.85352 4140.97412 1000
268.20059 6.66547 203.49911 314
271.37036 7.39610 203.49791 310
406.74664 38.40021 171.86447 309
420.72690 41.60682 171.95042 305
466.60455 52.11479 166.03589 453
268.18039 6.94046 203.50607 314
271.35449 7.68731 203.50459 282
406.55023 39.53598 171.84645 309
420.51105 42.81782 171.98982 305
465.24008 53.37227 166.24237 454
268.15628 7.21648 203.50310 314
394.13748 37.72055 171.74371 313
406.32480 40.69376 171.82526 309
420.29477 44.04998 171.94899 305
463.94238 54.59223 166.42931 454
268.13898 7.48947 203.50473 314
393.92273 38.76301 171.70442 313
406.14871 41.79201 171.85039 309
451.46582 53.09719 164.92711 304
462.61542 55.84090 166.68239 455
268.12216 7.75516 203.50325 314
393.74396 39.84294 171.72475 313
405.91608 42.92896 171.82860 309
451.17804 54.45914 164.90312 304
460.91721 56.99998 166.92908 424
268.09668 8.02335 203.50470 314
393.50223 40.88176 171.71126 313
405.67648 44.04688 171.80299 309
450.86612 55.93223 164.93480 304
459.08585 58.03920 167.24730 425
268.07196 8.29211 203.49721 314
393.30182 41.94236 171.71085 313
405.44183 45.21983 171.81134 309
450.57083 57.33188 164.92686 304
457.32407 59.15825 167.56299 426
268.04486 8.56953 203.50423 314
393.07520 42.98261 171.72617 313
405.18671 46.28563 171.82530 309
450.26837 58.70801 164.94815 304
455.56769 60.16623 167.87971 427
268.01620 8.84342 203.50040 314
392.84662 44.01570 171.70341 313
404.93958 47.44547 171.82146 309
449.90796 60.11075 164.96567 304
454.90826 61.49426 167.91138 298
267.99161 9.10830 203.50447 314
392.60333 45.08207 171.69420 313
404.67520 48.55344 171.83322 309
449.54553 61.51556 164.94800 304
454.64838 62.95708 167.92981 298
267.95410 9.37117 203.49686 314
392.36841 46.14672 171.69473 313
404.42163 49.64561 171.82477 309
449.22684 62.90236 164.95348 304
454.34097 64.38932 167.90663 298
267.92200 9.64123 203.50038 314
392.12195 47.16346 171.72176 313
404.15741 50.77512 171.80836 309
448.73203 64.25536 164.93234 431
454.03342 65.86633 167.89972 298
28758.19141 8612.60156 7653.46094 1000
267.88510 9.91737 203.50578 314
391.84290 48.19927 171.67865 313
403.89954 51.91946 171.82948 309
447.08716 65.27534 165.22562 432
453.72632 67.28237 167.87292 297
267.84998 10.18961 203.50002 314
391.57980 49.23655 171.70868 313
403.59677 53.06543 171.79092 309
445.46283 66.25648 165.51353 433
453.38358 68.72318 167.84984 297
267.81769 10.44706 203.50113 314
391.35352 50.27531 171.67752 313
403.32654 54.12673 171.82353 309
443.83978 67.20436 165.80701 434
453.03580 70.15841 167.83064 297
267.77026 10.70913 203.50572 314
391.08130 51.31546 171.70241 313
431.29068 64.57978 164.83887 308
442.27087 68.20201 166.07788 435
452.69611 71.62636 167.80969 297
267.73407 10.97643 203.50955 314
390.78748 52.35711 171.68370 313
430.94064 65.83530 164.83931 308
440.68442 69.14519 166.39029 436
267.68652 11.23674 203.49799 314
390.46658 53.38222 171.67851 313
430.53009 67.07813 164.83328 308
439.11404 70.06861 166.65668 422
267.64084 11.50651 203.50363 314
390.21951 54.42373 171.69698 313
430.12424 68.37746 164.81342 308
437.36627 70.88174 166.92271 423
267.59103 11.77309 203.50397 314
389.91525 55.41959 171.66594 313
429.70102 69.66649 164.86156 308
435.63968 71.78971 167.27777 424
267.54932 12.03310 203.49796 314
389.58710 56.45053 171.65050 313
429.31937 70.94178 164.83424 308
433.93326 72.59033 167.51358 425
267.49741 12.30234 203.50714 314
389.30267 57.47438 171.68022 313
428.86938 72.17387 164.85606 308
432.26004 73.40838 167.83362 427
267.44965 12.55791 203.50723 314
388.94672 58.50912 171.66479 313
428.46329 73.44857 164.83728 308
431.83163 74.72543 167.83757 302
267.38803 12.81922 203.50240 314
388.64737 59.50332 171.66147 313
428.01715 74.71086 164.87755 308
431.44733 75.99989 167.80508 301
4770.91602 1747.97803 371.55130 446
5019.75586 1843.28003 464.08322 456
267.33157 13.07586 203.50182 314
388.32776 60.53269 171.63916 313
427.29883 75.82947 164.95541 429
431.05731 77.31692 167.79352 301
4781.90039 1783.29175 371.94852 423
4993.40479 1867.64417 463.75311 457
267.27185 13.33799 203.50423 314
387.99506 61.54903 171.63821 313
425.68893 76.64040 165.19904 430
430.63284 78.63718 167.79446 301
4797.16797 1822.77319 373.21222 407
4967.02734 1890.44592 463.62451 457
267.21744 13.60119 203.49936 314
413.01001 72.89362 164.76343 312
424.07776 77.37228 165.53067 431
430.21744 79.87462 167.79260 301
4812.92432 1862.64111 374.47046 404
4940.54395 1914.40674 462.10843 458
267.18961 13.86790 203.49655 287
412.58002 74.04031 164.76712 312
422.49417 78.17867 165.79936 432
429.80807 81.17812 167.77438 301
4830.28076 1902.44556 375.84247 383
4914.18213 1937.81616 461.90469 459
376.68533 60.29836 171.55389 317
412.12476 75.18527 164.74811 312
420.96689 78.90150 166.06090 433
429.32831 82.47266 167.74664 301
4853.56982 1945.90710 377.16135 377
4888.53711 1960.60461 461.11835 459
376.32556 61.22714 171.53374 317
411.65662 76.34721 164.79759 312
419.41208 79.66351 166.34999 434
428.91660 83.77543 167.75624 301
4882.39502 1992.40735 378.21198 363
4875.63672 1989.34045 461.15131 467
375.99866 62.17520 171.52904 317
411.22278 77.50037 164.79593 312
417.90631 80.43833 166.61058 435
4926.65771 2044.92297 379.81372 336
4894.95752 2031.45178 462.61496 375
375.65604 63.11994 171.54845 316
410.77039 78.63669 164.76515 312
416.38138 81.16080 166.86905 436
4940.16064 2086.41577 466.36646 338
375.30939 64.05824 171.53244 316
410.31931 79.80682 164.78490 312
414.88782 81.85666 167.13565 437
5003.22559 2149.50732 469.16608 338
374.95087 64.96494 171.52678 316
409.81607 80.93244 164.77629 312
413.45517 82.58350 167.36354 438
5064.67480 2213.79297 473.55283 337
374.57968 65.86106 171.53102 316
409.31192 82.06351 164.79335 312
411.97684 83.33918 167.61348 439
5129.52686 2280.39429 478.73392 336
374.18317 66.81427 171.53442 316
408.81638 83.21510 164.79965 312
410.98618 84.18452 167.77029 305
373.84595 67.72586 171.50783 316
408.32895 84.32796 164.78902 312
410.53619 85.40073 167.74086 305
396.28195 79.83649 164.64896 317
407.68710 85.41261 164.86327 441
410.05502 86.50798 167.73634 305
395.81784 80.88603 164.69543 317
406.19104 86.02100 165.12827 423
409.58511 87.73063 167.72412 305
395.37289 81.91676 164.69267 317
404.58917 86.60146 165.41563 424
409.09671 88.87228 167.70993 305
394.87866 82.95911 164.69830 317
403.01337 87.12033 165.72134 425
408.62833 89.98751 167.71959 305
394.37076 83.99593 164.66689 317
401.42194 87.68424 166.03865 426
408.12668 91.17628 167.70535 305
393.86731 85.06741 164.71823 317
399.88409 88.20325 166.31114 427
407.62811 92.32626 167.70338 305
393.34998 86.06371 164.70122 317
398.32904 88.74552 166.60039 428
407.12866 93.43494 167.69403 305
392.85840 87.10446 164.69460 317
396.83551 89.31078 166.89438 429
392.28690 88.12361 164.71959 317
395.32877 89.77446 167.17229 430
391.74045 89.16188 164.69672 317
393.83118 90.33549 167.43097 431
391.21399 90.18828 164.70515 317
392.46033 90.86729 167.67189 311
390.66156 91.18938 164.73322 317
391.91635 91.90166 167.72215 311
389.49713 91.81869 164.92232 433
391.36536 92.90047 167.69328 311
388.08878 92.28854 165.19176 434
390.87415 93.93946 167.70541 311
386.68921 92.80899 165.43584 435
390.31296 95.00909 167.66573 309
385.30188 93.30167 165.73732 436
389.76276 96.01630 167.67549 309
3379.06177 1917.25830 395.14798 495
383.90237 93.76958 165.96632 437
389.22513 97.03326 167.68228 309
382.58630 94.24285 166.22217 438
388.69919 98.06624 167.65263 309
381.21802 94.70663 166.48367 439
388.12238 99.07155 167.62296 309
379.88504 95.14065 166.71593 440
387.60397 100.08428 167.64020 309
378.58496 95.60006 166.97607 441
387.03262 101.13592 167.63130 309
377.29126 96.06155 167.18526 442
375.96701 96.50212 167.45280 442
374.85025 97.01925 167.60603 315
374.28299 97.96962 167.59402 315
373.67960 98.86450 167.61009 315
373.11096 99.77991 167.59323 315
372.53934 100.72411 167.63115 315
371.96564 101.58784 167.61020 315
371.37253 102.52551 167.61465 315
370.75558 103.42617 167.60303 315
370.12762 104.29529 167.57887 315
41842.15234 31402.96094 -7540.64502 1000
369.53363 105.20206 167.58806 315
368.95996 106.07852 167.56808 315
368.29996 106.96551 167.55048 313
367.72534 107.84944 167.55023 313
3885.68213 2902.36816 520.57123 456
4402.68799 3617.46436 666.88171 389
4367.07422 3632.97144 665.60400 481
4338.70850 3652.36792 665.07440 492
4312.49121 3674.63916 665.57947 492
4283.42139 3695.50952 663.87994 425
4255.90771 3714.79199 663.17285 475
4229.26953 3737.47681 663.04364 497
4201.83008 3757.12769 663.45856 498
4177.09619 3782.02222 663.05902 498
4256.50586 3856.19165 763.67175 343
4203.45850 3807.11743 848.11902 314
4151.03271 3802.86182 662.91705 499
4180.24609 3830.71460 756.37372 369
4173.55078 3825.46826 847.81439 423
4128.84473 3828.85352 663.01428 499
4149.24023 3848.86035 755.90485 498
4151.27002 3849.96216 847.70691 423
4104.10938 3852.06519 662.63165 499
4128.62402 3876.23193 756.08691 498
4127.93457 3874.36133 846.55035 423
4082.56689 3879.03149 663.37994 499
4104.04932 3898.61865 756.38568 471
4091.23096 3886.36108 845.26306 476
21965.63867 22163.29688 -3879.26904 1000
4061.82837 3904.71777 662.87671 498
4082.63037 3926.51587 756.68719 497
4071.48145 3915.15991 845.99017 349
4036.81641 3927.55469 664.12360 495
4060.96411 3953.04907 757.06610 495
4057.44360 3950.38794 848.13214 423
4016.52002 3954.85986 663.42297 495
4043.23047 3983.14673 758.97882 496
4034.21875 3975.19995 848.22028 423
3994.22119 3982.12793 664.43481 495
4023.62085 4011.74048 758.76074 497
4011.41919 4000.42261 848.97064 463
4087.97803 4081.55054 955.13000 415
3974.19580 4009.97339 664.92194 495
4000.73560 4038.74805 759.85028 496
3995.75073 4033.57422 850.24475 496
4059.29663 4100.15283 953.93896 457
3952.60132 4037.78589 664.83051 495
4055.72925 4148.48779 958.17206 489
3932.44727 4064.30737 666.45605 475
4042.42188 4185.48242 960.11975 491
3912.27979 4092.91748 667.33179 475
4876.59326 5231.42383 -824.03479 1000
3891.37134 4120.68408 667.38947 475
3871.99170 4150.74219 667.93298 444
3852.02002 4179.44873 669.44653 389
3833.37939 4210.17773 669.60437 389
3925.34839 4318.79346 775.08643 494
3813.19360 4241.68066 670.39325 309
3801.83911 4281.62646 764.52209 494
3781.30884 4310.37891 765.90106 355
3799.88940 4386.99561 771.79828 498
3770.73975 4406.11719 772.27374 498
3745.93115 4431.32617 772.53094 473
3698.73706 4429.68896 863.37836 457
2530.74585 3778.33105 652.39697 478
24470.59961 43857.79688 5059.73535 1000
1881.63562 3230.23022 568.10614 339
1832.71912 3183.37354 561.58093 343
1792.25012 3150.57275 557.05511 345
1749.72791 3113.72095 551.86389 346
1709.13208 3078.26440 547.29950 347
1668.91882 3043.28149 542.16296 349
1629.18518 3009.20874 537.84631 350
1594.50928 2981.25977 534.20654 381
1595.41077 2982.61035 588.56653 386
1563.63818 2962.90332 531.61230 400
1566.05261 2968.01782 585.90723 479
1535.11487 2949.06641 529.40930 416
1545.54932 2970.24219 585.05975 472
1507.70740 2936.71191 527.46539 419
1528.45776 2982.32275 585.61658 457
1482.05652 2925.93555 524.98224 427
1513.67773 2999.01367 587.20990 456
1457.23096 2917.14648 523.84796 437
1498.50867 3015.33301 587.66595 456
1433.43286 2911.11816 521.85382 444
1483.22217 3031.57153 589.35620 455
1409.51526 2904.77954 520.79578 438
1467.95569 3047.80884 590.15729 454
1385.81165 2898.74731 519.45667 439
1452.55176 3063.85132 591.37183 454
1363.05933 2893.33374 518.12238 440
1436.96436 3080.29980 592.23450 453
1340.68835 2888.21582 516.89807 442
1421.29810 3097.25146 593.83362 453
1318.81909 2884.56323 516.08331 441
1405.64844 3114.03052 594.37469 450
1297.15381 2881.20044 514.68915 441
1277.30212 2883.13623 514.21606 406
-3980.57666 43469.00000 -7010.01953 1000
-3718.60181 32577.61914 8428.01172 1000
-577.13751 3303.89209 664.30133 461
-576.46661 3297.90625 719.51569 499
-12659.45898 50230.88672 -1483.63574 1000
-572.96124 2635.16333 442.37381 483
-573.36359 2636.84399 488.07455 314
-587.00610 2621.99243 577.91772 459
-585.08093 2617.79346 623.07489 498
-567.83356 1911.15967 352.38385 413
-578.50494 1903.98108 386.21738 377
-575.60895 1897.30835 419.58554 479
-573.70325 1892.96436 453.03305 499
-572.19409 1889.40674 486.98151 493
-571.12311 1886.87048 520.95221 413
-582.59814 1880.81519 555.18298 305
-21746.41992 49422.54297 227.47038 1000
-26920.02930 52139.07031 11927.67188 1000
138.84093 151.68967 166.41513 314
137.90195 151.11992 166.38051 314
136.96815 150.55087 166.40259 314
136.07779 149.96033 166.39638 314
135.13879 149.35445 166.40242 314
134.20436 148.76410 166.41313 314
133.31279 148.19589 166.40428 314
132.40761 147.56549 166.41502 314
131.50102 146.95331 166.41690 314
130.58943 146.29794 166.40726 314
129.69173 145.69173 166.39777 314
128.77087 145.03384 166.40912 314
127.87382 144.39276 166.42311 314
124.79922 148.98634 168.21895 490
-25895.90625 38845.21484 -6710.67822 1000
126.68301 144.28206 166.22586 435
123.30710 149.16669 167.97925 273
125.21424 144.39923 165.95854 434
121.07788 150.40619 167.38097 312
123.75707 144.56998 165.72023 433
120.54858 149.13112 167.56221 491
122.27473 144.74922 165.44568 432
119.28101 149.01146 167.39586 312
118.71957 149.80852 170.50706 308
120.81686 144.85960 165.16356 431
118.37057 148.26141 167.38876 312
117.79066 149.10310 170.49327 308
119.26619 145.03879 164.86310 430
117.13011 148.03671 167.27049 439
117.77209 145.19257 164.59094 429
115.67072 148.04533 167.04164 438
116.24063 145.33673 164.31288 428
113.26205 149.34808 166.42029 310
114.69427 145.48283 164.03653 427
112.32098 148.59695 166.41519 310
113.11300 145.62709 163.73448 426
111.40542 147.85712 166.39891 310
111.52921 145.75006 163.41231 311
110.49251 147.08856 166.38702 310
110.67666 144.94994 163.43956 311
109.62010 146.34361 166.37956 310
109.82072 144.14667 163.45836 311
108.28535 146.14200 166.18744 423
108.96332 143.36331 163.43382 311
106.59971 146.30185 165.93408 422
-15269.95898 19223.72266 3890.97949 1000
108.11756 142.54727 163.49648 311
104.92144 146.46074 165.61761 421
97.66610 155.36975 166.35669 306
107.29919 141.69980 163.49194 310
103.21210 146.66707 165.31844 420
96.70666 154.52086 166.39894 305
106.46346 140.86812 163.49289 310
101.47301 146.83264 164.97934 419
95.74468 153.68115 166.40076 305
124.53759 117.75311 171.35480 315
99.73652 146.96147 164.65448 418
94.75363 152.83797 166.39607 305
123.84845 117.04285 171.37251 315
97.98473 147.18585 164.31844 417
93.80295 151.98946 166.38228 305
123.13903 116.35550 171.37901 315
96.20393 147.33047 163.98514 426
92.88909 151.19131 166.34969 305
122.45436 115.63953 171.39166 315
94.49186 147.40442 163.66977 425
91.95341 150.27710 166.37231 305
121.75109 114.96363 171.38318 315
92.85269 147.35995 163.41502 303
90.99709 149.40092 166.36475 305
121.05906 114.26051 171.40201 315
92.05285 146.37195 163.45245 303
90.09631 148.54343 166.38373 305
120.40801 113.52216 171.38460 315
91.22076 145.38393 163.47177 303
89.17255 147.69760 166.32626 305
119.67432 112.79587 171.39780 315
90.43841 144.42680 163.49188 303
87.45393 147.63705 166.06982 422
118.99760 112.08204 171.38345 315
89.62976 143.46416 163.56366 303
85.63148 147.74034 165.79562 421
118.35452 111.34261 171.40979 315
88.86331 142.45285 163.55779 307
83.78710 147.80170 165.43068 420
117.70206 110.61499 171.39693 315
109.90522 118.73316 171.49675 311
81.90029 147.90207 165.12607 418
73.65798 156.46204 166.30344 301
117.01820 109.89440 171.40021 315
109.17056 117.93332 171.45351 311
79.96777 147.94621 164.82277 417
72.67194 155.43489 166.24966 301
116.36309 109.10748 171.43706 315
108.45839 117.17036 171.48418 312
78.04909 147.99828 164.48332 416
71.69465 154.46964 166.24849 301
115.70152 108.40007 171.41737 315
107.76314 116.33947 171.49344 312
76.16900 148.09036 164.11855 415
70.76897 153.44829 166.28223 301
115.04359 107.64742 171.45377 315
107.07681 115.58803 171.49763 312
74.16737 148.16054 163.76183 414
69.81964 152.49005 166.28307 301
114.42741 106.89023 171.44958 315
106.40054 114.73521 171.50235 312
72.12799 148.24200 163.42989 413
68.84793 151.44478 166.23776 301
113.77386 106.15430 171.45677 315
105.71046 113.92233 171.52161 312
70.99544 147.47890 163.36150 299
67.92331 150.43867 166.23064 301
113.14906 105.38345 171.45885 316
105.02956 113.10800 171.52727 312
70.23933 146.34070 163.38612 299
66.99461 149.42184 166.23599 301
112.51727 104.59814 171.46170 316
104.34687 112.32918 171.54150 312
69.47025 145.18819 163.42712 299
65.94718 148.46103 166.24017 410
111.88339 103.81743 171.47069 316
103.67271 111.46032 171.51541 312
94.35336 120.15781 171.59010 308
63.81397 148.58591 165.84119 409
111.23825 103.06406 171.48169 316
103.00090 110.67892 171.53403 312
93.63967 119.29765 171.63432 308
61.66589 148.65646 165.51997 408
110.63097 102.27959 171.48817 316
102.37376 109.83073 171.51889 312
92.93424 118.39557 171.63864 308
59.50626 148.74525 165.14615 407
110.05228 101.52087 171.49995 316
101.69698 108.99394 171.55627 312
92.21671 117.47436 171.63611 308
57.28481 148.82219 164.77145 406
47.46138 157.63449 166.11469 297
109.43896 100.70261 171.47484 316
101.05238 108.18272 171.53860 312
91.51102 116.62165 171.63078 308
55.03500 148.92709 164.35518 404
46.47178 156.49059 166.15036 297
108.83595 99.90406 171.47891 316
100.41143 107.30632 171.53688 312
90.80982 115.67242 171.61353 308
52.71732 149.00722 163.93994 403
45.52902 155.32771 166.12169 297
108.26920 99.13531 171.47014 316
99.77012 106.44174 171.54309 312
90.11005 114.79549 171.65880 308
50.42779 149.10419 163.56197 402
44.57814 154.16222 166.17279 297
107.64056 98.31601 171.47688 316
99.12849 105.62117 171.58176 312
89.43902 113.86176 171.66086 308
48.19966 149.07956 163.17189 296
43.64059 152.94655 166.16881 297
107.05558 97.53558 171.49860 316
98.49758 104.78557 171.56569 312
88.77399 112.93147 171.64420 308
47.41457 147.76283 163.25543 296
42.70472 151.77206 166.15665 297
106.46901 96.71291 171.51485 316
97.85017 103.88712 171.58476 312
88.10528 112.05487 171.65668 308
76.88612 121.39021 171.73486 304
41.76771 150.59914 166.17615 297
105.89139 95.94117 171.49391 316
97.24882 103.03770 171.57121 312
87.43369 111.06461 171.65764 308
76.18403 120.37798 171.74850 304
40.71871 149.48062 166.14558 398
105.34331 95.09666 171.50868 316
96.64558 102.13091 171.57635 312
86.76018 110.17334 171.69473 308
75.44985 119.37047 171.77071 304
38.22589 149.56624 165.70219 397
104.76360 94.31192 171.50433 316
96.03974 101.31484 171.57932 312
86.13237 109.23132 171.68579 308
74.75161 118.33585 171.76077 304
35.63811 149.69768 165.28755 395
104.20304 93.46271 171.50856 316
95.43573 100.42316 171.61475 312
85.47609 108.28638 171.66023 308
74.05394 117.33625 171.76782 304
33.02861 149.77817 164.83372 394
103.66859 92.66046 171.53717 316
94.84074 99.52180 171.60167 312
84.81809 107.33510 171.69641 308
73.32256 116.30930 171.76344 304
30.38117 149.88521 164.44025 393
103.11524 91.83279 171.51495 316
94.24063 98.64127 171.63228 312
84.18046 106.39440 171.67934 308
72.68552 115.29274 171.80307 304
27.67785 149.97273 164.00777 392
17.17407 158.08461 165.97186 291
102.56814 90.99639 171.55267 316
93.66202 97.79175 171.61470 312
83.56808 105.44115 171.67865 308
71.96208 114.25298 171.78445 304
24.91135 150.05894 163.54741 390
16.15096 156.74046 165.98985 291
102.00117 90.13549 171.56459 316
93.09516 96.85617 171.60828 312
82.93254 104.48385 171.68167 308
71.30215 113.24426 171.77901 304
57.81883 123.34660 171.93176 300
15.18270 155.42125 165.98633 291
101.46466 89.32565 171.56102 316
92.47790 95.97493 171.62753 312
82.33287 103.51281 171.68402 308
70.66158 112.20477 171.81400 304
57.08314 122.24607 171.92732 300
14.26163 154.04710 165.96519 291
100.95152 88.47110 171.55305 316
91.90546 95.07924 171.62941 312
81.70373 102.60231 171.73225 308
69.99219 111.17827 171.81451 304
56.39029 121.13165 171.95341 300
13.25337 152.71666 165.90106 291
100.44392 87.63215 171.58284 316
91.35197 94.17926 171.64926 312
81.10928 101.60385 171.72800 308
69.33363 110.09274 171.83267 304
55.63605 119.97217 171.94356 300
12.26603 151.32980 165.96202 291
99.88676 86.78452 171.58235 316
90.81236 93.25581 171.62640 312
80.49451 100.61790 171.73973 308
68.68841 109.06383 171.80339 304
54.94736 118.85110 171.92815 300
10.58047 150.47659 165.76796 387
99.38422 85.91328 171.54825 316
90.24923 92.36182 171.63684 312
79.90186 99.61701 171.73637 308
68.02518 107.99145 171.83243 304
54.26201 117.70065 171.95790 300
7.60400 150.54704 165.33261 386
98.87309 85.06890 171.56161 316
89.69444 91.43802 171.65224 312
79.30364 98.67873 171.73038 308
67.36145 106.95195 171.83734 304
53.60111 116.56405 171.96512 300
4.51008 150.59126 164.78998 385
98.39549 84.22232 171.59784 316
89.16769 90.54986 171.63208 312
78.72929 97.69192 171.75726 308
66.75524 105.90515 171.82933 304
52.89138 115.43790 171.95609 300
1.37667 150.73605 164.36221 384
97.89834 83.35982 171.59038 316
88.63670 89.64079 171.68098 312
78.18514 96.70402 171.77087 308
66.12636 104.82761 171.83687 304
52.19958 114.23521 171.93600 300
-1.76654 150.80275 163.81703 382
97.39203 82.50146 171.56476 316
88.11963 88.68859 171.64113 312
77.59126 95.68885 171.74199 308
65.52677 103.77340 171.82309 304
51.52340 113.09259 171.96962 300
35.14349 124.04350 172.06847 296
-18.78722 160.06424 165.41032 286
96.88234 81.61024 171.59192 316
87.58294 87.76414 171.67033 312
77.01167 94.69545 171.75531 308
64.90171 102.70395 171.86235 304
50.88613 111.95147 171.98732 300
34.40708 122.81228 172.11157 296
-19.73465 158.47688 165.47548 286
96.39165 80.74170 171.59540 316
87.03272 86.83353 171.65125 312
76.45329 93.74764 171.78320 308
64.31746 101.61096 171.86168 304
50.20173 110.74644 171.94583 300
33.67697 121.49059 172.09837 296
-20.76538 156.84845 165.47919 286
95.92310 79.89616 171.58458 316
86.55430 85.91605 171.67804 312
75.92154 92.71436 171.74307 308
63.69725 100.55650 171.89291 304
49.57259 109.62804 171.97552 300
32.98379 120.24973 172.12909 296
-21.63538 155.26031 165.43961 286
95.43935 78.98891 171.60934 316
86.02154 84.95083 171.67944 312
75.33557 91.72135 171.78638 308
63.08288 99.45285 171.86743 304
48.91924 108.47416 172.00885 300
32.26018 118.94646 172.10303 296
-22.64231 153.63855 165.45198 287
94.97740 78.10765 171.62764 316
85.52446 84.01553 171.66759 312
74.81794 90.69741 171.79376 308
62.53328 98.35896 171.85237 304
48.27863 107.22033 171.97108 300
31.60700 117.67313 172.11108 296
-23.60555 152.11003 165.45164 287
94.51073 77.27055 171.60712 316
85.04496 83.10846 171.67018 312
74.26403 89.69298 171.79227 308
61.94100 97.25162 171.87083 304
47.67941 106.09074 172.01247 300
30.87857 116.37555 172.12221 296
-26.03260 151.41696 165.13228 374
94.05358 76.34742 171.62708 316
84.55317 82.14136 171.68588 312
73.74135 88.66663 171.79538 308
61.36559 96.18661 171.87112 304
46.99532 104.89664 171.97777 300
30.20016 115.13889 172.14548 296
-29.73511 151.48866 164.58253 372
93.63113 75.45876 171.64079 316
84.09030 81.19195 171.70532 312
73.23367 87.63882 171.76843 308
60.80648 95.10072 171.87000 304
46.44448 103.69556 172.02879 300
29.52168 113.80412 172.14302 296
-33.59142 151.56979 164.04860 371
93.18299 74.58638 171.60663 316
83.60853 80.23897 171.70885 312
72.70536 86.66273 171.81273 308
60.26014 93.99961 171.87189 304
45.82079 102.52081 172.02005 300
28.89878 112.48196 172.16899 296
8.72050 124.34930 172.31902 292
92.71057 73.69344 171.61714 316
83.13104 79.28356 171.72649 312
72.23719 85.61648 171.78938 308
59.71812 92.89207 171.87601 304
45.22821 101.32827 172.03419 300
28.22496 111.20910 172.14748 296
8.02549 122.93008 172.35268 292
-32689.41016 19138.93555 5247.84961 1000
92.30161 72.77761 171.63953 316
82.64332 78.29233 171.69215 312
71.67646 84.58736 171.77625 308
59.14580 91.80283 171.90170 304
44.62571 100.15045 172.03085 300
27.58314 109.90866 172.17404 296
7.29828 121.51263 172.36183 292
91.86725 71.86031 171.64548 316
82.18530 77.37845 171.70384 312
71.23283 83.55055 171.80705 308
58.62541 90.65595 171.91974 304
44.02268 98.92724 172.02994 300
34.16964 104.47077 173.69221 268
6.61844 120.05585 172.33597 292
-62.59428 159.21974 164.95547 284
91.43581 70.99260 171.63673 316
81.76016 76.39127 171.69977 312
70.70911 82.50187 171.81726 308
58.08719 89.54258 171.89035 304
45.61953 96.49137 172.49837 317
39.04590 100.14862 174.81625 315
24.30002 108.39488 175.80760 267
-63.49233 157.30826 164.99765 284
91.02380 70.10780 171.62515 316
81.29604 75.44186 171.73389 312
70.24803 81.49191 171.84015 308
57.54258 88.45604 171.93529 304
48.40763 93.48104 173.31302 318
42.00463 96.96732 175.54124 317
35.41611 100.58398 177.99899 315
16.39637 111.06644 178.60814 268
90.63841 69.16657 171.65785 316
80.82448 74.44392 171.70872 312
69.78543 80.44648 171.83618 308
57.05734 87.31877 171.90410 304
49.83776 91.90680 173.67572 319
44.92937 93.90131 176.29279 318
38.51669 97.34409 178.73889 316
23.82742 105.26941 179.98654 288
90.20477 68.24467 171.65562 316
80.40100 73.46563 171.71794 312
69.28289 79.41689 171.84801 308
59.39763 84.68835 172.61795 322
53.69952 87.69868 174.72780 320
47.68636 90.93974 176.97003 319
41.51704 94.18304 179.35423 317
23.27685 103.91466 179.98805 288
-2.16996 117.45801 180.20532 284
89.80795 67.33424 171.65199 316
79.94650 72.49532 171.75162 312
68.81508 78.36198 171.80531 308
61.10322 82.41553 173.14919 380
56.19931 84.98742 175.43213 322
50.38976 88.04230 177.63556 320
43.32538 91.70467 179.81860 292
22.64936 102.56657 180.00974 288
-2.85768 115.95837 180.23949 284
89.39377 66.44086 171.64304 316
79.55068 71.52639 171.74339 312
68.32309 77.31002 171.82660 308
61.89006 80.65063 173.48643 381
58.58377 82.36926 176.04114 379
52.93337 85.27475 178.26678 321
42.77391 90.52824 179.84775 292
22.07764 101.22427 179.98715 288
-3.46566 114.46382 180.20755 284
88.98440 65.50626 171.64542 316
79.12524 70.56640 171.73340 312
67.87202 76.26115 171.81071 308
62.69861 78.88834 173.81723 383
59.45023 80.56430 176.37297 381
55.51051 82.57362 178.91071 322
42.29354 89.32063 179.87007 292
-2.50333 112.12560 176.00563 293
-4.18875 112.97440 180.25996 284
88.63369 64.60254 171.67348 316
78.72127 69.54915 171.75322 312
67.43232 75.20486 171.86160 308
63.53986 77.17547 174.07529 384
60.30547 78.79688 176.68016 382
56.97144 80.45603 179.28687 379
41.78911 88.06967 179.83624 292
-11.75152 114.89427 174.57335 291
-11.77664 114.97588 179.23747 292
88.24214 63.64406 171.66501 316
78.29565 68.58864 171.76382 312
68.19730 73.57841 172.14606 374
64.27960 75.47982 174.37997 385
61.11133 77.05194 176.92941 383
57.84516 78.69061 179.58040 381
41.26325 86.85825 179.87090 292
9.16429 102.71177 178.17935 280
-16.94158 115.55546 178.58041 348
87.85445 62.73771 171.66817 316
77.91064 67.58641 171.73216 312
69.02032 71.90410 172.49252 375
65.13078 73.79102 174.72910 372
61.93608 75.33443 177.23424 384
58.08970 77.23048 179.73888 296
27.23407 92.22403 177.34801 328
17.22413 97.03738 179.57899 281
-21.37381 115.83021 178.00157 346
87.49549 61.82808 171.67998 316
77.49768 66.57141 171.74956 312
69.79327 70.30643 172.77371 376
65.95602 72.09427 175.01100 373
62.72321 73.63898 177.51970 385
57.65230 76.08932 179.69284 296
29.56082 89.49078 177.87387 329
21.99116 93.13046 180.49242 311
8.03490 99.83965 182.36819 280
-39.53426 122.55095 180.49406 280
87.15408 60.88413 171.69757 316
77.13379 65.60930 171.74933 312
70.54414 68.68871 173.08377 377
66.80230 70.45541 175.33881 374
63.52211 71.98586 177.77446 386
57.19324 74.94593 179.68910 296
31.85626 86.91671 178.40372 330
24.99837 90.17019 181.03944 327
16.04376 94.33054 183.62286 309
-5.30820 104.38188 184.94537 262
86.79225 59.93022 171.65771 316
76.73337 64.62602 171.75656 312
71.31770 67.09979 173.37384 378
67.60934 68.80748 175.63647 375
64.33648 70.32852 178.02913 387
56.74774 73.83266 179.69868 296
34.08796 84.33644 178.93675 331
27.38199 87.44208 181.52345 329
19.52058 91.12894 184.21739 311
6.99217 96.88677 186.56447 280
86.41982 59.01727 171.69594 316
76.37586 63.60600 171.76512 312
72.07941 65.53703 173.69810 378
68.43050 67.19621 175.89372 376
65.10024 68.73083 178.30632 388
56.33865 72.74444 179.71002 296
36.24895 81.89134 179.39136 332
29.74474 84.82558 181.97313 330
22.77281 87.98444 184.75743 327
13.53343 92.21384 187.44127 309
-5.51619 100.92722 189.43208 262
86.10046 58.04175 171.70387 316
76.35863 62.42904 171.87975 382
72.82537 63.98765 174.00641 379
69.23003 65.64634 176.16541 377
65.87803 67.12122 178.56566 389
55.92052 71.61196 179.71558 296
38.39367 79.46283 179.84938 333
32.00610 82.29488 182.46739 331
25.25263 85.35604 185.16858 328
17.13759 88.99133 187.96199 310
6.10275 93.92283 190.76602 280
85.76371 57.13013 171.67349 316
77.03490 60.94174 172.18121 383
73.55668 62.49348 174.29936 380
69.99820 64.04705 176.46523 378
66.64397 65.52383 178.82368 390
55.51023 70.42049 179.73781 296
40.33539 77.12130 180.28632 367
34.23042 79.80367 182.86163 332
27.64432 82.76671 185.63722 330
20.52419 85.85885 188.46104 311
11.01760 90.04940 191.32127 309
-5.55583 97.35920 193.89777 262
85.42674 56.19810 171.69360 316
77.44424 59.63523 172.36993 414
74.32121 61.00732 174.54623 381
70.76772 62.52154 176.73500 379
67.36921 64.00103 179.04552 391
55.13238 69.30884 179.72467 296
41.42443 75.26605 180.59982 368
36.36627 77.42624 183.28648 333
29.97457 80.23602 185.98718 331
23.08269 83.18460 188.84012 328
14.68153 86.81712 191.82529 310
4.69746 91.16869 194.84540 308
85.08020 55.22915 171.68353 316
77.76746 58.35038 172.57362 414
74.94823 59.56640 174.80679 412
71.53195 61.00919 177.01659 380
68.14095 62.44891 179.33157 392
46.63245 71.59634 178.17046 382
42.46598 73.37104 180.87567 369
37.79414 75.38049 183.61206 366
32.19389 77.79044 186.38580 332
25.54420 80.59773 189.20604 329
18.23723 83.73857 192.20302 311
8.55463 87.89173 195.26248 309
-5.35796 93.78222 198.29866 262
84.78596 54.28680 171.68982 316
78.09203 57.05060 172.71568 415
75.28189 58.26349 174.97876 413
72.26991 59.51746 177.25606 381
68.86933 60.96845 179.54219 393
47.46190 69.94002 178.38112 383
43.44269 71.62786 181.11426 381
38.93539 73.48351 183.88878 367
34.08022 75.52647 186.71249 365
27.92331 78.11498 189.57253 330
20.98392 81.02464 192.60243 328
12.29680 84.66716 195.66177 310
2.14828 88.88982 198.90370 307
84.46399 53.34378 171.69440 316
78.41831 55.80115 172.91998 418
75.61255 56.97839 175.17514 414
72.68410 58.17747 177.42957 411
68.87371 59.73539 179.62004 300
48.26569 68.24858 178.66331 384
44.29766 69.89512 181.31148 382
39.98743 71.63933 184.13046 368
35.22567 73.59885 186.94165 366
30.23121 75.66142 189.92033 332
23.46566 78.45066 192.87456 329
15.84142 81.54389 196.02124 311
6.06772 85.58654 199.20502 308
-5.24037 90.24553 202.66916 280
84.14472 52.36816 171.71086 316
78.72298 54.58412 173.08279 418
75.93797 55.68676 175.33324 414
73.03849 56.85892 177.62703 412
68.51970 58.66788 179.62711 300
49.04386 66.55885 178.88838 385
45.16761 68.15140 181.57588 383
41.04614 69.80484 184.34415 380
36.41289 71.68129 187.19862 367
31.52613 73.66555 190.14178 364
25.86519 75.91914 193.18216 330
18.84564 78.77032 196.27954 328
9.89276 82.44008 199.54796 310
-0.39853 86.54704 202.97804 307
83.80179 51.43003 171.73050 316
79.05750 53.33541 173.26550 419
76.28415 54.41538 175.49930 415
73.43003 55.56816 177.77507 413
68.21643 57.64191 179.61906 300
49.85035 64.90469 179.09329 386
45.95393 66.45159 181.80127 384
41.90982 68.06889 184.57831 381
37.49341 69.85977 187.39603 368
32.65644 71.74179 190.37044 365
27.60319 73.74023 193.39943 363
21.36246 76.23277 196.57899 329
13.55736 79.35789 199.80214 311
3.58685 83.27711 203.16850 308
83.54872 50.47302 171.71449 316
79.34483 52.12374 173.42812 420
76.59885 53.14702 175.67271 416
73.76427 54.27105 177.91763 414
67.85673 56.61265 179.64072 300
50.65069 63.27857 179.34473 387
46.77324 64.82588 181.97075 384
42.79122 66.36868 184.77338 382
38.59703 68.03221 187.61063 369
33.83979 69.83027 190.52225 366
28.86522 71.79288 193.60962 363
23.67965 73.80756 196.81032 361
16.75128 76.51595 200.09004 327
7.44738 80.14684 203.43365 309
83.23420 49.50051 171.71423 316
79.67741 50.89344 173.62140 420
76.93368 51.92905 175.82654 417
74.09802 53.00391 178.08133 414
67.51248 55.53688 179.64738 300
51.40259 61.70529 179.54950 388
47.59164 63.14644 182.19179 385
43.67402 64.65891 184.96915 383
39.53760 66.25035 187.82248 380
35.01368 67.98375 190.73055 367
30.06658 69.85374 193.74695 364
24.93402 71.82063 196.94772 362
19.28316 73.97999 200.28589 329
11.19086 77.12486 203.62383 310
82.95058 48.56874 171.71489 316
79.96680 49.66109 173.75751 421
77.27849 50.69051 175.95284 417
74.46687 51.72669 178.23119 415
67.19891 54.45328 179.64561 300
52.18200 60.09407 179.77742 389
48.40330 61.54658 182.42416 386
44.51255 62.99521 185.13176 384
40.46764 64.53759 187.96548 381
36.10841 66.14860 190.91051 368
31.29152 67.99662 193.93880 365
26.21322 69.85883 197.10210 363
20.89485 71.88251 200.40910 360
14.64157 74.21595 203.88086 327
82.85651 47.51172 171.76698 424
80.30273 48.48683 173.91161 422
77.60562 49.44630 176.13702 418
74.79684 50.47710 178.37123 416
66.90324 53.42001 179.63310 300
52.95074 58.57920 179.98383 390
49.18367 59.93353 182.60869 387
45.34148 61.33730 185.33479 385
41.31596 62.83999 188.16122 382
37.17443 64.37466 191.08128 380
32.49717 66.10172 194.09819 366
27.43991 67.94946 197.26736 364
22.22452 69.85384 200.55780 361
16.71290 71.91122 203.96555 358
83.15186 46.34878 171.93910 425
80.60612 47.29126 174.07593 423
77.93018 48.23984 176.29216 419
75.15407 49.24167 178.55104 416
66.60138 52.34910 179.63277 300
53.69177 56.98804 180.18242 390
49.97700 58.32970 182.83986 388
46.19973 59.73659 185.53987 386
42.20546 61.19755 188.34589 383
38.10970 62.67514 191.23778 381
33.62596 64.30439 194.26837 367
28.70327 66.07069 197.36623 365
23.53139 67.91938 200.62683 362
18.11449 69.90619 204.05768 359
12.09674 72.02109 207.66991 293
83.44137 45.18288 172.09824 426
80.90604 46.10561 174.23201 423
78.25582 47.01365 176.42192 420
75.47315 48.00997 178.66612 417
66.30032 51.28898 179.65421 300
54.43433 55.50457 180.41426 404
50.78085 56.80478 183.00194 389
47.00559 58.14582 185.74268 387
43.04456 59.51368 188.51074 384
38.99335 60.92500 191.41434 382
34.75978 62.43711 194.44173 379
29.91230 64.21008 197.53072 366
24.81793 65.96354 200.78311 363
