# .PCD v.7 - Point Cloud Data file format
VERSION .7
FIELDS x y z rgb
SIZE 4 4 4 4
TYPE F F F U
COUNT 1 1 1 1
WIDTH 1387
HEIGHT 1
VIEWPOINT 6714.589355 -2925.233887 149.112778 -0.826967 -0.095077 -0.100791 0.544910
POINTS 1387
DATA ascii
53.34072 -6.71250 195.73531 445
50.65392 -6.77962 198.45029 442
47.90658 -6.85164 201.22916 439
45.08229 -6.92604 204.03139 437
42.15691 -7.03025 206.98575 434
39.18893 -7.11362 209.98039 431
-159.89589 -12.98917 222.81630 499
-152.42787 -12.76364 235.24657 469
-180.50723 -13.44695 277.57440 286
86.45259 -6.69282 177.29115 466
84.43567 -6.74149 179.33795 463
70.28587 -7.27602 178.58347 460
67.98399 -7.31873 180.86743 458
65.65987 -7.42380 183.21973 456
63.27737 -7.45995 185.59932 454
60.87652 -7.57623 188.04607 452
58.35895 -7.63251 190.54659 449
55.83041 -7.71186 193.09793 447
53.24516 -7.81638 195.75836 444
50.53080 -7.92099 198.44356 442
47.79454 -8.01871 201.21988 439
44.93597 -8.07996 204.06953 437
42.04811 -8.20547 206.97157 434
39.01606 -8.29515 209.99088 431
-179.53789 -16.17892 223.08565 384
-153.71770 -15.14397 235.34244 398
-187.47328 -16.20851 278.61700 265
86.35249 -7.57492 177.26329 466
84.34346 -7.64105 179.30791 463
70.20418 -8.23160 178.58174 460
67.90302 -8.35151 180.84988 458
65.55909 -8.41354 183.21222 456
63.18630 -8.50215 185.59067 454
60.72332 -8.62800 188.03450 451
58.23678 -8.71681 190.51944 449
55.72193 -8.80452 193.11906 447
53.10765 -8.91786 195.71490 444
50.40686 -8.99656 198.44685 442
47.66050 -9.15231 201.17007 439
44.84669 -9.23157 204.05531 436
41.87455 -9.35841 206.95831 434
38.90004 -9.44975 209.99467 431
-179.51135 -18.64904 223.15588 384
-156.87202 -17.69836 235.53244 397
86.30500 -8.45571 177.24733 466
84.24667 -8.56683 179.29404 463
70.11263 -9.26136 178.57590 460
67.82748 -9.35983 180.83371 458
65.45618 -9.45373 183.19499 456
63.07814 -9.56739 185.58507 454
60.61349 -9.68829 188.01221 451
58.13578 -9.76916 190.52206 449
55.56810 -9.89044 193.08145 446
52.95329 -10.03677 195.73480 444
50.28795 -10.15936 198.41496 441
47.52584 -10.28880 201.17293 439
44.66948 -10.37769 204.04999 436
41.77382 -10.51864 206.96771 434
38.73569 -10.65608 210.00893 431
-179.59038 -21.22040 223.18169 384
86.23869 -9.35434 177.25974 466
84.20873 -9.45992 179.26472 462
70.01835 -10.22804 178.52414 460
67.72749 -10.36927 180.84500 458
65.35769 -10.49079 183.13771 455
62.96622 -10.60285 185.55835 453
60.50938 -10.73110 187.99249 451
58.03138 -10.88387 190.50792 449
55.47120 -10.99966 193.05902 446
52.82274 -11.10202 195.72556 444
50.16905 -11.25659 198.38347 441
47.38441 -11.39638 201.16946 439
44.56011 -11.55867 204.01718 436
41.61993 -11.68845 206.97415 433
38.60602 -11.86800 209.98946 431
-179.52858 -23.70500 223.17035 384
86.14286 -10.23438 177.20711 464
84.09931 -10.37201 179.25104 462
69.93790 -11.25969 178.51181 460
67.62491 -11.38869 180.78561 457
65.29179 -11.49924 183.13792 455
62.87288 -11.67061 185.54384 453
60.41866 -11.80242 187.97528 450
57.89591 -11.90521 190.47289 449
55.34750 -12.10532 193.05118 446
52.74025 -12.22762 195.69904 444
50.00901 -12.35527 198.37720 441
47.27737 -12.53233 201.14603 438
44.39943 -12.68343 204.02345 436
41.47878 -12.87396 206.96918 433
38.43525 -13.02612 209.99889 430
-179.54552 -26.22826 223.14183 384
86.05991 -11.13694 177.21165 464
84.03923 -11.27873 179.23842 462
69.85637 -12.26311 178.49196 459
67.54771 -12.40214 180.78519 457
65.19097 -12.51819 183.13826 455
62.75502 -12.70079 185.49048 453
60.31868 -12.85882 187.96553 450
57.76681 -13.01915 190.44371 448
55.20508 -13.16696 193.02724 446
52.57012 -13.35067 195.65088 443
49.90095 -13.51383 198.37088 441
47.12783 -13.67915 201.17073 438
44.24688 -13.84854 203.99739 436
41.31567 -14.07920 206.97151 433
38.27900 -14.25186 210.00203 430
-2026.72241 -152.71524 179.89140 469
-179.61343 -28.82652 223.12141 384
85.98158 -12.03821 177.18195 464
83.96333 -12.19603 179.21365 462
69.73698 -13.24472 178.44551 459
67.44411 -13.40994 180.77731 457
65.08283 -13.57293 183.11850 455
62.70281 -13.73360 185.49895 452
60.20478 -13.92738 187.94597 450
57.70182 -14.08592 190.42778 448
55.06845 -14.27494 193.03606 446
52.45094 -14.45938 195.68066 443
49.74592 -14.61264 198.35135 441
47.00381 -14.81661 201.14098 438
44.11697 -15.04541 204.03365 435
41.18857 -15.25119 206.92776 433
38.16499 -15.47078 209.96492 430
-179.59351 -31.32092 223.22144 384
85.92823 -12.95065 177.16341 464
83.87833 -13.13585 179.18190 462
69.69113 -14.22550 178.43900 459
67.35112 -14.43498 180.74649 457
65.00358 -14.58734 183.05562 455
62.60031 -14.79130 185.49150 452
60.10098 -14.96039 187.94182 450
57.58865 -15.18499 190.40958 447
54.98075 -15.36719 192.97894 445
52.34767 -15.58625 195.62526 443
49.61459 -15.77240 198.35461 440
46.86074 -15.97811 201.11652 438
44.00082 -16.20903 203.97537 435
41.01266 -16.42154 206.97299 432
38.00800 -16.64176 209.98317 430
-179.55409 -33.87844 223.21738 384
85.83624 -13.84212 177.11057 463
83.77769 -14.02118 179.14984 461
69.59812 -15.24394 178.42775 459
67.25764 -15.41925 180.70552 457
64.91544 -15.64886 183.06017 454
62.48487 -15.84829 185.42952 452
60.02163 -16.00864 187.91335 450
57.45974 -16.25354 190.39738 447
54.87305 -16.45611 192.96320 445
52.22112 -16.65946 195.64261 443
49.51825 -16.90193 198.33835 440
46.72679 -17.10751 201.12733 438
43.84336 -17.38484 203.98538 435
40.89544 -17.62515 206.91643 432
37.87033 -17.85132 209.95537 429
-179.68944 -36.40835 223.20026 384
-187.98308 -36.98026 271.89883 354
-187.01149 -36.88288 278.73907 355
-186.94183 -36.84702 285.81296 355
-186.80179 -36.82643 292.91876 355
85.76151 -14.75257 177.10170 463
83.70255 -14.94461 179.13284 461
69.51286 -16.26751 178.40027 459
67.20467 -16.44848 180.68971 456
64.81789 -16.68526 183.01068 454
62.39004 -16.89360 185.41258 452
59.92028 -17.07500 187.89435 449
57.36744 -17.33949 190.40334 447
54.77372 -17.53345 192.96478 445
52.11006 -17.79254 195.58530 442
49.36974 -18.04368 198.33228 440
46.57490 -18.26442 201.11369 437
43.70179 -18.50755 203.96402 435
40.73863 -18.78135 206.93858 432
37.69949 -19.07619 209.95181 429
-179.70581 -38.97663 223.17276 384
85.70520 -15.66041 177.04036 463
83.65245 -15.87263 179.12164 461
69.42251 -17.27589 178.36604 458
67.09556 -17.47013 180.66573 456
64.74581 -17.72734 183.00964 454
62.29609 -17.90760 185.38005 452
59.83324 -18.18421 187.86623 449
57.28605 -18.42022 190.35394 447
54.69174 -18.67267 192.95543 444
52.00988 -18.93019 195.60184 442
49.26964 -19.16723 198.28659 439
46.46576 -19.44978 201.08441 437
43.55398 -19.68321 203.96768 434
40.62897 -19.96388 206.92494 432
37.57786 -20.26448 209.97943 429
-179.69983 -41.49057 223.21518 384
85.59575 -16.58262 177.01785 463
83.54068 -16.78366 179.06075 461
69.34314 -18.25746 178.33336 458
67.02742 -18.48753 180.64433 456
64.66750 -18.74606 182.95335 454
62.20847 -18.96343 185.39056 451
59.73860 -19.25699 187.82487 449
57.16784 -19.47951 190.32808 447
54.57174 -19.72697 192.93100 444
51.87882 -20.01385 195.58125 442
49.16185 -20.28347 198.27422 439
46.30799 -20.59862 201.07031 437
43.42259 -20.84495 203.94360 434
40.45844 -21.19016 206.92041 432
37.40348 -21.46504 209.99742 429
-179.68291 -44.02828 223.22459 383
85.53599 -17.48750 176.99734 463
83.48077 -17.68576 179.05113 460
69.28122 -19.28650 178.30981 458
66.94424 -19.50291 180.60568 456
64.54466 -19.77023 182.95383 453
62.11624 -20.01566 185.33855 451
59.62381 -20.32471 187.79730 449
57.08778 -20.57019 190.34491 446
54.48529 -20.84181 192.91620 444
51.77943 -21.13337 195.55893 441
49.01089 -21.43834 198.29187 439
46.21347 -21.73144 201.06883 436
43.31753 -22.07856 203.97530 434
40.30242 -22.39279 206.93828 431
37.25072 -22.67720 209.95856 429
-179.71968 -46.59884 223.21318 383
85.47903 -18.37953 176.98318 462
83.41479 -18.61017 179.00301 460
69.19056 -20.26382 178.27461 458
66.85386 -20.55704 180.55415 455
64.47906 -20.84209 182.93372 453
62.05872 -21.10135 185.33806 451
59.55357 -21.38692 187.76340 449
56.98854 -21.67921 190.31377 446
54.35253 -21.93956 192.86626 444
51.69500 -22.26352 195.52499 441
48.91835 -22.56660 198.24878 439
46.09116 -22.90840 201.05495 436
43.15791 -23.24615 203.95351 433
40.17359 -23.54939 206.90121 431
37.11883 -23.94232 209.98405 428
-179.73228 -49.09337 223.22198 383
85.40327 -19.29897 176.92320 462
83.33150 -19.55565 178.98624 460
69.12983 -21.29717 178.23082 457
66.78332 -21.55484 180.53271 455
64.41031 -21.85881 182.86096 453
61.97553 -22.15455 185.30017 451
59.44764 -22.44829 187.76970 448
56.91945 -22.74342 190.27405 446
54.26319 -23.09393 192.87505 443
51.54938 -23.40377 195.54095 441
48.82293 -23.73251 198.25967 438
45.94755 -24.08223 201.05969 436
43.05515 -24.39557 203.91461 433
40.05035 -24.78582 206.87221 431
36.98639 -25.13314 209.94341 428
-179.78993 -51.74088 223.32962 383
85.34496 -20.20674 176.91237 462
83.28157 -20.45440 178.93671 460
69.05212 -22.32154 178.19849 457
66.70744 -22.63105 180.51491 455
64.31152 -22.92157 182.83717 453
61.85345 -23.22402 185.26079 450
59.36621 -23.53688 187.70769 448
56.81358 -23.83609 190.27094 446
54.18532 -24.16327 192.83530 443
51.47564 -24.53291 195.51729 441
48.69462 -24.88258 198.24113 438
45.87359 -25.23150 201.02097 435
42.93591 -25.58415 203.90054 433
39.91798 -25.95574 206.91028 430
36.80937 -26.36120 209.96857 428
-179.75922 -54.29106 223.30307 383
85.29826 -21.13079 176.86548 462
83.20718 -21.41661 178.92523 459
68.98029 -23.31945 178.13887 457
66.63898 -23.62472 180.44116 455
64.21939 -23.93582 182.79587 452
61.77628 -24.25606 185.22382 450
59.28907 -24.60024 187.70314 448
56.69887 -24.97236 190.23613 445
54.06908 -25.31524 192.84099 443
51.36585 -25.63601 195.49205 440
48.60045 -26.04219 198.23441 438
45.72191 -26.38904 201.01712 435
42.81290 -26.75957 203.88675 433
39.80064 -27.19601 206.88043 430
36.65950 -27.57896 209.92990 427
-179.77299 -56.77269 223.25462 383
85.20936 -22.04392 176.79681 461
83.14449 -22.33588 178.87737 459
68.89186 -24.33989 178.13586 457
66.55801 -24.68031 180.44005 454
64.13582 -24.98565 182.80090 452
61.66460 -25.35349 185.21623 450
59.19389 -25.69424 187.68539 448
56.62806 -26.03526 190.21573 445
53.94534 -26.42036 192.81026 443
51.28539 -26.79823 195.44812 440
48.48373 -27.17137 198.20436 438
45.65009 -27.58223 201.01672 435
42.68445 -27.94938 203.90337 432
39.47446 -28.40959 206.86925 413
36.08249 -28.90964 209.92427 404
-180.01932 -59.43179 223.37944 361
85.12944 -22.95116 176.75818 461
83.06715 -23.27155 178.84544 459
75.24673 -24.40497 179.60962 308
66.48917 -25.70268 180.37067 454
64.03913 -26.06154 182.76833 452
61.61381 -26.39689 185.17725 450
59.09682 -26.78819 187.61420 447
56.52051 -27.13744 190.18860 445
53.86520 -27.50798 192.77118 442
51.14645 -27.91981 195.44337 440
48.38257 -28.31792 198.19580 437
45.35366 -28.74661 200.95888 418
42.21907 -29.21728 203.88155 415
38.96734 -29.68365 206.83571 413
35.48467 -30.17511 209.92171 403
-180.73264 -62.03909 223.38049 361
85.10365 -23.89038 176.73918 461
83.03258 -24.18651 178.80162 459
75.35057 -25.39136 179.59486 308
66.39478 -26.74412 180.33980 454
64.00922 -27.10480 182.72141 452
61.52736 -27.48359 185.13884 449
58.99590 -27.83727 187.60815 447
56.41059 -28.22592 190.16718 445
53.75455 -28.67225 192.74472 442
50.95566 -29.07366 195.40831 422
47.92322 -29.55378 198.11584 420
44.88647 -30.02924 200.92744 417
41.70016 -30.50267 203.80513 415
38.43167 -30.98632 206.79802 405
34.83172 -31.48623 209.88660 403
-181.38074 -64.76232 223.37650 361
-42487.75000 -6561.94482 5936.27100 1000
85.01877 -24.81141 176.68369 460
82.96056 -25.12753 178.75194 458
75.45343 -26.34587 179.59340 308
66.29422 -27.78822 180.32501 454
63.91476 -28.19086 182.67770 451
61.43251 -28.55999 185.10051 449
58.90900 -28.94549 187.56161 447
56.23894 -29.36710 190.11002 427
53.39758 -29.85385 192.67873 424
50.48774 -30.29179 195.30801 422
47.48312 -30.74946 198.08643 419
44.37598 -31.22861 200.87186 417
41.21098 -31.75860 203.76199 414
37.82270 -32.29527 206.74980 405
34.20794 -32.84075 209.87720 402
-181.99699 -67.47296 223.45427 361
84.94816 -25.72716 176.66408 460
82.85844 -26.06387 178.69679 458
75.58098 -27.28276 179.56612 308
-112.38789 -18.79597 -24.52514 453
63.81577 -29.24247 182.64838 451
61.29942 -29.63575 185.02522 431
58.56556 -30.11307 187.51245 428
55.81106 -30.54321 190.01440 426
52.94409 -31.03454 192.61980 424
50.01909 -31.48216 195.29073 421
46.97910 -31.99362 198.01875 419
43.91130 -32.48363 200.83058 416
40.66816 -33.04115 203.74023 407
37.17783 -33.58955 206.75342 404
33.58596 -34.17538 209.85902 401
-182.93137 -70.23123 216.60455 425
-182.68044 -70.19526 223.46561 361
84.90953 -26.67615 176.58182 460
82.81567 -27.03346 178.68509 458
75.67175 -28.22073 179.59958 308
66.08736 -29.89081 180.20168 435
63.53335 -30.33536 182.54091 432
60.87775 -30.79365 184.96381 430
58.15997 -31.26377 187.43089 428
55.38667 -31.70571 189.93797 425
52.52383 -32.20427 192.54753 423
49.56233 -32.72175 195.17982 420
46.51999 -33.22181 197.96777 418
43.39391 -33.76740 200.79990 415
40.09329 -34.30337 203.69618 406
36.58499 -34.94379 206.73035 403
32.91970 -35.54602 209.84212 401
-182.99295 -72.87136 216.52277 425
-184.76727 -73.11825 223.47798 323
84.84178 -27.58353 176.56898 460
82.75762 -27.97097 178.64067 457
75.80660 -29.19294 179.59544 308
65.73698 -31.01030 180.12592 434
63.15962 -31.46487 182.42686 432
60.46870 -31.92281 184.84978 429
57.74732 -32.40290 187.32829 427
54.94167 -32.90022 189.86971 425
52.07188 -33.40347 192.43929 422
49.12242 -33.93857 195.11949 420
46.08192 -34.46305 197.86586 417
42.91979 -35.01178 200.74350 415
39.48497 -35.63893 203.66537 405
35.92507 -36.23859 206.65294 403
32.28520 -36.91278 209.79050 400
-182.90974 -75.52150 216.56786 425
-187.30678 -76.14945 223.52466 322
84.80105 -28.50853 176.49942 459
82.70408 -28.89618 178.57588 457
75.90456 -30.15840 179.59406 308
65.37185 -32.08966 179.98514 433
62.77449 -32.60157 182.32056 431
60.07347 -33.07255 184.73154 429
57.34163 -33.56846 187.20699 426
54.52528 -34.11622 189.78362 424
51.64049 -34.64098 192.36040 422
48.62224 -35.17498 195.08563 419
45.56593 -35.73482 197.84402 417
42.33924 -36.34506 200.69319 407
38.88367 -36.97022 203.57864 405
35.29395 -37.60466 206.61868 402
31.60936 -38.25286 209.79865 399
-182.94147 -78.08557 216.53392 425
-189.87769 -79.31794 223.58542 322
84.74413 -29.44918 176.46169 459
82.61532 -29.82995 178.54861 457
76.02157 -31.10416 179.58546 308
65.02236 -33.21777 179.88814 433
62.37658 -33.72900 182.23955 430
59.68212 -34.21811 184.64798 428
56.92407 -34.75954 187.10699 426
54.08467 -35.27801 189.68944 423
51.16990 -35.82622 192.31177 421
48.18719 -36.38030 194.98486 419
45.11405 -36.97375 197.76176 416
41.73751 -37.63232 200.62991 407
38.26583 -38.30294 203.55481 404
34.68326 -38.98871 206.58600 401
30.96729 -39.65614 209.73648 399
-182.95354 -80.73103 216.59969 425
84.67722 -30.36982 176.42484 459
82.54977 -30.79190 178.49048 457
76.18006 -32.06987 179.58325 308
64.62845 -34.33182 179.74910 432
62.01574 -34.84952 182.10989 430
59.28729 -35.35866 184.56537 428
56.52354 -35.91069 187.04213 425
53.67814 -36.51402 189.57115 423
50.71890 -37.03947 192.19955 420
47.72325 -37.64455 194.89445 418
44.52575 -38.26918 197.68700 409
41.17412 -38.96428 200.56874 406
37.64944 -39.60051 203.48244 403
34.01204 -40.32749 206.54623 401
30.26267 -41.04873 209.71313 398
-182.87474 -83.31543 216.62753 424
84.60128 -31.32321 176.34474 458
82.42422 -31.75575 178.39871 438
76.30377 -33.00013 179.56259 308
64.27297 -35.49828 179.64613 431
61.61219 -36.02116 182.00388 429
58.89409 -36.53318 184.42659 427
56.12214 -37.11611 186.92351 425
53.21618 -37.70571 189.49358 422
50.30285 -38.29132 192.10979 420
47.22215 -38.91256 194.83784 417
44.01539 -39.55814 197.60086 408
40.56220 -40.26122 200.48715 405
37.03915 -40.95210 203.47922 403
33.41832 -41.72978 206.53732 400
29.58555 -42.47634 209.70663 397
-182.83409 -85.93721 216.62859 439
84.42789 -32.30062 176.25812 439
82.14632 -32.77814 178.28714 437
76.43715 -33.95125 179.56653 308
63.89690 -36.58613 179.51477 431
61.23555 -37.16902 181.90836 429
58.51308 -37.73901 184.34172 426
55.67757 -38.33346 186.81801 424
52.79747 -38.94144 189.42072 422
49.81480 -39.55875 192.04451 419
46.74311 -40.21339 194.73917 410
43.42598 -40.90434 197.52850 407
39.97555 -41.58099 200.40063 405
36.41019 -42.34911 203.38684 402
32.74778 -43.12196 206.46358 399
28.91947 -43.87503 209.67667 397
-182.65610 -88.50829 216.62842 439
84.14297 -33.26212 176.15080 439
81.83376 -33.75984 178.17793 437
76.62292 -34.91816 179.58311 308
63.52521 -37.77588 179.43456 430
60.85832 -38.31503 181.80151 428
58.07838 -38.90873 184.26184 426
55.27747 -39.55880 186.75372 423
52.39189 -40.13930 189.33522 421
49.37194 -40.78731 191.97816 419
46.19481 -41.46381 194.66014 409
42.86148 -42.20477 197.48868 407
39.36899 -42.92276 200.36003 404
35.79653 -43.70586 203.36195 401
32.12020 -44.50094 206.45692 399
28.23148 -45.35062 209.66154 396
-188.22942 -92.40952 209.64455 485
-188.66841 -92.53214 216.61101 297
83.86685 -34.27386 176.02623 438
81.55463 -34.75999 178.05919 436
76.75133 -35.84051 179.56313 308
63.15067 -38.88065 179.29210 430
60.45348 -39.52542 181.66446 427
57.67359 -40.13511 184.12785 425
54.84327 -40.75139 186.62050 423
51.92463 -41.36885 189.23422 420
48.91277 -42.05980 191.85762 411
45.65174 -42.80940 194.61070 408
42.26331 -43.52121 197.41148 406
38.75343 -44.31588 200.31827 403
35.18918 -45.11956 203.31392 401
31.41726 -45.94812 206.42776 398
27.53469 -46.79883 209.62120 361
-187.76601 -94.97730 209.56575 485
-195.63120 -96.74030 216.64935 295
83.57498 -35.27038 175.93127 438
81.25892 -35.80107 177.97433 436
76.93751 -36.81063 179.56024 308
62.78450 -40.05117 179.19460 429
60.04325 -40.69035 181.55383 427
57.29251 -41.30890 184.01491 424
54.45210 -41.95652 186.51376 422
51.47838 -42.65924 189.10588 420
48.36024 -43.36821 191.79941 410
45.08411 -44.09011 194.50455 408
41.67032 -44.85012 197.31279 405
38.18276 -45.70657 200.22429 403
34.55958 -46.48588 203.26147 400
30.78007 -47.37887 206.34061 397
26.77518 -48.26408 209.60214 357
-187.29193 -97.58756 209.65431 485
83.32439 -36.29167 175.78490 437
81.00940 -36.82019 177.85788 435
77.07688 -37.73429 179.57793 308
62.41496 -41.24772 179.02583 428
59.68401 -41.85963 181.45108 426
56.88447 -42.52766 183.91573 424
53.97061 -43.21552 186.42827 421
51.05920 -43.89694 189.03845 419
47.83817 -44.66824 191.67387 410
44.49997 -45.44411 194.40692 407
41.07567 -46.24525 197.23009 404
37.56185 -47.04014 200.17722 402
33.91286 -47.91850 203.19774 399
30.12473 -48.79739 206.34183 396
26.02092 -49.76704 209.53850 357
-186.92091 -100.20122 209.57951 485
83.02473 -37.29733 175.68867 436
80.69351 -37.87339 177.70784 434
77.26479 -38.70695 179.57227 308
62.01456 -42.39418 178.91473 428
59.26151 -43.04661 181.29956 425
56.44498 -43.72681 183.78169 423
53.57438 -44.42973 186.33517 421
50.53994 -45.17595 188.90993 411
47.29866 -45.98256 191.60123 409
43.95939 -46.77419 194.30077 406
40.50412 -47.59578 197.16460 404
36.94987 -48.42830 200.10883 401
33.25808 -49.32880 203.12575 398
29.39231 -50.27802 206.28239 396
25.30552 -51.24801 209.55710 356
-186.69618 -102.83549 209.64799 485
82.74776 -38.34203 175.52611 436
80.39357 -38.88658 177.61288 432
77.44672 -39.65153 179.56996 308
61.62777 -43.56941 178.80185 427
58.90223 -44.26789 181.21558 425
55.88870 -45.67044 183.52307 423
53.11440 -45.68887 186.21472 420
50.02364 -46.46134 188.81592 411
46.74071 -47.29411 191.49338 408
43.39905 -48.09031 194.21313 406
39.90418 -48.98661 197.09431 403
36.33403 -49.84173 200.01358 400
32.57120 -50.78748 203.04437 398
28.70576 -51.73087 206.23003 395
24.19454 -52.85477 209.51328 341
82.47307 -39.32985 175.40053 435
80.10559 -39.93903 177.48454 431
77.64211 -40.59093 179.55829 308
61.27757 -44.76748 178.63353 426
58.48763 -45.46247 181.06728 424
55.63287 -46.19652 183.53618 422
52.65079 -46.94438 186.11101 412
49.48940 -47.79659 188.68115 410
46.22490 -48.60151 191.37941 407
42.79731 -49.44895 194.12939 405
39.31551 -50.38633 196.97536 402
35.67330 -51.24823 199.94411 400
31.92208 -52.20058 203.00603 397
27.88434 -53.27757 206.19632 383
22.91707 -54.51931 209.48087 338
82.20013 -40.37170 175.28766 435
79.83752 -40.99525 177.36469 431
77.35773 -41.64895 179.45883 429
60.90587 -45.97532 178.50569 426
58.10061 -46.70728 180.92537 423
55.23477 -47.46135 183.43233 421
52.16439 -48.26630 185.95456 412
48.92516 -49.08100 188.60500 409
45.63554 -49.93621 191.27225 407
42.25664 -50.83178 194.04996 404
38.69209 -51.77930 196.92154 402
35.08085 -52.70541 199.90242 399
31.12172 -53.71681 202.96448 385
26.92271 -54.83186 206.09492 372
20.65299 -56.43816 209.39604 263
81.92671 -41.41016 175.13750 434
79.52374 -42.08485 177.20985 430
77.03060 -42.73353 179.32506 428
60.50655 -47.19144 178.39285 425
57.66098 -47.95078 180.79852 423
54.78149 -48.72117 183.30255 413
51.65602 -49.57383 185.85532 411
48.41872 -50.41283 188.45807 408
45.11388 -51.30711 191.17690 406
41.64635 -52.23172 193.96770 403
38.11494 -53.18602 196.82880 401
34.28770 -54.19604 199.78796 387
30.21372 -55.26769 202.84702 384
25.78291 -56.46688 206.05885 371
-187.22705 -113.86812 202.53944 495
81.65491 -42.48872 175.00670 433
79.25293 -43.14845 177.10895 429
76.72704 -43.81213 179.20209 427
60.09193 -48.40686 178.26372 424
57.27025 -49.16906 180.66966 422
54.28743 -49.98053 183.14667 413
51.14333 -50.89492 185.70605 410
47.87621 -51.76137 188.33243 408
44.51717 -52.67648 191.04408 405
41.07343 -53.60530 193.85976 403
37.33107 -54.64515 196.74449 389
33.38613 -55.73019 199.68941 386
29.26599 -56.81941 202.79158 373
24.60391 -58.12114 205.98688 370
81.37924 -43.54781 174.87593 433
78.93156 -44.19810 176.96924 429
76.42522 -44.93509 179.06299 427
59.73063 -49.61919 178.12532 424
56.86966 -50.41423 180.55328 414
53.79222 -51.28583 183.01247 412
50.59348 -52.18077 185.56276 409
47.33855 -53.12632 188.24333 407
43.96633 -54.04913 190.91255 404
40.31600 -55.09322 193.71320 390
36.49220 -56.15903 196.60463 388
32.49728 -57.23638 199.61353 385
28.17006 -58.47935 202.71407 372
23.45938 -59.83216 205.92276 369
81.08679 -44.57992 174.75758 432
78.65034 -45.28072 176.81052 428
76.09201 -45.99893 178.93466 426
66.95763 -48.65807 179.67337 304
56.42136 -51.72087 180.38242 413
53.29089 -52.58999 182.90991 411
50.12757 -53.51713 185.44217 409
46.80655 -54.47026 188.09071 406
43.21693 -55.50837 190.81750 392
39.48803 -56.57579 193.58441 390
35.62104 -57.65797 196.48018 387
31.60855 -58.84076 199.52361 384
27.08332 -60.15297 202.60498 371
22.29745 -61.49535 205.87428 368
80.80173 -45.63031 174.61707 431
78.32472 -46.38558 176.70479 427
75.78825 -47.09653 178.83461 425
67.19934 -49.68031 179.63879 304
55.93317 -52.99408 180.26845 413
52.81146 -53.92832 182.75356 410
49.55214 -54.88028 185.33299 408
46.10032 -55.90783 187.95988 394
42.47900 -56.95309 190.67715 391
38.71704 -58.06643 193.47104 389
34.79718 -59.19268 196.40950 386
30.60265 -60.43600 199.39246 373
25.92841 -61.83214 202.49940 370
21.12200 -63.24382 205.76224 368
80.51936 -46.70663 174.45001 431
78.06100 -47.46614 176.55058 427
75.49516 -48.24659 178.70517 425
67.41607 -50.67289 179.67189 304
55.45457 -54.28851 180.11940 412
52.30127 -55.23824 182.59824 410
48.90898 -56.27645 185.14386 395
45.34877 -57.35151 187.80075 393
41.65599 -58.42313 190.50398 390
37.85909 -59.57126 193.33212 388
33.91888 -60.79316 196.27676 385
29.47457 -62.11780 199.24731 372
24.82664 -63.50435 202.39047 369
19.90295 -65.03067 205.67587 367
-60898.32422 -18485.84570 7629.16211 1000
80.25109 -47.81760 174.31114 430
77.73544 -48.58613 176.42035 426
75.16660 -49.38028 178.55037 424
67.66747 -51.67671 179.68202 304
54.97958 -55.59226 179.95331 411
51.61690 -56.65920 182.43163 397
48.16396 -57.71831 184.96175 394
44.56610 -58.79279 187.64491 392
40.87627 -59.95823 190.33565 390
37.04941 -61.13176 193.20792 387
32.97428 -62.36564 196.10641 374
28.37344 -63.76972 199.18051 371
23.61533 -65.22714 202.32068 368
18.63695 -66.77730 205.62199 366
79.95679 -48.88602 174.19507 429
77.46236 -49.70836 176.24768 425
74.87278 -50.52341 178.41788 423
67.92342 -52.66660 179.65764 304
54.35107 -56.97822 179.73654 398
50.93444 -58.02475 182.21246 396
47.44221 -59.17211 184.82149 394
43.82095 -60.31436 187.47771 391
40.09435 -61.48089 190.18889 389
36.19072 -62.67822 193.05995 386
31.87996 -64.00048 195.99747 373
27.27926 -65.46272 199.02344 370
22.48022 -66.98608 202.22055 368
17.43716 -68.61172 205.56139 365
79.69947 -49.98580 174.04131 429
77.16434 -50.80146 176.14375 425
74.54879 -51.63750 178.25473 423
68.21008 -53.69880 179.65851 304
53.65587 -58.39640 179.54285 397
50.25584 -59.49045 182.04655 395
46.70520 -60.61736 184.63368 393
43.04073 -61.75467 187.30562 390
39.25057 -62.97659 190.04388 388
35.30898 -64.25748 192.90775 375
30.78950 -65.72855 195.85750 372
26.12682 -67.20380 198.93889 369
21.26108 -68.79877 202.10152 367
16.13330 -70.41227 205.48914 364
79.41666 -51.09601 173.86453 428
76.86491 -51.90988 175.99908 424
74.24642 -52.81421 178.11626 422
68.47836 -54.67212 179.63220 304
52.98532 -59.80059 179.35025 397
49.51645 -60.89847 181.85469 394
45.99417 -62.08144 184.42775 392
42.26662 -63.27893 187.10066 389
38.41606 -64.56512 189.89590 387
34.26940 -65.91099 192.73145 374
29.73347 -67.39872 195.71582 371
25.00610 -68.97660 198.76451 368
20.03108 -70.59427 201.99863 366
14.87554 -72.25249 205.35083 363
79.13393 -52.19595 173.70760 427
76.55001 -53.07168 175.85036 423
73.92245 -53.93744 177.99728 421
68.71275 -55.68368 179.62976 304
52.28039 -61.22218 179.10768 396
48.83333 -62.36600 181.63953 393
45.20164 -63.59922 184.26920 391
41.49155 -64.86868 186.96291 389
37.59316 -66.13063 189.72105 386
33.24725 -67.61771 192.60580 373
28.65011 -69.13068 195.55542 370
23.83339 -70.72838 198.68280 367
18.80946 -72.40468 201.91774 365
12.50011 -74.51389 205.22009 317
78.82578 -53.32235 173.54372 427
76.26777 -54.18981 175.68895 423
73.59702 -55.12141 177.82794 420
69.03252 -56.68317 179.62605 304
51.63054 -62.64676 178.92665 395
48.09433 -63.85632 181.45183 393
44.44693 -65.12034 184.08708 390
40.69888 -66.41512 186.78610 388
36.64716 -67.75681 189.56358 374
32.18404 -69.30428 192.44525 372
27.49801 -70.87431 195.40207 369
22.66970 -72.53029 198.49890 367
17.07183 -74.49725 201.78319 334
9.28568 -77.12267 205.09454 316
78.55634 -54.46055 173.38455 426
75.97350 -55.34914 175.53882 422
73.25813 -56.29777 177.71182 420
69.28680 -57.65511 179.64355 304
50.93150 -64.11558 178.68156 394
47.38217 -65.38365 181.24179 392
43.67345 -66.62252 183.85815 389
39.87902 -67.92963 186.60771 387
35.61174 -69.47398 189.37379 373
31.06947 -71.00548 192.23361 371
26.37406 -72.66293 195.25684 368
21.25004 -74.48481 198.35133 336
14.65571 -76.71814 201.59036 318
6.03245 -79.75391 204.89226 315
78.28646 -55.59966 173.25273 424
75.67097 -56.51271 175.34906 421
72.95880 -57.47338 177.54114 419
69.58570 -58.68108 179.63138 304
50.19576 -65.59386 178.49181 393
46.64447 -66.86260 181.01216 391
42.91106 -68.15754 183.67528 388
38.97263 -69.58080 186.41560 375
34.61088 -71.13234 189.15631 373
30.00057 -72.75908 192.07373 370
25.23026 -74.48628 195.09126 367
19.06884 -76.65754 198.18134 335
11.55253 -79.36312 201.35052 317
2.69413 -82.51483 204.67314 314
77.97263 -56.72205 173.05591 423
75.35133 -57.70249 175.19489 421
72.66370 -58.66769 177.38928 418
69.73503 -59.72040 179.60446 402
49.50197 -67.06132 178.28197 392
45.91035 -68.37958 180.80244 390
42.13907 -69.75658 183.45586 387
37.98856 -71.24972 186.16296 374
33.54493 -72.88975 188.95039 372
28.88792 -74.57180 191.91901 369
23.20226 -76.64505 194.83022 336
16.76177 -78.93884 197.90312 334
8.34371 -82.05122 201.07387 315
-0.83909 -85.38136 204.45705 313
77.67957 -57.89880 172.88542 422
75.05602 -58.88033 175.05446 420
72.24150 -59.87254 177.21121 389
69.08203 -61.06999 179.40468 401
48.79544 -68.56160 178.03867 391
45.11936 -69.95219 180.60387 389
41.29794 -71.37547 183.27298 376
36.96584 -72.97746 185.93597 373
32.48090 -74.60158 188.78889 371
27.22460 -76.52346 191.61458 338
21.05877 -78.84578 194.60352 335
13.78566 -81.55965 197.64183 317
5.01204 -84.74724 200.80260 314
-4.48875 -88.27245 204.25751 312
77.42338 -59.03587 172.71631 421
74.73590 -60.05203 174.88211 419
71.57382 -61.25848 176.95232 388
68.43180 -62.45654 179.16118 400
57.29562 -66.62669 179.72736 300
44.38917 -71.49836 180.40869 388
40.35938 -73.03313 183.02019 375
35.97165 -74.69984 185.73007 372
31.14091 -76.47033 188.55150 339
25.17509 -78.74561 191.31326 336
18.82331 -81.16973 194.32649 334
10.65633 -84.21767 197.34366 316
1.55394 -87.66198 200.52509 313
77.07828 -60.23317 172.56520 421
74.11946 -61.35092 174.64413 390
70.87211 -62.61548 176.70923 387
67.77157 -63.81528 178.94579 399
57.62801 -67.71870 179.75526 300
43.64867 -73.08855 180.17419 387
39.38614 -74.73061 182.77501 374
34.91426 -76.42970 185.49405 371
29.19735 -78.65251 188.17558 338
23.02439 -80.97646 191.03807 335
16.01341 -83.70178 193.97253 317
7.34705 -87.03246 196.99994 315
-2.40612 -90.75365 200.27000 286
76.67791 -61.45338 172.35294 391
73.47752 -62.71207 174.38104 389
70.19772 -63.98050 176.48717 386
67.07687 -65.19794 178.72006 398
57.96943 -68.76288 179.72986 300
42.68362 -74.75515 179.90718 375
38.39104 -76.43234 182.57487 373
33.06520 -78.50204 185.13179 339
27.13695 -80.84334 187.83554 337
20.83865 -83.30678 190.72314 334
12.92252 -86.40198 193.57611 316
3.97228 -89.92985 196.67723 313
-15.56127 -97.59241 199.31398 267
76.04287 -62.77361 172.05496 390
72.85446 -64.04436 174.11102 388
69.54596 -65.36677 176.20284 385
66.40563 -66.59389 178.45599 397
58.32778 -69.83427 179.72049 300
41.75459 -76.45126 179.64726 374
36.86975 -78.40516 182.17783 340
31.11262 -80.65981 184.77487 338
25.04871 -83.10648 187.52773 336
18.22487 -85.78307 190.31999 317
9.71567 -89.24529 193.19391 315
-1.42551 -93.65025 196.15015 286
75.45434 -64.12811 171.79492 316
72.15852 -65.45541 173.85275 387
68.83961 -66.80978 175.93387 385
65.73717 -68.03854 178.24229 396
58.68106 -70.89439 179.75133 300
40.55742 -78.28940 179.31956 342
34.96671 -80.52630 181.78975 339
29.09587 -82.90027 184.37791 337
22.89797 -85.44587 187.16161 334
15.21512 -88.55122 189.87392 316
6.37711 -92.07641 192.83827 314
-14.98193 -100.81246 194.89656 267
75.76867 -65.06929 171.80939 316
71.47296 -66.83308 173.57382 386
68.14492 -68.21521 175.67859 384
65.04637 -69.48552 177.97012 395
59.04240 -71.94276 179.75742 300
38.76302 -80.35027 178.87968 341
33.04222 -82.71370 181.39302 338
27.09748 -85.15248 184.01247 336
20.51471 -87.90607 186.73102 318
12.09729 -91.36816 189.45015 315
-0.36280 -96.51875 192.06229 286
76.10829 -66.00537 171.79938 316
70.83743 -68.22160 173.29420 385
67.41324 -69.68437 175.39677 383
64.34148 -70.93826 177.71294 394
59.43702 -73.00491 179.75227 300
36.90852 -82.48454 178.47365 339
31.12895 -84.92428 180.93068 337
24.98001 -87.53232 183.55475 335
17.51970 -90.66608 186.24965 316
7.57738 -94.82232 188.86652 287
-14.36391 -104.03575 190.52919 267
76.48647 -66.94179 171.78102 316
70.12318 -69.65276 173.00024 384
66.69357 -71.11699 175.13292 382
63.65717 -72.43423 177.46693 393
59.81530 -74.08844 179.75366 300
35.07444 -84.69035 177.98499 338
29.11847 -87.21076 180.53793 336
22.77550 -89.92843 183.16489 318
14.40326 -93.49342 185.72046 315
0.69321 -99.32588 187.90849 286
76.81425 -67.89097 171.77588 316
69.45403 -71.09194 172.71057 383
65.94847 -72.60542 174.86035 381
62.95102 -73.92188 177.19728 392
60.02753 -75.18104 179.68452 390
33.11820 -86.89931 177.55995 337
27.09587 -89.53235 180.07605 335
19.80905 -92.68130 182.58745 317
8.69477 -97.52399 184.83466 287
77.18036 -68.85244 171.80663 316
68.78535 -72.55991 172.38554 382
65.21702 -74.14092 174.57784 380
62.26478 -75.43576 176.95456 391
59.23103 -76.77203 179.44894 389
45.36897 -82.88235 179.84874 296
24.94829 -91.95303 179.57336 334
16.20702 -95.81995 181.97832 288
1.89122 -102.11149 183.78671 286
77.57394 -69.77051 171.79320 316
68.04121 -74.04486 172.08487 381
64.50269 -75.64557 174.27391 379
61.52262 -76.98438 176.69292 390
58.52105 -78.35948 179.20410 388
45.82298 -84.06760 179.83998 296
22.20856 -94.69394 179.03250 317
9.89810 -100.20276 180.84419 287
-25.50773 -116.13958 179.81003 340
77.93559 -70.73968 171.77200 316
67.63235 -75.43933 171.86261 312
63.76157 -77.19624 173.96045 391
60.78889 -78.54305 176.41524 389
57.72705 -79.94700 178.93755 387
46.26799 -85.17092 179.83078 296
17.50912 -98.37494 178.03967 288
3.17504 -104.88371 179.67297 286
-20.89678 -115.91829 180.33566 341
78.30836 -71.64708 171.76317 316
67.98373 -76.45638 171.88982 312
63.03098 -78.75390 173.68384 390
60.03887 -80.15064 176.14630 388
56.94230 -81.57117 178.63310 386
46.72190 -86.33486 179.85519 296
11.24336 -102.84718 176.85672 287
-16.40587 -115.67971 176.35562 342
-19.93608 -117.33253 180.40425 284
78.66709 -72.57898 171.78398 316
68.42680 -77.43584 171.89056 312
62.27523 -80.33347 173.37639 389
59.26484 -81.71986 175.84854 387
55.13493 -83.69792 178.17252 330
47.19749 -87.44927 179.83159 296
4.52722 -107.59679 175.50751 286
-10.13675 -114.51504 177.27643 286
-19.34025 -118.89793 180.36967 284
79.08202 -73.51588 171.77530 316
68.83589 -78.43477 171.84866 312
61.55642 -81.90681 173.08754 388
57.98317 -83.60294 175.45483 330
52.97238 -86.03459 177.57060 328
47.63293 -88.56325 179.82889 296
29.73332 -97.15807 179.98840 292
-0.14542 -111.51695 178.85538 288
-18.67506 -120.43377 180.41798 284
79.46030 -74.46572 171.77220 316
-69.68839 -34.01717 -19.31678 312
60.80734 -83.55776 172.74620 331
55.90963 -85.91299 174.84651 329
50.78250 -88.41673 177.02184 327
45.52340 -90.96771 179.30309 326
30.25389 -98.44072 179.95702 292
8.63294 -108.95617 180.19576 288
79.87756 -75.38293 171.78520 316
69.67937 -80.41862 171.84464 312
58.79961 -85.80796 172.12088 330
53.77050 -88.29636 174.19344 328
48.50343 -90.90569 176.36787 326
43.09494 -93.56190 178.73741 325
30.79126 -99.68985 179.96089 292
9.19916 -110.34097 180.15614 288
80.26562 -76.31802 171.76694 316
70.12996 -81.39795 171.87654 312
58.58901 -87.20110 171.93463 308
51.56721 -90.74792 173.54321 327
46.16387 -93.45589 175.77661 326
40.62352 -96.24994 178.11723 324
31.34604 -100.92293 179.95139 292
9.85132 -111.68610 180.17766 288
80.67793 -77.20430 171.76440 316
70.55388 -82.36960 171.86819 312
59.05120 -88.24911 171.95432 308
49.28951 -93.22218 172.88843 325
43.71498 -96.06222 175.08891 324
38.03982 -99.01111 177.47519 322
29.44493 -103.33645 179.52818 276
10.41973 -113.04539 180.13139 288
81.08789 -78.13276 171.76257 316
71.01046 -83.39137 171.84039 312
59.54493 -89.29292 171.92567 308
46.93473 -95.85216 172.17264 324
41.23995 -98.81129 174.43814 323
35.37137 -101.86779 176.81303 321
19.66052 -109.95617 177.64952 275
81.51706 -79.05090 171.77203 316
71.46822 -84.36663 171.86209 312
60.03481 -90.39589 171.91734 308
46.94630 -97.28088 172.05112 304
38.69320 -101.59792 173.71442 322
26.32048 -108.12883 174.83165 274
-7.33168 -125.79908 172.51271 292
81.92894 -79.96976 171.76183 316
71.88890 -85.34769 171.86009 312
60.50544 -91.43279 171.95857 308
47.44869 -98.40960 172.01743 304
33.60622 -105.79769 172.46239 274
15.54110 -115.46924 172.49757 272
-52.75611 -151.93129 163.96393 370
82.39059 -80.87010 171.74814 316
72.38975 -86.30318 171.84282 312
61.01023 -92.44872 171.95689 308
48.00138 -99.53459 172.06462 304
32.87472 -107.68107 172.19510 300
15.17781 -117.28792 172.31969 296
-48.79536 -151.97720 164.50146 372
82.82812 -81.81531 171.75890 316
72.86391 -87.27397 171.85393 312
61.52762 -93.52052 171.92374 308
48.51837 -100.65617 172.03653 304
33.46566 -108.91923 172.13805 300
15.82279 -118.66452 172.29413 296
-44.75145 -151.92683 165.08266 363
83.27641 -82.69562 171.73128 316
73.34209 -88.26575 171.82291 312
62.04967 -94.55718 171.89629 308
49.08606 -101.77428 172.04665 304
34.07465 -110.16096 172.19063 300
16.43603 -119.97952 172.32433 296
-43.10662 -153.24037 165.28972 286
83.70108 -83.62815 171.73219 316
73.81087 -89.22203 171.83525 312
62.55091 -95.59648 171.93741 308
49.65507 -102.86443 172.05199 304
34.68051 -111.34869 172.14711 300
17.13875 -121.29865 172.33313 296
-42.24490 -154.89368 165.28622 286
84.16267 -84.49631 171.75513 316
74.31016 -90.19460 171.83284 312
63.08801 -96.63676 171.92781 308
50.19915 -104.01853 172.01567 304
35.30880 -112.57717 172.14133 300
17.80032 -122.57397 172.29948 296
-41.35529 -156.54742 165.24507 286
84.64793 -85.38866 171.73650 316
74.77349 -91.12414 171.79309 312
63.58691 -97.66660 171.93073 308
50.78168 -105.12689 172.02620 304
35.90534 -113.78601 172.12004 300
18.47700 -123.93646 172.29787 296
-40.47890 -158.20927 165.26146 286
85.07456 -86.30964 171.71773 316
75.29821 -92.10342 171.79884 312
64.17151 -98.66840 171.88550 308
51.33899 -106.23450 172.00212 304
36.51377 -114.97331 172.15292 300
19.14063 -125.24775 172.31502 296
-39.60868 -159.92554 165.19960 286
85.57384 -87.20743 171.73383 316
75.79893 -93.05559 171.79254 312
64.67512 -99.66376 171.91791 308
51.95312 -107.34238 172.00542 304
37.18007 -116.13132 172.12010 300
-21.67954 -151.39455 163.54749 371
86.06559 -88.09667 171.73235 316
76.30901 -94.01374 171.81120 312
65.24512 -100.73358 171.89687 308
52.56567 -108.41673 172.00067 304
37.82158 -117.36580 172.11183 300
-18.12017 -151.33353 164.12433 372
86.54677 -88.96732 171.73959 316
76.82211 -94.92109 171.79388 312
65.78992 -101.74767 171.90804 308
53.11227 -109.51133 171.99753 304
38.47832 -118.51638 172.15968 300
-14.57448 -151.23947 164.67563 374
87.01023 -89.86931 171.70169 316
77.34731 -95.88102 171.78836 312
66.34757 -102.75702 171.90613 308
53.74936 -110.58754 171.99849 304
39.14851 -119.73763 172.13963 300
-11.21525 -151.13631 165.19852 375
87.49741 -90.70533 171.70496 316
77.88741 -96.82042 171.79265 312
66.93921 -103.76025 171.87871 308
54.37719 -111.68274 171.97614 304
39.80592 -120.89735 172.11243 300
-7.89369 -151.07436 165.70625 376
88.03829 -91.59248 171.69943 316
78.39633 -97.75808 171.77908 312
67.52224 -104.76048 171.87692 308
54.96342 -112.76801 171.99152 304
40.47215 -122.08999 172.11398 300
-6.94259 -152.46199 165.71790 291
88.51007 -92.47987 171.70766 316
78.92882 -98.68919 171.80089 312
68.07949 -105.78176 171.84863 308
55.61829 -113.84361 171.98300 304
41.16526 -123.25857 172.10928 300
-6.02727 -153.95047 165.70853 291
89.04875 -93.35120 171.70232 316
79.48206 -99.60616 171.80486 312
68.63571 -106.76503 171.88651 308
-96.21217 -63.42775 -24.71233 304
3.28921 -149.80455 163.02711 285
-5.08048 -155.35390 165.74588 291
89.54707 -94.19118 171.68300 316
80.05891 -100.58788 171.79720 312
69.22501 -107.76332 171.87929 308
56.86249 -116.03011 171.95645 304
4.81323 -150.76335 163.14403 381
-4.13758 -156.80588 165.79396 290
90.05087 -95.07300 171.71291 316
80.62372 -101.48484 171.76349 312
69.83777 -108.72209 171.87712 308
57.52445 -117.06701 171.96516 304
7.80920 -150.72418 163.62830 382
-3.21155 -158.19240 165.74422 290
90.59920 -95.94760 171.69836 316
81.16467 -102.37160 171.75014 312
70.46528 -109.75497 171.87361 308
58.17298 -118.13245 171.94104 304
10.78679 -150.64030 164.16150 383
-2.34620 -159.64558 165.78764 290
91.11680 -96.76782 171.68907 316
81.74467 -103.33540 171.73508 312
71.09274 -110.70940 171.85486 308
58.84481 -119.21944 171.98268 304
13.75683 -150.54614 164.61313 385
91.63043 -97.65773 171.70049 316
82.30109 -104.24824 171.75150 312
71.69288 -111.72555 171.85818 308
59.51530 -120.30438 171.94389 304
16.58874 -150.51665 165.11383 386
92.18574 -98.49145 171.65762 316
82.86492 -105.13919 171.76036 312
72.30913 -112.66102 171.83365 308
60.17603 -121.31153 171.92496 304
19.38601 -150.43871 165.54990 387
92.76720 -99.33298 171.65491 316
83.47532 -106.03439 171.73044 312
72.93959 -113.62696 171.81693 308
60.84967 -122.36962 171.93277 304
22.15922 -150.35571 166.03749 386
93.30239 -100.16884 171.66951 316
84.07564 -106.95089 171.73897 312
73.57295 -114.58956 171.81148 308
61.54336 -123.44517 171.92169 304
23.37816 -151.35738 166.09464 296
93.84342 -101.04933 171.65654 315
84.66954 -107.82116 171.75977 312
74.22758 -115.59731 171.84431 308
29.67936 -148.63959 163.21925 296
24.18807 -152.63963 166.11716 296
94.43565 -101.87994 171.63351 315
85.24554 -108.72913 171.75874 312
74.84123 -116.53310 171.84554 308
30.37384 -149.98730 163.21175 296
25.08921 -153.86441 166.13184 296
94.99014 -102.67678 171.66890 315
85.88640 -109.64825 171.71068 312
75.52808 -117.49712 171.83374 308
32.87098 -149.98473 163.62840 390
26.00272 -155.15977 166.14241 296
95.54813 -103.51448 171.65829 315
86.47296 -110.51199 171.72014 312
76.15266 -118.47012 171.79153 308
35.39607 -149.81874 164.11932 391
26.93150 -156.38914 166.15599 296
96.12381 -104.34467 171.64647 315
87.10085 -111.37769 171.69556 312
76.84409 -119.39424 171.83252 308
37.94920 -149.75528 164.55482 393
27.84386 -157.60185 166.09575 296
96.72112 -105.16074 171.64494 315
87.70849 -112.27259 171.72978 311
77.53132 -120.32767 171.78351 308
40.39065 -149.63660 164.93909 394
28.75968 -158.86296 166.11426 296
97.31312 -106.00477 171.62073 315
88.33994 -113.13902 171.70506 311
78.17627 -121.27897 171.81015 308
42.81823 -149.52409 165.37964 395
-52417.45703 -42068.51953 13728.44824 1000
97.89688 -106.80542 171.63799 315
89.00748 -114.00781 171.71082 311
50.84503 -144.91858 163.44582 300
45.23906 -149.45198 165.79999 396
98.52464 -107.62067 171.60252 315
89.65128 -114.87635 171.72247 311
51.53041 -146.12798 163.37030 300
47.60110 -149.37038 166.23547 397
99.09537 -108.40133 171.60390 315
90.30100 -115.75748 171.70169 311
52.28593 -147.31531 163.32361 300
48.48468 -150.44693 166.21130 301
99.72314 -109.22060 171.62984 315
90.93688 -116.61200 171.70062 311
52.95122 -148.54456 163.32475 300
49.39137 -151.52032 166.22504 301
100.33616 -110.01744 171.60574 315
91.59929 -117.49277 171.69200 311
54.43363 -149.14836 163.46732 400
50.32738 -152.61951 166.23964 301
100.94762 -110.81932 171.60890 315
92.26463 -118.30485 171.66649 311
56.60395 -149.02823 163.85786 402
51.21933 -153.68723 166.24153 300
101.56709 -111.60873 171.59128 315
92.89596 -119.15614 171.66089 311
58.77809 -148.98863 164.28099 403
52.09247 -154.77876 166.26138 300
102.18502 -112.38774 171.57738 315
93.59498 -120.02824 171.68848 311
60.91386 -148.86852 164.71135 404
53.00651 -155.87538 166.22964 300
102.81069 -113.19080 171.57503 315
94.24792 -120.83167 171.66315 311
63.03367 -148.81956 165.03023 405
53.90305 -156.95094 166.23448 300
103.47919 -113.95811 171.59785 315
70.81350 -143.58806 163.54268 303
65.12026 -148.72948 165.46393 406
54.86909 -158.02229 166.25079 300
104.11066 -114.72394 171.57921 315
71.51121 -144.63713 163.50531 303
67.15302 -148.66934 165.80765 407
104.77873 -115.51546 171.58781 315
72.28206 -145.66785 163.46642 303
69.18208 -148.55756 166.16486 408
105.40353 -116.27586 171.56113 315
73.01338 -146.71085 163.41484 303
70.54200 -149.04749 166.35321 305
106.04940 -117.05849 171.57947 315
73.79011 -147.78540 163.41486 303
71.45018 -150.01898 166.31668 305
106.72450 -117.81413 171.54219 315
75.04134 -148.37170 163.53206 411
72.34361 -150.92633 166.36732 305
107.39451 -118.56718 171.54091 315
76.95039 -148.27502 163.87732 412
73.25785 -151.88742 166.34129 305
108.05947 -119.30970 171.54503 315
78.78606 -148.22523 164.26303 413
74.13006 -152.77907 166.38495 305
87.83780 -140.96091 163.65860 311
80.68762 -148.14243 164.56598 414
75.06480 -153.76804 166.38397 305
88.64025 -141.84859 163.66542 311
82.51776 -148.05844 164.94218 416
75.96308 -154.67706 166.35397 305
89.41254 -142.80081 163.64316 311
84.28978 -148.02081 165.26117 417
76.86720 -155.60921 166.39328 304
90.15325 -143.73087 163.58514 307
86.08810 -147.92593 165.60371 418
77.77313 -156.50291 166.34317 304
90.91365 -144.66440 163.59070 307
87.84199 -147.89226 165.91260 419
91.66348 -145.53247 163.54939 307
89.56071 -147.83885 166.21877 420
92.46767 -146.49480 163.49245 307
90.98495 -148.08630 166.40445 309
93.22341 -147.38998 163.47903 307
91.85051 -148.90913 166.42273 309
94.64006 -147.63858 163.69408 422
92.74697 -149.73087 166.41171 309
96.28205 -147.55727 164.02228 423
93.63232 -150.52361 166.43950 309
97.99522 -147.43596 164.31802 414
94.50975 -151.32457 166.44316 309
-36780.32031 -41835.61719 -7978.53711 1000
99.69857 -147.26930 164.66518 415
95.40186 -152.09776 166.43027 309
101.36275 -147.08142 165.00453 416
96.30987 -152.91930 166.45695 309
103.04510 -146.90295 165.35512 417
97.23300 -153.72826 166.45520 310
104.67088 -146.72696 165.67822 418
98.10405 -154.48677 166.43869 310
-1332.22766 -1852.94702 61.53930 391
106.28437 -146.58914 165.95114 419
99.00050 -155.30408 166.46776 310
-1339.22217 -1884.66113 19.14394 359
-1309.53040 -1848.72107 62.77691 392
107.85628 -146.43332 166.26541 420
99.93519 -156.06396 166.45328 310
-1284.80615 -1842.01672 24.83545 341
-1287.67432 -1845.68689 63.66228 393
109.15565 -146.62387 166.45618 314
-1300.39673 -1885.04858 -18.93856 311
-1258.21777 -1832.46484 26.76025 366
-1268.72791 -1846.02332 64.23394 361
109.98121 -147.37134 166.48372 314
-1263.26013 -1861.74487 -14.36900 410
-1235.83557 -1827.48853 28.44989 419
-1252.40674 -1848.15845 64.81287 367
110.90076 -148.06900 166.44144 314
-1241.01233 -1858.21191 -13.27980 409
-1215.31750 -1824.65063 29.13697 420
-1239.35107 -1854.98999 65.27779 304
111.72836 -148.77533 166.43671 314
-1219.10388 -1853.55322 -11.25996 410
-1196.11658 -1823.75513 30.25386 443
-1219.70642 -1853.76440 65.96740 390
112.63826 -149.49953 166.44174 314
-1199.71838 -1851.55615 -10.24753 439
-1177.74207 -1823.20532 31.55190 447
-1286.77319 -1964.51062 57.68595 373
114.89588 -148.36407 167.07420 438
-1181.18176 -1850.86133 -9.05700 440
-1160.47607 -1823.67224 31.86994 448
-1277.92676 -1977.80737 57.19565 318
116.27210 -148.35666 167.30026 438
-1163.20813 -1850.05566 -7.90590 441
-1143.77490 -1824.16821 32.75157 449
117.45322 -148.59895 167.43015 316
116.65372 -149.70142 170.33784 283
-1145.45251 -1850.08276 -6.75071 443
-1126.64343 -1825.12292 33.69602 460
-1260.13928 -2004.89062 56.41873 435
118.31845 -149.28984 167.41759 316
118.06310 -149.66579 170.53537 312
-1128.20129 -1850.70386 -5.92089 449
-1110.79041 -1827.12524 34.50822 460
119.68597 -149.27686 167.63928 266
118.91199 -150.31300 170.52992 312
-1109.10632 -1848.68506 -4.87130 310
-1095.40710 -1828.99829 34.75662 439
120.74556 -149.63448 167.77684 490
-1088.00110 -1842.97656 -2.89080 311
-1079.84949 -1831.07764 35.77321 440
120.93208 -151.27974 167.40479 316
-1066.71851 -1837.01367 -1.38251 312
-1064.82812 -1833.69885 36.14007 440
124.08056 -148.70158 168.47673 490
-1048.84460 -1834.67578 -0.38911 413
-1049.23352 -1835.92761 36.35646 446
124.88576 -149.39752 168.46388 489
-1032.60547 -1836.06836 0.37042 414
-1034.86987 -1839.11133 37.30027 446
-1080.99121 -1905.53162 68.45870 483
-1016.95465 -1836.79907 1.19145 414
-1020.46552 -1841.97913 37.72515 447
-1066.21326 -1909.27173 68.89163 484
-1001.52625 -1837.77197 2.37130 419
