# .PCD v.7 - Point Cloud Data file format
VERSION .7
FIELDS x y z rgb
SIZE 4 4 4 4
TYPE F F F U
COUNT 1 1 1 1
WIDTH 1411
HEIGHT 1
VIEWPOINT 6055.947754 -4089.125977 139.986420 0.159185 -0.125337 -0.006463 0.979239
POINTS 1411
DATA ascii
381.88016 94.48110 167.02539 434
390.93817 99.85676 167.65773 309
2738.77490 1492.37061 72.20749 498
2806.96948 1532.45215 117.38379 498
380.52423 94.93251 167.32657 435
2730.49683 1507.66211 72.47751 498
379.18423 95.40947 167.57622 436
2720.98999 1523.34814 72.12637 498
378.39667 96.24357 167.65268 315
2713.44971 1539.55750 71.86544 497
377.84198 97.17788 167.60947 315
2705.68628 1555.91577 72.08926 469
2836.33569 1638.21655 115.18376 376
377.28564 98.15238 167.61922 315
2698.21338 1572.47900 71.53896 469
2770.91162 1618.70325 116.82476 497
376.75110 99.10604 167.62312 315
2691.38672 1589.52417 71.23432 468
2758.35010 1632.77148 116.79469 497
2807.55615 1664.61670 215.81888 280
376.19263 100.03824 167.60916 315
2683.96167 1605.89551 71.78658 468
2750.95557 1649.36804 117.32817 496
2781.60913 1670.11560 216.05672 336
375.58252 100.98038 167.63390 315
2677.13501 1622.39893 71.22008 468
2782.16309 1692.00452 166.06303 496
2774.94751 1687.42163 215.64398 299
375.01355 101.92646 167.60504 315
2669.49951 1639.93433 71.07468 468
2767.84741 1704.82678 215.55739 407
2800.24023 1726.97266 266.46695 339
374.46988 102.85141 167.62701 315
2662.76172 1656.59375 70.82133 467
373.87079 103.79868 167.59206 313
2655.11792 1673.17712 70.80984 467
2808.55835 1778.81458 113.27470 496
373.28433 104.75038 167.56737 313
2647.67554 1689.71851 70.39374 467
2723.12964 1742.69495 115.89998 495
372.74240 105.67879 167.60414 313
2640.54443 1707.02930 70.35170 466
2675.52026 1731.72437 117.41032 495
372.13022 106.59141 167.56602 313
2634.24951 1724.58716 69.97446 395
2626.88208 1741.99182 69.99314 395
2620.19849 1759.18958 69.89120 395
2783.35303 1879.38770 163.60320 400
2613.65381 1777.18408 69.21214 395
2744.00757 1874.57397 215.60930 486
2606.81445 1795.21118 69.21652 394
2665.98462 1839.66528 216.00983 486
39558.75000 29624.43359 7509.71436 1000
2600.11597 1812.49976 68.84032 394
2591.85547 1829.84692 19.80758 324
2593.31372 1830.25269 68.74916 394
2582.32935 1845.34314 19.43181 323
2586.60474 1848.59790 68.50445 394
2572.09229 1860.47253 19.22786 323
2579.80786 1866.72119 68.09512 303
2563.13843 1877.07874 19.00977 426
2574.89307 1886.50037 68.06847 303
2554.54053 1893.73889 19.28505 425
2570.48340 1906.55737 67.05363 303
2546.14941 1909.88855 18.65553 425
2562.79468 1924.05872 66.90078 413
2538.02466 1927.00879 18.98446 425
2554.98462 1941.71313 67.26831 429
2529.22241 1944.15295 18.64397 425
2720.31323 2105.07812 55.10092 436
2520.45483 1961.04871 18.11787 424
2538.77515 1975.84375 66.49289 266
2511.61279 1977.59717 17.85481 424
2503.68750 1994.72302 17.91122 424
2501.56055 2018.39661 16.52871 395
1358.23254 2362.33203 -2.40343 497
1360.70276 2367.58667 40.64854 325
1349.48987 2380.74048 -3.22451 278
22189.51758 61178.17578 8681.90723 1000
1350.58350 5293.52344 -145.98907 465
1321.83875 5317.03711 -146.07089 442
1293.05444 5341.49463 -147.35498 430
1263.89233 5368.38672 -149.21254 425
1236.05420 5395.71582 -150.40446 424
1207.53064 5425.85010 -151.48085 408
1179.29163 5460.87549 -153.99051 394
1151.34607 5501.16455 -155.99237 384
1125.51074 5552.45947 -159.61710 356
1100.30017 5619.42773 -163.52820 351
1075.77124 5688.44775 -167.74533 359
1050.73315 5762.04980 -173.20317 357
1024.96838 5836.95703 -176.49901 356
999.75958 5915.23486 -182.49263 358
561.07715 4140.73242 -129.58119 492
562.17755 4155.62891 -62.39551 460
-107.71152 5057.52393 -121.67229 493
-488.94324 5896.87451 -178.21405 358
-518.65515 5840.54980 -176.29155 473
-552.59430 5822.39941 -174.48758 481
-587.37341 5806.62695 -174.62253 481
-619.88574 5786.02881 -172.89793 487
-654.05469 5770.28369 -172.78505 471
-687.25415 5757.73047 -171.48282 474
-721.98993 5745.99072 -170.78807 444
-756.37286 5735.62061 -171.24080 420
-776.13049 5851.55908 -80.47370 311
-790.93262 5725.43311 -171.16164 421
-794.58893 5749.53760 -76.88199 498
-825.69879 5716.63770 -170.68059 368
-829.44623 5742.83350 -75.91770 499
-859.51172 5710.04980 -170.69077 368
-865.22070 5736.36572 -75.60275 499
-894.56512 5702.58838 -169.36006 368
-899.59729 5723.22168 -75.61847 499
-929.20392 5695.69531 -170.48032 369
-933.42590 5717.28223 -75.33926 499
-963.92926 5689.55615 -169.54062 369
-969.29779 5708.69580 -75.50249 484
-999.85089 5683.21143 -170.80684 369
-1005.40814 5707.67822 -76.47691 499
-1034.47717 5675.77588 -169.90509 369
-1040.84448 5700.84619 -75.50073 499
-1070.98767 5842.99609 15.38227 419
-1070.24487 5670.12988 -170.89157 369
-1074.67102 5693.30273 -76.29651 499
-1098.44128 5797.31396 16.69144 498
-1104.42004 5664.20947 -169.76950 313
-1111.73389 5693.48389 -76.99981 477
-1129.58191 5769.48291 17.25373 488
-1140.65723 5658.41504 -169.73747 313
-1164.31897 5759.51416 16.50930 499
-1174.96802 5651.74414 -170.63055 313
-1213.55493 5806.80176 14.25922 369
-1352.81580 5902.08057 -190.08481 269
-1314.91833 5625.89893 -170.58487 319
-1350.87756 5619.96826 -171.04427 315
-1386.61597 5613.45166 -172.12823 315
-1421.23096 5606.49268 -172.06964 266
-1476.21387 5663.61328 -176.27344 492
-1497.20581 5611.49561 -173.36203 470
-1544.73547 5640.47705 -175.90875 486
-1488.43372 4247.75928 -162.94160 498
-1493.62134 4260.01367 -88.55547 488
-1350.91516 3360.27515 -90.43514 295
-1322.43762 3248.63013 -80.87367 295
-1295.60974 3143.95728 -72.08292 300
-1269.40857 3041.43652 -63.38000 301
-1287.39612 3077.38257 -10.66761 308
-1261.38208 2978.72339 -59.04879 314
-1274.17920 3004.07520 -6.08292 352
-1260.94836 2933.57129 -55.26415 369
-1282.04358 2974.61621 -4.07799 451
-1263.61719 2894.84180 -52.17790 391
-1297.69751 2960.65796 -3.69957 471
-1268.92493 2861.98364 -50.55208 364
-1317.98608 2955.78882 -4.07122 471
-1275.80493 2833.58740 -48.86649 414
-1338.35339 2951.45117 -4.61120 470
-5804.14355 11373.22559 418.30051 1000
-1285.26477 2809.01099 -47.11804 406
-1359.26917 2945.80396 -4.47175 470
-1291.77368 2780.38672 -45.40797 407
-1379.68652 2941.01562 -4.82887 469
-1299.38977 2753.54419 -43.93440 418
-1399.68616 2935.53369 -5.33162 469
-1307.86267 2729.14673 -41.78738 420
-1420.43372 2930.51685 -5.84413 469
-1315.93872 2705.90869 -41.12690 415
-1441.55847 2925.52490 -6.25930 468
-1328.23169 2689.19653 -40.30641 418
-1462.66406 2920.04321 -6.27490 468
-1370.69336 2722.66724 -43.95490 260
-1485.86694 2918.98755 -7.01298 358
-1438.81311 2800.67358 -52.18180 270
124.43380 148.65767 168.57892 489
120.21721 150.97733 167.37106 316
120.29343 148.91110 167.85599 490
118.43661 149.65182 167.38612 316
118.22499 149.99823 170.50766 312
117.61749 148.96852 167.42068 316
117.30862 149.33875 170.52541 312
116.73820 148.27998 167.39412 316
115.43577 148.14459 167.21211 438
112.68504 149.97864 166.38432 314
111.80545 149.28580 166.38806 314
110.89736 148.59795 166.38213 314
110.04396 147.90387 166.40494 314
109.16398 147.17159 166.41040 314
108.34451 146.44547 166.36855 314
107.02411 146.26541 166.19617 420
99.12621 155.79997 166.38315 310
105.44029 146.44774 165.88702 418
98.22038 155.04665 166.37045 310
103.80161 146.59441 165.56429 417
97.33152 154.27444 166.40184 310
102.18977 146.74879 165.28615 416
96.40067 153.49692 166.36961 310
100.50753 146.92197 164.91287 415
95.51974 152.68359 166.38718 310
98.83784 147.09193 164.61501 414
94.58849 151.91545 166.39082 310
97.09259 147.23576 164.25916 413
93.71644 151.11441 166.37520 310
95.44337 147.32947 163.92009 423
92.78253 150.31653 166.37524 310
93.81852 147.42683 163.62334 422
91.88272 149.48532 166.38976 310
92.38683 147.23164 163.41742 307
91.00197 148.68315 166.36275 310
91.60543 146.31886 163.41525 307
90.12926 147.86919 166.34914 310
90.84267 145.37399 163.48517 307
88.70765 147.60405 166.17024 419
90.03280 144.49371 163.49611 307
87.01978 147.66251 165.86084 418
89.27741 143.58308 163.54436 307
85.25288 147.75592 165.54726 417
76.98277 156.22388 166.28851 305
88.52325 142.64601 163.56108 307
83.41890 147.82799 165.19894 416
76.05936 155.33891 166.29060 305
87.79390 141.69542 163.56558 311
81.64484 147.88132 164.86806 415
75.18037 154.39697 166.27582 306
87.00265 140.78012 163.63087 311
79.82504 147.96211 164.54663 414
74.21869 153.48734 166.29216 306
107.12981 119.34215 171.51265 316
77.96709 148.05623 164.19878 413
73.33606 152.55991 166.28334 306
106.45647 118.59224 171.50903 316
76.09106 148.10062 163.80853 412
72.41700 151.68219 166.30254 306
105.75002 117.85149 171.48537 316
74.15231 148.18011 163.43196 411
71.49787 150.70663 166.25960 306
105.09062 117.08008 171.53870 316
72.90125 147.61433 163.32715 304
70.64574 149.79108 166.28534 306
104.44128 116.31112 171.53772 316
72.16682 146.56625 163.38982 304
69.74537 148.83766 166.25163 306
103.78909 115.55985 171.51851 316
71.43367 145.49255 163.40981 304
68.26713 148.40915 166.07616 408
103.13087 114.80247 171.51714 316
70.67888 144.45996 163.46426 304
66.27226 148.48280 165.69818 407
102.49699 114.01518 171.55013 316
69.95761 143.39247 163.46312 304
64.23280 148.57741 165.37833 406
54.09546 157.74432 166.14465 301
101.84041 113.25444 171.52782 316
69.18575 142.36188 163.53450 304
62.12788 148.61037 164.97214 404
53.16205 156.64537 166.19359 301
101.20119 112.45353 171.53189 316
92.61618 120.04355 171.60287 312
60.05006 148.74210 164.62138 403
52.22356 155.60477 166.19530 301
100.55414 111.69273 171.55000 316
91.93546 119.18604 171.64708 312
57.86967 148.81642 164.19305 402
51.33736 154.50578 166.20601 301
99.92210 110.89198 171.57948 316
91.27478 118.35657 171.61311 312
55.72355 148.86884 163.83105 401
50.43287 153.44492 166.14401 301
99.32901 110.09728 171.54597 316
90.59934 117.48916 171.64931 312
53.53316 148.95517 163.39778 400
49.49564 152.40532 166.17387 301
98.65043 109.32742 171.56599 316
89.94138 116.63625 171.66495 312
52.16377 148.30579 163.27205 300
48.60994 151.27887 166.14606 301
98.05138 108.50574 171.58313 316
89.27621 115.80678 171.66110 312
51.41057 147.12953 163.30371 300
47.67957 150.21162 166.14082 301
97.44981 107.69843 171.56473 316
88.60780 114.94126 171.63646 312
50.67738 145.94012 163.29990 300
46.68569 149.21030 166.14311 397
96.82841 106.88478 171.56953 316
87.96741 114.10637 171.67593 312
50.00162 144.75160 163.36258 300
44.31366 149.29539 165.74271 396
96.26502 106.10297 171.57368 316
87.32962 113.22474 171.65855 312
77.20646 121.30574 171.74065 308
41.92303 149.44507 165.31297 394
95.66022 105.27712 171.57672 316
86.68626 112.33327 171.69501 312
76.49544 120.33208 171.75194 308
39.46146 149.48259 164.89452 393
27.98697 158.57991 166.03938 297
95.05160 104.44348 171.61778 316
86.03432 111.47548 171.67096 312
75.81047 119.39791 171.78278 308
36.97290 149.62300 164.40579 392
27.06164 157.29288 166.05789 297
94.48434 103.66309 171.60056 316
85.41706 110.59401 171.69516 312
75.15479 118.48994 171.76112 308
34.50619 149.71243 163.94823 391
26.18244 156.09666 166.05484 297
-17918.82617 13934.64551 -1665.58167 1000
93.86501 102.83672 171.60139 316
84.83163 109.69571 171.67091 312
74.48115 117.55495 171.74951 308
31.90888 149.82149 163.53040 389
25.22564 154.84200 166.05948 297
93.30029 102.00528 171.60153 316
84.20150 108.82951 171.67125 312
73.79985 116.59534 171.78842 308
29.52210 149.73767 163.09074 296
24.30918 153.60939 166.05977 297
92.75220 101.14938 171.63998 316
83.58807 107.92204 171.71654 312
73.13586 115.63100 171.76683 308
28.81681 148.34807 163.16963 296
23.46490 152.38788 166.08218 297
92.18059 100.32051 171.60730 316
82.95326 107.06159 171.72021 312
72.50049 114.66125 171.80251 308
28.13546 147.05411 163.20172 296
22.52214 151.14090 166.07089 297
91.61819 99.48179 171.62675 316
82.38067 106.15434 171.72777 312
71.84435 113.69740 171.79579 308
59.83042 122.37704 171.88156 304
21.17018 150.20169 165.91010 385
91.04819 98.63297 171.62254 316
81.78825 105.23005 171.70299 312
71.21193 112.76199 171.82179 308
59.17115 121.35077 171.86783 304
18.39175 150.27676 165.44695 387
90.50421 97.82133 171.66206 316
81.17751 104.32471 171.73375 312
70.58360 111.77386 171.80165 308
58.43649 120.28542 171.87936 304
15.59054 150.36809 164.98776 385
89.98266 96.93745 171.63199 316
80.60021 103.44796 171.74466 312
69.94888 110.81855 171.78185 308
57.77817 119.23229 171.88239 304
12.72919 150.40283 164.54396 384
89.42322 96.11577 171.63573 316
80.01382 102.51475 171.73776 312
69.31431 109.83670 171.82347 308
57.10742 118.18710 171.91090 304
9.84624 150.54105 164.07776 383
-3.04541 159.37430 165.67168 290
88.86395 95.23152 171.67638 316
79.43828 101.62401 171.73288 312
68.70553 108.84667 171.79276 308
56.46811 117.14727 171.92574 304
6.89719 150.56845 163.55266 382
-4.00172 157.90596 165.67322 290
88.34576 94.38635 171.64967 316
78.87164 100.68032 171.74367 312
68.12860 107.88072 171.82831 308
55.77949 116.05252 171.91573 304
3.87190 150.70360 163.00882 380
-4.93825 156.47885 165.69772 291
87.83389 93.51332 171.65030 316
78.32147 99.80128 171.75706 312
67.52699 106.85729 171.85335 308
55.15563 115.01366 171.91992 304
2.49897 149.63771 162.88622 285
-5.88734 155.11136 165.67671 291
87.28230 92.66725 171.68874 316
77.74947 98.83807 171.76920 312
66.90700 105.85092 171.83760 308
54.50417 113.94578 171.91328 304
40.11242 123.25592 172.03268 300
-6.86386 153.67969 165.69502 291
86.81838 91.77849 171.66423 316
77.22035 97.90225 171.73837 312
66.33752 104.89915 171.84444 308
53.85989 112.87459 171.92511 304
39.44192 122.10219 172.03548 300
-7.78328 152.25417 165.67316 291
86.30148 90.92659 171.68629 316
76.64233 96.98390 171.76073 312
65.73093 103.85780 171.86124 308
53.22418 111.74771 171.92883 304
38.72385 120.91972 172.07254 300
-8.89432 150.99203 165.62419 376
85.76767 90.02018 171.65999 316
76.13000 96.04659 171.73749 312
65.14521 102.86155 171.85269 308
52.60117 110.68358 171.92848 304
38.08499 119.74212 172.08855 300
-12.22930 151.03098 165.11986 374
85.27192 89.17390 171.66623 316
75.58591 95.11371 171.74913 312
64.60381 101.85317 171.86472 308
51.95992 109.60796 171.97041 304
37.40356 118.60281 172.09117 300
-15.61988 151.16373 164.52544 373
84.77206 88.26018 171.67894 316
75.05252 94.15014 171.77353 312
64.00585 100.85630 171.86198 308
51.33915 108.54145 171.98447 304
36.73454 117.39539 172.11581 300
-19.13742 151.19366 163.97093 372
84.31219 87.38928 171.67870 316
74.55142 93.23938 171.78381 312
63.44736 99.85941 171.89107 308
50.75990 107.41911 171.94464 304
36.09210 116.19016 172.10518 300
-22.70040 151.33247 163.44919 370
83.80545 86.51457 171.70886 316
74.02344 92.26076 171.76009 312
62.90566 98.79890 171.85493 308
50.15455 106.35714 171.99203 304
35.42294 115.03651 172.06558 300
-26.32182 151.38023 162.83255 369
-40.28091 159.64256 165.12109 286
83.32890 85.59736 171.69273 316
73.50455 91.33199 171.76941 312
62.34993 97.79736 171.86125 308
49.57253 105.20898 171.96613 304
34.74841 113.83775 172.12361 300
17.42417 123.90691 172.25134 296
-41.20934 157.90686 165.14178 286
82.85578 84.72819 171.72874 316
73.01052 90.37251 171.80281 312
61.78801 96.78111 171.86583 308
49.01202 104.12022 171.98897 304
34.11584 112.64501 172.11780 300
16.73889 122.57746 172.23886 296
-42.10156 156.31056 165.18222 286
82.41919 83.83000 171.73541 316
72.51167 89.42185 171.80858 312
61.28439 95.75764 171.85875 308
48.39328 103.01788 171.98181 304
33.48566 111.41745 172.14067 300
16.06526 121.32785 172.28940 296
-42.95499 154.61812 165.15367 286
81.92401 82.90909 171.72226 316
72.00208 88.43236 171.77942 312
60.76364 94.74059 171.87666 308
47.85851 101.90851 171.99153 304
32.86632 110.21358 172.11967 300
15.39931 119.96336 172.28935 296
-43.87411 152.98013 165.16156 286
81.46291 81.99928 171.73326 316
71.50613 87.48616 171.80397 312
60.22527 93.67864 171.89848 308
47.24431 100.78729 171.99399 304
32.28011 109.03426 172.14316 300
14.69635 118.65956 172.27802 296
-45.82446 151.88272 164.96269 363
81.01318 81.11018 171.74211 316
71.02477 86.53973 171.80878 312
59.70956 92.66170 171.87224 308
46.70216 99.69618 172.00870 304
31.68902 107.84518 172.15660 300
14.07146 117.33630 172.26064 296
-49.85140 151.88947 164.42812 371
80.57281 80.21882 171.74892 316
70.56491 85.56155 171.79999 312
59.19060 91.58806 171.88475 308
46.17392 98.55166 171.98317 304
34.87309 104.60011 172.99570 275
17.36639 113.87949 173.12254 273
-53.82865 151.82684 163.80977 370
80.17104 79.28606 171.72581 316
70.11419 84.58242 171.80438 312
58.68649 90.58083 171.91493 308
45.58744 97.43140 172.02884 304
38.92989 100.96741 174.05016 323
27.72932 106.78516 175.34657 274
10.86345 115.68397 176.04893 274
79.72061 78.41306 171.71204 316
69.65076 83.59405 171.81216 312
58.17068 89.53910 171.93382 308
47.07787 95.23081 172.49876 325
41.39751 98.20128 174.73483 324
35.64751 101.19513 177.10541 322
21.23385 108.63421 178.12424 275
79.28770 77.46948 171.73181 316
69.16413 82.60614 171.80234 312
57.71368 88.45441 171.90669 308
49.40807 92.70090 173.22864 326
43.87122 95.51241 175.41547 325
38.22023 98.35493 177.74051 323
30.51744 102.33620 179.91922 292
9.20783 113.18210 180.09579 288
78.85050 76.54599 171.76387 316
68.69389 81.63225 171.84874 312
57.19386 87.44365 171.92946 308
51.62189 90.19546 173.84749 327
46.24947 92.90575 176.03102 326
40.78724 95.68435 178.40581 324
29.94791 101.12030 179.90918 292
8.55169 111.82497 180.11473 288
-56971.37500 28704.67773 -5039.57715 1000
78.45871 75.63585 171.76334 316
68.27657 80.64806 171.82713 312
58.76754 85.35076 172.46074 330
53.75772 87.82584 174.51474 328
48.52821 90.40597 176.68184 327
43.24780 93.06115 179.01471 325
29.36137 99.85267 179.91571 292
7.94839 110.49390 180.10265 288
78.03356 74.72022 171.74786 316
67.80978 79.69070 171.81615 312
60.69379 83.12823 173.06049 388
55.86507 85.49722 175.12756 330
50.81853 87.96114 177.31808 328
45.63312 90.47423 179.59631 327
28.81426 98.62208 179.94650 292
7.31723 109.15470 180.13849 288
-19.22798 122.00655 180.38519 284
77.62267 73.77903 171.73196 316
67.38477 78.70202 171.82497 312
61.39748 81.53101 173.38596 389
57.92134 83.23216 175.76857 331
52.96299 85.61469 177.85970 329
46.11466 88.85625 179.83583 296
28.31231 97.40974 179.95386 292
-2.22449 112.00353 178.68999 287
-19.90968 120.46910 180.35393 284
77.20174 72.83319 171.75993 316
66.93819 77.68308 171.86740 312
62.12264 79.98255 173.68042 390
59.11058 81.36382 176.15434 388
55.07102 83.29973 178.43201 330
45.63248 87.72684 179.82153 296
5.20974 106.81276 175.81424 286
-12.35997 115.09814 177.07600 286
-20.51553 118.95090 180.37387 284
76.82487 71.92827 171.74069 316
66.51550 76.70370 171.85922 312
62.85059 78.41630 173.97121 391
59.83422 79.80870 176.44745 389
56.77996 81.22605 178.96307 387
45.12977 86.62321 179.79773 296
11.78152 102.11520 177.16805 287
-17.30862 115.65967 176.41060 342
-21.25333 117.43256 180.32692 284
76.42045 70.99839 171.75128 316
67.02004 75.28497 172.11339 381
63.52335 76.88637 174.30331 392
60.60493 78.21201 176.73831 390
57.55740 79.59386 179.21642 388
44.69817 85.47078 179.84177 296
17.89164 97.71459 178.35115 289
3.88359 104.14629 179.99132 286
-21.89272 115.89252 180.35039 284
76.06102 70.03755 171.77809 316
67.76530 73.75915 172.40108 382
64.23904 75.35341 174.57404 393
61.32031 76.69312 176.99626 391
58.33983 78.02267 179.44498 389
44.18177 84.37489 179.81090 296
22.23769 94.20234 179.24007 318
10.42349 99.50549 181.16470 287
-26.44613 116.11815 179.83461 339
-2498.49316 1226.88782 69.57944 338
-2494.77417 1225.14429 118.34625 458
-2492.55493 1223.67297 167.52748 491
75.68978 69.13158 171.78580 316
68.45088 72.29566 172.72409 383
64.92928 73.88393 174.85899 380
62.04443 75.12792 177.26852 392
58.93213 76.48721 179.69312 300
31.07129 88.82395 177.29646 337
24.92322 91.51375 179.86516 334
16.61336 95.18444 182.20531 289
2.58960 101.45081 184.11234 286
75.30738 68.18557 171.79768 316
69.10538 70.86349 173.00230 384
65.62455 72.36510 175.14879 381
62.75307 73.60371 177.53310 393
58.56465 75.45174 179.69264 300
33.04172 86.54399 177.77283 338
27.00968 89.14393 180.28964 335
19.89206 92.28515 182.84843 318
9.21343 96.88206 185.15155 287
74.94906 67.24819 171.75999 316
69.81599 69.39960 173.29007 384
66.35406 70.90716 175.43965 382
63.45234 72.14826 177.77631 394
58.13024 74.40172 179.68816 300
34.90381 84.31908 178.27019 339
28.99770 86.84568 180.78775 336
22.76109 89.51891 183.38248 319
14.51540 93.06647 185.93504 316
1.38020 98.65886 188.18718 286
-1890.33252 907.18384 27.26469 390
-1891.40796 907.61438 65.01591 390
-1892.75867 908.43665 102.99721 319
-1894.90686 909.13324 140.57518 319
-1896.76697 909.76489 178.37106 319
74.59683 66.26588 171.78639 316
70.45850 67.98923 173.58911 385
67.06174 69.44597 175.69595 383
64.13578 70.63947 178.06970 395
57.71726 73.32699 179.73950 300
36.73960 82.16161 178.72568 340
31.00380 84.62301 181.23236 338
24.88804 87.13384 183.80595 335
17.52479 90.25892 186.46429 317
8.05393 94.27713 189.09630 288
-12.35829 102.83222 190.89627 268
74.39647 65.27673 171.85782 389
71.15764 66.61693 173.89291 386
67.78090 67.99792 176.00685 384
64.83507 69.19305 178.28264 396
57.35959 72.29546 179.74055 300
38.58294 80.03406 179.19899 341
32.93961 82.38482 181.63560 339
26.96698 84.84776 184.24318 336
20.46361 87.51069 186.97911 318
12.13962 90.95709 189.67067 316
0.23738 95.88948 192.28000 286
-1230.30566 604.17297 112.99733 344
-1230.04749 604.22809 138.79514 411
-1230.34265 604.38501 164.96452 462
-1231.03613 604.26459 190.86638 492
-1232.03271 604.95044 216.62241 492
-1232.81567 605.06348 242.29686 498
74.99586 63.90215 172.10515 390
71.81694 65.22546 174.15900 387
68.46882 66.56935 176.25534 385
65.48934 67.79888 178.52478 397
56.96226 71.23528 179.74561 300
40.35512 78.01299 179.59911 342
34.83108 80.21252 182.08783 340
29.01826 82.59227 184.61440 337
22.83145 85.12580 187.38123 335
15.25285 88.16954 190.12846 317
6.57133 91.73027 193.03899 315
-13.11321 99.67989 195.26160 268
-1232.45825 594.50848 113.22041 440
-1235.02405 595.71362 138.97882 380
75.62144 62.57639 172.37762 390
72.43372 63.84343 174.41144 388
69.15178 65.17912 176.50296 386
66.17854 66.36217 178.78348 398
56.57583 70.18309 179.70424 300
41.46194 76.21244 179.89827 375
36.65099 78.10417 182.44313 341
30.98182 80.43224 185.01996 338
24.92422 82.77110 187.71822 336
18.21991 85.52491 190.53354 318
9.78615 88.83730 193.39435 316
-0.86833 93.07893 196.37454 287
76.23097 61.25331 172.67886 391
73.10613 62.48719 174.68466 389
69.84848 63.76544 176.80356 387
66.84590 64.95630 179.00917 399
56.17196 69.14372 179.72585 300
42.40633 74.50874 180.20361 376
38.11833 76.20972 182.82996 374
32.89106 78.26237 185.41002 340
26.98031 80.57063 188.09781 337
20.77351 83.01685 190.95518 335
12.91693 86.05794 193.82497 317
4.14927 89.52470 196.87976 314
-13.80981 96.53607 199.55493 268
76.70168 60.02414 172.92105 421
73.73353 61.19268 174.97188 390
70.49915 62.40404 177.05850 388
67.50113 63.55951 179.24771 399
55.82072 68.05737 179.71600 300
43.32536 72.88124 180.46776 377
39.13714 74.48630 183.03336 374
34.74354 76.19922 185.77237 372
29.01550 78.36671 188.41277 338
22.90275 80.72409 191.26315 336
15.92955 83.41461 194.16025 318
7.42772 86.70982 197.21982 315
-1.87657 90.29120 200.46983 287
77.01196 58.86634 173.10771 422
74.36273 59.84528 175.19919 419
71.15233 61.05698 177.27135 389
68.12950 62.21026 179.50710 400
47.77035 69.86736 178.10275 391
44.11385 71.30179 180.65417 389
40.10157 72.79515 183.30164 375
35.74195 74.45769 185.98126 373
30.99787 76.25909 188.75911 339
25.03308 78.49753 191.54485 337
18.75466 80.88994 194.51118 334
10.65077 83.91719 197.51767 316
1.72040 87.30971 200.74783 314
77.28369 57.71555 173.26091 422
74.67012 58.68161 175.39310 420
71.81700 59.73364 177.52087 389
68.38157 61.03538 179.63689 304
48.48206 68.35378 178.35625 392
44.86531 69.75787 180.90286 389
41.00214 71.17933 183.52092 376
36.71127 72.73250 186.23381 374
32.25294 74.40944 189.02922 371
27.08448 76.32588 191.86832 338
20.94314 78.60615 194.82050 336
13.70715 81.29044 197.83282 318
5.07659 84.45304 201.00522 315
-4.28906 87.92241 204.44751 313
77.58012 56.53769 173.44112 423
74.96393 57.52002 175.55215 421
72.29460 58.48187 177.71741 419
68.03447 60.02676 179.61713 304
49.22621 66.87284 178.56128 393
45.57490 68.16490 181.12756 390
41.86797 69.56771 183.75816 388
37.69096 71.06127 186.41855 375
33.27338 72.65746 189.19725 372
28.72489 74.34453 192.14264 370
23.04029 76.37123 195.07498 337
16.68395 78.73611 198.10580 334
8.34996 81.74973 201.29144 316
-0.71159 85.05399 204.68439 314
77.84608 55.41439 173.59804 424
75.24256 56.33886 175.71352 422
72.58301 57.31574 177.89709 419
67.73859 59.02721 179.64519 304
49.91263 65.41398 178.78659 394
46.32483 66.65593 181.34213 391
42.65956 67.97542 183.93471 389
38.67129 69.40945 186.63091 376
34.30306 70.97494 189.40372 373
29.77659 72.57240 192.28871 371
25.05907 74.30113 195.32640 368
18.90742 76.45716 198.37758 335
11.48596 79.11618 201.49368 317
2.72081 82.25327 204.85539 315
78.16941 54.28242 173.77789 425
75.54898 55.21429 175.87793 422
72.89789 56.14750 178.01387 420
67.41445 58.02620 179.63492 304
50.58080 63.91490 179.03604 394
47.07181 65.15430 181.54959 392
43.37801 66.44373 184.13419 390
39.62037 67.80491 186.87767 387
35.31699 69.28166 189.61403 374
30.88554 70.82601 192.51805 371
26.17956 72.45293 195.49895 369
21.07256 74.26840 198.56721 336
14.50629 76.55788 201.76634 318
6.03983 79.55167 205.04358 316
78.44219 53.16050 173.90514 425
75.86298 54.05386 176.01593 423
73.19572 54.97782 178.18742 421
67.10533 57.04334 179.62389 304
51.27688 62.49559 179.22864 395
47.73359 63.70271 181.77097 393
44.14862 64.93596 184.37337 390
40.41583 66.21143 187.05530 388
36.33501 67.64021 189.82359 375
31.88904 69.15666 192.68538 372
27.28982 70.73869 195.66003 370
22.44272 72.37857 198.72989 367
16.91616 74.25227 201.95122 335
9.26254 76.90102 205.22987 317
78.71670 52.06724 174.10475 426
76.13053 52.90610 176.16368 424
73.52730 53.81577 178.32816 421
66.84206 56.04296 179.66472 304
51.96106 61.04745 179.43250 396
48.48189 62.20196 181.94333 394
44.90712 63.42191 184.56573 391
41.17644 64.70174 187.23230 389
37.33447 66.01345 190.02979 376
32.97268 67.43548 192.85988 373
28.35454 68.99713 195.79321 371
23.62251 70.60874 198.88722 368
18.66249 72.27431 202.14142 365
12.32196 74.38979 205.43623 318
78.97659 50.93919 174.25365 428
76.43872 51.78294 176.33275 424
73.80898 52.66548 178.49893 422
66.51413 55.06484 179.66246 304
52.61976 59.62967 179.66898 397
49.17813 60.75215 182.16820 395
45.61391 61.95033 184.71027 392
41.97734 63.16973 187.38907 390
38.12402 64.41572 190.14339 387
33.96814 65.81171 193.02827 374
29.44283 67.26970 195.92796 372
24.78762 68.79081 199.00372 369
19.84264 70.40971 202.24197 366
14.73260 72.11684 205.56656 364
79.26850 49.83973 174.40834 429
76.74788 50.67925 176.49156 425
74.12849 51.50151 178.62927 423
66.27817 54.04636 179.63249 304
53.26788 58.21403 179.86009 398
49.88114 59.32277 182.34731 395
46.34235 60.48812 184.93307 393
42.73159 61.65424 187.59633 391
38.98225 62.86748 190.35332 388
34.95821 64.14693 193.15820 375
30.55555 65.56083 196.09682 373
25.86840 67.07879 199.12794 370
21.03988 68.66071 202.33723 367
16.00489 70.30313 205.63657 365
79.55415 48.75723 174.53590 430
77.03331 49.55698 176.62938 426
74.46896 50.36459 178.77423 424
65.96679 53.03965 179.65685 304
53.94866 56.88089 180.06151 399
50.56046 57.93921 182.56390 396
47.06681 59.03397 185.10489 394
43.47738 60.14816 187.76801 392
39.78994 61.32502 190.50893 389
35.87203 62.56010 193.31201 387
31.59513 63.91528 196.26433 373
27.01947 65.36992 199.27028 371
22.23951 66.88009 202.43436 368
17.21266 68.44754 205.76601 365
79.81178 47.69096 174.71184 430
77.30465 48.43779 176.80565 426
74.73446 49.24899 178.93257 424
65.67932 52.06321 179.66199 304
54.59005 55.50220 180.25330 412
51.25104 56.52654 182.75877 397
47.83064 57.57028 185.28473 395
44.24011 58.69567 187.93814 392
40.56426 59.80627 190.64354 390
36.72376 61.01746 193.49518 387
32.65033 62.27703 196.39243 374
28.08593 63.67468 199.39014 372
23.36231 65.14552 202.51894 369
18.43833 66.68237 205.80765 366
80.07745 46.59595 174.85345 431
77.59869 47.35303 176.94786 427
75.08366 48.12046 179.04991 425
58.09879 53.26315 178.00655 415
55.05005 54.16064 180.44553 412
51.90247 55.12263 182.93871 410
48.50438 56.13344 185.48863 396
44.98303 57.21881 188.06219 393
41.31018 58.31008 190.77449 391
37.52552 59.45371 193.58746 388
33.62653 60.68051 196.52089 386
29.20858 61.99148 199.52187 373
24.52467 63.45276 202.65788 370
19.64685 64.92467 205.92992 367
80.34649 45.51981 174.98251 432
77.91465 46.25837 177.08899 428
75.33599 47.03122 179.20897 426
58.56718 52.00391 178.18817 416
55.51887 52.87444 180.60211 413
52.41040 53.80888 183.06689 411
49.22170 54.79226 185.64877 408
45.74360 55.77419 188.24159 394
42.11541 56.87741 190.95711 392
38.34309 57.95263 193.77370 389
34.48959 59.13060 196.65242 387
30.27360 60.38613 199.65254 373
25.68225 61.72255 202.77785 371
20.82385 63.12029 205.98221 368
80.65655 44.48260 175.11823 432
78.17297 45.18032 177.22604 428
75.68205 45.92554 179.33176 426
58.92118 50.77053 178.29248 423
55.98885 51.59719 180.75208 414
52.89432 52.50153 183.23502 412
49.69756 53.41558 185.77142 409
46.45830 54.39436 188.42783 407
42.89490 55.40906 191.11731 392
39.15839 56.46141 193.88542 390
35.28828 57.58316 196.79483 387
31.30731 58.74209 199.73904 374
26.78086 60.10056 202.82565 372
22.01061 61.45264 206.08014 369
80.89846 43.42069 175.29405 433
78.49226 44.09964 177.32477 429
75.97825 44.83762 179.45630 427
59.34545 49.53471 178.44440 424
56.45624 50.31746 180.88470 415
53.37886 51.21930 183.34163 412
50.22739 52.10314 185.88777 410
46.98289 53.01134 188.55762 407
43.62006 53.98658 191.22055 405
39.94945 55.02172 194.03363 391
36.14511 56.09969 196.87222 388
32.18921 57.22137 199.89563 386
27.85158 58.39930 202.92960 373
23.16847 59.72712 206.13303 370
81.19007 42.38391 175.41141 434
78.76139 43.04036 177.46228 430
76.19340 43.76034 179.57185 308
59.71068 48.29218 178.63383 425
56.90430 49.09043 181.04863 422
53.85586 49.92078 183.51178 413
50.73531 50.76476 186.02151 411
47.50662 51.69905 188.66797 408
44.14355 52.60677 191.35387 406
40.70815 53.55214 194.12939 403
36.95614 54.55660 197.00493 389
33.08653 55.67528 199.97980 386
28.93386 56.82147 203.07231 373
24.32560 58.07037 206.25464 371
81.45609 41.35643 175.53110 434
79.07407 42.00074 177.62033 430
75.96043 42.83286 179.55614 308
60.06508 47.11443 178.74605 425
57.26626 47.87374 181.16310 423
54.35248 48.63832 183.66293 414
51.26606 49.47808 186.16048 411
48.05763 50.33171 188.76398 409
44.73942 51.24530 191.44547 406
41.30018 52.17828 194.26630 404
37.73803 53.10377 197.14304 401
33.91655 54.15331 200.09412 387
29.91888 55.25617 203.13667 385
25.41478 56.42543 206.28493 372
-187.36165 113.74631 202.49110 495
81.72390 40.30023 175.68185 435
79.36342 40.94463 177.74503 431
75.73914 41.85794 179.55159 308
60.46695 45.90084 178.87642 426
57.67596 46.65299 181.32675 424
54.80360 47.38552 183.76379 421
51.75508 48.17612 186.30391 412
48.51761 49.04637 188.90097 410
45.24473 49.87872 191.57007 407
41.85271 50.75944 194.36024 405
38.33602 51.68364 197.18874 402
34.72889 52.64295 200.17781 399
30.79258 53.69357 203.24001 386
26.53796 54.82780 206.39322 373
-188.03180 111.20676 202.55626 495
81.98626 39.25728 175.79910 435
79.63795 39.89917 177.88165 432
75.54831 40.94062 179.55870 308
60.83928 44.70333 179.00404 427
58.06217 45.41410 181.45116 424
55.20449 46.16025 183.92351 422
52.24763 46.93421 186.41635 413
49.05935 47.73994 189.03854 410
45.78392 48.55630 191.70998 408
42.41621 49.42143 194.45555 405
38.92870 50.30104 197.32166 403
35.36755 51.22366 200.23744 400
31.59027 52.21551 203.31023 397
27.56232 53.21442 206.42393 384
-188.39769 108.54507 202.55499 484
82.25607 38.25393 175.93011 436
79.90154 38.84995 178.00609 432
75.31844 39.99921 179.55530 308
61.21875 43.54123 179.17007 427
58.45037 44.18287 181.58978 425
55.63183 44.92817 184.01158 423
52.73717 45.63682 186.54604 413
49.58152 46.43205 189.11684 411
46.35134 47.23859 191.79663 409
42.97330 48.06535 194.53221 406
39.52034 48.90854 197.38913 403
35.94395 49.83725 200.30582 401
32.27610 50.77962 203.36076 398
28.41559 51.71975 206.48000 395
-188.39804 105.92247 202.63722 484
82.55519 37.26450 176.05957 437
80.21076 37.82543 178.11780 433
75.13136 39.04670 179.58516 308
61.54772 42.35653 179.31621 428
58.83770 43.00564 181.70465 426
56.00428 43.70639 184.17105 423
53.14660 44.40203 186.65791 421
50.10976 45.15728 189.23676 412
46.86202 45.94023 191.92575 409
43.54350 46.70123 194.62766 407
40.11456 47.56189 197.48734 404
36.59109 48.43207 200.36826 402
32.87998 49.32634 203.39528 399
29.07274 50.26571 206.54646 396
24.55476 51.35565 209.77051 269
-186.80545 102.81688 209.67613 485
82.81294 36.24680 176.21149 437
80.48183 36.75995 178.23611 433
74.94965 38.09969 179.56732 308
61.95175 41.16940 179.41939 429
59.22504 41.82471 181.80566 426
56.46479 42.46621 184.28186 424
53.56572 43.14707 186.77028 422
50.58356 43.86784 189.36574 412
47.43559 44.61141 192.00688 410
44.12309 45.41495 194.74976 407
40.70212 46.23222 197.53374 405
37.17570 47.07147 200.47047 402
33.53304 47.88182 203.48044 400
29.78924 48.79586 206.62344 397
25.51677 49.84060 209.81967 357
-186.81058 100.09742 209.65245 485
83.06456 35.23788 176.34680 438
80.79910 35.75142 178.38448 434
74.74769 37.13886 179.57048 308
62.32984 40.03110 179.53888 429
59.61229 40.62135 181.94453 427
56.81829 41.26171 184.39827 425
54.01690 41.91686 186.91414 422
51.05381 42.60258 189.48283 420
47.95884 43.31887 192.13696 411
44.68132 44.06755 194.81665 408
41.26300 44.83208 197.65091 406
37.80509 45.68145 200.51350 403
34.18659 46.49799 203.55722 400
30.44794 47.35765 206.64211 398
26.23812 48.35347 209.84395 358
-187.29909 97.56224 209.65952 485
83.33441 34.23310 176.45682 438
81.06924 34.74209 178.48326 436
74.59568 36.22176 179.56578 308
62.69398 38.87578 179.67372 430
60.00609 39.48005 182.04979 428
57.22665 40.05591 184.48323 425
54.40148 40.71481 186.99666 423
51.49635 41.38148 189.58174 421
48.46368 42.04351 192.24321 411
45.21299 42.78671 194.92374 409
41.85400 43.53390 197.72473 406
38.38003 44.31175 200.62648 404
34.79950 45.14136 203.58591 401
31.06179 45.94558 206.67757 398
26.95528 46.83970 209.89008 358
-187.76282 94.97221 209.75136 485
-195.66704 96.67624 216.69244 295
83.63521 33.23750 176.55856 439
81.33839 33.73814 178.60309 437
74.41441 35.26163 179.56352 308
63.04630 37.69304 179.81250 430
60.39587 38.30614 182.16325 428
57.62472 38.90467 184.59799 426
54.82985 39.49101 187.08577 424
51.91913 40.15535 189.68799 421
48.93580 40.76286 192.29556 419
45.75098 41.48231 195.01102 410
42.42645 42.20542 197.79726 407
38.99402 42.94538 200.69177 404
35.40965 43.74458 203.64676 402
31.69784 44.50653 206.74368 399
27.70111 45.40704 209.95406 359
-188.32137 92.39651 209.67442 485
-188.77840 92.47626 216.70309 297
83.88268 32.24505 176.70602 440
81.62341 32.75538 178.71292 438
74.23439 34.28661 179.60719 308
63.41605 36.58496 179.91846 431
60.76074 37.14174 182.28833 429
58.00961 37.72538 184.71811 427
55.21632 38.28935 187.22066 424
52.38607 38.89963 189.77710 422
49.41662 39.52063 192.38708 419
46.28722 40.19152 195.09853 410
42.96724 40.90197 197.85352 408
39.55902 41.61282 200.76901 405
36.00053 42.38376 203.73190 402
32.38163 43.15233 206.76164 400
28.41200 44.00042 209.98607 359
-182.58142 88.50528 216.74797 439
84.16274 31.28295 176.82437 458
81.89275 31.72789 178.82463 438
74.07264 33.35468 179.60774 308
63.78640 35.47129 180.06834 432
61.12297 35.98641 182.38954 429
58.43163 36.54197 184.83682 427
55.63393 37.12219 187.32184 425
52.79187 37.68489 189.86758 422
49.84987 38.30288 192.49602 420
46.82767 38.95163 195.20247 418
43.54882 39.59635 197.97485 408
40.12422 40.30742 200.79178 406
36.60790 41.01516 203.76401 403
33.00160 41.73170 206.80312 400
29.09857 42.55018 209.98451 362
-182.69362 85.96484 216.72166 439
84.19953 30.32659 176.85841 459
82.09577 30.73662 178.94052 457
73.91326 32.38286 179.58713 308
64.14750 34.31702 180.15587 432
61.50179 34.85390 182.54721 430
58.81535 35.36663 184.92157 428
56.08038 35.91981 187.43016 425
53.22262 36.50124 189.98393 423
50.30053 37.06869 192.56683 421
47.26968 37.65388 195.25157 418
44.11305 38.32741 198.04657 409
40.72754 38.96225 200.88060 406
37.25395 39.68553 203.81769 404
33.63769 40.40618 206.85927 401
29.83674 41.14476 210.04990 363
-182.75549 83.32004 216.74950 424
84.24908 29.42083 176.91458 459
82.17502 29.82773 178.98796 457
67.05114 32.68652 177.98720 435
64.48387 33.21285 180.29172 433
61.89421 33.70005 182.64183 431
59.20918 34.19606 185.03523 428
56.44785 34.75679 187.50113 426
53.62313 35.30992 190.06767 424
50.69516 35.86979 192.67935 421
47.71351 36.42093 195.36746 419
44.64267 37.02072 198.11473 410
41.31860 37.65771 200.91953 407
37.82718 38.29830 203.86403 404
34.25523 39.00346 206.90945 402
30.53525 39.76565 210.05811 364
-182.82056 80.74763 216.72043 424
84.32653 28.48898 176.98605 459
82.22668 28.85614 179.04523 457
67.41145 31.63892 178.13753 436
64.89147 32.09021 180.40094 434
62.25944 32.55362 182.74457 431
59.62016 33.06342 185.13477 429
56.88129 33.59937 187.63078 427
54.04705 34.09099 190.16180 424
51.18088 34.65115 192.72379 422
48.19719 35.19951 195.39954 419
45.13594 35.75306 198.19318 417
41.86554 36.34482 201.01669 408
38.45563 37.02924 203.91907 405
34.86922 37.64615 206.97260 402
31.18517 38.37565 210.07990 400
-182.83234 78.05344 216.68674 425
-190.18697 79.44505 223.71036 322
84.37678 27.55276 177.03770 460
82.27695 27.94142 179.06807 458
67.76711 30.56322 178.23004 436
65.23983 31.00944 180.50748 434
62.63110 31.44330 182.83966 432
59.99557 31.93335 185.25822 430
57.28072 32.43820 187.72173 427
54.48211 32.94947 190.24098 425
51.60405 33.46544 192.82047 423
48.63397 33.94474 195.49036 420
45.60326 34.52324 198.23419 418
42.45802 35.06100 201.09564 408
39.01899 35.67799 203.96541 406
35.50275 36.32742 207.01645 403
31.81898 36.98751 210.13737 400
-182.82965 75.44736 216.65683 425
-187.61205 76.30344 223.63808 323
84.39771 26.63684 177.08611 460
82.33025 26.98421 179.11282 458
68.04935 29.47571 178.36615 455
65.60144 29.87999 180.64102 435
63.01791 30.34440 182.96991 433
60.37027 30.80488 185.36749 430
57.65312 31.25277 187.81587 428
54.89816 31.76935 190.34357 426
52.05919 32.24627 192.91420 423
49.09178 32.75356 195.57506 421
46.08917 33.25720 198.29776 418
42.95400 33.79535 201.12201 416
39.59856 34.37322 204.04871 406
36.10346 35.01704 207.05904 404
32.46739 35.63527 210.13113 401
-182.79811 72.87650 216.72932 425
-185.09836 73.30244 223.63136 323
84.47734 25.71689 177.11282 460
82.37419 26.07021 179.18642 458
68.14749 28.44156 178.39096 456
65.78249 28.85065 180.72549 454
63.39240 29.26044 183.05251 451
60.76273 29.68873 185.47223 431
58.05063 30.11063 187.88248 429
55.28890 30.59481 190.42474 426
52.47420 31.04864 192.98201 424
49.53901 31.52310 195.63593 421
46.53206 32.05943 198.35905 419
43.43487 32.57262 201.18683 416
40.19969 33.08642 204.10016 407
36.74067 33.67290 207.05788 404
33.11419 34.26813 210.18588 402
-182.78619 70.29038 216.67192 425
-182.96809 70.29882 223.50661 361
84.52312 24.79998 177.14282 461
82.46883 25.11598 179.22076 459
68.18941 27.40579 178.45975 456
65.84372 27.79844 180.75937 454
63.45790 28.18818 183.12808 452
60.99432 28.59221 185.51414 449
58.49982 28.96593 187.97495 429
55.74209 29.44277 190.46811 427
52.89097 29.87245 193.07578 424
50.00586 30.35611 195.69547 422
46.97985 30.83759 198.40808 419
43.90941 31.31857 201.21133 417
40.73744 31.81020 204.14806 414
37.34951 32.39161 207.12338 405
33.76112 32.97510 210.20662 402
-182.34933 67.61190 223.49271 361
84.58579 23.86550 177.18924 461
82.53016 24.22167 179.26456 459
68.27592 26.42191 178.49840 456
65.93947 26.77626 180.79955 454
63.55409 27.11580 183.17415 452
61.08155 27.52014 185.55746 450
58.54803 27.89038 188.04153 447
55.98671 28.30921 190.56691 445
53.32031 28.68310 193.12366 425
50.45769 29.14529 195.77585 422
47.49261 29.59590 198.48299 420
44.39185 30.06391 201.27849 417
41.26345 30.57215 204.15204 415
37.93834 31.07492 207.14081 406
34.37041 31.61271 210.20029 403
-181.61871 64.96858 223.51979 361
84.65482 22.96365 177.27347 461
82.58364 23.27798 179.30826 459
68.32832 25.36389 178.52638 457
65.98813 25.70044 180.84772 454
63.62180 26.07231 183.17719 452
61.17677 26.44606 185.61839 450
58.64445 26.78670 188.06854 447
56.09720 27.19847 190.59593 445
53.43595 27.57941 193.15755 443
50.75426 27.98746 195.84862 440
47.94285 28.41842 198.56905 421
44.87832 28.83982 201.35815 418
41.71997 29.33233 204.22911 415
38.51854 29.80494 207.16060 413
35.00813 30.34531 210.25162 403
-180.96480 62.25081 223.49797 361
84.70063 22.05909 177.30058 461
82.64314 22.33520 179.36411 459
68.40906 24.37594 178.57774 457
66.05282 24.70544 180.88451 455
63.67297 25.01438 183.23866 452
61.24520 25.37335 185.65298 450
58.75930 25.72793 188.07634 448
56.16314 26.09367 190.64281 445
53.56845 26.47096 193.21124 443
50.87321 26.85527 195.85390 440
48.09992 27.22492 198.57083 438
45.25034 27.62652 201.37717 435
42.24966 28.06346 204.28038 416
39.03680 28.54070 207.20331 413
35.60019 28.99435 210.26886 404
-180.37721 59.63308 223.49249 361
84.78780 21.13301 177.34341 462
82.71238 21.41177 179.37871 460
68.47355 23.35108 178.61838 457
66.15518 23.67043 180.93401 455
63.74456 23.96105 183.24905 453
61.30550 24.30370 185.68925 450
58.79229 24.66884 188.15161 448
56.28308 25.00087 190.67352 446
53.63633 25.33418 193.21356 443
50.96863 25.74804 195.90623 441
48.19489 26.07557 198.59848 438
45.35253 26.49289 201.42966 435
42.40631 26.89414 204.27119 433
39.42709 27.31470 207.27127 430
36.20622 27.73034 210.30965 411
-180.08324 56.98062 223.50522 383
84.81747 20.21786 177.38814 462
82.75410 20.49887 179.43768 460
68.53003 22.32596 178.65286 457
66.21027 22.64314 180.97380 455
63.85598 22.95067 183.32664 453
61.39873 23.27432 185.68675 451
58.89091 23.55430 188.14304 448
56.34497 23.89829 190.69948 446
53.75674 24.23985 193.27130 443
51.06480 24.58755 195.91620 441
48.29040 24.95195 198.64999 438
45.44181 25.33800 201.44505 436
42.54910 25.71888 204.31746 433
39.52472 26.05754 207.27469 430
36.44069 26.46557 210.31873 428
-180.09941 54.45546 223.49889 383
84.90314 19.30633 177.43262 462
82.85738 19.56803 179.48001 460
68.60229 21.30203 178.70871 458
66.29894 21.62145 180.99243 455
63.93157 21.89369 183.33423 453
61.48040 22.18606 185.76250 451
59.01836 22.49922 188.20853 448
56.43179 22.82477 190.71483 446
53.84126 23.17000 193.29181 444
51.12848 23.48887 195.91835 441
48.36779 23.82318 198.65331 439
45.57883 24.18349 201.45724 436
42.66985 24.50360 204.29935 433
39.62983 24.89476 207.29774 431
36.60230 25.25173 210.30525 428
-180.03316 51.93569 223.50040 383
84.95203 18.40356 177.45276 462
82.91068 18.67209 179.50946 460
68.69702 20.33264 178.74428 458
66.34556 20.59920 181.04639 456
63.98905 20.87144 183.36852 453
61.56133 21.16075 185.77475 451
59.08016 21.43394 188.24838 449
56.52373 21.74128 190.72203 446
53.91050 22.01317 193.31456 444
51.27336 22.34703 195.96259 441
48.51292 22.67055 198.67107 439
45.66749 23.02261 201.44215 436
42.75028 23.33198 204.32494 433
39.76743 23.69472 207.29420 431
36.73866 24.06605 210.33286 428
-180.11070 49.39577 223.48073 383
85.02649 17.52536 177.47789 463
82.88529 17.74888 179.50882 312
68.77750 19.31614 178.75136 458
66.44707 19.58726 181.08752 456
64.09110 19.82689 183.41740 454
61.63984 20.07569 185.82005 451
59.14413 20.38184 188.24052 449
56.63471 20.67811 190.74751 447
54.03331 20.92585 193.35780 444
51.32076 21.25196 196.00117 442
48.58055 21.54271 198.70715 439
45.77967 21.87008 201.48386 436
42.90497 22.17429 204.33266 434
39.95171 22.50023 207.30235 431
36.85900 22.80994 210.33891 429
-180.07266 46.86193 223.47212 383
85.08901 16.62414 177.53284 463
82.83971 16.84286 179.51849 312
68.84599 18.28432 178.80479 458
66.53730 18.54475 181.10121 456
64.16213 18.81100 183.45619 454
61.72112 19.03995 185.81406 452
59.23534 19.31215 188.28180 449
56.72894 19.55862 190.78220 447
54.13205 19.84331 193.34671 444
51.44831 20.14042 196.00560 442
48.71111 20.38872 198.69865 439
45.87112 20.70683 201.50131 437
42.99956 21.00095 204.38129 434
40.08099 21.29943 207.33360 432
37.03538 21.63910 210.36357 429
-180.00328 44.33799 223.42464 384
85.14756 15.71757 177.57173 463
82.78689 15.96183 179.52408 312
68.92996 17.32231 178.84711 459
66.59764 17.55092 181.12146 456
64.21171 17.77710 183.47946 454
61.83820 18.00860 185.88876 452
59.32370 18.24291 188.29338 449
56.79537 18.49372 190.82495 447
54.23736 18.74552 193.38176 445
51.53797 18.98767 196.03355 442
48.81312 19.25315 198.72823 439
46.01200 19.56679 201.51988 437
43.13045 19.83427 204.37260 435
40.22054 20.14532 207.29807 432
37.14785 20.41414 210.36832 429
-180.04982 41.70604 223.49736 384
85.22475 14.81652 177.57957 463
82.72514 15.05218 179.52730 312
69.17604 16.48005 178.67067 459
66.67753 16.53494 181.16762 457
64.30589 16.70627 183.50511 454
61.92605 16.96681 185.88632 452
59.45184 17.18862 188.36244 450
56.89325 17.43271 190.83566 447
54.29052 17.64947 193.42754 445
51.64313 17.88045 196.02896 442
48.91816 18.15562 198.74126 440
46.17358 18.39282 201.55054 437
43.29663 18.66193 204.36517 435
40.33911 18.94626 207.34528 432
37.31189 19.24179 210.35732 429
-179.96925 39.24354 223.42560 384
85.27975 13.88752 177.63551 464
82.64553 14.14233 179.53250 312
69.08330 15.28956 178.91072 459
66.77843 15.49627 181.19440 457
64.42324 15.70784 183.53932 454
61.98494 15.89234 185.91119 452
59.52652 16.09865 188.36331 450
56.98011 16.32457 190.88835 447
54.39530 16.55060 193.45354 445
51.77486 16.77047 196.05717 443
49.03671 17.03481 198.75407 440
46.25655 17.22999 201.53206 438
43.41333 17.48991 204.42960 435
40.46593 17.76545 207.32469 432
37.43979 18.04008 210.37442 430
-180.03693 36.66511 223.46681 384
85.37176 13.01473 177.66080 464
82.62553 13.23678 179.51259 312
69.14803 14.30042 178.94841 459
66.85571 14.46647 181.21904 457
64.46749 14.67915 183.57460 455
62.06503 14.88059 185.93379 452
59.63564 15.06989 188.38295 450
57.07862 15.24187 190.88560 448
54.49487 15.47532 193.45876 445
51.85087 15.67455 196.08708 443
49.18699 15.89192 198.80951 441
46.41484 16.10025 201.55879 438
43.53530 16.31981 204.43442 435
40.60110 16.56669 207.36700 433
37.56956 16.79523 210.38477 430
-179.97403 34.14889 223.42796 384
85.43044 12.12521 177.68942 464
82.57345 12.30035 179.53210 312
69.21867 13.30851 178.96350 459
66.94369 13.47416 181.24953 457
64.56782 13.66375 183.59651 455
62.18785 13.84680 185.95140 453
59.73479 13.99087 188.42545 450
57.19455 14.18037 190.92572 448
54.63745 14.38316 193.48627 446
51.98087 14.59063 196.11977 443
49.31231 14.80157 198.80559 441
