# .PCD v.7 - Point Cloud Data file format
VERSION .7
FIELDS x y z rgb
SIZE 4 4 4 4
TYPE F F F U
COUNT 1 1 1 1
WIDTH 1391
HEIGHT 1
VIEWPOINT 6177.446289 -4109.672363 141.113678 0.150972 -0.127337 0.005581 0.980287
POINTS 1391
DATA ascii
394.04074 -36.04719 171.71782 313
406.50949 -38.48642 171.86295 309
420.72769 -41.23504 171.98177 305
468.84723 -50.63087 165.71019 448
1989.19373 -348.01212 126.98376 415
1996.46790 -349.12051 156.10545 274
266.66623 -10.86840 203.50981 314
394.28452 -34.98286 171.71246 313
406.75342 -37.31198 171.84984 309
421.02353 -39.97338 171.98576 305
470.28149 -49.34745 165.48225 447
480.05313 -51.16058 168.00555 293
266.76300 -10.56374 203.50035 314
394.52206 -33.88772 171.75716 313
407.01358 -36.17189 171.83459 309
421.26636 -38.79208 172.02611 305
471.73526 -47.97151 165.27798 446
480.35309 -49.59820 168.02170 293
266.84772 -10.26661 203.50575 314
394.78644 -32.79352 171.75435 313
407.23999 -35.00448 171.87532 309
421.55203 -37.51130 172.02428 305
472.97021 -46.53957 165.07523 300
480.61841 -47.93096 168.03537 293
266.94153 -9.97311 203.50507 314
394.98962 -31.70061 171.73976 313
407.51581 -33.81739 171.89108 309
421.81924 -36.26264 172.02588 305
473.31018 -45.02387 165.09781 300
480.86435 -46.28422 168.07115 293
267.02591 -9.67831 203.50322 314
395.23587 -30.62908 171.72546 313
407.71219 -32.65384 171.85376 309
422.05060 -34.97399 172.02946 305
473.57349 -43.42724 165.07660 300
481.11865 -44.70900 168.03322 293
267.11337 -9.37365 203.50327 314
395.44000 -29.50869 171.75049 313
407.95081 -31.50825 171.88219 309
422.26773 -33.77844 172.01286 305
473.85464 -41.88419 165.08263 300
481.38312 -43.01722 168.09633 293
267.19199 -9.06985 203.50505 314
395.60254 -28.41953 171.75969 313
408.15805 -30.31116 171.87553 309
422.50620 -32.53456 171.98993 305
474.17560 -40.31324 165.12732 300
481.58768 -41.43009 168.10674 293
267.28366 -8.77856 203.50011 314
270.64957 -9.26728 203.48752 282
408.41095 -29.17535 171.87024 309
422.74557 -31.23300 172.00499 305
474.42313 -38.72272 165.10330 300
481.82230 -39.77213 168.08388 293
267.35190 -8.47413 203.50560 314
270.68204 -8.93496 203.50435 310
408.56128 -27.98736 171.87721 309
422.93317 -30.01320 172.00755 305
439.55835 -32.27949 172.18083 301
482.24600 -38.16301 168.11382 440
267.43994 -8.17784 203.50237 314
270.76648 -8.61436 203.49985 310
408.78204 -26.83456 171.87697 309
423.17648 -28.73589 172.00194 305
439.77905 -30.90562 172.17889 301
483.42618 -36.71952 167.93594 459
267.51776 -7.87810 203.50783 314
270.83893 -8.30181 203.50385 310
408.98093 -25.63086 171.88388 309
423.35071 -27.48526 172.00648 305
440.00427 -29.59756 172.16222 301
484.65237 -35.22257 167.76711 458
267.57986 -7.57089 203.50278 314
270.91937 -7.98005 203.49811 310
409.13599 -24.49727 171.86005 309
423.55688 -26.22325 171.99077 305
440.19751 -28.21618 172.18140 301
485.92493 -33.65755 167.57838 458
267.66245 -7.26956 203.49762 314
270.99072 -7.64655 203.50917 310
409.31723 -23.34252 171.89841 309
423.72845 -24.94842 172.04071 305
440.42081 -26.82498 172.19728 301
487.16458 -32.16605 167.37445 457
267.72678 -6.96650 203.50111 314
271.06891 -7.32840 203.49858 310
409.49313 -22.12390 171.87711 309
423.94656 -23.67849 172.00928 305
440.56940 -25.47540 172.19781 301
488.40942 -30.61724 167.21786 456
267.79083 -6.66670 203.50931 314
271.14264 -7.01034 203.50578 310
409.66370 -20.97634 171.88599 309
424.11795 -22.41461 172.04729 305
440.81198 -24.11308 172.20815 301
489.70248 -29.04977 166.96846 455
267.86032 -6.36921 203.50780 314
271.20474 -6.69188 203.50781 310
409.81174 -19.77028 171.90288 309
424.24072 -21.16034 172.03819 305
440.96521 -22.78069 172.21127 301
490.92606 -27.49346 166.80353 454
267.93784 -6.06982 203.50937 314
271.27551 -6.36518 203.49922 310
409.93509 -18.61400 171.88091 309
424.40775 -19.89224 172.00099 305
441.11566 -21.39571 172.18005 301
492.23264 -25.94164 166.64091 453
337.51294 -12.26615 216.40880 1000
267.99384 -5.76525 203.50786 314
271.33963 -6.03821 203.50861 310
410.12106 -17.46264 171.91257 309
424.56161 -18.63719 172.00208 305
441.28162 -20.02654 172.18416 301
493.52762 -24.31301 166.43979 453
268.05750 -5.45850 203.50058 314
271.40302 -5.72027 203.50108 310
410.22885 -16.28275 171.87361 309
424.70044 -17.36967 172.04605 305
441.42767 -18.69056 172.20813 301
494.78525 -22.74820 166.17538 452
268.11075 -5.16725 203.50760 314
271.47052 -5.39604 203.50241 310
410.38263 -15.11368 171.87129 309
424.82462 -16.11203 172.04788 305
441.56757 -17.31697 172.19740 301
496.14771 -21.12908 165.95763 451
268.17078 -4.85416 203.50523 314
271.53177 -5.07032 203.50742 310
410.47668 -13.92041 171.88176 309
424.99985 -14.84741 172.03847 305
441.73087 -15.92853 172.21588 301
461.31790 -17.16073 172.40729 297
268.22867 -4.55271 203.50002 314
271.57962 -4.74845 203.50166 310
410.61917 -12.75561 171.86835 309
425.08670 -13.55358 172.02524 305
441.81503 -14.52906 172.20369 301
461.41910 -15.66617 172.37936 297
268.28333 -4.24646 203.49747 314
271.63284 -4.42194 203.50368 310
410.70197 -11.54392 171.88850 309
425.22717 -12.28846 172.02899 305
441.98337 -13.20636 172.21172 301
461.57776 -14.17187 172.36790 297
268.33612 -3.95313 203.50642 314
271.69040 -4.09813 203.50143 310
410.79160 -10.36727 171.91420 309
425.33508 -11.01117 172.05968 305
442.10855 -11.82443 172.18900 301
461.71255 -12.66640 172.36414 297
268.39041 -3.64076 203.50928 314
271.73959 -3.78305 203.50879 310
410.87677 -9.21667 171.91147 309
425.44269 -9.78780 172.01733 305
442.20145 -10.45161 172.21570 301
461.77786 -11.22875 172.36742 297
7643.24268 -292.82523 -517.01526 1000
268.44131 -3.34307 203.51015 314
271.79538 -3.44902 203.50772 310
411.00745 -8.02898 171.89244 309
425.48724 -8.48862 172.01541 305
442.25491 -9.04394 172.22255 301
461.91440 -9.71906 172.40489 297
268.47717 -3.03893 203.50047 314
271.83850 -3.12741 203.51007 310
411.05283 -6.84972 171.88446 309
425.60580 -7.25229 172.04996 305
442.38635 -7.71315 172.21933 301
461.97983 -8.25181 172.41969 297
268.52899 -2.73824 203.49879 314
271.88318 -2.80577 203.50528 310
411.15652 -5.64333 171.90207 309
425.67822 -5.94526 172.02446 305
442.41281 -6.30342 172.20421 301
462.10452 -6.73887 172.39412 297
268.57428 -2.42949 203.50999 314
271.92712 -2.48363 203.50273 310
411.17996 -4.51033 171.87611 309
425.71878 -4.67497 172.02435 305
442.49289 -4.94725 172.19598 301
462.16843 -5.20888 172.38321 297
511.64713 -5.99995 168.26520 288
268.61801 -2.13211 203.50673 314
271.97226 -2.15906 203.50841 310
411.27408 -3.28956 171.89323 309
425.80652 -3.42931 172.04045 305
442.58661 -3.57128 172.17432 301
462.18488 -3.73815 172.36520 297
511.68826 -4.17692 168.29207 288
268.65088 -1.82218 203.50856 314
272.01926 -1.83124 203.50876 310
411.31049 -2.14123 171.89722 309
425.82144 -2.15591 172.03998 305
442.65063 -2.18664 172.21613 301
451.68976 -2.21183 174.31256 424
511.65463 -2.36377 168.33000 288
268.68787 -1.52049 203.49768 314
272.04611 -1.51437 203.49878 310
411.36945 -0.92353 171.86926 309
425.87296 -0.90909 172.04904 305
442.68295 -0.81171 172.18417 301
462.35822 -0.74774 172.36960 297
511.67612 -0.53171 168.28253 288
268.73010 -1.21513 203.50264 314
272.08820 -1.18593 203.50221 310
411.37097 0.24756 171.87694 309
425.93121 0.40329 172.00577 305
442.72699 0.56215 172.20995 301
462.36966 0.71887 172.40593 297
511.72278 1.19452 168.32529 288
268.76465 -0.91785 203.49841 314
272.11783 -0.86186 203.50417 310
411.43613 1.40090 171.92102 309
425.97250 1.65189 172.05261 305
442.71301 1.93836 172.20828 301
451.94785 2.03554 174.27893 421
511.82526 2.99092 168.31172 288
268.79565 -0.61434 203.50836 314
272.15704 -0.54279 203.50449 310
411.41760 2.61306 171.92021 309
425.94022 2.92601 172.01341 305
442.79016 3.27208 172.22545 301
462.43683 3.74300 172.35390 297
511.93991 4.83906 168.25612 288
268.82700 -0.31271 203.50920 314
272.18646 -0.22025 203.49792 310
411.48187 3.77101 171.89983 309
425.96448 4.16141 172.05003 305
442.78949 4.69943 172.22755 301
462.45837 5.23025 172.40924 297
268.85004 0.00068 203.50772 314
272.20801 0.11003 203.49817 310
411.46478 4.93069 171.89078 309
426.01306 5.48731 172.03636 305
442.76340 6.02083 172.21748 301
462.42325 6.67553 172.36951 297
268.87619 0.29619 203.50305 314
272.24130 0.43202 203.50948 310
411.46698 6.13465 171.91281 309
425.97546 6.75032 172.02223 305
442.81046 7.40886 172.17593 301
462.41290 8.18389 172.38127 297
268.89822 0.59466 203.50900 314
272.26022 0.75126 203.50500 310
411.44308 7.32465 171.89206 309
426.01297 7.97951 172.02190 305
442.76038 8.79537 172.22694 301
462.45227 9.68890 172.39549 297
268.92923 0.90063 203.51019 314
272.28314 1.07683 203.50159 310
411.46432 8.48174 171.87779 309
425.94836 9.26212 172.03729 305
442.73618 10.12425 172.17699 301
462.38406 11.21942 172.41444 297
268.94824 1.20802 203.50520 314
272.29996 1.40288 203.50249 310
411.42603 9.68862 171.90781 309
425.95685 10.51157 172.04375 305
442.69489 11.54877 172.21008 301
462.39606 12.70038 172.41101 297
268.96075 1.50807 203.49944 314
272.31824 1.72792 203.50964 310
411.37003 10.86750 171.88867 309
425.92795 11.82381 172.03542 305
442.69867 12.90324 172.21593 301
462.34183 14.16149 172.37558 297
33653.42969 2175.47754 4068.67310 1000
268.97983 1.80828 203.50615 314
272.33856 2.04521 203.50284 310
411.38831 12.03390 171.91200 309
425.88461 13.07382 172.06017 305
442.63245 14.27811 172.21214 301
462.28040 15.66592 172.39999 297
23389.34375 1650.26233 2887.34839 1000
269.00204 2.11431 203.50999 314
272.34955 2.36987 203.51080 310
411.29871 13.20611 171.88687 309
425.80185 14.33555 172.03693 305
442.57172 15.63314 172.18901 301
496.61682 19.81974 166.08885 452
269.00693 2.41666 203.50249 314
272.37140 2.69892 203.50453 310
411.28055 14.37263 171.86319 309
425.77072 15.59690 172.01538 305
442.52985 16.98066 172.17422 301
495.33276 21.41787 166.30577 453
269.01920 2.71765 203.50172 314
272.37503 3.02048 203.50079 310
411.22186 15.54576 171.86356 309
425.71854 16.85431 172.00702 305
442.48361 18.40728 172.16054 301
494.03333 23.07955 166.51622 454
269.03342 3.02511 203.49983 314
272.37744 3.34389 203.50821 310
411.13754 16.76570 171.87953 309
425.62161 18.13804 172.04709 305
442.38187 19.74074 172.17831 301
492.73026 24.62804 166.72882 455
269.04391 3.32815 203.49838 314
272.39413 3.66218 203.50377 310
411.06998 17.93990 171.88698 309
425.54816 19.38840 172.03700 305
442.28363 21.11851 172.21045 301
491.48090 26.17464 166.96259 456
269.05444 3.62387 203.50388 314
272.38831 3.98755 203.50505 310
411.01993 19.08715 171.90167 309
425.47253 20.66745 172.01099 305
442.24252 22.50039 172.16226 301
490.23099 27.70381 167.17162 456
269.04782 3.92511 203.50476 314
272.39331 4.30614 203.50288 310
410.90802 20.26377 171.86481 309
425.37949 21.91894 172.02075 305
442.10828 23.85552 172.18866 301
488.99908 29.27831 167.37927 457
269.06094 4.22513 203.50679 314
272.42944 4.64393 203.49551 280
410.84708 21.44507 171.90352 309
425.27197 23.20331 172.01938 305
441.99527 25.22144 172.16751 301
487.74094 30.77216 167.56297 458
269.05502 4.53618 203.50327 314
272.47485 4.96571 203.47844 280
410.76306 22.64986 171.86415 309
425.19955 24.48840 172.01332 305
441.90778 26.57782 172.19864 301
486.52716 32.24980 167.75539 459
24869.94922 3134.23608 3075.67920 1000
269.05405 4.82821 203.50197 314
398.01099 22.12686 171.75386 313
410.65256 23.81444 171.85590 309
425.07776 25.72323 172.00301 305
441.75732 27.92428 172.15672 301
485.29706 33.80748 167.99986 460
269.05038 5.13713 203.50529 314
397.91064 23.18103 171.77864 313
410.54135 24.97000 171.90425 309
424.96997 27.01174 171.99828 305
441.63141 29.33373 172.20532 301
484.28085 35.33647 168.15469 294
269.04663 5.43950 203.50536 314
397.78500 24.31479 171.75954 313
410.40939 26.14257 171.86394 309
424.85034 28.28091 172.02695 305
441.47937 30.66812 172.21051 301
484.16034 36.92883 168.10005 294
7583.98828 1075.91821 -639.17535 1000
7632.67383 1081.84009 216.85602 1000
269.04474 5.74169 203.50586 314
397.71597 25.39219 171.73802 313
410.29993 27.34512 171.89020 309
424.68527 29.48189 172.03459 305
476.55273 37.44606 165.05933 300
484.05283 38.58139 168.11681 293
269.03717 6.03863 203.50432 314
397.60275 26.46998 171.73172 313
410.15768 28.47647 171.89644 309
424.56192 30.76780 171.99910 305
476.33200 39.00463 165.08556 300
483.97656 40.21098 168.06285 293
269.01627 6.33278 203.50975 314
397.45535 27.56458 171.73344 313
410.01682 29.64720 171.85547 309
424.38956 32.01528 171.99481 305
476.16125 40.54716 165.08774 300
483.79242 41.85419 168.02605 293
269.00827 6.63236 203.49911 314
397.29233 28.68481 171.73134 313
409.86551 30.82236 171.85735 309
424.25510 33.29274 172.00966 305
475.98840 42.18883 165.11679 300
483.66064 43.46829 168.00754 293
268.99289 6.93500 203.49840 314
397.16763 29.77537 171.74182 313
409.72726 32.01118 171.89635 309
424.06470 34.56509 172.00113 305
475.61215 43.71135 165.13388 446
483.54428 45.10591 168.01871 293
268.98087 7.22727 203.49747 314
397.04312 30.85210 171.74911 313
409.53610 33.16230 171.85260 309
423.88144 35.81760 172.00813 305
474.12918 45.06665 165.33871 447
483.41382 46.72536 167.99556 293
268.95862 7.52831 203.49750 314
396.86841 31.93940 171.72025 313
409.38248 34.29790 171.87453 309
423.70062 37.05877 171.99803 305
472.70102 46.40456 165.56775 448
483.22134 48.40472 167.99249 293
268.94598 7.82547 203.50494 314
396.71716 32.99847 171.72389 313
409.23157 35.49014 171.84023 309
423.55905 38.29948 172.02956 305
471.31516 47.72393 165.85619 449
268.92877 8.13045 203.50494 314
396.54044 34.09310 171.72426 313
409.01526 36.65718 171.84106 309
423.32538 39.53515 172.02489 305
469.91080 49.05164 166.08067 449
268.89703 8.42454 203.50209 314
396.36221 35.17160 171.71960 313
408.88147 37.78921 171.87897 309
423.12158 40.79270 172.01135 305
468.56223 50.31643 166.30455 450
268.87445 8.71559 203.50655 314
396.20645 36.26249 171.74655 312
408.66440 38.98946 171.88446 309
422.95294 42.03520 172.00482 305
467.13620 51.58084 166.53210 451
268.84439 9.01515 203.49759 314
395.99887 37.36493 171.71089 312
408.47653 40.10869 171.85626 309
454.50345 50.38451 164.98566 303
465.81128 52.86747 166.73619 452
268.82346 9.31198 203.50803 314
395.79346 38.44945 171.74248 312
408.26059 41.25799 171.84196 309
454.25458 51.79364 164.98131 303
464.39548 54.14672 166.93028 453
268.78937 9.60664 203.50752 314
395.61404 39.51714 171.74869 312
408.00833 42.42384 171.84183 309
453.99097 53.30093 164.98395 303
463.10626 55.41559 167.17621 454
268.76022 9.90591 203.50307 314
395.40173 40.60649 171.71951 312
407.79929 43.60886 171.86612 309
453.66309 54.68492 164.96832 303
461.54468 56.59583 167.42764 422
268.72919 10.19772 203.50858 314
395.17944 41.66517 171.71899 312
407.57703 44.72018 171.83029 309
453.35986 56.12521 164.94095 303
459.69000 57.67725 167.74049 423
268.68945 10.49347 203.50935 314
394.99078 42.74574 171.71600 312
407.34219 45.91877 171.86526 308
453.06003 57.54507 164.96046 303
458.29413 58.92396 167.94470 297
268.65094 10.78784 203.50009 314
394.75201 43.80463 171.70779 312
407.09732 47.04435 171.86533 308
452.77386 58.98652 164.98029 303
458.04831 60.37138 167.91014 297
268.61395 11.08057 203.50995 314
394.50006 44.90154 171.70927 312
406.83243 48.16603 171.83995 308
452.44006 60.40584 164.93159 303
457.82135 61.83835 167.88638 297
268.57764 11.37598 203.50589 314
394.29071 45.97173 171.71657 312
406.62225 49.32900 171.84239 308
452.04987 61.86898 164.94722 303
457.50720 63.32148 167.92715 297
268.53259 11.66847 203.50984 314
394.03702 47.01006 171.70874 312
406.29794 50.49966 171.83929 308
450.80511 63.02925 165.15251 428
457.18665 64.78958 167.92101 297
268.48068 11.96208 203.50063 314
393.80215 48.10387 171.69881 312
406.06766 51.60963 171.80434 308
449.14206 64.03005 165.47945 429
456.89844 66.29041 167.85384 297
268.43536 12.25692 203.49988 314
393.54388 49.17654 171.70175 312
405.76886 52.74649 171.83751 308
447.42908 65.04807 165.73698 430
456.60913 67.75487 167.85136 297
268.39255 12.54973 203.50426 314
393.26654 50.23556 171.71938 312
434.14661 62.57053 164.85896 308
445.77634 66.02973 166.02960 431
456.25958 69.23404 167.85558 297
382.21365 47.96654 171.61746 316
392.98837 51.28679 171.68936 312
433.78488 63.89402 164.86784 308
444.11493 67.05135 166.30754 432
381.98010 48.96076 171.61745 316
392.73315 52.34294 171.68178 312
433.43420 65.15475 164.84689 308
442.54922 68.01779 166.60786 433
381.70181 49.92809 171.58470 316
392.42432 53.40204 171.69218 312
433.06522 66.46106 164.86667 308
440.87234 68.99077 166.89035 434
381.41129 50.93411 171.57405 316
392.14813 54.47948 171.71695 312
432.72818 67.76506 164.86328 308
439.30127 69.96153 167.14622 435
381.13388 51.92610 171.57411 316
391.86121 55.52144 171.70096 312
432.30463 69.06306 164.83270 308
437.55017 70.84664 167.47789 421
380.88956 52.90133 171.57257 316
391.54431 56.54026 171.66946 312
431.89230 70.39154 164.87177 308
435.74890 71.71649 167.80119 422
380.58112 53.89035 171.58229 316
391.22144 57.59632 171.69475 312
431.48016 71.63644 164.87372 308
435.07141 72.93263 167.85997 301
380.30975 54.86906 171.59317 316
390.93323 58.65230 171.68748 312
431.03284 72.94709 164.83897 308
434.67557 74.23930 167.83598 301
380.00208 55.87777 171.59525 316
390.58795 59.69757 171.68217 312
430.59250 74.19701 164.86316 425
434.32993 75.56102 167.82954 301
379.66800 56.85558 171.58437 316
390.25970 60.76119 171.68076 312
428.91754 75.04361 165.19350 426
433.91882 76.89337 167.81927 301
379.36783 57.80782 171.56483 316
415.74319 71.50892 164.75017 312
427.23050 75.86649 165.51929 427
433.55881 78.22184 167.76947 301
379.07343 58.79865 171.54556 316
415.32321 72.72173 164.76286 312
425.58902 76.64139 165.81471 428
433.14282 79.56989 167.78871 301
378.74512 59.75629 171.55457 316
414.86240 73.92236 164.78362 312
423.94733 77.46608 166.07147 429
432.72195 80.86451 167.75609 301
378.40698 60.75401 171.53888 316
414.46548 75.08111 164.78246 312
422.35123 78.25430 166.34999 430
432.27170 82.15534 167.73766 301
378.08026 61.72550 171.53975 316
413.97702 76.24563 164.75859 312
420.76984 79.02697 166.68056 431
377.73236 62.69208 171.55458 316
413.58078 77.43765 164.76006 312
419.22934 79.76897 166.91650 432
377.38028 63.64473 171.56375 316
413.08627 78.59951 164.81296 312
417.65790 80.52158 167.22246 433
377.02872 64.59169 171.54303 316
412.62003 79.81687 164.79713 312
416.13593 81.26529 167.50060 434
376.66037 65.55078 171.51823 316
412.14145 80.97961 164.76570 312
414.58221 82.00768 167.72134 435
376.32611 66.48757 171.52321 316
411.65250 82.10323 164.78629 312
414.02164 83.17775 167.78979 305
375.94461 67.46262 171.54837 316
411.17282 83.30640 164.80646 312
413.56311 84.35191 167.78369 305
398.84488 79.03391 164.66678 316
410.15793 84.21957 164.93794 437
413.09946 85.52872 167.77960 305
398.39081 80.09930 164.66873 316
408.66766 84.91291 165.24379 438
412.63437 86.70851 167.77623 305
397.90799 81.23328 164.71602 316
407.24527 85.63263 165.50528 439
412.16101 87.93453 167.76622 305
397.42731 82.27240 164.68652 316
405.64236 86.19247 165.76054 420
411.68967 89.10472 167.75728 305
2843.06274 1253.22839 122.03738 423
396.91510 83.33389 164.70425 317
403.99017 86.75819 166.08702 421
411.20816 90.32189 167.69319 305
2823.50952 1263.79517 122.92555 461
396.39322 84.42615 164.71953 317
402.35245 87.32880 166.39052 422
410.72443 91.50346 167.68396 305
2846.71875 1294.91040 73.24923 432
2807.53198 1275.54932 123.29462 469
395.89651 85.47572 164.71469 317
400.75308 87.87949 166.74516 423
410.25177 92.66635 167.69962 305
2828.35059 1305.34583 73.86397 433
2791.96558 1287.36511 123.23645 470
395.38779 86.55090 164.69827 317
399.16290 88.46754 167.03693 425
2805.70142 1314.07666 75.26186 413
2776.42188 1299.33008 123.34285 484
394.87796 87.56668 164.70815 317
397.61664 88.98092 167.32860 426
2788.80493 1325.47131 75.09884 476
2764.74023 1313.04224 123.63529 459
394.32608 88.62934 164.72839 317
396.07660 89.52785 167.60616 427
2774.41431 1337.98230 75.59230 477
2753.02734 1326.58032 123.77000 458
393.81381 89.69612 164.71022 317
395.18994 90.41176 167.70268 311
2759.85571 1350.32129 76.04544 478
2741.04102 1340.82690 123.86537 458
392.99304 90.58431 164.82782 428
394.66077 91.48580 167.72711 311
2742.26514 1361.17017 76.80634 333
2730.79956 1354.47778 124.04132 387
391.51779 91.12071 165.13049 429
394.16431 92.55589 167.71152 311
2725.65210 1372.08081 77.53195 333
2721.83813 1369.87964 123.74686 387
390.04895 91.62546 165.37102 430
393.64896 93.63511 167.68895 309
2709.50879 1383.49146 77.82370 336
2713.03931 1385.32690 123.71056 385
388.58612 92.16444 165.70010 431
393.14960 94.72823 167.68791 309
2694.77563 1394.66333 77.54955 438
2705.17285 1400.66968 124.18655 385
387.13629 92.63116 165.92981 432
392.60629 95.74730 167.67236 309
2682.76733 1408.25378 78.33405 440
2700.03931 1418.01562 123.67004 292
385.69113 93.14178 166.22295 433
392.06396 96.80794 167.65123 309
2672.01123 1422.21802 77.96624 440
2694.71973 1435.18921 124.04523 438
384.30090 93.61310 166.49751 434
391.52502 97.91714 167.63005 309
2660.72559 1435.34619 78.32172 440
2749.91821 1488.33289 121.22057 498
382.92639 94.10977 166.74390 435
390.97888 98.94898 167.64265 309
2649.21265 1448.92798 78.64783 441
2713.46265 1487.42993 122.29745 498
381.53073 94.57748 167.04037 436
390.45032 100.02346 167.63503 309
2638.07593 1462.17737 78.29391 497
2705.94189 1503.17151 122.11078 498
380.14014 95.05483 167.26076 437
2628.73315 1477.47888 78.85830 498
2698.39185 1519.85791 122.20037 498
378.78268 95.51989 167.53520 438
2620.27271 1492.48755 78.68900 498
2690.94629 1536.37744 122.48551 411
377.90210 96.27431 167.63483 315
2611.09985 1507.31860 78.50056 498
377.37411 97.24861 167.62830 315
2602.61230 1522.12146 78.57939 497
376.79471 98.17915 167.64401 315
2594.42822 1537.70764 78.67557 497
2671.41016 1586.99768 121.73551 497
376.22198 99.15145 167.59612 315
2586.20996 1552.61914 78.85307 497
2663.13184 1603.14001 121.88470 497
375.67053 100.12328 167.61662 315
2578.49927 1568.69812 78.06265 495
2650.79932 1617.26807 121.76529 497
375.06256 101.04613 167.63318 315
2571.36133 1584.94788 78.19082 495
2696.59009 1669.67920 217.19748 340
374.48383 101.98356 167.58255 315
2563.60229 1600.50635 78.09492 495
373.91681 102.95725 167.58868 315
2556.00977 1616.46521 78.12766 495
2663.47949 1691.28442 266.11371 496
2700.62451 1716.41187 315.64053 496
373.30630 103.83504 167.61510 315
2548.32349 1632.76208 77.98925 494
372.70688 104.80220 167.57248 313
2540.57080 1648.01794 77.48607 494
2662.45166 1734.81384 119.56839 435
372.13846 105.76450 167.57155 313
2533.61768 1664.29150 77.51555 494
2576.37964 1695.80566 122.02843 495
371.52972 106.69465 167.55339 313
2525.71729 1680.48291 77.03392 494
2568.81934 1712.31665 122.47984 495
2517.65820 1696.69861 77.11632 491
2510.74463 1713.03967 77.07677 491
2502.73267 1729.42859 77.04425 491
2676.46509 1861.65417 167.27521 401
2494.97168 1745.81750 76.91167 490
2614.19165 1836.64307 217.43593 285
2487.18359 1761.84265 76.61368 490
2479.82593 1778.10645 76.28070 490
2472.13867 1794.92358 76.11688 489
2464.27051 1811.19836 75.72727 489
2456.20825 1827.76648 75.44934 488
2448.58301 1843.89258 75.30650 488
2441.03467 1861.34680 75.41956 488
2432.82227 1877.70190 74.53745 487
2425.61377 1894.80396 74.71532 487
2417.56982 1911.58777 74.64521 487
2530.21045 2009.48059 117.14670 311
2409.20557 1928.04688 73.95631 486
2401.72681 1944.66382 73.98520 486
2394.04785 1962.06323 73.69166 485
2386.32080 1979.77698 72.99918 454
2383.23657 2001.31152 72.69161 453
2379.73291 2022.92432 72.16956 452
2377.62158 2045.32556 71.62308 423
23166.32422 44322.82812 361.86581 1000
1272.65601 2337.82837 55.97549 429
1256.73792 2340.98657 55.94800 470
1258.03906 2344.81128 97.86740 496
1297.58386 5277.26855 -33.13833 309
1268.31543 5301.16455 -33.94793 436
1238.97168 5328.27393 -35.47571 421
1211.16345 5355.81104 -36.01360 420
1182.54211 5384.93799 -36.80725 414
4836.28955 26882.05859 -5594.97900 1000
1153.25220 5418.41357 -38.44645 397
1125.47168 5457.47217 -40.32117 391
1098.70898 5502.90430 -41.25430 375
1073.32349 5564.66797 -44.52212 348
1048.16406 5637.49951 -47.06205 353
1023.09039 5708.64160 -51.09392 351
997.99316 5783.80469 -53.83117 351
972.52380 5864.48682 -58.18608 351
495.14847 4137.27002 23.42138 486
-159.62627 5045.16016 -19.84280 497
-586.58405 5863.97266 -61.20133 274
-619.95300 5833.72021 -59.87612 363
-634.52631 5931.32812 34.68266 499
-651.31104 5806.40918 -58.43843 424
-686.33081 5786.66357 -58.28255 466
-4221.35254 27194.18945 -4731.88428 1000
-719.06201 5768.47607 -57.38033 470
-752.10077 5752.63037 -56.40414 490
-11092.12305 64253.35938 -12605.99707 1000
-787.31732 5738.56885 -57.27060 492
-812.53668 5879.90234 132.62598 285
-820.34473 5726.29053 -56.65858 496
-842.88397 5847.76367 35.26504 315
-830.54449 5775.78076 134.18411 423
-855.33643 5714.49658 -56.54419 497
-862.23102 5756.58154 37.29701 499
-865.43903 5769.68213 133.41838 423
-888.48743 5703.14941 -56.63952 498
-899.06818 5750.16406 37.53979 499
-901.45624 5761.27783 133.32823 423
-923.90442 5694.38184 -55.45325 498
-934.33441 5742.52588 38.43246 499
-935.84100 5754.02930 133.22691 423
-958.77893 5686.07373 -56.26546 498
-967.48975 5731.16260 38.23464 499
-971.90472 5748.13428 133.03635 423
-993.18774 5677.38818 -56.42307 498
-1002.66327 5723.20508 36.96113 499
-1006.51007 5740.71729 133.47440 423
-1029.05615 5670.53076 -56.26005 498
-1039.27454 5721.22314 38.21398 499
-1042.22498 5734.24805 133.07249 423
-1063.75391 5664.11572 -55.91793 498
-1075.15662 5714.46240 37.33701 499
-1077.37268 5727.24707 133.19981 422
-1097.67578 5656.95020 -57.18594 498
-1111.09363 5707.21924 36.49405 499
-1113.80164 5720.42578 133.14680 422
-1133.35620 5649.82422 -56.31095 498
-1146.55078 5701.35791 36.36921 499
-1148.18811 5712.94287 132.58165 423
-1168.34570 5643.97559 -56.13181 498
-1204.89233 5792.53467 132.41556 322
-1204.33252 5636.96973 -56.35930 497
-1250.51160 5818.42969 229.29013 476
-1238.58911 5630.48633 -56.43252 497
-12595.25781 49300.66797 5343.64844 1000
-1274.73914 5622.98828 -56.59793 497
-1309.99402 5615.64160 -58.22029 497
-1344.50281 5609.12012 -58.26436 497
-1379.95447 5601.37988 -57.19493 497
-1415.38074 5595.65381 -58.33818 497
-1450.77588 5587.55322 -58.19242 497
-1486.76062 5584.21143 -59.18936 455
-1518.92236 5687.41797 34.22938 479
-1552.95447 5677.92090 -64.21260 461
-1551.18701 5667.71387 33.24885 455
-1586.42383 5660.46582 33.44404 488
-1560.53284 4274.69043 -2.24678 492
-1439.74170 3383.58032 -24.55200 301
-1415.74683 3333.67847 40.26570 308
-1418.17188 3288.95923 -18.53572 310
-1394.15625 3240.95435 44.55710 309
-1400.36914 3203.48340 -13.23877 311
-1374.56519 3152.76709 48.79515 308
-1382.69165 3121.02637 -7.82674 302
-1355.61267 3067.79614 52.47147 312
-1365.11816 3040.05786 -2.59161 305
-1346.93018 3006.19360 55.45492 364
-1357.92078 2983.03662 0.58298 345
-1348.19275 2965.22461 56.60315 383
-1358.73608 2941.36499 2.44323 352
-1351.76843 2928.21558 57.91121 375
-1361.80847 2902.66284 4.66935 361
-1357.20630 2895.53833 59.19159 382
-1366.27844 2868.35645 6.26426 381
-1368.12402 2871.70093 60.32036 258
-1372.74170 2839.05225 8.21749 385
-1637.76538 3309.30566 36.14278 489
-1379.29272 2810.23462 9.41751 386
-1527.91931 3070.86475 48.23175 322
-1385.70654 2781.65527 10.81311 387
-1547.51990 3061.83154 47.85725 434
-1391.99548 2754.25903 11.97112 395
-1495.34436 2929.31055 54.75331 499
-1399.33374 2727.33716 12.86538 307
-1510.31458 2914.68262 54.98210 386
-1419.71118 2724.03467 12.45221 307
-1528.09705 2903.02759 54.77976 386
-1486.51038 2795.02466 6.21789 274
-1488.86975 2798.97534 59.90640 286
124.53824 148.74631 167.87933 489
122.63032 149.63115 167.37219 316
122.37669 150.01025 170.47636 312
121.74500 148.96944 167.36795 316
121.44669 149.35295 170.48116 312
120.85769 148.29837 167.40822 316
120.60630 148.71033 170.46925 312
119.86264 147.80917 167.35164 441
119.29519 148.64523 170.29454 440
118.52502 147.83371 167.11069 440
117.84978 148.75952 170.07150 432
117.08591 147.91095 166.88057 430
115.59010 148.02261 166.57161 429
114.28233 147.90318 166.36856 314
113.43337 147.20351 166.39908 314
112.55647 146.50313 166.37433 314
111.70007 145.82509 166.41977 314
110.15926 145.94278 166.10135 423
102.60576 155.39966 166.39214 310
108.56776 146.10226 165.79759 421
101.69292 154.59216 166.40884 310
106.97959 146.26460 165.47733 420
100.77712 153.83661 166.39668 310
105.37578 146.41960 165.16803 419
99.88809 153.03323 166.36598 310
103.74844 146.58513 164.84489 418
98.97583 152.21759 166.37500 310
102.04721 146.75208 164.51151 417
98.06232 151.45023 166.39461 310
100.38642 146.90849 164.18289 416
97.17467 150.67282 166.39783 310
98.70176 147.10989 163.83722 415
96.25632 149.86224 166.37445 309
96.98389 147.26674 163.53014 414
95.39648 149.02982 166.39882 309
95.88123 146.65314 163.44962 310
94.51328 148.25658 166.38977 309
95.09965 145.77618 163.43558 310
93.61338 147.40450 166.39502 309
94.31848 144.93990 163.46248 310
91.94468 147.50020 166.06683 422
-29176.96680 32179.39648 1690.06262 1000
93.51916 144.00024 163.49606 311
90.25659 147.56358 165.79080 421
92.72753 143.11514 163.50868 311
88.49845 147.62787 165.46490 420
80.63102 156.03125 166.29893 304
91.91924 142.22272 163.53430 311
86.75910 147.70303 165.13908 419
79.71119 155.13477 166.28291 304
91.18077 141.30023 163.58372 311
85.01620 147.74583 164.78932 418
78.75487 154.22681 166.27458 305
110.91998 119.23868 171.47182 315
83.16213 147.80566 164.47726 417
77.83489 153.29509 166.28563 305
110.24698 118.52002 171.48550 315
81.35384 147.88622 164.11882 416
76.97854 152.36369 166.27699 305
109.54832 117.78857 171.49208 315
79.54121 147.99734 163.78975 415
76.05457 151.47708 166.26204 305
108.87490 117.03625 171.46368 315
77.64261 148.03671 163.45473 414
75.13054 150.51833 166.29262 305
108.24693 116.30517 171.50557 315
76.52740 147.36778 163.34856 303
74.25850 149.61775 166.30702 305
107.57437 115.52650 171.51460 315
75.77433 146.28740 163.39897 303
73.37204 148.64490 166.25966 305
106.91907 114.75172 171.49208 315
74.98837 145.25584 163.41895 303
71.86516 148.27354 166.08852 411
106.28400 113.99995 171.50424 315
74.26028 144.20355 163.47340 303
69.91932 148.36278 165.74786 410
105.59406 113.21963 171.51105 315
73.52283 143.16174 163.52388 303
67.90167 148.41182 165.35280 409
57.86027 157.78688 166.16240 301
104.94838 112.45744 171.52107 315
96.50679 120.22906 171.57434 311
65.89091 148.50842 165.01425 407
56.89601 156.75566 166.21414 301
104.32652 111.66505 171.52180 315
95.82671 119.39018 171.61627 311
63.77621 148.54564 164.60939 406
55.98610 155.65230 166.20714 301
103.68946 110.89758 171.53835 315
95.17003 118.59629 171.59891 312
61.72500 148.66670 164.22752 405
55.06807 154.60931 166.22168 301
103.06801 110.11642 171.55737 315
94.49719 117.72266 171.58911 312
59.56457 148.73195 163.85837 404
54.20444 153.51485 166.22301 301
102.45279 109.31815 171.53580 315
93.84034 116.89137 171.60275 312
57.45210 148.80457 163.47775 403
53.29687 152.43643 166.19753 301
101.81925 108.57044 171.52419 315
93.16903 116.03634 171.61050 312
55.83955 148.39493 163.22339 300
52.36561 151.41823 166.20625 301
101.18663 107.75499 171.55348 316
92.50897 115.17775 171.60318 312
55.11059 147.20180 163.31932 300
51.45543 150.32440 166.15375 301
100.58532 106.97652 171.55319 316
91.86507 114.34912 171.62648 312
54.40325 145.96944 163.30530 300
50.54586 149.23193 166.16537 301
99.99698 106.16566 171.58054 316
91.21400 113.49055 171.61633 312
53.64438 144.77533 163.38342 300
48.44954 149.19933 165.85234 399
99.37263 105.35446 171.54559 316
90.54214 112.61704 171.65674 312
80.54145 120.89978 171.73506 308
46.11063 149.27083 165.43404 398
98.79107 104.51530 171.55353 316
89.93740 111.76434 171.66032 312
79.83982 119.97676 171.74243 308
43.72365 149.35155 165.03065 396
98.22461 103.74775 171.56265 316
89.28645 110.85957 171.66138 312
79.16026 119.04134 171.73647 308
41.29684 149.44196 164.54662 395
30.99036 157.72202 166.09575 297
97.62325 102.92365 171.58000 316
88.67711 110.03541 171.64284 312
78.52518 118.05823 171.71394 308
38.85287 149.56949 164.12923 394
30.05358 156.45351 166.03853 297
97.05796 102.08772 171.58008 316
88.03839 109.15448 171.65315 312
77.85812 117.14602 171.76794 308
36.30713 149.65114 163.71907 393
29.17113 155.26854 166.09883 297
96.47036 101.26475 171.57932 316
87.43917 108.26205 171.67787 312
77.18768 116.17132 171.76883 308
33.77793 149.74225 163.21381 391
28.23211 154.01881 166.04312 297
95.91918 100.42600 171.57678 316
86.84389 107.37976 171.66519 312
76.51689 115.26003 171.75783 308
32.66297 148.74475 163.18748 296
27.38112 152.80019 166.04459 297
95.33030 99.61140 171.59666 316
86.22928 106.50705 171.67224 312
75.89218 114.28480 171.74045 308
31.92024 147.40036 163.18202 296
26.43413 151.52983 166.06146 297
94.78931 98.78979 171.59642 316
85.62173 105.56189 171.68684 312
75.20882 113.29717 171.75838 308
63.27993 122.18580 171.86932 304
25.60724 150.29301 166.08888 297
94.20704 97.92741 171.62808 316
85.00539 104.69765 171.66463 312
74.58288 112.33304 171.76564 308
62.59797 121.14476 171.89342 304
23.18714 150.14439 165.72894 387
93.68452 97.12680 171.61641 316
84.43243 103.78838 171.71057 312
73.96191 111.42017 171.79622 308
61.94741 120.13747 171.88896 304
20.42452 150.22226 165.19293 389
93.10592 96.25306 171.63100 316
83.88382 102.89322 171.72063 312
73.32645 110.44583 171.77087 308
61.27105 119.04922 171.86349 304
17.63442 150.31895 164.77126 387
92.58514 95.40824 171.62784 316
83.31044 101.98655 171.71599 312
72.70779 109.43552 171.78300 308
60.59275 118.00631 171.87502 304
14.82331 150.37735 164.29138 386
92.06739 94.56339 171.64989 316
82.71658 101.06109 171.72937 312
72.11520 108.48093 171.81635 308
59.92091 116.93042 171.90680 304
11.92913 150.44385 163.78139 385
0.32309 158.56023 165.73932 290
91.52232 93.68266 171.62473 316
82.14196 100.15868 171.72818 312
71.46204 107.50983 171.79626 308
59.27306 115.87682 171.87164 304
8.97323 150.49956 163.35275 384
-0.64403 157.16046 165.74106 290
90.99931 92.83331 171.65594 316
81.60875 99.26275 171.71904 312
70.90381 106.51091 171.79176 308
58.64645 114.82233 171.91576 304
6.37003 150.29285 162.86900 285
-1.56621 155.73677 165.75377 291
90.48206 91.98280 171.62303 316
81.04797 98.31414 171.70459 312
70.31097 105.50156 171.81102 308
57.96951 113.76225 171.91129 304
43.72153 123.34624 172.05461 300
-2.54765 154.34021 165.70738 291
89.98321 91.13049 171.62314 316
80.46194 97.40206 171.70320 312
69.67777 104.54302 171.81403 308
57.34729 112.70659 171.88631 304
43.04826 122.20528 172.02571 300
-3.48672 152.94437 165.71536 291
89.48074 90.27193 171.66568 316
79.96483 96.46268 171.73759 312
69.11707 103.54108 171.83765 308
56.71299 111.60874 171.90958 304
42.35975 121.00353 172.03555 300
-4.40565 151.50789 165.71681 291
88.94926 89.40026 171.64409 316
79.41381 95.52448 171.73354 312
68.56793 102.53377 171.84758 308
56.08951 110.55521 171.91928 304
41.67650 119.85699 172.05728 300
-6.57951 150.93553 165.38312 378
88.48584 88.49734 171.68353 316
78.89230 94.61205 171.72797 312
67.95966 101.50907 171.84131 308
55.46336 109.46576 171.90883 304
41.02921 118.67392 172.07683 300
-9.84950 151.02399 164.86282 376
87.95587 87.61688 171.65218 316
78.32345 93.66065 171.74422 312
67.42598 100.51219 171.84921 308
54.87813 108.35683 171.92973 304
40.33110 117.48065 172.03394 300
-13.24640 151.06270 164.35182 375
87.46973 86.75391 171.66992 316
77.82529 92.73856 171.75426 312
66.84769 99.51594 171.84341 308
54.30121 107.27686 171.96089 304
39.68321 116.30221 172.09154 300
-16.73478 151.15442 163.82707 374
86.99897 85.87939 171.67374 316
77.30418 91.78867 171.77094 312
66.28397 98.49010 171.82452 308
53.65376 106.19250 171.96863 304
39.05407 115.09633 172.04967 300
-20.25135 151.26566 163.25458 372
86.54795 85.01064 171.69971 316
76.81824 90.87344 171.74432 312
65.76685 97.51115 171.87070 308
53.07823 105.07547 171.97731 304
38.43012 113.93178 172.10165 300
21.21872 124.24222 172.18593 296
-36.62693 159.09125 165.19215 286
86.08307 84.09199 171.67831 316
76.30653 89.92287 171.76740 312
65.21195 96.48129 171.87466 308
52.48878 103.97903 171.94276 304
37.78825 112.71629 172.10344 300
20.52308 122.96120 172.22614 296
-37.56987 157.42618 165.24690 286
85.58821 83.19686 171.68829 316
75.80359 88.92308 171.78445 312
64.64802 95.45557 171.84218 308
51.95538 102.89926 171.98311 304
37.16226 111.50950 172.09186 300
19.81423 121.66064 172.23907 296
-38.39817 155.75853 165.17955 286
85.15152 82.33315 171.66559 316
75.32790 88.00548 171.78595 312
64.12981 94.39462 171.86685 308
51.35789 101.77752 171.95151 304
36.54595 110.32678 172.09297 300
19.12515 120.37643 172.23511 296
-39.28150 154.07225 165.18695 286
84.69743 81.42979 171.67564 316
74.82144 87.03043 171.79759 312
63.62589 93.39835 171.84891 308
50.76949 100.66003 171.99348 304
35.90950 109.11203 172.08394 300
18.52236 119.04552 172.23816 296
-40.18678 152.43216 165.18915 287
84.21846 80.50694 171.68866 316
74.32535 86.08755 171.80180 312
63.09015 92.34916 171.89406 308
50.20828 99.57056 171.97641 304
35.30961 107.90208 172.09044 300
17.81740 117.70670 172.21825 296
-43.05409 151.79018 164.82312 365
83.81101 79.62184 171.69496 316
73.88770 85.08376 171.75914 312
62.60593 91.29908 171.87331 308
49.72076 98.43832 172.00801 304
34.73699 106.71829 172.12349 300
17.22480 116.37941 172.22597 296
-47.19442 151.94879 164.28520 363
83.34599 78.72143 171.71034 316
73.39033 84.10950 171.76483 312
62.09557 90.28170 171.88441 308
49.16415 97.33270 172.01498 304
34.49196 105.30766 172.16396 273
16.54244 115.07215 172.26436 296
-51.09250 151.86024 163.71602 372
82.90508 77.80709 171.71964 316
72.92211 83.17047 171.79752 312
61.57824 89.22812 171.89554 308
48.60843 96.19753 172.00421 304
39.19681 101.27112 173.35219 321
26.78904 107.90358 174.51036 272
-5.11308 125.00868 172.46468 292
-50757.53516 27329.90234 6896.69336 1000
-50264.55469 27062.60352 10666.01270 1000
82.50732 76.90582 171.70834 316
72.46003 82.19756 171.80368 312
61.11507 88.19154 171.90041 308
48.09184 95.11778 171.98154 304
41.80858 98.40699 174.12254 322
35.83111 101.56352 176.45406 320
19.57309 110.12521 177.17308 274
82.07279 75.98447 171.73401 316
72.00680 81.21533 171.78366 312
60.61375 87.16330 171.87511 308
50.07318 92.65685 172.60847 324
44.35394 95.62992 174.78503 322
38.50756 98.62978 177.17844 321
29.91640 103.09333 179.23145 275
12.55994 112.18930 180.11307 288
81.64828 75.09882 171.71904 316
71.58895 80.22106 171.81972 312
60.14051 86.08496 171.89493 308
52.36872 90.08698 173.30643 325
46.81624 92.96111 175.46988 323
41.18082 95.82254 177.78362 322
33.21759 99.92686 179.90756 292
11.95124 110.83041 180.10129 288
81.24619 74.16035 171.70860 316
71.13249 79.27663 171.80602 312
59.67003 85.04079 171.90395 329
54.58588 87.59863 173.96776 327
49.21622 90.32793 176.12529 325
43.69641 93.10664 178.42642 324
32.68207 98.67075 179.94153 292
11.35667 109.42989 180.08012 288
80.83994 73.24226 171.74242 316
70.70264 78.25974 171.80482 312
61.37475 82.92467 172.47542 386
56.74026 85.20517 174.59277 328
51.50447 87.81397 176.76259 326
46.17918 90.45934 179.03629 325
32.13342 97.45235 179.90433 292
10.77443 108.08614 180.11400 288
-15.68392 121.22217 180.33978 284
80.45980 72.31806 171.73097 316
70.28538 77.30818 171.80132 312
62.10648 81.32353 172.77612 387
58.84414 82.86345 175.21242 329
53.75816 85.36073 177.37711 327
48.56857 87.93023 179.63382 326
31.62663 96.21082 179.90018 292
1.82435 110.81992 178.76070 289
-16.32291 119.68664 180.29599 284
80.03036 71.39109 171.72818 316
69.84870 76.30040 171.81322 312
62.84172 79.69394 173.06880 388
59.75771 81.14043 175.55336 386
55.97252 83.00511 177.94321 328
48.82128 86.41491 179.80367 296
31.07427 94.97552 179.93001 292
-7.73958 113.69659 177.27518 288
-16.97009 118.10902 180.36316 284
79.65926 70.44803 171.72873 316
69.45373 75.33755 171.82465 312
63.62607 78.09371 173.37917 376
60.51857 79.54192 175.85838 387
57.40469 81.02141 178.37975 385
48.34148 85.31039 179.80659 296
11.66984 102.68398 176.49669 286
-15.29083 115.51177 176.11591 344
-17.60587 116.62755 180.34486 284
79.27673 69.51823 171.75909 316
69.04521 74.34388 171.83945 312
64.35874 76.50822 173.68723 377
61.28409 77.91428 176.12624 388
58.23125 79.36795 178.62244 386
47.92074 84.18632 179.80475 296
18.16754 98.03167 177.79022 287
3.32493 104.97511 179.26616 284
-19.73277 115.76016 180.12440 343
78.87537 68.61045 171.76030 316
68.74265 73.25390 171.83798 380
65.14356 74.95018 173.99637 378
62.04598 76.35213 176.38539 389
58.97559 77.72425 178.90398 387
47.45887 83.03243 179.81741 296
22.77158 94.37106 178.72510 316
10.35123 100.08842 180.53824 286
-24.23928 115.94392 179.55331 341
78.55314 67.67106 171.76254 316
69.42972 71.79585 172.17796 381
65.87209 73.39197 174.32474 379
62.76375 74.81194 176.69171 390
59.74884 76.15612 179.17661 388
47.04176 81.90395 179.82396 296
25.48667 91.65374 179.32355 333
16.90127 95.48749 181.67847 287
2.09940 102.21227 183.48158 285
78.16721 66.75133 171.74712 316
70.12068 70.30401 172.47977 382
66.59528 71.87532 174.60225 380
63.48699 73.28841 176.94984 391
60.50223 74.54766 179.43922 389
33.80157 86.46503 177.23184 336
27.58011 89.20078 179.76169 334
20.41764 92.41412 182.35583 316
9.12362 97.43291 184.53429 286
77.82019 65.79800 171.74068 316
70.82991 68.85062 172.74603 383
67.36759 70.36576 174.91519 381
64.20496 71.76664 177.19945 392
61.25940 73.02557 179.66701 390
35.72715 84.21432 177.75002 337
29.68748 86.81461 180.24635 335
23.29876 89.60928 182.90019 332
14.92071 93.27357 185.46826 315
0.88996 99.42894 187.63882 285
-2603.87231 1238.11780 65.09227 480
-2603.07788 1238.14966 116.02374 481
-2602.65942 1237.55823 166.44029 440
-2603.88184 1238.35986 217.36722 309
77.46585 64.84178 171.75665 316
71.49531 67.38292 173.06004 384
68.07143 68.86062 175.19749 382
64.90456 70.26510 177.45020 393
60.91486 71.95988 179.66183 300
37.63344 81.95139 178.23302 338
31.73236 84.50664 180.71968 336
25.51744 87.18843 183.31744 334
18.04893 90.38488 185.95360 316
8.01748 94.69038 188.55237 286
77.08646 63.90158 171.75676 316
72.16601 66.00188 173.34250 385
68.79633 67.41216 175.47165 383
65.56911 68.75529 177.73763 394
60.54362 70.92214 179.71037 300
39.44646 79.81553 178.68230 340
33.69084 82.22990 181.12198 337
27.63070 84.78387 183.71927 335
21.04676 87.56580 186.48546 317
12.50245 91.20393 189.20470 314
-0.20225 96.59480 191.73485 285
-1987.96960 936.73413 138.22525 337
-1985.02893 935.11047 177.63647 405
-1983.16919 934.65387 217.06154 458
-1981.39575 933.82770 256.56891 490
76.75845 62.98415 171.75383 316
72.84952 64.56673 173.61336 386
69.47486 65.99715 175.70071 384
66.27534 67.30494 177.98090 395
60.15673 69.86274 179.69508 300
41.28261 77.67088 179.12000 341
35.64031 80.00880 181.57675 338
29.72708 82.50486 184.16739 336
23.40035 85.12941 186.90181 333
15.67338 88.31417 189.65376 315
6.77753 92.02761 192.52155 313
-15.60279 101.28210 194.57764 266
76.73412 61.91286 171.86772 389
73.48386 63.21767 173.89305 387
70.18409 64.55878 175.99773 385
66.94286 65.84886 178.20226 396
59.76556 68.77438 179.68127 300
42.30129 75.96991 179.40399 374
37.51173 77.87810 181.97728 339
31.73012 80.28349 184.55408 337
25.59335 82.77084 187.24191 335
18.78581 85.52325 190.06892 317
10.15983 89.04966 192.96089 314
-1.28165 93.70489 195.87796 285
77.32333 60.57786 172.13692 419
74.18857 61.84729 174.14073 388
70.87457 63.13119 176.26404 385
67.64466 64.43391 178.48277 397
59.43541 67.74832 179.72531 300
43.24900 74.23659 179.65932 375
38.91644 75.96184 182.31409 372
33.71204 78.08444 184.94589 338
27.65784 80.47502 187.65227 336
21.34251 83.01073 190.43999 333
13.34510 86.20261 193.37833 315
4.33437 89.81327 196.45082 313
-16.16233 98.00184 199.00063 266
77.61961 59.39547 172.29729 420
74.82925 60.51359 174.41330 389
71.55921 61.78130 176.52115 386
68.30729 63.04581 178.69246 398
59.06199 66.67355 179.72055 300
44.12489 72.60619 179.93321 386
39.87612 74.22116 182.56609 373
35.40803 75.99731 185.26006 371
29.72750 78.25121 187.96080 337
23.55722 80.69614 190.82806 334
16.47947 83.42712 193.71869 316
7.71448 86.90799 196.74635 314
-2.24170 90.81515 199.98340 285
77.91935 58.22569 172.49619 421
75.21692 59.21492 174.62221 418
72.22356 60.38700 176.79167 387
68.94363 61.64531 178.91206 399
58.68827 65.61993 179.73361 300
44.86098 70.96648 180.15726 387
40.83060 72.53499 182.80476 374
36.45162 74.24007 185.51350 372
31.72999 76.05348 188.30174 338
25.71589 78.38470 191.11478 335
19.29709 80.86705 194.05266 333
11.01846 84.06007 197.08691 315
1.86747 87.59776 200.33652 312
-18.89207 95.61180 203.26743 255
-1343.06250 608.14355 161.69235 494
-1344.41882 608.19592 189.04303 498
-1345.52051 609.01904 216.57086 498
-1347.43896 609.40967 244.43118 477
-1348.98523 610.07867 272.26849 477
78.18306 57.03161 172.65619 423
75.51717 58.03827 174.78838 419
72.83247 59.07113 176.98540 417
69.61481 60.28641 179.17511 400
58.37436 64.56966 179.68835 300
45.62333 69.40887 180.35803 388
41.83423 70.86833 183.05548 386
37.47009 72.48279 185.74828 373
32.94796 74.19551 188.53345 370
27.81235 76.16822 191.44363 336
21.51732 78.58030 194.35112 334
14.22320 81.29000 197.39433 316
5.36400 84.67117 200.60072 314
-4.24857 88.36407 204.06940 311
78.46042 55.87535 172.84888 424
75.83255 56.88145 174.94788 420
73.10939 57.89337 177.15723 418
70.28978 58.91053 179.39738 387
50.03826 66.50159 178.03510 391
46.39975 67.82566 180.60951 389
42.63339 69.25493 183.25432 387
38.49593 70.79595 185.94780 373
33.99761 72.47133 188.73561 371
29.33648 74.19859 191.66196 368
23.71474 76.30430 194.66966 335
17.20022 78.72466 197.69089 333
8.70399 81.87352 200.88345 315
-0.60276 85.33053 204.25999 312
78.78236 54.74344 172.98161 424
76.15411 55.68988 175.14622 421
73.43318 56.68294 177.30225 418
70.65321 57.70106 179.55061 416
50.73077 64.97000 178.24802 392
47.12488 66.27594 180.81876 390
43.41016 67.64958 183.43015 388
39.46886 69.07396 186.18669 374
35.05773 70.73048 188.93265 372
30.46589 72.39074 191.83476 369
25.64439 74.16056 194.88876 367
19.48952 76.37265 197.97025 334
11.93486 79.16099 201.16162 316
2.97335 82.42791 204.47250 313
79.06540 53.59818 173.15814 425
76.44450 54.52446 175.27756 421
73.76284 55.47265 177.48013 419
70.61221 56.60034 179.58702 304
51.47961 63.48170 178.48167 393
47.85966 64.79211 181.03047 391
44.19917 66.09003 183.62105 388
40.33015 67.46304 186.37672 386
36.10102 69.00616 189.15797 373
31.53640 70.65427 192.01297 370
26.76312 72.34643 195.06203 368
21.70270 74.17378 198.20375 335
15.07642 76.53653 201.39732 317
6.36873 79.66187 204.71677 314
79.34268 52.45576 173.33130 426
76.76738 53.36806 175.43523 422
74.09209 54.32882 177.62796 420
70.28470 55.64090 179.59093 304
52.15912 62.02667 178.68733 394
48.62243 63.27855 181.21577 392
