# .PCD v.7 - Point Cloud Data file format
VERSION .7
FIELDS x y z rgb
SIZE 4 4 4 4
TYPE F F F U
COUNT 1 1 1 1
WIDTH 1382
HEIGHT 1
VIEWPOINT 4296.104004 -4100.823730 137.146423 0.001297 -0.117719 -0.009217 0.993003
POINTS 1382
DATA ascii
32.26022 -49.87608 203.81361 397
28.56422 -50.84602 206.80618 394
-188.39883 -108.03415 202.49049 483
80.48647 -38.17704 177.80739 432
77.64418 -38.94025 179.57043 312
62.24211 -43.06447 178.38872 427
59.68154 -43.76370 180.64139 425
57.02605 -44.48527 182.91731 423
54.29156 -45.21566 185.28014 421
51.46526 -45.99438 187.69888 411
48.41478 -46.79797 190.12796 409
45.26594 -47.61583 192.67239 406
42.04322 -48.51387 195.30971 404
38.65909 -49.42334 198.02022 401
35.23120 -50.32556 200.83640 398
31.61755 -51.29019 203.73114 396
27.88167 -52.27663 206.76073 382
-188.04922 -110.59464 202.54552 495
80.26507 -39.15964 177.67029 432
77.84657 -39.82936 179.57278 312
61.93245 -44.21725 178.24762 427
59.33177 -44.91711 180.51494 424
56.63835 -45.66899 182.77766 422
53.89326 -46.39935 185.14279 420
50.98524 -47.22087 187.54535 410
47.89462 -48.09354 190.02312 408
44.75942 -48.94482 192.58440 405
41.49328 -49.84980 195.20570 403
38.13077 -50.77580 197.93983 400
34.63875 -51.73425 200.74408 398
30.98297 -52.71928 203.66344 384
26.99936 -53.78901 206.68411 370
-187.50635 -113.09804 202.49442 495
80.00017 -40.17007 177.52448 431
77.69648 -40.78630 179.47446 429
61.55309 -45.37742 178.11176 426
58.95177 -46.09079 180.35776 424
56.28862 -46.86329 182.67172 421
53.47713 -47.62675 185.03380 412
50.48302 -48.49615 187.42339 410
47.41892 -49.34000 189.90195 407
44.22336 -50.26892 192.47955 405
40.93955 -51.16591 195.09663 402
37.53571 -52.12543 197.82297 400
34.00407 -53.13306 200.64558 386
30.13685 -54.20098 203.57973 383
25.91413 -55.39981 206.59207 370
79.75124 -41.18166 177.35661 431
77.40310 -41.85002 179.32727 428
61.24374 -46.51050 177.96797 425
58.59887 -47.26017 180.21422 423
55.91336 -48.04467 182.50572 421
53.03861 -48.87580 184.87222 411
50.01712 -49.75106 187.28918 409
46.88869 -50.66251 189.76132 406
43.66743 -51.58244 192.35371 404
40.37984 -52.54285 194.99365 401
36.94900 -53.51150 197.72382 387
33.14771 -54.59052 200.54547 385
29.23256 -55.75065 203.52196 382
24.82530 -57.01917 206.52570 369
79.49958 -42.16139 177.22189 430
77.12295 -42.86165 179.16124 428
68.50041 -45.44518 179.67258 308
58.24519 -48.45444 180.05617 422
55.50274 -49.26847 182.35544 413
52.53767 -50.15660 184.71172 411
49.49902 -51.04086 187.12749 408
46.38817 -51.95819 189.64479 406
43.14861 -52.93567 192.24442 403
39.77316 -53.89252 194.88792 389
36.13724 -54.98481 197.64424 386
32.30909 -56.08434 200.44937 384
28.23948 -57.32854 203.39468 370
23.71895 -58.61824 206.46729 368
79.22665 -43.18959 177.08162 429
76.86765 -43.91233 179.01718 427
68.73808 -46.37083 179.66994 308
57.87206 -49.65723 179.92027 422
55.07819 -50.51152 182.21109 412
52.10076 -51.40938 184.56496 410
49.03193 -52.31523 186.99149 407
45.88291 -53.29137 189.50616 405
42.60742 -54.25033 192.08591 391
39.04321 -55.36834 194.74290 388
35.31470 -56.48594 197.51572 386
31.49472 -57.63443 200.36493 383
27.17567 -58.94363 203.32626 370
22.56770 -60.31223 206.35307 367
78.95561 -44.23475 176.91202 429
76.60088 -44.95175 178.88756 426
69.02239 -47.31025 179.62589 308
57.51385 -50.88488 179.74852 421
54.62854 -51.75241 182.06081 411
51.60605 -52.70061 184.44295 409
48.51347 -53.65711 186.85188 407
45.31639 -54.61233 189.36902 392
41.86375 -55.69762 191.97018 390
38.23074 -56.82214 194.62178 387
34.49946 -57.95290 197.36974 385
30.52430 -59.18324 200.26659 371
26.08780 -60.53933 203.22533 369
21.42818 -62.00999 206.30070 366
78.69353 -45.27450 176.76831 428
76.34161 -46.00576 178.72807 426
69.32725 -48.23449 179.66261 308
57.07687 -52.11893 179.56273 413
54.14428 -53.03365 181.88135 411
51.14370 -53.96017 184.26776 408
48.05025 -54.95848 186.70235 394
44.62816 -56.04395 189.21712 391
41.12036 -57.11655 191.80881 389
37.45251 -58.27567 194.48372 386
33.65210 -59.48560 197.26933 384
29.50042 -60.77538 200.10919 370
24.98274 -62.19932 203.10255 368
20.24574 -63.71295 206.23595 365
78.42714 -46.32510 176.61754 427
76.07788 -47.05833 178.58293 425
69.62446 -49.14466 179.64767 308
56.65443 -53.32929 179.38963 412
53.69962 -54.29026 181.73541 410
50.63679 -55.27753 184.12834 395
47.35013 -56.32919 186.51413 393
43.92505 -57.46743 189.02750 390
40.36631 -58.60614 191.63231 388
36.68098 -59.76593 194.32881 386
32.81677 -61.03064 197.11899 372
28.43861 -62.45148 199.96362 370
23.85981 -63.87885 202.97682 367
19.08811 -65.45005 206.15471 364
78.18385 -47.35350 176.45824 426
75.78654 -48.14608 178.43436 424
69.92328 -50.07681 179.64659 308
56.24283 -54.58006 179.25555 412
53.24668 -55.55393 181.56145 397
49.99176 -56.65244 183.93073 394
46.64769 -57.75024 186.33347 392
43.15565 -58.89910 188.88048 390
39.55990 -60.06300 191.48412 387
35.84606 -61.28788 194.17343 385
31.76572 -62.62311 196.97879 371
27.35829 -64.09034 199.86227 369
22.72292 -65.61971 202.89851 366
17.85651 -67.19510 206.06407 363
77.91142 -48.41465 176.32323 426
75.50896 -49.20978 178.27359 424
70.23543 -50.99483 179.64207 308
55.76564 -55.88244 179.04248 411
52.62803 -56.93531 181.33250 396
49.35561 -58.02044 183.72717 394
45.92089 -59.17946 186.15352 391
42.41562 -60.35881 188.71486 389
38.79945 -61.53971 191.32675 386
35.04199 -62.82486 194.05879 384
30.74377 -64.24548 196.80470 370
26.23706 -65.78372 199.71562 368
21.57809 -67.33148 202.75989 365
16.61802 -69.01221 205.94711 362
77.66866 -49.46695 176.17087 425
75.24459 -50.29743 178.13710 423
70.52926 -51.90893 179.62599 308
55.15205 -57.19286 178.81053 397
51.99229 -58.32617 181.12561 395
48.66054 -59.43157 183.51701 393
45.25339 -60.62844 185.96660 390
41.68905 -61.81731 188.53839 388
38.03287 -63.07505 191.18190 385
34.05528 -64.41026 193.88283 372
29.72376 -65.92104 196.64778 369
25.15429 -67.46030 199.59151 367
20.38955 -69.08523 202.68193 364
15.40644 -70.80283 205.89223 361
77.39977 -50.55623 175.98639 424
74.97604 -51.41408 177.98944 422
70.85719 -52.81616 179.62595 308
54.53397 -58.56539 178.63319 397
51.30769 -59.70390 180.93640 394
47.98728 -60.86248 183.31848 392
44.53433 -62.08372 185.76646 389
40.93399 -63.29494 188.34512 387
37.22718 -64.58222 190.98640 385
33.05010 -66.05669 193.69939 371
28.62547 -67.59373 196.53453 368
24.04457 -69.23978 199.47534 366
19.18681 -70.87968 202.53313 363
14.04926 -72.69701 205.77747 331
77.14367 -51.63857 175.84000 424
74.68179 -52.50827 177.81079 421
71.17295 -53.74035 179.63654 308
53.93763 -59.90636 178.36221 396
50.65699 -61.07134 180.72409 393
47.29073 -62.30977 183.10603 391
43.79176 -63.52601 185.59973 389
40.19648 -64.83121 188.17162 386
36.32639 -66.21880 190.81245 373
32.04041 -67.74341 193.53957 370
27.57371 -69.33923 196.38588 368
22.90969 -70.97750 199.34534 365
18.01202 -72.73698 202.40431 362
11.21775 -75.16254 205.60519 314
76.89134 -52.71457 175.64215 423
74.42042 -53.61079 177.64783 421
71.52956 -54.68629 179.62592 308
53.32310 -61.32207 178.16803 395
49.99165 -62.53138 180.48616 392
46.56884 -63.75398 182.90657 390
43.05337 -65.04502 185.38608 388
39.42807 -66.34473 187.99127 385
35.36385 -67.83045 190.60498 372
31.03798 -69.39681 193.32248 369
26.47010 -71.05800 196.17867 367
21.70702 -72.79872 199.20059 364
16.03017 -74.85674 202.27621 331
7.94592 -77.80530 205.41151 313
76.60448 -53.84642 175.46385 422
74.11636 -54.75513 177.48753 420
71.57282 -55.68404 179.54111 418
52.69769 -62.70401 177.91911 394
49.32074 -63.94387 180.27043 392
45.91621 -65.21230 182.68069 389
42.30921 -66.55338 185.16383 387
38.61636 -67.90229 187.78891 373
34.38763 -69.51256 190.43503 371
29.96642 -71.08700 193.15118 368
25.38216 -72.84664 196.05942 366
20.12844 -74.72119 198.97704 333
13.30251 -77.27029 202.05942 315
4.66385 -80.52159 205.17802 312
76.33514 -54.92355 175.32790 422
73.86480 -55.87547 177.32831 419
71.27616 -56.83115 179.40849 417
60.84283 -60.78672 179.70398 304
48.68663 -65.40607 180.02710 391
45.19769 -66.69550 182.46606 388
41.56782 -68.06528 184.99831 386
37.61792 -69.55954 187.54677 372
33.37973 -71.17198 190.23282 370
28.89427 -72.82634 192.99281 367
24.17205 -74.63408 195.88474 334
17.93494 -76.95947 198.78708 332
10.18467 -79.92352 201.77980 313
1.18856 -83.32919 204.99478 311
76.10323 -56.04457 175.14088 421
73.57066 -57.01987 177.13673 419
70.96196 -58.01317 179.23540 416
61.20454 -61.78225 179.72023 304
47.98920 -66.89469 179.78494 390
44.46626 -68.20213 182.21330 387
40.82123 -69.61178 184.74577 385
36.66383 -71.20151 187.30568 372
32.32876 -72.85770 190.01886 369
27.79214 -74.61968 192.80907 366
22.07569 -76.84274 195.59709 333
15.46295 -79.37317 198.48189 315
6.89980 -82.67698 201.50919 312
-2.44251 -86.27330 204.75587 310
75.81517 -57.15475 174.96509 420
73.30019 -58.17313 176.96036 418
70.66951 -59.19030 179.04617 387
61.59488 -62.74280 179.70200 304
47.27878 -68.34475 179.54996 389
43.72531 -69.77885 182.01634 387
39.93342 -71.22182 184.51083 373
35.71709 -72.87617 187.11067 371
31.32834 -74.59766 189.76482 368
26.02284 -76.69022 192.52811 334
19.90117 -79.06946 195.32713 332
12.31948 -82.06831 198.16425 314
3.44537 -85.51215 201.21909 311
-6.63012 -89.48583 204.49080 265
75.53143 -58.29164 174.75209 419
73.01364 -59.31720 176.82339 417
69.99845 -60.53221 178.82376 386
62.00536 -63.71194 179.71590 304
46.61188 -69.87151 179.29066 388
43.02275 -71.28817 181.78644 386
39.00025 -72.88651 184.26773 372
34.73772 -74.58084 186.88315 370
29.88853 -76.51328 189.52766 336
23.93515 -78.86073 192.18987 333
17.58203 -81.44396 195.00870 315
9.12572 -84.83940 197.86034 313
-0.03042 -88.47353 200.92778 310
75.26715 -59.46143 174.59937 419
72.47218 -60.58665 176.57739 387
69.36193 -61.82908 178.52991 385
62.35231 -64.67382 179.68381 304
45.87261 -71.40442 179.07538 387
42.19617 -72.87560 181.54808 374
38.05693 -74.59098 184.02319 371
33.66119 -76.34544 186.60364 337
27.95065 -78.69103 189.17871 335
21.82767 -81.17188 191.87070 332
14.52911 -84.14660 194.59334 314
5.79527 -87.66135 197.53238 311
-6.48310 -92.69552 200.41460 265
74.91222 -60.65760 174.36893 388
71.84786 -61.88210 176.28401 386
68.71112 -63.20640 178.29927 384
62.78395 -65.68483 179.70168 304
45.18359 -72.94817 178.79784 386
41.24979 -74.54573 181.26070 373
37.04853 -76.26415 183.74828 370
31.74838 -78.47603 186.21684 336
25.86805 -80.91276 188.82986 334
19.66084 -83.48847 191.54312 331
11.37578 -86.93110 194.20798 313
2.30406 -90.67707 197.13460 310
74.32008 -61.93632 174.09785 387
71.24044 -63.25034 176.04002 385
68.09222 -64.58078 178.03214 396
63.14891 -66.61053 179.68314 304
44.44650 -74.52408 178.58852 374
40.37750 -76.25018 180.99928 372
35.53170 -78.25550 183.41252 337
29.80478 -80.64310 185.86258 335
23.77093 -83.22263 188.41869 332
16.70169 -86.14531 191.09496 314
8.09465 -89.76942 193.78285 312
-6.23881 -95.84332 196.35655 265
73.74938 -63.27322 173.81889 387
70.60062 -64.58346 175.74457 384
67.45650 -65.94002 177.74338 395
63.57857 -67.59734 179.71574 304
43.58338 -76.16243 178.25481 373
39.14454 -78.07088 180.64413 339
33.66686 -80.41174 182.99243 336
27.79506 -82.87943 185.45184 334
21.63970 -85.51338 188.03928 331
13.59713 -88.95492 190.60806 313
3.74888 -93.19547 193.29854 284
73.13457 -64.58088 173.52740 386
69.98899 -65.97875 175.47426 383
66.79803 -67.31698 177.51054 394
63.97356 -68.55651 179.68634 304
42.68366 -77.84207 177.95935 372
37.40365 -80.16624 180.18742 337
31.73777 -82.57738 182.55429 335
25.75009 -85.21481 185.04114 333
18.92592 -88.16624 187.55070 314
10.38409 -91.86255 190.14868 312
-5.90775 -98.98655 192.19955 265
72.50005 -65.95051 173.20744 385
69.29743 -67.33852 175.17259 382
66.17969 -68.74969 177.21985 393
63.49492 -69.90570 179.49190 391
51.55180 -75.22849 179.78070 300
35.55313 -82.28991 179.73207 336
29.75039 -84.86042 182.11348 334
23.64582 -87.57539 184.58241 332
15.87080 -90.97125 187.03094 313
4.69830 -95.94007 189.35744 284
71.89108 -67.31231 172.90536 384
68.65285 -68.77177 174.86624 381
65.55584 -70.14929 176.93567 392
62.79324 -71.39715 179.23102 390
51.98590 -76.25887 179.78018 300
33.70179 -84.48096 179.26668 335
27.79170 -87.16672 181.62292 333
21.16148 -90.12313 184.12614 315
12.61644 -93.98138 186.52715 285
-5.33476 -102.03332 187.99423 265
71.28413 -68.70769 172.61716 383
67.99908 -70.16824 174.53864 380
64.89227 -71.63569 176.68259 391
62.12577 -72.86680 178.95992 389
52.45092 -77.26411 179.79716 300
31.75061 -86.79319 178.75169 334
25.72248 -89.53851 181.14716 332
18.18558 -92.99718 183.50688 313
5.78893 -98.63206 185.42441 283
70.63934 -70.09208 172.29871 382
67.33210 -71.62339 174.24435 380
64.20693 -73.09465 176.37877 390
61.40675 -74.39539 178.63989 388
52.91116 -78.31548 179.79213 300
29.76989 -89.11092 178.27081 333
23.40235 -92.02519 180.63124 315
13.70870 -96.55573 182.70740 285
-4.63820 -105.08379 183.82057 265
69.99462 -71.54709 171.95500 381
66.65969 -73.11753 173.94839 379
63.55278 -74.58062 176.07593 389
60.71476 -75.87726 178.40942 387
53.42179 -79.36939 179.77722 300
27.79169 -91.48457 177.75151 332
20.51294 -94.87454 180.01147 314
6.92924 -101.31094 181.50453 283
-26.99632 -117.31594 180.44675 284
70.05640 -72.62249 171.83992 316
65.95973 -74.59578 173.64635 378
62.86626 -76.09487 175.78828 388
59.98794 -77.43939 178.10147 386
53.89216 -80.40046 179.79395 300
25.66198 -93.93742 177.23067 331
14.93305 -99.13258 178.85542 285
-19.97303 -115.86934 176.93463 345
-26.30542 -118.85538 180.43199 284
70.51591 -73.57208 171.83730 316
65.26637 -76.07855 173.29549 377
62.17316 -77.62224 175.50743 387
59.28950 -79.01775 177.79045 385
54.34789 -81.42721 179.78268 300
39.54910 -88.60537 179.89731 296
8.15240 -103.95505 177.50232 283
-15.79944 -115.63258 177.51376 347
-25.57072 -120.44068 180.44940 284
70.91644 -74.46210 171.85315 316
64.54858 -77.61920 172.97894 376
61.49927 -79.16177 175.16861 386
58.55775 -80.59013 177.52835 384
54.85525 -82.43710 179.79053 300
40.09808 -89.74474 179.92334 296
-9.56042 -114.38391 174.11116 291
-9.63542 -114.38005 178.43434 291
-28433.99609 -14185.00293 5488.13916 1000
71.40448 -75.40955 171.84975 316
63.83584 -79.17503 172.64343 375
60.78798 -80.75187 174.85591 385
57.79770 -82.24393 177.21794 383
52.93177 -84.68326 179.23317 326
40.62389 -90.83433 179.88402 296
-0.81114 -111.68591 175.62915 292
-0.87539 -111.72218 179.75896 292
71.83622 -76.32832 171.83336 316
63.13021 -80.76263 172.30708 374
60.07845 -82.33028 174.53198 384
55.79730 -84.52547 176.60295 326
50.71652 -87.07226 178.62004 325
41.18640 -91.94370 179.87656 296
23.69370 -100.89921 180.01569 292
2.62282 -111.69486 180.18449 288
72.31726 -77.20791 171.82031 316
62.41779 -82.38255 171.92270 373
58.60411 -84.33760 174.05083 326
53.63802 -86.88442 175.96928 324
48.46085 -89.56281 177.98271 323
41.70751 -93.06026 179.86505 296
24.31223 -102.07449 180.05859 292
3.28737 -112.98382 180.18184 288
72.79737 -78.12749 171.83235 316
62.78679 -83.38718 171.93021 312
56.55610 -86.65855 173.33594 325
51.43702 -89.39587 175.28241 323
46.10006 -92.16971 177.34119 322
40.58967 -95.07840 179.53915 320
24.94962 -103.31197 180.00749 292
3.92108 -114.34430 180.22678 288
73.26875 -79.05230 171.81119 316
63.31469 -84.35509 171.90654 312
54.40928 -89.12214 172.66306 324
49.11483 -91.93745 174.56960 322
43.62696 -94.85713 176.63733 321
37.95154 -97.89223 178.84178 319
25.52477 -104.49818 180.00021 292
4.63557 -115.71149 180.21767 288
73.75241 -79.93407 171.80974 316
63.82317 -85.30759 171.92068 312
52.59228 -91.43431 171.99791 308
46.76590 -94.54032 173.82892 321
41.13676 -97.63751 175.94125 320
35.26371 -100.81693 178.19839 318
19.77319 -109.19700 178.79160 271
74.23264 -80.85879 171.81332 316
64.34734 -86.27927 171.92261 312
53.15733 -92.46297 171.98973 308
44.31923 -97.28687 173.09912 320
38.50959 -100.47712 175.22058 318
26.46865 -107.11375 176.20947 270
-54.85882 -151.86227 164.60585 373
74.72134 -81.76556 171.79247 316
64.85016 -87.24152 171.91023 312
53.69424 -93.46211 172.00975 308
41.80447 -100.13636 172.32872 318
34.41441 -104.23074 174.16583 271
13.90557 -115.71402 173.49397 269
-51.00900 -151.95943 165.17740 374
75.23690 -82.65912 171.80348 316
65.38860 -88.17714 171.89996 312
54.27495 -94.52995 172.00871 308
41.49338 -101.76499 172.09698 304
26.73004 -110.08685 172.20222 300
9.41271 -119.93893 172.39378 296
-50.08162 -153.59041 165.19054 288
75.70292 -83.51157 171.82402 316
65.91837 -89.15751 171.89073 312
54.80797 -95.50777 171.99286 308
42.07776 -102.85569 172.07130 304
27.36569 -111.32289 172.19292 300
10.09803 -121.24811 172.34079 296
-49.11687 -155.25107 165.12227 288
76.23995 -84.42000 171.82408 316
66.44862 -90.09155 171.88277 312
55.42353 -96.55497 171.98132 308
42.71779 -103.96759 172.11003 304
28.04140 -112.51866 172.22969 300
10.80550 -122.54874 172.33421 296
-48.27442 -156.93198 165.10127 288
76.72118 -85.31816 171.81339 316
67.02869 -91.07156 171.89728 312
56.00187 -97.56904 171.95869 308
43.34792 -105.02271 172.07430 304
28.70397 -113.65288 172.21863 300
11.54503 -123.80687 172.36481 296
-47.32426 -158.59843 165.10800 286
204.69493 -9.61060 216.16792 1000
77.25542 -86.17371 171.81642 316
67.57188 -92.01460 171.86903 312
56.55852 -98.56480 171.95230 308
43.98122 -106.13223 172.05724 304
29.38296 -114.88898 172.23129 300
12.29418 -125.07523 172.32420 296
-46.38223 -160.24493 165.12700 286
77.79597 -87.07922 171.79810 316
68.14065 -92.94307 171.88293 312
57.17555 -99.60049 171.94200 308
44.63896 -107.20389 172.07988 304
30.08638 -116.01913 172.18147 300
-28.32382 -151.53426 163.50145 372
78.28323 -87.96176 171.80965 316
68.68076 -93.86034 171.88739 312
57.78165 -100.57609 171.94760 308
45.26628 -108.28884 172.05370 304
30.81586 -117.22599 172.21707 300
-24.82283 -151.51857 164.09833 374
78.82644 -88.83767 171.76859 316
69.25505 -94.81782 171.87897 312
58.36689 -101.59992 171.97659 308
45.93873 -109.38433 172.07942 304
31.47066 -118.40945 172.15872 300
-21.35007 -151.41823 164.64624 375
79.35638 -89.69505 171.78134 316
69.81200 -95.72219 171.84521 312
59.01565 -102.58666 171.93170 308
46.57295 -110.43430 172.04547 304
32.18722 -119.56123 172.14716 300
-17.98443 -151.34796 165.15985 376
79.92123 -90.57488 171.75797 316
70.39494 -96.68913 171.86989 312
59.60553 -103.57822 171.97055 308
47.26059 -111.52755 172.02251 304
32.89268 -120.75213 172.15851 300
-14.77789 -151.33806 165.65718 291
80.49422 -91.44299 171.76495 316
71.01516 -97.61316 171.86395 312
60.25995 -104.59605 171.96124 308
47.93036 -112.57369 172.06175 304
33.67101 -121.88683 172.18665 300
-13.80402 -152.72952 165.63589 291
81.03294 -92.28745 171.75722 316
71.59233 -98.52914 171.85918 312
60.88581 -105.57125 171.94101 308
48.57078 -113.64607 172.06389 304
34.35439 -123.05022 172.14406 300
-12.75704 -154.15533 165.69501 291
81.58974 -93.13816 171.74977 316
72.17445 -99.45253 171.84392 312
61.51144 -106.54199 171.91338 308
49.25601 -114.75084 172.01048 304
35.08751 -124.21040 172.16559 300
-11.82914 -155.56270 165.64212 291
82.14124 -93.98155 171.76785 316
72.77865 -100.31945 171.81271 312
62.14180 -107.55908 171.90634 308
49.98684 -115.80544 172.00932 304
-1.91619 -150.97505 163.10861 382
-10.80540 -156.98056 165.65681 290
82.70571 -94.83337 171.74695 316
73.39707 -101.25877 171.83429 312
62.81829 -108.51582 171.91380 308
50.67972 -116.83431 172.02939 304
1.06946 -150.86131 163.59535 383
-9.86798 -158.35942 165.63612 290
83.31105 -95.72126 171.73695 316
74.02950 -102.16209 171.83484 312
63.45138 -109.48804 171.92589 308
51.38851 -117.88911 172.02107 304
4.04522 -150.82324 164.07556 385
-8.90829 -159.79866 165.66685 290
83.89926 -96.52621 171.76164 316
74.63597 -103.07602 171.82054 312
64.13319 -110.44449 171.92984 308
52.09371 -118.95662 172.00391 304
6.94175 -150.69392 164.52931 386
84.45796 -97.38000 171.73900 316
75.23650 -103.95262 171.81747 312
64.78484 -111.40936 171.92526 308
52.80809 -119.98033 172.00221 304
9.80977 -150.64699 164.97876 387
85.07761 -98.21655 171.72528 316
75.88995 -104.83846 171.78873 312
65.45863 -112.39007 171.87366 308
53.50032 -121.03362 171.99074 304
12.60826 -150.62083 165.50363 388
85.63324 -99.04496 171.72974 316
76.54343 -105.72759 171.83109 312
66.16947 -113.32053 171.90924 308
54.24543 -122.06001 171.98602 304
15.32945 -150.53671 165.92642 390
86.26704 -99.91052 171.71976 316
77.18044 -106.63942 171.78365 312
66.85435 -114.27451 171.89720 308
54.99241 -123.07418 172.01686 304
16.84768 -151.32495 166.05211 295
86.84251 -100.71377 171.73503 316
77.82967 -107.49526 171.77451 312
67.52981 -115.21506 171.86295 308
23.34556 -148.47157 163.21719 296
17.82317 -152.55249 166.10437 295
87.48129 -101.55292 171.71312 316
78.45473 -108.40693 171.78906 312
68.19515 -116.20223 171.88280 308
24.04842 -149.79060 163.20490 296
18.84136 -153.74730 166.10890 295
88.09155 -102.33862 171.71323 316
79.11354 -109.26524 171.77028 312
68.89738 -117.09879 171.89449 308
26.01459 -150.21053 163.43858 391
19.79434 -154.95175 166.10678 295
88.72726 -103.18965 171.72571 316
79.79947 -110.12300 171.77481 312
69.64061 -118.04203 171.89137 308
28.56638 -150.13780 163.90985 393
20.80486 -156.20386 166.08624 297
89.33241 -104.00043 171.71996 316
80.42764 -111.02268 171.78777 312
70.34549 -119.01144 171.85895 308
31.12713 -150.04341 164.32793 394
21.78955 -157.41640 166.07460 297
89.95147 -104.79549 171.68610 316
81.13194 -111.87816 171.74936 312
71.06342 -119.91061 171.83612 308
33.56978 -149.94221 164.76054 395
22.71992 -158.58627 166.11600 297
90.58247 -105.59846 171.69034 316
81.76861 -112.74951 171.77820 312
71.77096 -120.81922 171.85561 308
36.01007 -149.84358 165.19586 396
91.25092 -106.40746 171.65988 316
82.46632 -113.58234 171.78108 312
72.53694 -121.75291 171.86838 308
38.41586 -149.71822 165.62350 397
91.87675 -107.20336 171.69669 316
83.17692 -114.45142 171.75081 312
45.33896 -145.85852 163.37814 300
40.83000 -149.66721 166.02306 399
92.55602 -107.96449 171.69226 316
83.85188 -115.28532 171.74525 312
46.14960 -147.05350 163.36726 300
42.43844 -150.17372 166.22679 301
93.18172 -108.79427 171.68520 316
84.53561 -116.14020 171.72952 312
46.92176 -148.20866 163.30672 300
43.35566 -151.23619 166.24681 301
93.84468 -109.54035 171.64558 316
85.25124 -116.95865 171.74249 312
47.66535 -149.36862 163.27115 300
44.32728 -152.25894 166.23163 301
94.52869 -110.36331 171.66684 316
85.96665 -117.80622 171.71527 312
49.90829 -149.31769 163.66324 403
45.27072 -153.38025 166.22397 301
95.19846 -111.10120 171.66962 316
86.66296 -118.63585 171.71315 312
52.11505 -149.21698 164.06914 404
46.21280 -154.42822 166.20920 301
95.87026 -111.89494 171.65109 316
87.40564 -119.49020 171.69437 312
54.27260 -149.14722 164.45441 405
47.16713 -155.45456 166.25090 301
96.53949 -112.63915 171.65742 316
88.13305 -120.26391 171.69812 312
56.36559 -149.04213 164.81082 406
48.15646 -156.51370 166.21353 301
97.24628 -113.43890 171.64439 316
88.86240 -121.11769 171.69414 312
58.45186 -148.99391 165.17006 407
49.14243 -157.54947 166.21689 301
97.93400 -114.17455 171.60646 316
65.57742 -144.19548 163.50337 304
60.52022 -148.91231 165.54703 408
98.60470 -114.94812 171.64587 316
66.38229 -145.23537 163.50095 304
62.58762 -148.83305 165.93716 410
99.30357 -115.70042 171.62093 316
67.20092 -146.28320 163.44089 304
64.59846 -148.73613 166.26242 411
99.99326 -116.41914 171.61597 316
67.99017 -147.31175 163.40985 304
65.67832 -149.50185 166.34007 305
100.72685 -117.19949 171.60342 316
68.81396 -148.29970 163.38618 303
66.60549 -150.48386 166.34669 305
101.42150 -117.93897 171.61823 316
70.44247 -148.51089 163.62457 413
67.53562 -151.38120 166.35199 305
102.16054 -118.68579 171.58441 316
72.34209 -148.43253 163.97781 414
68.53954 -152.32076 166.31827 305
102.84386 -119.39478 171.57433 316
74.23056 -148.38240 164.29488 416
69.47179 -153.22571 166.33290 305
103.60394 -120.09760 171.57069 316
76.09957 -148.29543 164.65178 417
70.43665 -154.09331 166.34534 305
83.71790 -142.23537 163.65991 307
77.92052 -148.22690 164.97041 418
71.38963 -154.97888 166.31477 305
84.54667 -143.10306 163.63144 307
79.72672 -148.15680 165.28815 419
72.38136 -155.91197 166.35785 305
85.31262 -144.04036 163.55663 307
81.50814 -148.09386 165.63330 420
73.33395 -156.77855 166.34785 305
86.13821 -144.91986 163.53627 307
83.22765 -148.04419 165.89940 421
86.96200 -145.83435 163.51714 307
84.99789 -148.00011 166.20581 422
87.79977 -146.72823 163.48421 307
86.39027 -148.25430 166.39429 309
88.64609 -147.59538 163.42766 307
87.33105 -149.07152 166.39494 309
90.08952 -147.76663 163.68887 424
88.23193 -149.84683 166.40855 309
91.76241 -147.71220 163.97272 425
89.21199 -150.63123 166.43356 309
93.36870 -147.65056 164.29684 426
90.12453 -151.38477 166.41733 309
94.98173 -147.59283 164.57765 427
91.10179 -152.20920 166.40749 309
96.61951 -147.53758 164.84261 428
92.05270 -152.93694 166.45108 309
98.25646 -147.37338 165.14447 419
92.98187 -153.73415 166.41393 309
99.93190 -147.24355 165.46089 420
93.98169 -154.49666 166.46072 309
101.54617 -147.06822 165.76013 421
94.92407 -155.21051 166.44498 309
103.14262 -146.91010 166.07193 422
95.89702 -155.94110 166.44106 309
104.72099 -146.75919 166.38919 423
105.83823 -147.23257 166.44046 314
106.71910 -147.91016 166.46616 314
107.66689 -148.57016 166.45934 314
108.60291 -149.27779 166.46852 314
109.47759 -149.91669 166.45773 314
110.41914 -150.57538 166.43590 314
111.35506 -151.23840 166.44360 314
113.88824 -149.68121 167.22362 268
115.39327 -149.48718 167.48250 316
116.29503 -150.16054 167.44208 316
117.20781 -150.81009 167.47742 316
119.20583 -149.84399 167.94467 274
120.72132 -149.61537 168.23677 489
123.97588 -148.64622 168.89555 278
124.82452 -149.29283 168.88379 489
126.77658 -148.24966 169.38885 441
127.70576 -148.77708 169.42822 485
-263.67328 -1932.14294 119.58461 481
-264.94870 -1936.46631 151.59113 477
-265.85556 -1940.67468 184.74556 437
-251.65253 -1934.62537 119.47214 491
-252.85710 -1940.27820 151.70064 460
-255.41559 -1948.58423 184.20006 261
-5221.12109 -51950.06250 -2317.99146 1000
237.85890 -1439.07092 98.68342 269
237.80083 -1442.27588 122.14465 471
237.80234 -1446.33716 145.30650 423
238.20242 -1453.01611 168.97284 278
246.48564 -1436.29504 98.72536 496
246.82466 -1439.09521 122.24403 496
246.69279 -1441.50378 145.70482 496
246.95230 -1444.50720 169.12457 495
246.74434 -1447.10413 192.92740 494
255.51761 -1440.87744 122.21522 472
255.58940 -1444.18701 145.48914 426
255.91895 -1447.85950 169.19621 374
3708.13672 -63177.83984 3356.63965 1000
727.85730 -950.17877 109.28287 440
729.99884 -954.89026 126.84086 379
731.36621 -943.09253 109.77975 480
732.91620 -945.87494 127.18250 480
734.35834 -948.61780 144.70477 439
736.52472 -952.74420 162.10233 429
738.54980 -956.60364 179.74181 307
736.60400 -938.70898 109.91793 498
737.72083 -941.28699 127.41965 498
739.03314 -943.41498 144.86729 498
740.62286 -946.22968 162.33022 484
741.67511 -948.45636 179.87343 497
743.30725 -951.03839 197.71867 485
742.77032 -936.65942 109.93526 492
744.12933 -938.85394 127.28087 491
745.51611 -941.39990 144.68297 461
746.99420 -944.27368 162.29245 399
748.34937 -946.57019 179.97701 460
750.17560 -950.02295 197.63826 330
750.47064 -937.08911 109.49502 409
752.56165 -940.29309 126.68078 409
755.03162 -944.74310 144.29947 342
367.92679 -108.86694 167.59322 312
368.58005 -107.91437 167.61465 312
369.22495 -107.00689 167.60362 312
369.82083 -106.07948 167.61107 314
370.43805 -105.15044 167.65483 314
371.08066 -104.21427 167.64922 314
371.69833 -103.27885 167.64275 314
372.32104 -102.29270 167.64238 314
372.94757 -101.37267 167.65880 314
20466.84570 -13351.72363 6340.26562 1000
373.51370 -100.43725 167.64302 314
374.11682 -99.49428 167.66798 314
374.73743 -98.49277 167.63820 314
375.28696 -97.56731 167.67744 314
376.39124 -96.90003 167.49243 437
377.76196 -96.42751 167.24937 436
379.20047 -95.93712 167.02771 435
388.04465 -101.27420 167.67180 309
380.56604 -95.44701 166.75409 434
388.60992 -100.20364 167.70198 309
381.98862 -94.98865 166.47006 433
389.20355 -99.15617 167.67453 309
383.47940 -94.49212 166.21846 432
389.72275 -98.11330 167.71973 309
384.88837 -93.95736 165.94305 431
390.29138 -97.03831 167.73128 309
386.37646 -93.44303 165.64888 430
390.85983 -95.93923 167.69933 309
387.88046 -92.93999 165.36647 429
391.40027 -94.87592 167.73932 309
389.37708 -92.43041 165.08075 428
391.97742 -93.83307 167.74300 311
390.87613 -91.92768 164.80402 427
392.49802 -92.75427 167.71674 311
391.64233 -90.96944 164.77930 316
393.06543 -91.69091 167.72021 311
392.18787 -89.90617 164.72690 316
393.97223 -90.82613 167.61075 426
392.75519 -88.87780 164.76587 316
395.58932 -90.27137 167.35097 425
393.30222 -87.82121 164.74583 316
397.13126 -89.74857 167.03365 424
393.84009 -86.75543 164.71956 316
398.76672 -89.16107 166.74060 423
408.34485 -93.89839 167.76096 305
394.36621 -85.67526 164.70908 316
400.39154 -88.59074 166.42418 421
408.85123 -92.73533 167.74995 305
394.94308 -84.59978 164.70221 316
402.02667 -88.04094 166.11630 420
409.39850 -91.57303 167.78368 305
11007.40039 -5185.98730 627.98413 1000
395.44153 -83.56728 164.74399 316
403.73825 -87.44862 165.82660 419
409.87689 -90.37643 167.79456 305
395.97147 -82.45401 164.71144 316
405.44308 -86.86417 165.53185 418
410.39743 -89.16557 167.77913 305
396.46768 -81.39075 164.69896 316
407.11087 -86.24297 165.18613 437
410.87695 -88.01398 167.79950 305
396.95023 -80.31638 164.72057 316
408.58466 -85.57172 164.90466 436
411.38016 -86.81994 167.79834 305
373.95209 -68.79307 171.56046 316
409.41760 -84.52959 164.81352 311
411.87848 -85.62691 167.81133 305
374.38367 -67.86302 171.53041 316
409.92566 -83.35512 164.80540 311
412.36475 -84.41465 167.81227 305
374.78589 -66.92030 171.57607 316
410.47150 -82.21133 164.84213 311
413.11230 -83.36266 167.77525 434
375.15485 -65.94855 171.55463 316
410.95001 -81.03260 164.84349 311
414.61908 -82.57251 167.46373 433
375.52591 -64.99743 171.54663 316
411.43768 -79.87309 164.83630 311
416.16550 -81.84626 167.20256 432
375.89676 -64.02155 171.54062 316
411.94937 -78.72723 164.83203 311
417.73184 -81.08549 166.94736 431
376.28693 -63.07415 171.57109 316
412.39917 -77.51714 164.82991 311
419.35422 -80.31721 166.69156 430
376.64093 -62.12502 171.55534 316
412.92569 -76.36758 164.79637 311
420.96777 -79.48949 166.38664 429
430.94238 -83.41917 167.81889 301
377.03656 -61.11998 171.55431 316
413.39093 -75.17593 164.81413 311
422.58594 -78.73318 166.13878 428
431.38187 -82.13802 167.79030 301
377.34756 -60.14538 171.57469 316
413.80341 -74.01009 164.81201 311
424.21088 -77.94998 165.80128 427
431.87399 -80.82930 167.79250 301
377.73431 -59.21392 171.60069 316
414.30792 -72.80605 164.81836 311
425.88623 -77.11769 165.51337 426
432.28198 -79.47477 167.85837 301
378.03381 -58.23546 171.60472 316
388.74915 -62.11673 171.69669 312
427.58572 -76.27457 165.24174 425
432.69922 -78.20306 167.82812 301
378.37183 -57.22667 171.59550 316
389.09378 -61.07252 171.68434 312
429.26010 -75.48131 164.92056 424
433.10715 -76.81752 167.83186 301
378.70123 -56.26289 171.60175 316
389.41537 -60.02197 171.68076 312
429.81967 -74.22267 164.87604 307
433.51004 -75.49252 167.82883 301
379.06540 -55.29173 171.58534 316
389.76105 -58.99373 171.67831 312
430.26852 -72.94987 164.89786 307
433.94321 -74.19225 167.90178 301
379.34891 -54.30257 171.57216 316
390.10248 -57.93831 171.70137 312
430.74036 -71.67348 164.85945 307
434.49161 -72.90216 167.83636 421
379.65964 -53.35352 171.57893 316
390.47571 -56.88035 171.69545 312
431.13196 -70.33301 164.85205 307
436.27713 -72.02588 167.55508 420
40324.16797 -13258.26172 -1106.86755 1000
379.97150 -52.32665 171.60117 316
390.79822 -55.83211 171.73247 312
431.55383 -69.05942 164.88640 307
438.09381 -71.17885 167.24725 419
380.31091 -51.38080 171.61018 316
391.10605 -54.79105 171.72476 312
431.99472 -67.76595 164.88127 308
439.81796 -70.23950 166.92268 433
266.36044 -14.91015 203.48309 288
391.42062 -53.73878 171.71350 312
432.40796 -66.43621 164.87532 308
441.49561 -69.28803 166.65303 432
266.35880 -14.59602 203.50610 314
391.72601 -52.69564 171.69238 312
432.76083 -65.16884 164.87820 308
443.11890 -68.28655 166.35608 431
266.43994 -14.31134 203.50182 314
392.00836 -51.60404 171.73997 312
433.15515 -63.81692 164.88933 308
444.85379 -67.25204 166.06279 430
455.50357 -70.45442 167.87985 297
266.52527 -14.02683 203.50946 314
392.31543 -50.56158 171.72321 312
404.69553 -54.12795 171.84190 308
446.49023 -66.28838 165.79692 429
455.90594 -68.99258 167.87901 297
266.60962 -13.74274 203.50810 314
392.62711 -49.49738 171.73294 312
404.98892 -52.99073 171.83307 308
448.15735 -65.26864 165.53220 428
456.22665 -67.55483 167.88034 297
266.69620 -13.46356 203.49829 314
392.90112 -48.42958 171.70505 312
405.26392 -51.85632 171.83612 308
449.89481 -64.20077 165.24088 427
456.58292 -66.04791 167.90948 297
266.77298 -13.17752 203.50375 314
393.15787 -47.35294 171.71275 312
405.57809 -50.75483 171.83652 308
451.38535 -63.09463 164.97191 303
456.85104 -64.60001 167.95415 297
266.85522 -12.89309 203.49777 314
393.42682 -46.32939 171.72934 312
405.85159 -49.60925 171.82693 308
451.70691 -61.70462 164.96355 303
457.22379 -63.15810 167.94264 297
266.93423 -12.61289 203.50278 314
393.69641 -45.22862 171.74690 312
406.13260 -48.46636 171.83760 308
452.05145 -60.28776 164.96613 303
457.50058 -61.65598 167.96272 297
3656.87183 -884.23700 221.15854 497
3667.57178 -887.38940 279.66983 446
267.00235 -12.32594 203.50949 314
393.95416 -44.16197 171.72945 312
406.41849 -47.31651 171.85257 308
452.43011 -58.87036 164.97621 303
457.77838 -60.21342 167.94836 297
267.08194 -12.03028 203.50275 314
394.21063 -43.10058 171.76331 312
406.69217 -46.14154 171.87108 308
452.78815 -57.39120 164.98962 303
458.82922 -58.88437 167.86847 422
267.14688 -11.75246 203.50058 314
394.45892 -42.02022 171.71814 312
406.97824 -45.00874 171.86618 308
453.10419 -55.96192 165.00531 303
460.68237 -57.78887 167.55812 421
267.21463 -11.46056 203.50496 314
394.70392 -40.94129 171.74794 312
407.23032 -43.87292 171.85797 308
453.45276 -54.53602 165.00926 303
462.48135 -56.60070 167.25638 453
267.28439 -11.17714 203.49785 314
394.92902 -39.87755 171.71887 312
407.43008 -42.72991 171.87643 308
453.76471 -53.11261 164.99043 303
463.81546 -55.40263 167.02519 452
267.35266 -10.88407 203.50241 314
395.13278 -38.83347 171.74217 312
407.68338 -41.55981 171.86844 308
454.09018 -51.65810 164.96152 303
465.17282 -54.09728 166.84636 451
267.41766 -10.59291 203.50098 314
395.39490 -37.71620 171.73909 312
407.92328 -40.40569 171.86449 308
422.29358 -43.44022 171.99104 304
466.55853 -52.81709 166.63293 451
267.47693 -10.30415 203.50165 314
395.56653 -36.67202 171.75290 312
408.15179 -39.24578 171.84555 308
422.53845 -42.20722 172.00964 304
467.90631 -51.51185 166.37267 450
267.53186 -10.01897 203.50674 314
395.79517 -35.58757 171.72864 312
408.36691 -38.06630 171.89223 308
422.81494 -40.97709 172.02850 304
469.34293 -50.22583 166.18076 449
267.59726 -9.72574 203.50082 314
395.96933 -34.50962 171.75674 312
408.59549 -36.91046 171.88872 308
422.99170 -39.72486 172.02007 304
470.71255 -48.92270 165.95911 448
267.64697 -9.44257 203.51021 314
396.18420 -33.40512 171.74126 312
408.78323 -35.79295 171.85229 308
423.25443 -38.44545 172.02573 304
472.14594 -47.55879 165.69196 447
267.70743 -9.14379 203.49966 314
396.35034 -32.36042 171.76131 312
409.01724 -34.59124 171.88857 308
423.42404 -37.18674 172.01862 304
473.61572 -46.26970 165.47696 446
483.42963 -47.98233 168.04370 293
267.75439 -8.85534 203.50865 314
396.54703 -31.25732 171.74887 312
409.20349 -33.46695 171.88788 308
423.66843 -35.96808 172.03700 304
475.02164 -44.86469 165.24780 445
483.57761 -46.41698 168.08006 293
267.81421 -8.56982 203.51013 314
396.73520 -30.18125 171.73694 312
409.39407 -32.26122 171.88435 308
423.82663 -34.71468 172.03871 304
475.95206 -43.40385 165.11224 299
483.76901 -44.77435 168.02499 293
267.85403 -8.27112 203.50352 314
396.90082 -29.06376 171.74330 312
409.55566 -31.13916 171.87305 308
424.03363 -33.47253 172.02393 304
476.11707 -41.85153 165.08743 299
483.96951 -43.13355 168.07106 293
267.90842 -7.98574 203.50551 314
397.05304 -28.01358 171.74889 312
409.73325 -29.97826 171.90503 308
424.24298 -32.22173 172.03999 304
476.35764 -40.25829 165.14755 299
484.10046 -41.47741 168.08600 293
267.95035 -7.68680 203.51001 314
397.20093 -26.93280 171.75168 312
409.86188 -28.81367 171.90413 308
424.41721 -30.95215 172.01050 304
476.56650 -38.68045 165.08452 299
484.27725 -39.86144 168.09474 293
267.99854 -7.39941 203.50723 314
271.42972 -7.88461 203.47691 282
410.07251 -27.62926 171.90735 308
424.55133 -29.67025 172.02533 304
476.79407 -37.11738 165.10742 299
484.38528 -38.24831 168.09154 293
268.03741 -7.09700 203.50558 314
271.38837 -7.55423 203.49806 310
410.18683 -26.45163 171.89494 308
424.73148 -28.45801 172.01941 304
441.58182 -30.73584 172.18933 300
484.49908 -36.53794 168.15697 293
268.07495 -6.81390 203.50850 314
271.43246 -7.24515 203.49904 310
410.32907 -25.32100 171.91606 308
424.91299 -27.17917 172.01338 304
441.71490 -29.38614 172.19968 300
484.88358 -34.97243 168.08250 459
268.12411 -6.51364 203.49962 314
271.47208 -6.93257 203.50906 310
410.47815 -24.12439 171.89481 308
425.01065 -25.90198 172.03568 304
441.85236 -28.00933 172.19487 300
486.10611 -33.46692 167.91219 458
268.15381 -6.21911 203.50644 314
271.51654 -6.61651 203.49849 310
410.59329 -22.96864 171.88481 308
425.20096 -24.66608 172.01123 304
442.03391 -26.61740 172.17354 300
487.28094 -31.93817 167.75957 457
268.19678 -5.93129 203.50560 314
271.54425 -6.30783 203.50462 310
410.71295 -21.81202 171.87410 308
425.33060 -23.41227 172.03348 304
442.19849 -25.26414 172.18289 300
488.58923 -30.40456 167.54837 457
268.22278 -5.63804 203.50761 314
271.58054 -5.98705 203.50325 310
410.85889 -20.60474 171.91029 308
425.45483 -22.15969 172.02980 304
442.31348 -23.89942 172.21884 300
489.79553 -28.89890 167.37932 456
268.26059 -5.34240 203.50172 314
271.62469 -5.66844 203.49948 310
410.98956 -19.47346 171.90114 308
425.57791 -20.89767 172.02153 304
442.42844 -22.56300 172.17371 300
491.06537 -27.37494 167.13589 455
268.28632 -5.04353 203.49965 314
271.65573 -5.35779 203.50220 310
411.07349 -18.27099 171.87628 308
425.65134 -19.63762 172.02342 304
442.55643 -21.17300 172.18767 300
492.31537 -25.81078 166.93137 454
268.31631 -4.75947 203.50195 314
271.67291 -5.04185 203.50424 310
411.15320 -17.10497 171.91243 308
425.77133 -18.34605 172.02299 304
442.64240 -19.83154 172.21130 300
493.61890 -24.22189 166.71359 453
268.33572 -4.45542 203.50729 314
271.70703 -4.73038 203.50180 310
411.24069 -15.92844 171.90468 308
425.88275 -17.10599 172.01677 304
442.76773 -18.46776 172.18942 300
494.86075 -22.64753 166.50430 452
268.36380 -4.15809 203.50600 314
271.73779 -4.41540 203.50246 310
411.32047 -14.78558 171.89864 308
425.93295 -15.83410 172.05139 304
442.88019 -17.08749 172.19591 300
496.15939 -21.00791 166.28665 452
268.38409 -3.87087 203.50645 314
271.75201 -4.09956 203.50378 310
411.42340 -13.61254 171.88847 308
426.03668 -14.59325 172.03175 304
442.91086 -15.69804 172.21761 300
497.09256 -19.42115 166.15811 483
268.41248 -3.56874 203.50092 314
271.77707 -3.78354 203.50581 310
411.47641 -12.41913 171.88136 308
426.08820 -13.32600 172.01149 304
443.01166 -14.38487 172.17929 300
462.82825 -15.60430 172.40782 296
268.43021 -3.27544 203.50214 314
271.79517 -3.46425 203.50128 310
411.56888 -11.23650 171.90607 308
426.18521 -12.04542 172.03777 304
443.07959 -12.96589 172.22908 300
462.88599 -14.11947 172.41196 296
268.44669 -2.98477 203.50269 314
271.81619 -3.14476 203.50806 310
411.62106 -10.06835 171.92059 308
426.21469 -10.79745 172.03659 304
443.17798 -11.61497 172.17525 300
462.97501 -12.61835 172.40749 296
268.45532 -2.68723 203.49895 314
271.83908 -2.83485 203.51031 310
411.65799 -8.92177 171.92253 308
426.30771 -9.50558 172.06474 304
443.20331 -10.28152 172.18262 300
463.04953 -11.10954 172.38467 296
268.47043 -2.39043 203.50063 314
271.85187 -2.51682 203.50937 310
411.68939 -7.73221 171.87888 308
426.35092 -8.25285 172.06636 304
443.23154 -8.90997 172.20860 300
463.07141 -9.63552 172.43169 296
268.48077 -2.10211 203.50778 314
271.86276 -2.20491 203.51068 310
411.73376 -6.56279 171.91815 308
426.36536 -7.00161 172.07030 304
443.30148 -7.49688 172.22742 300
463.09259 -8.13995 172.38800 296
268.49509 -1.80107 203.50371 314
271.86816 -1.89207 203.50220 310
411.72266 -5.36416 171.89969 308
426.36600 -5.70819 172.05766 304
443.30222 -6.15750 172.23300 300
463.15323 -6.64845 172.40862 296
268.50241 -1.51257 203.50146 314
271.88107 -1.57060 203.50673 310
411.77112 -4.19759 171.87801 308
426.39352 -4.45922 172.05803 304
443.37051 -4.79274 172.22891 300
463.13989 -5.15407 172.38445 296
2323.89038 -39.65077 183.74162 1000
268.50815 -1.21141 203.49800 314
271.88364 -1.24767 203.50697 310
411.80527 -3.01635 171.92651 308
426.41644 -3.18831 172.02585 304
443.36548 -3.40629 172.22417 300
463.17474 -3.68798 172.37610 296
268.50970 -0.91681 203.50926 314
271.89496 -0.93133 203.50938 310
411.78757 -1.85528 171.88091 308
426.41681 -1.92893 172.04457 304
443.38678 -2.03109 172.17952 300
451.82794 -2.12566 174.47699 425
513.09821 -2.45205 168.24983 288
268.51117 -0.62119 203.50154 314
271.89426 -0.61775 203.50717 310
411.76843 -0.67679 171.89240 308
426.43427 -0.67410 172.06818 304
443.33829 -0.68157 172.19757 300
463.21799 -0.69190 172.39558 296
513.04785 -0.66642 168.27762 288
268.51376 -0.32950 203.50655 314
271.89822 -0.29932 203.50252 310
411.75906 0.50149 171.92297 308
426.39490 0.61406 172.06502 304
443.32611 0.72082 172.20148 300
452.30853 0.71577 174.35289 425
513.05157 1.09775 168.26022 288
268.51187 -0.02991 203.50816 314
271.89011 0.00790 203.49852 310
411.75928 1.67674 171.89790 308
426.41959 1.88169 172.05205 304
443.30869 2.08744 172.20523 300
452.06305 2.15883 174.37909 422
268.51187 0.26449 203.50719 314
271.89301 0.33390 203.50839 310
411.77042 2.86753 171.90875 308
426.37439 3.10623 172.03514 304
443.33832 3.39822 172.21895 300
463.15427 3.79075 172.36884 296
268.50821 0.55967 203.50232 314
271.88367 0.64750 203.50641 310
411.70261 4.01380 171.90468 308
426.32990 4.39461 172.04791 304
443.24344 4.78723 172.21742 300
463.10226 5.25149 172.38075 296
268.49857 0.85524 203.49756 314
271.88043 0.96185 203.49948 310
411.70370 5.18202 171.88394 308
426.29126 5.64665 172.06346 304
443.21988 6.15160 172.22357 300
463.03513 6.74141 172.36270 296
268.48752 1.15064 203.50418 314
271.86160 1.27305 203.50925 310
411.62100 6.38711 171.89716 308
426.26971 6.89057 172.06398 304
443.16602 7.50429 172.17911 300
463.01627 8.24479 172.42166 296
268.47934 1.45436 203.50603 314
271.84909 1.58989 203.50668 310
411.56842 7.56436 171.89909 308
426.18976 8.19565 172.00691 304
443.10797 8.89269 172.17336 300
462.94946 9.74440 172.41846 296
268.47375 1.74594 203.49977 314
271.84363 1.91357 203.50220 310
411.54013 8.71594 171.87511 308
426.13788 9.41621 172.05618 304
443.05402 10.23661 172.22171 300
462.88330 11.21734 172.39140 296
268.45236 2.03837 203.50166 314
271.83084 2.21827 203.50787 310
411.46509 9.91576 171.90071 308
426.11661 10.69557 172.00674 304
443.01227 11.63601 172.20537 300
462.75919 12.74970 172.35516 296
268.44180 2.33147 203.49956 314
271.81229 2.54608 203.50259 310
411.38916 11.05240 171.91801 308
426.04266 11.97718 172.01485 304
442.89984 12.97186 172.18512 300
462.67206 14.19027 172.38057 296
268.43015 2.62359 203.50729 314
271.79102 2.85351 203.50613 310
411.33746 12.26505 171.88310 308
425.94714 13.20161 172.01714 304
442.82169 14.37353 172.22160 300
462.55658 15.71869 172.37856 296
268.40271 2.92741 203.50377 314
271.77261 3.16828 203.50388 310
411.26480 13.43862 171.87106 308
425.86227 14.48576 172.04068 304
442.75128 15.72809 172.20537 300
496.66650 19.72495 166.17467 483
268.38086 3.21453 203.50163 314
271.75232 3.48153 203.50233 310
411.17032 14.58944 171.91010 308
425.72382 15.76016 172.02556 304
442.59125 17.10538 172.22246 300
495.43817 21.32474 166.34322 452
268.35657 3.50907 203.50116 314
271.71951 3.80591 203.50908 310
411.04553 15.74827 171.88235 308
425.63358 17.01560 172.01180 304
442.52899 18.47640 172.16922 300
494.15204 22.86686 166.57187 453
4964.94238 407.78363 219.42850 441
268.33289 3.81362 203.50993 314
271.70023 4.11551 203.49699 310
410.95566 16.92026 171.87575 308
425.53442 18.24619 172.03711 304
442.35596 19.78919 172.16425 300
492.86938 24.45039 166.78172 454
4941.66309 434.58755 219.16457 442
268.31653 4.10612 203.50450 314
271.66931 4.42730 203.50809 310
410.83325 18.08347 171.89250 308
425.40683 19.50650 172.02797 304
442.23517 21.20233 172.20546 300
491.60437 26.05877 166.99352 455
4903.47949 460.43427 219.14542 313
268.27795 4.39186 203.49991 314
271.63876 4.74923 203.50038 310
410.71103 19.26616 171.89554 308
425.26712 20.76327 172.03638 304
442.13470 22.56643 172.19542 300
490.30008 27.54391 167.15952 456
4883.39600 486.33047 219.81955 430
268.24832 4.69302 203.50841 314
271.61005 5.05932 203.51038 310
410.61554 20.43840 171.89310 308
425.15610 22.06635 172.03679 304
441.99734 23.92506 172.18579 300
489.10199 29.14375 167.33583 457
4865.99072 513.35950 218.98819 430
268.22232 4.97822 203.50827 314
271.57349 5.37978 203.50424 310
410.45367 21.60315 171.88603 308
425.00668 23.31544 172.03166 304
441.80731 25.27125 172.20944 300
487.85571 30.66942 167.60028 457
4855.44092 542.10522 219.55049 493
268.18268 5.27368 203.50645 314
271.53308 5.68609 203.51033 310
410.36908 22.78227 171.86086 308
424.86078 24.53395 172.00046 304
441.62863 26.63487 172.19852 300
486.58850 32.17829 167.73093 458
4846.83447 569.12512 218.92075 493
268.14700 5.57336 203.49811 314
271.50378 6.01016 203.50764 310
410.18320 23.92268 171.86221 308
424.70282 25.78630 172.02473 304
441.51013 27.95280 172.18578 300
485.37662 33.65567 167.94031 459
4837.70410 596.89185 218.79530 497
268.11456 5.86294 203.49896 314
271.46466 6.32501 203.50301 310
410.03244 25.07372 171.85756 308
424.52155 27.06229 172.02493 304
441.31165 29.32252 172.16745 300
484.22256 35.17294 168.10936 460
4831.59717 625.05481 218.81262 497
268.07806 6.16154 203.50960 314
271.41916 6.62555 203.50980 310
409.89688 26.26381 171.89809 308
424.39914 28.32935 172.00819 304
441.12076 30.67123 172.16161 300
483.96176 36.78017 168.13547 293
4824.78223 653.24628 219.10741 495
4893.87158 662.92590 296.40012 499
22568.35938 3176.41772 5105.20508 1000
268.04169 6.44730 203.50644 314
271.37164 6.94985 203.50546 310
409.70026 27.42549 171.87354 308
424.17908 29.56267 172.00970 304
476.27380 37.25792 165.11800 300
483.84344 38.39770 168.06993 293
4818.95508 680.78503 219.16063 496
267.99496 6.74690 203.49998 314
271.33282 7.25330 203.49872 310
409.57269 28.56700 171.88434 308
423.99567 30.79698 171.99161 304
476.01038 38.82146 165.06290 300
483.67484 40.00559 168.04384 293
