# .PCD v.7 - Point Cloud Data file format
VERSION .7
FIELDS x y z rgb
SIZE 4 4 4 4
TYPE F F F U
COUNT 1 1 1 1
WIDTH 1386
HEIGHT 1
VIEWPOINT 6470.480469 -4058.395508 145.114288 -0.034691 -0.131283 0.028486 0.990328
POINTS 1386
DATA ascii
54.95831 -14.41507 193.13203 447
52.36766 -14.52819 195.74988 444
49.68500 -14.66341 198.41936 442
46.96103 -14.74271 201.19543 439
44.13987 -14.87945 204.01358 436
41.21847 -15.02648 206.94426 434
38.27113 -15.12953 209.92401 431
-179.61708 -24.01095 223.23553 384
85.49957 -14.00920 177.44734 465
83.50669 -14.09369 179.45564 462
69.37302 -14.77553 178.72028 460
67.04815 -14.86483 180.96150 458
64.75813 -14.97941 183.28256 455
62.34012 -15.09443 185.65218 453
59.91810 -15.24056 188.07552 451
57.41800 -15.34086 190.56453 448
54.84133 -15.49928 193.09776 446
52.25573 -15.59305 195.73390 444
49.57658 -15.75530 198.40508 441
46.83820 -15.87166 201.16545 439
44.02470 -15.99692 204.03218 436
41.07992 -16.14552 206.92007 433
38.08093 -16.30503 209.93483 431
-179.65567 -26.55252 223.27882 384
85.44186 -14.86684 177.41942 464
83.42207 -15.01599 179.43871 462
69.24868 -15.76163 178.68318 460
66.98568 -15.86219 180.97406 458
64.64254 -16.00526 183.28539 455
62.26410 -16.14887 185.65234 453
59.83207 -16.28976 188.08742 451
57.29506 -16.39953 190.53770 448
54.73803 -16.54191 193.12997 446
52.12867 -16.68883 195.74236 444
49.42796 -16.82533 198.37955 441
46.68847 -16.99245 201.14493 439
43.87548 -17.15227 203.97746 436
40.97316 -17.29376 206.92340 433
37.99178 -17.48042 209.93800 430
-179.69173 -28.98758 223.20015 384
85.35914 -15.76948 177.37685 464
83.33071 -15.88656 179.38786 462
69.19515 -16.70663 178.64732 460
66.87665 -16.86036 180.93121 457
64.56852 -17.02885 183.25269 455
62.18786 -17.15862 185.61502 453
59.70398 -17.31022 188.02841 450
57.22178 -17.48160 190.53891 448
54.63747 -17.61838 193.07077 446
52.00856 -17.76152 195.71231 443
49.31773 -17.94029 198.37025 441
46.57959 -18.12608 201.14781 438
43.74976 -18.30993 203.98952 436
40.81673 -18.47711 206.92595 433
37.82320 -18.66206 209.88564 430
-179.68600 -31.53354 223.17871 384
85.28519 -16.63001 177.33574 464
83.25851 -16.77509 179.35446 462
69.08666 -17.70180 178.63116 459
66.79655 -17.87789 180.90463 457
64.46364 -17.99500 183.21652 455
62.10203 -18.15604 185.59242 453
59.64721 -18.32720 188.03410 450
57.12547 -18.50815 190.50517 448
54.56174 -18.71268 193.04903 445
51.91645 -18.88117 195.67850 443
49.20097 -19.04771 198.35699 440
46.41999 -19.26094 201.12245 438
43.60719 -19.42181 203.98506 436
40.67633 -19.64934 206.87711 433
37.66251 -19.81551 209.89345 430
-179.63023 -34.11524 223.15353 384
-187.74248 -34.71405 278.55188 388
-187.72969 -34.72348 285.64709 387
-187.68318 -34.80798 292.59116 387
85.21146 -17.53210 177.31709 464
83.17637 -17.67105 179.34998 462
69.03236 -18.69564 178.60666 459
66.74159 -18.86275 180.88885 457
64.39362 -19.00489 183.19087 455
61.96988 -19.22355 185.57230 452
59.51941 -19.40438 187.99173 450
57.01004 -19.56898 190.49742 448
54.43243 -19.75594 193.03386 445
51.81694 -19.94111 195.67366 443
49.11715 -20.15211 198.34044 440
46.33553 -20.36975 201.11496 438
43.48922 -20.56925 203.98239 435
40.58055 -20.80954 206.87477 433
37.53042 -21.00603 209.88593 430
-179.58511 -36.59476 223.24745 384
-187.76613 -37.31992 278.64822 358
-187.80716 -37.39048 285.67606 358
-187.81055 -37.30214 292.73618 357
85.15943 -18.40975 177.27296 464
83.11143 -18.58001 179.32455 462
68.95119 -19.67608 178.54634 459
66.65753 -19.83895 180.84937 457
64.28621 -20.02674 183.17044 455
61.88686 -20.24319 185.52411 452
59.44048 -20.44598 187.98454 450
56.93340 -20.62176 190.47260 447
54.35615 -20.83458 193.01671 445
51.71400 -21.03824 195.64185 442
48.97359 -21.27405 198.33749 440
46.20427 -21.46747 201.11772 437
43.35507 -21.70065 203.93784 435
40.39972 -21.95468 206.88699 432
37.40978 -22.18533 209.87289 430
-179.66479 -39.11477 223.18161 384
85.07764 -19.29798 177.24628 463
83.03117 -19.47129 179.30470 461
68.87844 -20.66114 178.51562 459
66.58540 -20.84114 180.79758 457
64.21946 -21.07337 183.11894 454
61.80379 -21.24748 185.50453 452
59.37357 -21.48623 187.93904 450
56.86106 -21.69912 190.44257 447
54.24291 -21.91510 192.98831 445
51.62175 -22.16466 195.61383 442
48.91302 -22.37731 198.33990 440
46.07325 -22.61811 201.06453 437
43.22805 -22.89458 203.93764 434
40.30106 -23.11931 206.86882 432
37.26019 -23.40905 209.86086 429
-179.67712 -41.66195 223.18123 384
84.99185 -20.18116 177.21051 463
82.98470 -20.35353 179.25017 461
68.79523 -21.64066 178.50719 459
66.50129 -21.85576 180.77687 456
64.12554 -22.07845 183.10075 454
61.72732 -22.30266 185.49571 452
59.27956 -22.53646 187.93538 449
56.73447 -22.73826 190.42917 447
54.13937 -23.00088 192.97186 445
51.50389 -23.23027 195.58377 442
48.77592 -23.47264 198.32198 439
45.98188 -23.72784 201.05865 437
43.11704 -23.99573 203.91960 434
40.17153 -24.28325 206.87250 432
37.09739 -24.59543 209.86853 429
-179.56870 -44.13021 223.21635 383
84.93958 -21.03971 177.20183 463
82.89428 -21.24328 179.23032 461
68.73589 -22.63046 178.47821 458
66.43130 -22.84443 180.75250 456
64.05378 -23.08972 183.06857 454
61.67352 -23.30219 185.46185 452
59.17404 -23.56921 187.92017 449
56.63573 -23.82203 190.38606 447
54.06549 -24.06791 192.95918 444
51.39019 -24.32366 195.60085 442
48.69640 -24.58383 198.29909 439
45.85574 -24.89125 201.05374 437
42.99580 -25.19197 203.91655 434
40.01417 -25.45777 206.83171 431
36.97503 -25.78769 209.87773 429
-179.65221 -46.65300 223.18584 383
84.87375 -21.92529 177.14973 463
82.84923 -22.14211 179.19971 461
68.67001 -23.61892 178.45511 458
66.33697 -23.86463 180.74023 456
63.96255 -24.10491 183.04774 454
61.54815 -24.37820 185.42523 451
59.10601 -24.62556 187.88437 449
56.54470 -24.88003 190.37770 447
53.66909 -24.54251 193.29057 444
51.29832 -25.44748 195.57889 442
48.59612 -25.73961 198.27827 439
45.75640 -26.00283 201.04102 436
42.89500 -26.30449 203.88983 434
39.89633 -26.63694 206.81152 431
36.86956 -26.96503 209.87929 428
-179.60197 -49.17633 223.16493 383
84.80302 -22.81640 177.13226 463
82.76798 -23.05927 179.13676 460
68.59184 -24.60704 178.38303 458
66.27549 -24.87150 180.68085 456
63.89141 -25.10407 183.00847 453
61.49467 -25.40548 185.37906 451
58.99986 -25.65660 187.85246 449
56.48188 -25.97361 190.34213 446
53.86334 -26.22442 192.89577 444
51.21828 -26.54897 195.54160 441
48.48410 -26.82056 198.23157 439
45.67493 -27.17958 200.99765 436
42.79349 -27.47490 203.85262 434
39.80513 -27.79769 206.78874 431
36.54453 -28.15310 209.85114 413
-179.62436 -51.75763 223.17604 383
84.74811 -23.72881 177.08336 462
82.69955 -23.98041 179.12140 460
68.52464 -25.57526 178.37361 458
66.18611 -25.88529 180.62306 455
63.82701 -26.12914 182.96768 453
61.40002 -26.41590 185.35059 451
58.91952 -26.72109 187.83282 449
56.37608 -27.00301 190.29735 446
53.77933 -27.33350 192.87939 444
51.12057 -27.65322 195.49756 441
48.39558 -27.95918 198.19844 439
45.51858 -28.30316 200.98709 421
42.45227 -28.68227 203.83212 418
39.29873 -29.04621 206.76945 415
35.98744 -29.44233 209.80148 406
-179.57077 -54.31389 223.14261 383
84.70601 -24.63056 177.03993 462
82.63523 -24.88074 179.09808 460
68.42232 -26.58286 178.32440 457
66.09753 -26.88183 180.61934 455
63.75903 -27.17485 182.93211 453
61.31162 -27.45304 185.35258 451
58.82897 -27.77184 187.76077 448
56.28170 -28.08905 190.27196 446
53.70353 -28.43318 192.85913 443
50.97820 -28.73701 195.48251 425
48.09565 -29.10773 198.17267 423
45.08271 -29.48771 200.92458 420
41.98423 -29.89352 203.82455 418
38.82913 -30.28451 206.75230 415
35.34836 -30.66566 209.78723 406
-179.65152 -56.84919 223.23599 383
84.64477 -25.51719 177.01064 462
82.58575 -25.77129 179.06300 460
68.37955 -27.60440 178.29041 457
66.04031 -27.90648 180.59247 455
63.67202 -28.21671 182.89769 453
61.23981 -28.53473 185.29872 450
58.76102 -28.82481 187.75459 448
56.15483 -29.16890 190.25697 430
53.38185 -29.51876 192.80869 427
50.56340 -29.90330 195.42963 425
47.64564 -30.31102 198.09953 422
44.63287 -30.68849 200.89226 420
41.53040 -31.10727 203.74243 417
38.22762 -31.49685 206.69797 408
34.75854 -31.96169 209.74316 405
-179.83376 -59.39627 223.21765 362
84.56138 -26.37916 176.95715 462
82.50388 -26.66049 179.02274 460
68.30628 -28.59483 178.23224 457
65.94732 -28.91505 180.50810 455
63.58114 -29.22639 182.86829 452
61.11085 -29.59323 185.26967 434
58.44853 -29.93717 187.66820 431
55.73718 -30.31588 190.17905 429
52.95666 -30.65195 192.74883 427
50.12467 -31.06051 195.33992 424
47.14922 -31.45378 198.08640 422
44.13102 -31.90270 200.84538 419
41.02913 -32.29414 203.73166 416
37.67188 -32.78403 206.70299 407
34.16161 -33.26002 209.72542 404
-180.38861 -62.10027 223.22914 361
84.49335 -27.28933 176.92545 461
82.45113 -27.58871 178.95395 459
68.22292 -29.58677 178.18968 457
65.82652 -29.93962 180.48782 438
63.29667 -30.29445 182.80197 435
60.72028 -30.65217 185.16492 433
58.08672 -31.04343 187.59639 431
55.35427 -31.40683 190.10289 428
52.55056 -31.80568 192.63739 426
49.66967 -32.23058 195.30867 424
46.70873 -32.63339 197.99820 421
43.67690 -33.06791 200.77853 418
40.48667 -33.55707 203.65430 409
37.05098 -34.00961 206.63835 407
33.55823 -34.55468 209.68512 404
-181.07953 -64.70227 223.18520 362
84.44823 -28.17824 176.90167 461
82.41238 -28.50289 178.93851 459
67.97127 -30.62679 178.11711 439
65.47862 -30.96920 180.36110 437
62.94596 -31.34941 182.68703 435
60.32212 -31.74283 185.08765 433
57.67733 -32.16213 187.51187 430
54.95441 -32.57677 190.02025 428
52.14971 -32.96148 192.59311 425
49.26074 -33.39873 195.24054 423
46.24131 -33.83187 197.95952 420
43.19090 -34.30602 200.74136 418
39.94384 -34.81330 203.63246 409
36.50597 -35.28540 206.61240 406
32.94246 -35.85538 209.69713 403
-181.67549 -67.34634 223.25076 362
84.39729 -29.09716 176.84959 461
82.34000 -29.40951 178.86044 459
67.61024 -31.68435 177.97710 439
65.13315 -32.05693 180.27451 436
62.55165 -32.46131 182.57913 434
59.93355 -32.87882 184.99686 432
57.29195 -33.28758 187.42325 430
54.53688 -33.68790 189.91759 427
51.69081 -34.14555 192.50891 425
48.77622 -34.56983 195.17090 422
45.79905 -35.04671 197.90642 420
42.68897 -35.53728 200.69054 411
39.36223 -36.03732 203.59540 408
35.87291 -36.58685 206.57872 405
32.29522 -37.16304 209.63600 403
-182.33817 -70.05759 223.28412 361
84.34245 -30.00499 176.77538 461
82.28021 -30.31244 178.82826 458
74.56206 -31.54660 179.59016 308
64.75985 -33.11959 180.16699 436
62.19906 -33.55229 182.49327 434
59.55796 -33.96671 184.87030 431
56.90331 -34.39373 187.34665 429
54.12487 -34.85238 189.86717 427
51.29742 -35.29945 192.44592 424
48.37657 -35.78178 195.09465 422
45.34636 -36.28252 197.81601 419
42.12389 -36.77221 200.62721 410
38.77772 -37.32592 203.55249 407
35.28656 -37.87354 206.53497 405
31.67314 -38.48975 209.64740 402
-183.06549 -72.68620 216.44638 425
-183.93274 -72.81033 223.30334 324
84.26581 -30.90388 176.74252 460
82.22263 -31.24346 178.80798 458
74.66264 -32.51436 179.57668 308
64.38674 -34.22471 180.05998 435
61.83025 -34.61930 182.39249 433
59.20624 -35.06336 184.75890 431
56.46337 -35.52639 187.25346 428
53.72765 -35.98660 189.75679 426
50.82573 -36.49691 192.34279 424
47.92980 -36.98127 195.00487 421
44.86349 -37.45882 197.74133 412
41.58244 -38.03651 200.59045 409
38.17469 -38.57779 203.48230 407
34.67510 -39.20189 206.50797 404
31.01817 -39.80471 209.58612 401
-183.14284 -75.25454 216.47224 425
-186.48834 -75.87342 223.32707 324
84.15414 -31.81929 176.67184 443
81.96475 -32.22544 178.67741 441
74.80681 -33.44570 179.60458 308
64.05840 -35.28383 179.96483 435
61.44279 -35.75068 182.27631 432
58.83437 -36.19396 184.65884 430
56.06359 -36.68908 187.14326 428
53.28772 -37.16116 189.66061 425
50.41470 -37.64535 192.28365 423
47.48329 -38.17761 194.94064 421
44.33078 -38.74297 197.69075 411
41.01456 -39.30796 200.49286 409
37.60213 -39.88282 203.41318 406
34.08848 -40.53062 206.46877 403
30.41604 -41.13321 209.56882 401
-183.07243 -77.94960 216.41310 425
-189.02071 -78.96523 223.39206 323
83.89573 -32.76003 176.59181 443
81.66790 -33.17069 178.58481 440
74.95348 -34.35326 179.58659 308
63.67430 -36.38069 179.80725 434
61.08406 -36.84675 182.19681 432
58.41471 -37.34288 184.57455 430
55.66605 -37.83167 187.03310 427
52.85569 -38.35310 189.60228 425
49.96622 -38.83781 192.19931 422
46.99512 -39.37735 194.89209 420
43.80354 -39.99884 197.60136 411
40.48664 -40.58518 200.44237 408
37.01310 -41.17161 203.39372 405
33.42938 -41.85081 206.39259 403
29.73761 -42.52826 209.56157 400
-183.14020 -80.52579 216.38225 425
-191.94829 -82.13644 223.45132 297
83.63062 -33.69994 176.44292 442
81.40089 -34.13102 178.46536 440
75.09332 -35.30924 179.60654 308
63.34946 -37.49070 179.70181 434
60.72528 -37.98064 182.06963 431
58.04755 -38.47256 184.45876 429
55.27611 -38.97201 186.93289 427
52.46860 -39.52716 189.50464 424
49.56043 -40.07554 192.08965 422
46.51659 -40.61478 194.77554 413
43.22869 -41.25072 197.54729 410
39.91763 -41.87089 200.36314 407
36.44794 -42.49010 203.29774 405
32.84873 -43.17406 206.34116 402
29.13757 -43.85050 209.52222 399
-183.10001 -83.07191 216.43985 439
83.36015 -34.68678 176.33182 441
81.13920 -35.08849 178.35443 439
75.24020 -36.25229 179.60931 308
62.96750 -38.56189 179.59698 433
60.33804 -39.07283 181.93701 431
57.64420 -39.62617 184.37946 428
54.88426 -40.14307 186.87108 426
52.02458 -40.69070 189.40054 424
49.12592 -41.24119 192.03877 421
45.98935 -41.88741 194.68562 412
42.71619 -42.47718 197.44437 409
39.29534 -43.16442 200.31659 407
35.85208 -43.82813 203.27583 404
32.21523 -44.51193 206.33698 401
28.45506 -45.26778 209.46986 399
-183.00664 -85.71522 216.43683 439
83.13123 -35.63958 176.22231 441
80.86594 -36.10536 178.26486 439
75.40253 -37.16258 179.57684 308
62.63491 -39.70319 179.47273 432
59.99556 -40.23251 181.82053 430
57.25994 -40.74799 184.28413 428
54.46365 -41.32538 186.73627 425
51.61765 -41.89996 189.29010 423
48.64766 -42.49514 191.92610 414
45.41634 -43.11796 194.62399 411
42.16513 -43.79069 197.37891 409
38.76590 -44.44780 200.24403 406
35.22175 -45.15733 203.20248 403
31.59105 -45.89988 206.26109 401
27.79951 -46.64827 209.47212 398
-182.94141 -88.24561 216.41985 439
82.82880 -36.58533 176.14061 440
80.59135 -37.07249 178.13640 436
75.56863 -38.07580 179.58087 308
62.27872 -40.82341 179.37228 432
59.59702 -41.33680 181.74516 429
56.86465 -41.91629 184.18298 427
54.09332 -42.51429 186.64194 425
51.19778 -43.10264 189.22066 422
48.11282 -43.73477 191.84198 413
44.89476 -44.37282 194.54387 411
41.61156 -45.05885 197.32912 408
38.16008 -45.77715 200.16887 405
34.64576 -46.48644 203.14781 403
30.94324 -47.28104 206.21568 400
27.16464 -48.03338 209.40594 397
-188.44879 -92.04177 209.46149 485
-186.67693 -91.66651 216.39665 299
82.57993 -37.56562 175.99049 440
80.30421 -38.07050 178.05591 436
75.72771 -39.04236 179.59528 308
61.87793 -41.94383 179.25655 431
59.23100 -42.50137 181.61627 429
56.48682 -43.07344 184.07469 426
53.64467 -43.69908 186.57147 424
50.73171 -44.32783 189.12509 415
47.62944 -44.95484 191.71631 412
44.36739 -45.65632 194.45189 410
41.00385 -46.38612 197.24020 407
37.57008 -47.08860 200.12299 405
34.01361 -47.86918 203.12355 402
30.32776 -48.63767 206.17088 399
26.44855 -49.46810 209.36963 397
-187.93817 -94.58918 209.35962 485
-193.21187 -95.68725 216.43967 298
82.30080 -38.56591 175.86969 439
80.01508 -39.07396 177.92276 435
75.90840 -39.96077 179.59285 308
61.54782 -43.07694 179.10468 430
58.85819 -43.64708 181.47923 428
56.07771 -44.27996 183.91476 426
53.27153 -44.87265 186.47134 423
50.23248 -45.53843 189.01721 414
47.06878 -46.23793 191.63870 412
43.82321 -46.96295 194.34724 409
40.46644 -47.67963 197.15263 407
37.00230 -48.45427 200.03769 404
33.40855 -49.23092 203.05350 401
29.66420 -50.05969 206.14772 399
25.79014 -50.87748 209.38503 359
-187.48808 -97.18140 209.34952 485
82.03544 -39.55483 175.77681 438
79.73409 -40.06074 177.79010 435
76.10026 -40.87705 179.56854 308
61.16276 -44.20948 178.99951 430
58.46376 -44.84088 181.35402 427
55.67517 -45.43593 183.83963 425
52.82338 -46.07170 186.34831 416
49.75002 -46.77131 188.89879 414
46.55613 -47.48406 191.54747 411
43.28818 -48.22773 194.25938 409
39.90897 -49.01208 197.04962 406
36.40672 -49.79902 199.98970 403
32.77070 -50.59396 203.00702 401
29.00285 -51.48369 206.11209 398
24.88116 -52.39446 209.32008 344
-187.01208 -99.70824 209.43837 485
81.77905 -40.51710 175.65845 438
79.43048 -41.08908 177.68619 434
76.28171 -41.78489 179.58310 308
60.80471 -45.36386 178.87701 429
58.06656 -45.97374 181.24910 427
55.27088 -46.62454 183.71918 425
52.34948 -47.32544 186.22527 415
49.24594 -48.02157 188.78586 413
46.05830 -48.79824 191.41684 410
42.72501 -49.52764 194.15097 408
39.32556 -50.34753 197.00279 405
35.77631 -51.15627 199.91443 403
32.13789 -51.99601 202.91393 400
28.28998 -52.89450 206.05974 387
23.71718 -53.96345 209.28270 343
-186.82426 -102.32975 209.39168 486
81.51614 -41.50464 175.50972 437
79.16566 -42.06865 177.56335 433
76.44572 -42.72924 179.57454 308
60.44495 -46.50578 178.71509 428
57.67527 -47.18927 181.12122 426
54.90473 -47.83302 183.60420 424
51.87043 -48.55957 186.08104 415
48.73676 -49.32953 188.65195 412
45.50692 -50.07412 191.32753 410
42.17168 -50.84966 194.06174 407
38.76730 -51.68050 196.92793 405
35.20679 -52.56224 199.85326 402
31.40707 -53.41361 202.85553 389
27.35375 -54.41877 206.00050 376
22.50822 -55.55930 209.22876 343
-190.84706 -105.99547 209.25084 297
81.26087 -42.50958 175.40430 437
78.89077 -43.12555 177.44847 433
76.44580 -43.69157 179.50920 431
60.06768 -47.66182 178.59476 428
57.33850 -48.36262 181.00278 426
54.41702 -49.07242 183.48886 416
51.35377 -49.82727 185.98616 414
48.24681 -50.59539 188.55875 411
44.96339 -51.35307 191.22412 409
41.64071 -52.21385 193.99648 406
38.13769 -53.06592 196.80783 404
34.47528 -53.95339 199.74600 390
30.56533 -54.92800 202.79149 388
26.32088 -55.96173 205.92206 375
21.33084 -57.16746 209.15816 340
80.98194 -43.52466 175.28333 436
78.59041 -44.13783 177.31366 432
76.15165 -44.75462 179.39163 430
59.71375 -48.86715 178.45708 427
56.93610 -49.56934 180.86839 425
53.94462 -50.28848 183.34161 416
50.87357 -51.06792 185.84053 413
47.73552 -51.84379 188.46457 411
44.46125 -52.68771 191.12730 408
41.08865 -53.51614 193.86848 406
37.46505 -54.46666 196.71889 392
33.64658 -55.37907 199.64395 390
29.67998 -56.40529 202.68939 387
25.24891 -57.53162 205.86382 374
19.70415 -58.91295 209.10648 263
80.69444 -44.56954 175.14922 435
78.30206 -45.15643 177.17577 432
75.82652 -45.78986 179.30217 429
59.31187 -50.05585 178.34846 426
56.49226 -50.74652 180.73463 417
53.50160 -51.52580 183.21358 415
50.40112 -52.32275 185.70705 412
47.20562 -53.17447 188.34772 410
43.91973 -53.98841 190.98425 408
40.38135 -54.90953 193.78020 394
36.66033 -55.88652 196.61417 391
32.81955 -56.89434 199.55502 389
28.66394 -57.95351 202.58603 376
24.13714 -59.14011 205.80760 373
-187.31911 -113.24990 202.29294 495
80.42477 -45.57708 174.98480 435
78.04774 -46.19887 177.03622 431
75.55183 -46.86724 179.13998 429
58.96967 -51.24550 178.19424 426
56.07154 -52.00609 180.57921 417
52.99754 -52.78328 183.08194 414
49.87536 -53.63887 185.60732 412
46.68369 -54.49320 188.22278 409
43.20860 -55.40247 190.89392 396
39.62207 -56.35476 193.62372 393
35.86237 -57.33231 196.51485 391
31.96176 -58.33759 199.45528 388
27.62626 -59.48883 202.53558 375
23.02407 -60.75454 205.73062 372
80.17449 -46.60940 174.85056 434
77.75482 -47.23519 176.94897 430
75.26098 -47.92916 179.03404 428
65.86691 -50.47188 179.66313 304
55.59592 -53.24805 180.46710 416
52.54863 -54.06762 182.91792 413
49.39303 -54.90670 185.47119 411
45.98120 -55.83969 188.04060 397
42.47586 -56.80852 190.76085 395
38.82484 -57.76910 193.53011 392
35.03055 -58.80959 196.39809 390
31.03772 -59.87523 199.37215 377
26.55328 -61.09509 202.40981 374
21.91854 -62.33991 205.63585 371
79.89458 -47.64081 174.72325 433
77.46653 -48.31644 176.79454 430
74.95924 -48.99929 178.89255 427
66.10485 -51.43629 179.66042 304
55.14711 -54.47272 180.29462 415
52.07430 -55.32629 182.77576 413
48.73281 -56.27147 185.30420 399
45.26557 -57.22823 187.87915 396
41.72786 -58.19096 190.60802 394
38.06805 -59.22432 193.36337 391
34.20421 -60.30180 196.29742 389
30.00218 -61.45014 199.26897 376
25.49588 -62.72736 202.34944 373
20.73031 -64.04671 205.53445 370
79.64568 -48.68436 174.59850 433
77.19384 -49.37336 176.64270 429
74.65144 -50.08862 178.78609 427
66.36612 -52.46360 179.68851 304
54.68410 -55.75737 180.15915 414
51.42399 -56.64219 182.62477 400
48.04658 -57.60000 185.14388 398
44.57341 -58.60894 187.73344 396
40.96740 -59.61416 190.44618 393
37.24741 -60.68895 193.22571 391
33.37824 -61.82796 196.13518 377
28.98097 -63.04030 199.13451 375
24.41488 -64.37037 202.23665 372
19.60499 -65.68204 205.46350 369
79.37297 -49.73249 174.44736 432
76.87637 -50.43980 176.51271 428
74.33240 -51.19192 178.64861 426
66.59494 -53.43599 179.65775 304
54.05589 -57.03175 179.94890 402
50.75565 -57.98824 182.43312 400
47.35153 -58.97641 184.97067 397
43.85053 -60.00018 187.60149 395
40.19040 -61.09062 190.30046 392
36.47762 -62.15523 193.11995 390
32.35001 -63.37461 196.00999 377
27.90121 -64.63390 199.02692 374
23.25794 -66.03739 202.15686 371
18.41420 -67.39191 205.43744 369
79.06875 -50.77732 174.31476 431
76.58947 -51.49451 176.36629 428
74.07059 -52.25345 178.52228 425
66.85938 -54.38661 179.64458 304
53.38887 -58.38623 179.78816 401
50.09564 -59.39874 182.21796 399
46.67800 -60.40947 184.81239 396
43.12303 -61.44543 187.42262 394
39.47393 -62.52817 190.16724 391
35.65662 -63.67538 192.97739 389
31.33500 -64.96246 195.88651 376
26.84456 -66.30178 198.89793 373
22.17050 -67.69199 202.02434 370
17.24287 -69.16003 205.33385 368
78.80768 -51.85530 174.17354 431
76.29471 -52.61388 176.24040 427
73.76374 -53.39640 178.38457 425
67.10692 -55.36609 179.68996 304
52.78513 -59.72533 179.59270 400
49.39656 -60.72974 182.06049 398
45.94129 -61.82213 184.62427 395
42.37812 -62.88787 187.28134 393
38.67516 -64.01830 190.01646 391
34.66579 -65.25615 192.83470 377
30.29720 -66.56427 195.75497 375
25.79048 -67.93240 198.77774 372
20.99027 -69.42390 201.93675 369
16.02481 -70.88622 205.26607 367
78.54791 -52.88681 174.00610 429
76.02137 -53.67965 176.10040 426
73.44551 -54.49513 178.21336 424
67.41618 -56.34519 179.67039 304
52.13223 -61.11247 179.34662 399
48.72622 -62.14270 181.88869 397
45.24611 -63.26087 184.42032 395
41.60977 -64.35637 187.11855 392
37.88380 -65.52095 189.82936 390
33.70981 -66.85589 192.67516 376
29.30680 -68.17274 195.57381 374
24.67073 -69.65324 198.66870 371
19.88183 -71.15884 201.83345 369
14.82198 -72.73014 205.14757 337
78.26321 -53.99673 173.84451 428
75.71364 -54.76680 175.93416 426
73.13370 -55.59264 178.07433 423
67.68068 -57.32431 179.64999 304
51.48559 -62.45192 179.16949 398
48.02808 -63.54827 181.66994 396
44.51714 -64.70686 184.27348 394
40.87462 -65.82469 186.91914 391
36.97649 -67.09212 189.65697 378
32.71384 -68.41883 192.52946 376
28.20965 -69.87166 195.45778 373
23.55563 -71.32932 198.51335 370
18.65682 -72.86666 201.72388 368
12.30258 -74.89375 204.98341 321
78.00028 -55.06694 173.69002 427
75.45248 -55.88911 175.81409 425
72.84851 -56.72288 177.95999 423
67.95488 -58.31623 179.63969 304
50.77794 -63.86700 178.97601 398
47.34084 -65.00694 181.46727 395
43.80630 -66.16055 184.08192 393
40.09558 -67.31567 186.76648 390
36.03173 -68.64639 189.52563 377
31.69901 -70.08858 192.35397 375
27.17932 -71.51340 195.27403 372
22.42258 -73.05497 198.38203 369
16.83313 -74.86924 201.53555 338
9.37008 -77.32481 204.87050 320
77.71272 -56.14099 173.53564 426
75.16256 -57.00063 175.62610 424
72.51751 -57.88980 177.82133 422
68.26996 -59.28932 179.66331 304
50.15902 -65.28397 178.75075 397
46.67459 -66.39843 181.27234 394
43.07934 -67.60377 183.85732 392
39.28587 -68.86971 186.55412 379
35.09702 -70.25008 189.30334 376
30.65780 -71.69434 192.15810 374
26.10243 -73.23802 195.17392 371
20.89594 -74.97478 198.23759 339
14.49025 -77.08279 201.35568 321
6.31756 -79.76406 204.68365 319
77.42989 -57.26549 173.40273 426
74.86082 -58.13185 175.47237 424
72.20253 -59.03102 177.65445 421
68.53658 -60.24688 179.64279 304
49.46697 -66.66611 178.52617 396
45.95973 -67.86092 181.07140 394
42.33814 -69.09841 183.67497 391
38.38201 -70.42992 186.34554 378
34.10381 -71.92513 189.14728 375
29.64801 -73.42686 191.96802 373
24.82008 -75.00647 194.98949 341
18.77113 -77.08215 197.99307 338
11.60123 -79.49941 201.12143 320
3.17705 -82.32366 204.44695 317
77.16830 -58.35810 173.21613 425
74.58807 -59.25140 175.32321 423
71.74332 -60.24498 177.47192 393
68.73724 -61.28813 179.60570 405
48.80965 -68.11736 178.31334 395
45.22867 -69.34122 180.85019 393
41.59325 -70.61103 183.49463 390
37.44342 -72.05756 186.15910 377
33.07690 -73.55724 188.91037 374
28.56665 -75.08415 191.81975 372
22.80128 -77.10111 194.70544 340
16.67145 -79.19674 197.80576 321
8.61231 -81.97710 200.89624 319
-0.06970 -85.00512 204.28812 316
76.89622 -59.49008 173.07127 424
74.18833 -60.43391 175.15332 394
71.08981 -61.52509 177.23378 392
68.13236 -62.56540 179.41733 404
48.08258 -69.56383 178.12100 394
44.53937 -70.86758 180.65016 392
40.68727 -72.21740 183.24805 379
36.47339 -73.70854 185.97585 376
32.06397 -75.23560 188.72989 374
26.73986 -77.08311 191.53551 341
20.78567 -79.20324 194.46581 338
13.78566 -81.65389 197.50493 320
5.53033 -84.57138 200.67783 318
-3.42030 -87.71941 204.11641 315
76.57741 -60.60037 172.91977 424
73.56911 -61.69024 174.92549 393
70.46082 -62.81816 176.96165 391
67.47974 -63.85550 179.19875 403
56.34782 -67.88785 179.77592 300
43.79720 -72.35723 180.45218 391
39.76703 -73.79273 183.03020 378
35.46412 -75.33340 185.73485 375
30.56118 -77.08760 188.43759 342
24.78569 -79.18932 191.25061 340
18.70701 -81.35396 194.19614 337
10.89928 -84.14133 197.18596 319
2.34693 -87.26740 200.44278 317
-10.48033 -91.77728 203.66568 271
76.05223 -61.85091 172.66339 395
72.96525 -62.95798 174.65948 392
69.81194 -64.13076 176.73921 390
66.85096 -65.17857 178.94963 402
56.69781 -68.89391 179.76616 300
43.00007 -73.91849 180.23067 379
38.81831 -75.41844 182.79840 377
34.27850 -77.11713 185.47305 344
28.68010 -79.12685 188.15149 341
22.77636 -81.28335 190.96384 339
16.05810 -83.75110 193.86940 321
7.86822 -86.72962 196.86951 318
-0.96836 -89.96008 200.17516 316
75.42529 -63.09486 172.38898 394
72.34376 -64.23817 174.39059 392
69.16426 -65.43416 176.50270 389
66.22748 -66.56007 178.76288 401
57.05267 -69.95232 179.77560 300
42.08657 -75.51499 179.95003 378
37.85591 -77.05858 182.56441 345
32.47652 -79.11767 185.09619 343
26.75991 -81.24821 187.82434 340
20.73643 -83.44609 190.63174 338
13.15191 -86.27792 193.51744 319
4.73313 -89.41762 196.59474 317
-9.61830 -94.74312 199.53159 271
74.84805 -64.37351 172.10878 393
71.72018 -65.57251 174.14244 391
68.48431 -66.78612 176.24164 388
65.56174 -67.88467 178.49942 400
57.39074 -71.01276 179.73962 300
41.18585 -77.12601 179.68538 377
36.14827 -79.04425 182.19240 344
30.60695 -81.14660 184.78517 341
24.77802 -83.37294 187.47156 339
18.25515 -85.82642 190.28996 321
10.14611 -88.88776 193.15768 318
0.46708 -92.60313 196.14378 290
74.23560 -65.65490 171.84882 392
71.09324 -66.90382 173.89906 390
67.81836 -68.15489 176.00836 387
64.91686 -69.27021 178.26863 399
57.78000 -72.05965 179.75937 300
39.74069 -79.00716 179.35953 345
34.40327 -81.05791 181.82939 343
28.70432 -83.23006 184.42372 340
22.75089 -85.56013 187.12148 338
15.40392 -88.41470 189.90135 320
7.09206 -91.62646 192.77765 317
-8.65781 -97.68721 195.35834 271
74.43771 -66.62231 171.79886 316
70.45588 -68.24130 173.59962 389
67.13441 -69.50528 175.72643 387
64.25520 -70.65854 178.02467 398
58.14830 -73.08830 179.74136 300
38.05360 -80.96275 178.93091 344
32.57882 -83.12899 181.41159 342
26.82234 -85.37487 184.02179 339
20.47221 -87.85245 186.72298 321
12.51012 -91.01036 189.43465 319
1.65187 -95.30721 192.15285 290
74.79814 -67.58271 171.79747 316
69.81914 -69.57101 173.37338 388
66.44480 -70.93761 175.44809 386
63.60524 -72.05951 177.78595 397
58.50426 -74.09994 179.73152 300
36.34090 -82.99008 178.49530 343
30.71961 -85.23125 180.99265 341
24.81831 -87.59046 183.60083 338
17.70389 -90.41576 186.30072 320
8.90125 -93.94641 188.97943 291
-7.62964 -100.57749 191.14841 271
75.13689 -68.52774 171.83023 316
69.12905 -70.93656 173.05940 387
65.79250 -72.33494 175.21243 385
62.95049 -73.51564 177.57477 396
58.91822 -75.12267 179.74510 300
34.56898 -85.04372 178.09143 342
28.80122 -87.40560 180.59384 339
22.76821 -89.90137 183.18205 321
14.83357 -93.09489 185.81010 319
2.86343 -97.96638 188.15662 290
75.49003 -69.45107 171.82568 316
68.49273 -72.35346 172.81007 386
65.09532 -73.76766 174.92065 384
62.24284 -74.92422 177.32964 395
59.27518 -76.15268 179.73412 300
32.73381 -87.16169 177.61270 341
26.92021 -89.61527 180.17122 338
20.04334 -92.47851 182.71828 320
10.14834 -96.52162 185.07452 291
-6.46158 -103.47079 186.89069 271
75.86423 -70.38292 171.80548 316
67.83675 -73.75668 172.51939 385
64.40408 -75.21000 174.67593 396
61.57442 -76.41853 177.06306 394
58.66047 -77.64156 179.48532 392
44.57880 -83.54227 179.88054 296
24.92125 -91.85649 179.71483 337
17.10897 -95.17573 182.15425 292
4.18393 -100.62717 184.13995 290
-54710.85547 -23158.36328 -4648.81641 1000
76.22179 -71.29082 171.77826 316
67.14161 -75.17052 172.20018 384
63.74345 -76.66351 174.40373 395
60.86084 -77.89529 176.80099 393
57.94379 -79.17517 179.26299 391
45.04251 -84.70663 179.85378 296
22.32639 -94.43536 179.17523 320
11.47418 -99.09839 181.13858 291
-5.21560 -106.26080 182.69261 271
76.60635 -72.22872 171.78987 316
66.48188 -76.62900 171.94366 383
63.06406 -78.11081 174.11203 394
60.17826 -79.37585 176.50551 392
57.17243 -80.70406 178.99831 390
45.51074 -85.78946 179.84616 296
18.40173 -97.61534 178.33722 292
5.54223 -103.23566 180.08907 289
-23.87544 -116.07908 179.91211 337
76.95901 -73.13882 171.78680 316
66.74333 -77.65399 171.87813 312
62.37741 -79.58215 173.84152 393
59.43686 -80.88879 176.27904 391
56.15809 -82.39548 178.67599 334
45.93829 -86.91490 179.84947 296
12.85425 -101.56929 177.26830 291
-19.22840 -115.81392 175.98663 338
-19.99087 -116.11884 180.41492 284
77.34859 -74.04415 171.79745 316
67.13686 -78.65151 171.85736 312
61.69488 -81.10751 173.51726 392
58.71159 -82.46997 175.98965 390
54.19148 -84.51090 178.17198 333
46.43129 -88.03989 179.83730 296
6.98941 -105.82522 176.06535 289
-14.76312 -115.55772 176.63846 340
-19.35530 -117.68600 180.36726 284
77.73018 -74.94571 171.78528 316
67.57121 -79.60837 171.88586 312
60.97757 -82.61368 173.23224 391
56.94880 -84.50043 175.43443 334
52.17085 -86.71134 177.63655 332
46.90023 -89.15266 179.81816 296
29.18349 -97.23656 179.99640 292
-5.49688 -113.16085 178.00961 283
-18.67902 -119.15572 180.41762 284
78.14048 -75.88583 171.76587 316
67.97196 -80.59193 171.85081 312
59.70849 -84.43759 172.78700 335
55.00986 -86.64933 174.86078 333
50.11073 -88.92551 177.08966 331
45.13176 -91.28268 179.41603 330
29.68988 -98.48957 179.96126 292
8.30303 -108.39507 180.14618 288
-18.04371 -120.70906 180.42155 284
78.50561 -76.77479 171.78012 316
68.37592 -81.57210 171.85768 312
57.82029 -86.58081 172.18562 334
52.99562 -88.87947 174.30954 332
48.00145 -91.26511 176.49812 331
42.88079 -93.68069 178.84590 329
30.19535 -99.68920 179.97345 292
8.91517 -109.76299 180.18100 288
78.92523 -77.67226 171.78987 316
68.84081 -82.55383 171.85384 312
57.36705 -88.03332 171.94652 308
50.95373 -91.15344 173.67587 330
45.80317 -93.65768 175.86328 329
40.53444 -96.17641 178.24182 327
30.76403 -100.86643 179.97131 292
9.52267 -111.10456 180.14821 288
79.34307 -78.59583 171.79210 316
69.29789 -83.48631 171.85324 312
57.85286 -89.11229 171.97757 308
48.81704 -93.52093 173.02129 329
43.54345 -96.07323 175.26752 328
38.11987 -98.76481 177.64021 326
31.17193 -102.15903 179.93039 280
10.15971 -112.41444 180.14182 288
79.74258 -79.46684 171.75665 316
69.71603 -84.46622 171.84511 312
58.33278 -90.15594 171.96523 308
46.67432 -95.91959 172.40494 328
41.19290 -98.63583 174.64331 327
35.64915 -101.40312 177.06247 325
22.92757 -107.72826 178.32916 279
8.63164 -114.82982 179.80402 277
80.18732 -80.39164 171.76860 316
70.15659 -85.43888 171.85837 312
58.81437 -91.16873 171.97279 308
45.80990 -97.71159 172.05898 304
38.83421 -101.22503 173.99796 326
28.84402 -106.29190 175.58009 278
14.01431 -113.78653 176.56245 278
80.59778 -81.30635 171.76727 316
70.62567 -86.39131 171.85359 312
59.31472 -92.19534 171.93388 308
46.31962 -98.85027 172.04453 304
35.23696 -104.49017 173.07285 278
19.98658 -112.36510 173.63989 276
-7.22629 -126.27441 172.50237 292
81.03664 -82.19216 171.74611 316
71.10928 -87.36611 171.85251 312
59.81527 -93.21643 171.91980 308
46.83448 -99.94030 172.06897 304
31.89872 -107.73439 172.20505 300
14.30903 -116.84470 172.35706 296
-53.13430 -151.94601 163.88727 368
81.45471 -83.04997 171.77638 316
71.55572 -88.32012 171.85350 312
60.29865 -94.23711 171.95691 308
47.43290 -101.02490 172.03259 304
32.45522 -108.93486 172.19507 300
14.94336 -118.15250 172.32021 296
-49.20179 -152.01701 164.42659 369
81.90996 -83.97759 171.75327 316
72.00319 -89.23565 171.85963 312
60.81047 -95.26041 171.96117 308
47.98098 -102.14182 172.06917 304
33.04269 -110.09878 172.16370 300
15.62466 -119.43073 172.32547 296
-45.08164 -151.91689 164.97742 361
82.37109 -84.83846 171.76260 316
72.50601 -90.17574 171.84943 312
61.30663 -96.25338 171.90575 308
48.51268 -103.25609 172.01578 304
33.64812 -111.30543 172.13905 300
16.30616 -120.75040 172.30862 296
-42.95783 -152.95142 165.21173 286
82.82351 -85.73981 171.76114 316
73.00919 -91.14922 171.84172 312
61.82908 -97.31806 171.94717 308
49.08818 -104.33918 172.05197 304
34.28122 -112.52084 172.13440 300
16.96566 -122.05515 172.31046 296
-42.03477 -154.54071 165.24384 286
-1417.75122 -912.78973 31.27005 471
-1425.33704 -917.73175 61.50176 362
83.27654 -86.60012 171.72974 316
73.46648 -92.08810 171.84676 312
62.36199 -98.28355 171.89891 308
49.66164 -105.40034 172.03789 304
34.92204 -113.65874 172.18571 300
17.61581 -123.36528 172.28072 296
-41.13670 -156.19281 165.24246 286
-1409.05396 -921.78967 31.64118 497
-1412.65112 -923.47626 61.95598 496
-1416.41553 -925.78961 92.58415 496
83.71582 -87.48806 171.75201 316
73.99883 -93.03684 171.81653 312
62.91420 -99.28407 171.90970 308
50.22618 -106.51324 172.01138 304
35.54408 -114.88307 172.14386 300
18.28354 -124.66163 172.27060 296
-40.22454 -157.88487 165.20097 286
-1408.89648 -935.05963 31.18184 427
-1413.09045 -937.33472 61.81011 365
84.21932 -88.34512 171.75140 316
74.46016 -93.95363 171.82483 312
63.44739 -100.32899 171.91980 308
50.82851 -107.60599 172.00595 304
36.14707 -116.05615 172.11555 300
-25.43014 -151.45988 162.96907 367
-39.28650 -159.48624 165.25540 286
84.66127 -89.22926 171.72833 316
75.00231 -94.89597 171.82692 312
63.99966 -101.29942 171.92577 308
51.42202 -108.67580 172.03053 304
36.81469 -117.18159 172.11147 300
-21.74212 -151.42230 163.53197 368
85.13638 -90.10654 171.74301 316
75.52942 -95.80598 171.80135 312
64.53979 -102.31669 171.88159 308
52.01818 -109.76217 171.98619 304
37.44495 -118.34580 172.15857 300
-18.18525 -151.36188 164.12015 370
85.62939 -90.98539 171.71227 316
76.03371 -96.76772 171.78955 312
65.08644 -103.29750 171.91908 308
52.61665 -110.82314 172.01451 304
38.11369 -119.53010 172.13977 300
-14.65765 -151.20387 164.68842 371
-30604.48633 -18527.05273 -3324.25439 1000
86.13146 -91.81848 171.72914 316
76.52596 -97.68825 171.81236 312
65.66039 -104.28732 171.89914 308
53.18895 -111.90325 172.02295 304
38.74648 -120.68585 172.14059 300
-11.23492 -151.15779 165.22641 372
86.61512 -92.68230 171.70755 316
77.07705 -98.56399 171.81436 312
66.25525 -105.26833 171.88187 308
53.81871 -112.98639 171.98846 304
39.42092 -121.87082 172.14879 300
-7.92169 -151.09277 165.70869 291
87.14000 -93.55805 171.73303 316
77.63908 -99.49799 171.80241 312
66.80485 -106.26390 171.88931 308
54.46656 -113.99670 171.97083 304
40.08785 -122.99654 172.09698 300
-7.02653 -152.52844 165.75215 291
87.61315 -94.38757 171.72650 316
78.16633 -100.40638 171.77255 312
67.41705 -107.23555 171.89549 308
55.09785 -115.09772 171.97632 304
40.81092 -124.14809 172.12436 300
-6.13516 -153.90892 165.78395 291
88.12582 -95.22530 171.71962 316
78.69745 -101.32299 171.79623 312
67.98659 -108.22268 171.89233 308
55.68151 -116.13608 172.00218 304
2.82543 -150.17473 162.98552 285
-5.21362 -155.32948 165.77861 291
88.65825 -96.09914 171.71507 316
79.24297 -102.25473 171.78554 312
68.59045 -109.19711 171.89725 308
56.34160 -117.17727 171.96483 304
4.82564 -150.78543 163.23795 379
-4.20082 -156.70285 165.79100 291
-1946.98474 -1423.92542 3.51909 410
89.19323 -96.94846 171.69481 316
79.80650 -103.14043 171.75996 312
69.18043 -110.19377 171.87689 308
56.99029 -118.22112 171.94910 304
7.84476 -150.68507 163.74992 380
-3.34600 -158.11096 165.75385 290
-1931.89734 -1433.98779 3.68568 498
-1936.78394 -1436.71069 46.26467 497
89.70257 -97.80091 171.69547 316
80.36070 -104.03040 171.76517 312
69.77401 -111.15784 171.84863 308
57.67454 -119.27544 171.97920 304
10.86016 -150.60982 164.21346 381
-2.41536 -159.48477 165.72626 290
90.25593 -98.63549 171.66408 316
80.93096 -104.94556 171.77502 312
70.42793 -112.11974 171.87225 308
58.29035 -120.32176 171.94742 304
-33.82755 -22.96259 -8.13495 382
90.80129 -99.46534 171.68886 316
81.53162 -105.81638 171.78389 312
71.04852 -113.07808 171.82848 308
59.01067 -121.33835 171.96172 304
16.63567 -150.50963 165.24423 384
91.34561 -100.28487 171.66956 316
82.09531 -106.69363 171.75522 312
71.62543 -114.03154 171.86630 308
59.65436 -122.37660 171.92638 304
19.44339 -150.45537 165.68266 385
91.86164 -101.08968 171.67223 316
82.68935 -107.57997 171.76596 312
72.26281 -114.93999 171.83867 308
60.36066 -123.42947 171.96565 304
22.11225 -150.36832 166.15594 297
92.44044 -101.92644 171.66769 316
83.26948 -108.46848 171.76028 312
72.90848 -115.93482 171.84761 308
28.40509 -147.81071 163.26364 297
23.00510 -151.61237 166.14169 297
-2440.12207 -1915.70520 0.95972 496
92.99493 -102.76457 171.68573 316
83.89050 -109.32941 171.74223 312
73.56561 -116.87680 171.83839 308
29.02684 -149.09044 163.22237 296
23.86402 -152.83459 166.11185 297
93.53941 -103.58997 171.66682 316
84.49615 -110.24557 171.72322 312
74.21606 -117.80008 171.80806 308
30.31051 -150.01480 163.33562 387
24.77909 -154.09923 166.12123 297
94.11579 -104.40166 171.67537 316
85.07383 -111.07616 171.73016 312
74.84734 -118.71607 171.80202 308
32.88846 -149.95207 163.81360 388
25.71463 -155.29285 166.15952 297
94.70274 -105.17590 171.67172 316
85.68787 -111.98633 171.73549 312
75.49270 -119.63275 171.80937 308
35.48328 -149.88014 164.25903 389
26.56795 -156.51817 166.10933 297
95.25500 -105.99119 171.62758 316
86.34620 -112.84805 171.73817 312
76.15319 -120.57340 171.81003 308
37.97278 -149.76407 164.70761 390
27.53124 -157.79030 166.13847 297
95.87086 -106.79269 171.64398 316
86.96873 -113.69897 171.71809 312
76.83058 -121.51389 171.78871 308
40.46923 -149.63379 165.12254 392
28.39645 -158.95155 166.11349 297
96.42928 -107.60027 171.64049 316
87.55650 -114.54420 171.72139 312
49.35738 -144.49947 163.47275 300
42.86895 -149.56734 165.56023 393
97.04170 -108.39847 171.61279 316
88.21626 -115.37680 171.72227 312
50.01715 -145.68448 163.40797 300
45.28832 -149.49611 165.97308 394
97.64013 -109.18945 171.62579 316
88.84595 -116.24916 171.72591 312
50.78114 -146.83534 163.39717 300
47.08917 -149.82687 166.22339 302
98.22266 -109.98734 171.60217 316
89.50705 -117.08604 171.70213 312
51.49434 -148.03871 163.30832 300
47.99260 -150.89638 166.25197 302
98.85191 -110.76606 171.62714 316
90.13535 -117.95238 171.66769 312
52.17148 -149.19835 163.26047 300
48.87033 -151.92236 166.26804 302
99.43938 -111.56820 171.61887 316
90.80986 -118.76215 171.69528 312
54.37954 -149.10876 163.70412 398
49.77419 -153.02165 166.25571 301
100.06467 -112.34087 171.62772 316
91.46513 -119.57887 171.68449 312
56.63060 -149.03638 164.10001 399
50.63338 -154.11224 166.23450 301
100.69029 -113.11488 171.60526 316
92.14057 -120.40520 171.66754 312
58.77999 -148.99559 164.52452 401
51.57724 -155.18011 166.22501 301
101.33242 -113.87990 171.60092 316
68.38763 -142.39743 163.59338 304
60.88517 -148.86464 164.87846 402
52.43425 -156.18631 166.27629 301
101.96091 -114.64059 171.57440 316
69.12418 -143.39732 163.54657 304
62.96959 -148.80066 165.29599 403
53.38287 -157.28372 166.24066 301
102.60403 -115.39590 171.58994 316
69.85316 -144.45105 163.52216 304
65.06844 -148.73112 165.65559 404
103.22449 -116.16964 171.57843 316
70.57229 -145.51981 163.46513 304
67.09255 -148.66570 165.98346 405
103.85857 -116.89594 171.57619 316
71.34121 -146.56369 163.42886 304
68.97489 -148.69698 166.33876 306
104.51396 -117.63890 171.55759 316
72.05044 -147.54707 163.41838 304
69.83083 -149.62564 166.36023 306
105.17156 -118.42653 171.58005 316
73.00726 -148.43916 163.42001 408
70.72078 -150.55579 166.36986 306
105.84069 -119.16703 171.57283 316
74.91077 -148.34195 163.81009 409
71.60783 -151.49339 166.35799 306
106.51897 -119.86787 171.56056 316
76.83715 -148.26019 164.12802 410
72.51536 -152.44673 166.34076 306
86.12771 -141.00987 163.70323 311
78.69100 -148.19461 164.51015 412
73.40011 -153.36786 166.36119 306
86.85349 -141.93042 163.64896 308
80.55067 -148.15051 164.85880 413
74.31068 -154.22627 166.38708 306
87.55898 -142.86649 163.61975 308
82.36526 -148.07268 165.20094 414
75.19174 -155.15346 166.34161 305
88.34717 -143.75699 163.59470 308
84.10507 -148.04138 165.53625 415
76.10392 -156.07068 166.38255 305
89.06715 -144.70674 163.58151 308
85.86841 -147.95422 165.84288 416
77.06255 -156.99084 166.36945 305
89.83511 -145.57458 163.52092 307
87.65052 -147.86320 166.14619 417
90.61694 -146.50407 163.51283 307
89.22031 -147.93896 166.41261 310
91.39036 -147.41599 163.45012 307
90.11289 -148.79817 166.41040 310
92.70765 -147.69051 163.68703 420
90.98379 -149.57005 166.43462 310
94.37119 -147.63333 163.96793 421
91.84918 -150.38783 166.44461 310
-17614.25391 -19346.05078 4991.95508 1000
96.01717 -147.59285 164.29948 422
92.72172 -151.16212 166.43231 310
97.67968 -147.41388 164.61340 412
93.59568 -151.96243 166.41603 310
99.39666 -147.27846 164.95659 413
94.53133 -152.78065 166.42064 310
101.04102 -147.12262 165.28191 414
95.38325 -153.53613 166.43666 310
102.71181 -146.95213 165.60789 415
96.30954 -154.32042 166.46936 310
104.32934 -146.78528 165.95726 416
97.22375 -155.08180 166.47035 310
105.92648 -146.59737 166.24356 417
98.14560 -155.84521 166.48550 310
107.29440 -146.74139 166.47600 314
108.12834 -147.43243 166.45760 314
109.00616 -148.12547 166.43973 314
109.87775 -148.85080 166.44548 314
110.75224 -149.53246 166.44324 314
111.59163 -150.24573 166.47125 314
112.49781 -150.91443 166.45337 314
115.60314 -148.67464 167.45038 316
116.46515 -149.35126 167.45280 316
117.30777 -149.99281 167.43202 316
117.13502 -150.23180 170.56194 312
118.19973 -150.67282 167.43414 316
120.45129 -149.38678 168.10843 490
124.55989 -149.11647 168.80458 490
-16454.06445 -33584.25000 3264.35620 1000
-2252.45703 -12927.94336 -1966.01868 1000
25803.43555 -50106.64844 12362.79297 1000
1461.81494 -977.02417 30.46611 416
1465.22205 -980.15619 56.04785 416
1469.68616 -983.08435 81.82169 467
1472.26624 -985.36609 107.85069 353
1464.26709 -966.59863 30.92561 494
1468.05322 -969.63068 56.31388 497
1472.54382 -972.96942 81.95616 493
1477.40027 -977.03345 107.99966 438
357.32288 -112.18018 167.58118 316
1472.05383 -960.33722 30.47061 476
1477.79517 -964.53381 56.13110 432
358.04800 -111.32790 167.57924 316
358.74048 -110.41081 167.55881 316
359.45117 -109.49659 167.57507 315
360.14316 -108.60461 167.57153 315
360.86520 -107.71505 167.61501 315
361.57535 -106.76920 167.62077 315
362.26053 -105.86205 167.59392 315
362.94608 -104.93242 167.59105 315
363.61606 -104.04545 167.61620 315
364.29645 -103.10498 167.60191 315
365.01462 -102.18607 167.59996 315
365.68732 -101.24021 167.60959 315
366.38940 -100.35595 167.61639 439
367.81244 -99.89135 167.37262 438
369.18845 -99.42950 167.15810 437
378.16696 -105.00449 167.66696 310
370.61060 -98.91873 166.87752 436
378.79669 -103.97758 167.65201 310
372.03455 -98.41089 166.68040 435
379.49329 -102.93561 167.68152 310
373.46017 -97.92075 166.39946 434
380.11835 -101.90658 167.68980 310
374.90970 -97.44185 166.16217 433
380.78845 -100.90744 167.69304 310
376.40735 -96.90681 165.91609 432
381.42413 -99.83778 167.70480 311
377.86575 -96.39660 165.65404 431
382.10175 -98.80740 167.67506 311
379.39240 -95.86783 165.39464 430
382.74179 -97.78790 167.71974 311
380.91766 -95.34490 165.11894 429
383.39438 -96.72437 167.72302 311
382.39893 -94.82620 164.81462 428
383.98932 -95.70914 167.70651 311
383.39084 -93.98322 164.71332 317
384.62521 -94.65944 167.71298 311
384.07294 -92.97868 164.70825 317
385.51068 -93.77673 167.62759 427
384.70889 -91.91341 164.70190 317
387.12781 -93.21011 167.36728 426
385.30859 -90.89794 164.73480 317
388.73499 -92.67293 167.06294 425
385.95966 -89.87236 164.68623 317
390.29953 -92.09591 166.82898 424
399.74487 -96.89201 167.71672 306
386.58780 -88.85082 164.68790 317
391.94562 -91.53342 166.52074 423
400.33963 -95.71848 167.70285 306
387.18823 -87.77691 164.70020 317
393.63654 -90.96957 166.22809 422
400.97617 -94.61072 167.72217 306
387.79449 -86.75305 164.66754 317
395.29626 -90.39272 165.92657 421
401.54245 -93.42175 167.75613 306
388.37802 -85.70851 164.70421 317
396.98318 -89.78216 165.63768 420
402.16910 -92.25867 167.77467 306
388.97705 -84.60125 164.68132 317
398.69113 -89.18732 165.34332 419
402.74100 -91.09961 167.77640 306
389.54605 -83.59167 164.69724 317
400.45056 -88.61639 164.98611 418
403.31738 -89.93834 167.78571 306
390.16226 -82.50749 164.68492 317
401.74298 -87.77903 164.77666 313
403.86874 -88.75545 167.77960 306
367.68716 -71.11759 171.50117 318
402.35120 -86.65965 164.81287 313
404.42340 -87.56956 167.82092 307
368.16669 -70.18210 171.47324 318
402.93277 -85.54078 164.76320 313
405.74167 -86.75958 167.58839 415
368.63437 -69.23347 171.50165 318
403.53720 -84.34048 164.81599 313
407.48450 -86.08280 167.29890 434
369.10388 -68.27035 171.48286 317
404.13596 -83.18945 164.80540 313
409.02936 -85.31780 167.07106 433
369.54144 -67.32597 171.51031 317
404.66986 -82.04391 164.78035 313
410.59793 -84.55895 166.81094 432
369.97223 -66.38819 171.52412 317
405.23901 -80.92071 164.75990 313
412.18594 -83.78909 166.52847 431
370.44174 -65.44304 171.51860 317
405.78021 -79.75357 164.79300 313
413.83337 -83.00193 166.31036 430
423.03641 -86.71774 167.78458 302
370.86096 -64.48824 171.49933 317
406.34018 -78.60136 164.80589 313
415.45023 -82.19518 166.02393 429
423.59341 -85.45589 167.77164 302
371.30640 -63.52275 171.52742 317
406.88956 -77.43504 164.79407 313
417.09467 -81.40401 165.73746 428
