# .PCD v.7 - Point Cloud Data file format
VERSION .7
FIELDS x y z rgb
SIZE 4 4 4 4
TYPE F F F U
COUNT 1 1 1 1
WIDTH 1406
HEIGHT 1
VIEWPOINT 5967.144531 -4031.195557 141.721680 0.070455 -0.125861 -0.008654 0.989505
POINTS 1406
DATA ascii
442.81137 27.66899 172.16400 301
485.99072 32.97306 168.06938 458
269.52386 6.86440 203.50119 314
398.71133 23.41611 171.74355 313
411.38495 24.99547 171.87836 309
425.89249 26.86373 172.03566 305
442.68576 29.05000 172.20714 301
485.52139 34.50958 168.16098 294
269.51862 7.14995 203.50623 314
398.61893 24.50507 171.74573 313
411.28015 26.15952 171.87074 309
425.75000 28.13317 171.99777 305
477.86426 35.10715 165.11057 300
485.41983 36.10696 168.10927 294
16920.73633 2243.04102 2719.64722 1000
269.52161 7.43738 203.50482 314
398.48779 25.57771 171.74295 313
411.12100 27.36022 171.87779 309
425.62354 29.38459 172.01178 305
477.69174 36.70597 165.07149 300
485.32913 37.74932 168.10451 294
269.50882 7.72867 203.50986 314
398.35135 26.61337 171.77271 313
411.01920 28.46950 171.87663 309
425.52792 30.62763 171.99878 305
477.50534 38.21520 165.13609 300
485.22119 39.39074 168.04884 293
269.50186 8.03293 203.50731 314
398.23624 27.72830 171.78250 313
410.89810 29.67175 171.90361 309
425.35101 31.83769 172.03749 305
477.29581 39.79877 165.13513 300
485.10797 41.02077 168.04555 293
63633.24609 9701.01270 10821.48535 1000
269.49344 8.32279 203.50424 314
398.10501 28.81226 171.73595 313
410.72995 30.80880 171.88828 309
425.22482 33.11807 172.01611 305
477.16757 41.36469 165.13330 300
484.95764 42.62452 168.06792 293
269.48459 8.60719 203.50354 314
397.97070 29.86556 171.77858 313
410.60190 31.95118 171.89931 309
425.05066 34.36179 172.04332 305
476.47171 42.85423 165.15482 444
484.77560 44.26156 168.02864 293
269.46558 8.89699 203.50092 314
397.85361 30.97121 171.75954 313
410.44162 33.09761 171.89110 309
424.88925 35.59130 172.04080 305
475.08282 44.19453 165.45096 445
484.68045 45.82745 168.04219 293
269.44180 9.19068 203.49950 314
397.69095 32.00219 171.75374 312
410.26965 34.28076 171.85106 309
424.68869 36.82889 172.01904 305
473.64526 45.52263 165.68762 446
269.42911 9.47900 203.50983 314
397.55228 33.10181 171.77148 312
410.11679 35.41346 171.87238 309
424.51193 38.09115 172.02875 305
472.21780 46.89766 165.89557 447
269.40979 9.77173 203.49754 314
397.37723 34.14675 171.75316 312
409.92514 36.55535 171.87029 309
424.34750 39.32352 172.02490 305
470.84995 48.14273 166.11450 448
269.38718 10.05908 203.49921 314
397.19781 35.23296 171.76851 312
409.79715 37.69190 171.85635 309
424.14615 40.55835 171.99518 305
469.41064 49.46253 166.33774 449
269.36557 10.35058 203.50131 314
397.02716 36.30434 171.72490 312
409.59906 38.83870 171.87834 309
423.93393 41.76077 171.99623 305
468.09506 50.77856 166.56483 449
269.33325 10.63453 203.50806 314
396.85715 37.39846 171.73584 312
409.38232 39.98169 171.84857 309
455.66409 49.70491 164.97084 303
466.66821 52.05471 166.77718 450
269.30603 10.92887 203.50067 314
396.65704 38.45182 171.74782 312
409.19138 41.15248 171.86816 309
455.37967 51.13484 164.94151 303
465.35565 53.32503 167.01668 451
269.28033 11.21060 203.49792 314
396.48361 39.52496 171.71649 312
408.99951 42.29721 171.85393 309
455.12781 52.52971 164.92743 303
464.04590 54.54350 167.23193 452
269.25565 11.49546 203.50513 314
396.28021 40.56068 171.74023 312
408.77322 43.41796 171.86421 309
454.86826 53.97717 164.92409 303
462.69714 55.75013 167.45795 453
269.23926 11.78765 203.49803 289
396.06161 41.63799 171.73537 312
408.52948 44.55703 171.88321 309
454.54837 55.37378 164.97720 303
461.02737 56.94108 167.72701 421
3241.68921 711.54913 166.38741 415
384.89133 40.04106 171.63339 316
395.86209 42.68573 171.73413 312
408.29623 45.68993 171.84857 309
454.23318 56.83833 164.98213 303
459.53696 58.12145 167.98265 297
3249.84082 732.74829 115.52190 438
3226.64282 727.20538 166.23322 394
384.69568 41.04197 171.63316 316
395.65009 43.78017 171.74171 312
408.09360 46.84489 171.84726 308
453.92844 58.26628 164.97520 303
459.30350 59.58079 167.93285 297
3222.82910 745.86230 115.76830 299
3217.16479 744.05585 166.28082 382
384.49207 42.02466 171.61421 316
395.45090 44.81172 171.73715 312
407.81516 48.00043 171.86540 308
453.62363 59.64017 164.97011 303
459.02362 61.01027 167.90981 297
3192.35620 757.13220 116.85023 413
3251.01489 770.12537 165.75073 438
384.25745 43.03837 171.61774 316
395.18768 45.87532 171.72507 312
407.59958 49.14273 171.84641 308
453.26947 61.03634 164.97079 303
458.72833 62.46672 167.90465 297
3176.39551 772.56201 117.15786 426
384.04141 43.99695 171.62015 316
394.97278 46.92963 171.71164 312
407.32452 50.27139 171.83015 308
452.13943 62.23498 165.16713 425
458.49310 63.91782 167.88800 297
3162.18823 788.48541 117.53745 426
383.81552 44.98066 171.60258 316
394.72543 47.99824 171.71811 312
407.09808 51.35661 171.81493 308
450.40881 63.30392 165.43608 426
458.17166 65.43582 167.91563 297
3149.43481 804.33148 117.84502 482
383.61472 45.98102 171.63675 316
394.45734 49.04269 171.69766 312
406.78653 52.52250 171.86223 308
448.72223 64.29181 165.74121 427
457.88257 66.86200 167.86899 297
3138.96240 819.88208 117.85529 492
383.36633 46.99743 171.62691 316
394.24265 50.09000 171.72240 312
435.30142 61.92902 164.83813 308
447.07187 65.30904 166.00238 429
457.57153 68.29978 167.82298 297
3129.97461 836.64435 117.86998 492
383.14688 47.94919 171.63036 316
393.95139 51.15594 171.70219 312
434.92859 63.23175 164.85695 308
445.41144 66.29118 166.32253 430
3121.17212 853.18121 118.42583 493
382.85867 48.92747 171.61159 316
393.67203 52.21481 171.73502 312
434.58157 64.51353 164.83192 308
443.81033 67.29580 166.59167 431
3112.05103 869.93311 118.36304 493
382.60956 49.93009 171.58052 316
393.42841 53.23325 171.69032 312
434.24490 65.81291 164.87674 308
442.15561 68.20287 166.86807 432
3104.10815 886.50818 118.49696 494
382.37903 50.90191 171.61087 316
393.16232 54.26395 171.69302 312
433.91754 67.12354 164.83620 308
440.55377 69.17416 167.12691 433
3097.06055 903.51318 118.74573 494
382.08633 51.89856 171.59694 316
392.86191 55.33552 171.70309 312
433.53912 68.37679 164.86868 308
438.96478 70.15303 167.45422 419
3090.29346 920.68433 118.26209 494
381.83676 52.87523 171.58514 316
392.54663 56.37867 171.68846 312
433.09891 69.68699 164.83020 308
437.20981 70.99669 167.73451 420
3082.94800 938.13226 118.26497 494
3154.84229 961.36414 166.29861 499
381.55893 53.84574 171.60649 316
392.26852 57.40805 171.69449 312
432.73901 70.95593 164.84869 308
436.35199 72.14597 167.85587 301
3076.13696 954.77637 118.92193 494
3150.37793 979.59973 166.17586 499
381.27859 54.78897 171.61176 316
391.93683 58.42757 171.71613 312
432.30106 72.21739 164.87154 308
435.96579 73.44897 167.86513 301
3070.08203 972.67249 118.16170 463
3141.76465 996.41498 166.59926 360
380.99524 55.76512 171.60452 316
391.64505 59.47478 171.71333 312
431.90210 73.47929 164.86864 308
435.61078 74.76355 167.85150 301
3064.63062 989.95343 118.43931 463
380.66760 56.74398 171.56619 316
417.31802 69.76379 164.77281 312
430.31723 74.34969 165.14737 423
435.25589 76.12572 167.79370 301
3059.25464 1007.63855 118.80795 463
380.38980 57.69523 171.58974 316
416.95465 70.94457 164.78497 312
428.66171 75.17876 165.47246 425
434.88019 77.39530 167.78683 301
3078.68677 1034.20178 67.94156 484
3054.65283 1025.57837 118.64010 462
380.07397 58.64479 171.56224 316
416.53067 72.12696 164.75201 312
427.02374 75.94898 165.76926 426
434.45590 78.68440 167.79158 301
3072.72852 1051.89697 67.54557 484
3050.71533 1043.52881 118.67627 462
379.74185 59.62354 171.57884 316
416.13263 73.28102 164.81345 312
425.35901 76.73164 166.02908 427
434.05179 80.00603 167.78372 301
3067.99561 1069.48462 67.54789 482
3045.72461 1061.26331 118.53287 461
379.42685 60.59805 171.54681 316
415.70642 74.43881 164.77760 312
423.80826 77.53143 166.35583 428
433.64206 81.32842 167.79228 301
3063.58691 1087.74670 67.64919 482
3042.24976 1079.37207 118.08366 461
3116.72900 1107.74963 166.15919 498
3176.01782 1130.57129 216.60155 398
3156.71851 1123.28711 268.79385 494
379.10480 61.55803 171.55791 316
415.25592 75.59074 164.78392 312
422.19702 78.33845 166.62117 429
3059.70410 1106.24475 67.64787 481
3037.49219 1097.30359 118.11460 461
3151.02905 1141.57361 268.66574 478
378.81042 62.49678 171.57846 316
414.80569 76.79987 164.79567 312
420.60068 79.08424 166.89578 430
3055.43115 1124.64722 67.19732 481
3033.32886 1115.91968 117.82477 461
378.44260 63.43148 171.56355 316
414.40494 77.95496 164.78221 312
419.06131 79.82867 167.20689 431
3050.95728 1142.84045 66.84576 481
3029.29785 1133.88171 117.47010 461
378.12881 64.40059 171.55791 316
413.93048 79.10824 164.77019 312
417.50308 80.61141 167.44734 432
3046.17676 1160.31091 66.98888 461
3024.82251 1151.78516 117.84383 460
377.75656 65.32694 171.55533 316
413.46735 80.24593 164.80655 312
416.00281 81.31369 167.73914 433
3041.37891 1179.20911 67.09519 461
3020.20044 1170.58435 117.61366 460
3150.82617 1224.56226 165.09883 419
377.39450 66.28694 171.56226 316
412.99796 81.41801 164.82565 312
415.38739 82.41890 167.79744 305
3036.68872 1197.48389 66.58152 461
3016.13208 1188.84058 117.83185 460
3057.77368 1206.46179 166.74620 496
400.50299 77.36700 164.67650 316
412.52780 82.57172 164.81789 312
414.92636 83.60235 167.79504 305
3031.45654 1215.68567 66.64965 461
3012.35034 1207.42896 117.50821 384
3065.14868 1230.05872 166.60059 347
400.09924 78.45802 164.69890 316
411.58414 83.49480 164.92300 435
414.48157 84.80830 167.75212 305
3026.77075 1233.64709 66.03423 461
3008.29468 1225.41736 117.30865 383
399.64777 79.54705 164.67346 316
410.09061 84.19556 165.20111 436
414.05383 85.95453 167.75475 305
3019.88574 1251.07898 66.45083 338
3004.89062 1244.17261 116.84011 383
399.16269 80.59481 164.71201 316
408.65662 84.90794 165.47058 437
413.60229 87.15353 167.72867 305
3014.13843 1268.92102 66.05925 338
3000.75366 1263.01904 117.16966 383
3146.44824 1328.95654 269.10269 294
3176.66870 1343.12268 323.35425 410
398.71194 81.70269 164.69894 316
407.23734 85.62631 165.73274 438
413.15735 88.32532 167.73851 305
3009.45654 1287.15613 65.86548 338
2996.22900 1281.59167 116.49996 383
3068.81372 1314.72400 268.27097 288
3081.59717 1321.05017 320.31381 332
398.23129 82.75938 164.69521 316
405.65286 86.23939 166.03369 419
412.69696 89.49281 167.69952 305
3003.91846 1305.04492 66.07175 338
2992.84155 1300.57532 116.43457 383
397.78903 83.78577 164.69591 317
404.04034 86.78934 166.35997 420
412.19049 90.66409 167.73363 305
2998.24731 1323.80383 66.11321 338
2988.96582 1319.25745 116.95746 382
397.25473 84.87168 164.73831 317
402.39856 87.34662 166.67990 421
411.70349 91.84994 167.68842 305
2992.65796 1341.89941 65.37140 338
2985.03540 1337.31067 116.15538 382
396.77689 85.90397 164.70872 317
400.79337 87.89445 166.97215 422
10106.04395 4860.55664 -2350.00171 1000
2986.91846 1360.02563 65.97904 338
2980.79053 1356.27185 116.04377 382
396.28046 86.94749 164.70125 317
399.24133 88.44976 167.28548 423
2981.70630 1378.20447 65.13295 338
2976.61572 1375.53943 116.50618 382
395.74399 87.98289 164.70879 317
397.71017 88.96416 167.53375 424
2976.07642 1396.54028 65.25751 338
2972.24707 1394.61499 116.24844 382
395.25839 89.01032 164.74626 317
396.62616 89.72412 167.70604 311
2970.59204 1414.65564 65.15736 338
2968.15210 1413.10999 115.50826 381
394.66299 90.05105 164.77768 425
396.13290 90.79766 167.71619 311
2965.40771 1433.32739 64.87077 337
2963.79028 1432.90686 115.76007 381
393.15121 90.57588 165.07977 426
395.62234 91.85864 167.71388 311
2959.71729 1451.11035 65.03494 337
2959.74390 1451.56848 115.45505 381
391.66733 91.09123 165.34242 427
395.16046 92.93157 167.69374 309
2954.03979 1470.26855 64.45629 337
2956.21851 1470.93176 115.42204 381
390.19766 91.55907 165.61650 428
394.64285 93.98488 167.69748 309
2948.16846 1488.05090 64.08116 337
2951.44995 1490.21143 114.77956 381
388.75500 92.08095 165.93874 429
394.10129 95.07106 167.64925 309
2943.19067 1507.13940 64.29703 337
2948.12891 1510.08130 114.87972 288
387.33374 92.58438 166.18283 430
393.59592 96.09608 167.64706 309
385.89517 93.05618 166.48877 431
393.09824 97.18153 167.64052 309
384.51410 93.54865 166.73128 432
392.55557 98.22704 167.62581 309
383.12082 94.05196 166.97623 433
392.03479 99.25594 167.65729 309
381.76151 94.49026 167.27917 434
380.40280 94.99878 167.48528 435
379.43066 95.67715 167.62604 315
378.93863 96.61156 167.65031 315
378.35416 97.56839 167.64680 315
377.79678 98.49913 167.60281 315
377.25400 99.46320 167.59940 315
376.71500 100.37970 167.59639 315
376.11743 101.34061 167.61488 315
375.55478 102.25706 167.60089 315
374.98575 103.21093 167.62788 313
374.43893 104.11289 167.58449 313
373.84802 105.08044 167.59615 313
373.25836 105.97956 167.57253 313
17707.61328 13190.06445 -140.31969 1000
1897.24194 2065.48950 42.08473 429
1903.17993 2073.42188 85.75895 293
1880.76575 2071.11255 42.95245 494
1885.82861 2077.64038 86.03512 468
2367.80249 4981.27539 -49.00852 302
2341.92017 5003.54541 -49.60707 438
2318.30298 5034.14844 -50.25047 423
2407.22412 5246.53564 31.33474 338
2295.31104 5064.66211 -52.19470 422
2367.15186 5240.68604 31.19534 443
2272.20679 5097.29150 -52.86266 417
2250.17969 5131.32471 -53.52403 406
2229.02002 5169.65381 -55.13910 392
2209.18262 5214.23975 -56.82861 383
2192.77832 5268.42725 -58.63383 355
2181.99512 5335.67920 -62.43636 351
2169.09521 5405.00293 -65.79310 358
2157.87476 5476.30273 -69.03671 359
2146.49487 5551.40039 -71.11729 358
2800.27734 7437.87256 345.89090 1000
2133.83105 5627.53174 -75.39847 360
1391.64514 3994.12329 13.02338 354
887.32593 4995.09473 -30.89097 449
642.64990 5861.43652 -72.07336 350
604.30786 5840.94336 -70.30922 491
567.62708 5828.73193 -69.67762 478
532.03229 5814.74365 -69.35863 485
496.15869 5805.46582 -69.51027 486
459.66672 5798.86035 -67.98420 490
424.46198 5787.85400 -67.74562 491
389.09033 5778.80811 -67.04612 491
354.00055 5772.20752 -67.16139 493
356.42255 5875.60742 24.53639 314
318.20987 5767.46631 -67.50605 494
318.07434 5810.08057 25.48685 499
319.92557 5928.16504 119.54284 499
283.51410 5764.06738 -66.57343 472
283.74677 5810.20459 25.79522 499
247.53806 5761.13428 -66.45279 473
247.46016 5808.51318 26.21942 499
212.02370 5759.42676 -67.29128 474
212.47139 5802.81787 25.72905 499
177.93642 5758.14844 -66.66512 474
177.38824 5802.31152 26.81360 499
142.26083 5756.49609 -66.67958 474
141.95125 5806.89307 26.21988 499
106.78863 5756.24658 -66.55200 474
106.01069 5807.09424 25.63906 499
103.09003 5945.85596 118.10655 405
72.79462 5755.83447 -66.78895 474
70.26490 5805.96582 26.10167 499
68.92481 5892.08203 120.30962 499
37.34546 5754.94775 -66.85501 474
35.48157 5805.66455 26.79742 499
35.30088 5822.17920 120.19102 490
1.48202 5754.80811 -67.41029 472
-3.68808 5891.99072 120.09258 499
-32.54395 5753.77100 -66.68825 472
-39.31787 5892.03369 120.26927 498
-68.82406 5754.04492 -66.03308 472
-76.86563 5912.84619 119.97012 330
-173.13612 5752.10986 -67.73492 476
-186.34441 5928.58154 21.59755 499
-209.46857 5750.93799 -67.43643 476
-244.64809 5751.36914 -67.06390 476
-280.12360 5749.20605 -67.47533 476
-315.49039 5749.84375 -67.99002 475
-359.11267 5841.84424 -71.55785 491
-393.55524 5831.44385 -71.44189 480
-762.14246 5866.35938 -1068.44043 1000
-607.63403 4447.42871 -79.92171 456
-609.83746 4457.97754 -6.72485 403
-628.27716 3487.76685 -19.05692 289
-618.37970 3361.46826 -10.84906 291
-609.74109 3241.86060 -2.93918 287
-610.24133 3163.08960 2.03026 342
-619.35040 3197.47437 53.84592 330
-618.44897 3116.95923 5.07238 363
-629.76660 3158.70020 55.88707 458
-628.21643 3079.27002 6.68207 378
-646.16150 3143.35132 56.20094 472
-640.24933 3051.95166 8.42449 383
-666.00165 3141.75830 55.43488 471
-652.29340 3022.82495 9.80859 406
-686.52423 3140.87622 55.80689 471
-664.72894 2996.01318 11.07347 401
-706.94659 3139.49146 55.80756 472
-676.78217 2970.23340 12.64249 402
-727.57251 3138.64380 54.99379 470
-688.16742 2945.12012 14.22056 404
-748.55969 3137.92896 55.24973 470
-701.00342 2922.86743 15.14535 409
-768.79144 3136.58936 54.99459 470
-713.72668 2900.88647 16.78579 410
-789.41284 3135.57397 54.07531 469
-728.20532 2885.91602 17.00286 418
-809.92352 3134.58936 54.51014 469
-761.28351 2926.93555 13.75775 312
-831.40674 3132.77808 53.43266 469
-805.90503 2997.42920 8.55579 296
-857.55627 3148.59790 52.55433 378
-33685.67188 50878.33984 -15108.55664 1000
125.01228 149.14075 168.47908 490
124.21062 148.44754 168.46376 490
120.89224 149.40100 167.74535 490
120.05775 148.72760 167.77750 490
119.01370 150.14102 170.50545 312
118.38154 149.11432 167.42546 316
118.11646 149.45918 170.47565 312
117.55822 148.45309 167.40129 316
116.99309 149.14897 170.36806 295
116.40199 148.08241 167.31467 438
115.03686 148.06190 167.06837 437
112.63679 149.37682 166.36694 314
111.81297 148.66089 166.38103 314
110.95243 147.95059 166.38957 314
110.06152 147.24324 166.36505 314
109.26208 146.54147 166.39903 314
108.07964 146.13255 166.24315 419
100.08002 155.84341 166.36490 310
106.52501 146.29282 165.95883 418
99.15083 155.04947 166.37109 310
104.89707 146.47302 165.65459 417
98.27560 154.24615 166.38602 310
103.24119 146.66109 165.31926 416
97.37903 153.46806 166.40968 310
101.59593 146.78484 164.97012 415
96.48990 152.65651 166.40491 310
99.91435 146.95515 164.65895 414
95.57729 151.88811 166.40213 310
98.22785 147.16257 164.30118 413
94.68710 151.04543 166.39243 310
96.49580 147.33023 163.92499 422
93.84966 150.27760 166.36536 310
94.86332 147.37407 163.62924 421
92.95765 149.46431 166.36572 310
93.47678 147.14548 163.43317 307
92.08376 148.62210 166.37997 309
92.69416 146.21497 163.42934 307
91.22546 147.81239 166.38196 309
91.93554 145.27817 163.44878 307
89.76068 147.58289 166.12854 419
91.15232 144.38870 163.48814 307
88.03958 147.65820 165.82724 418
90.42036 143.47577 163.54100 311
86.29935 147.71896 165.50461 417
78.11187 156.07455 166.29863 305
89.66393 142.53584 163.53371 311
84.51237 147.75249 165.20197 416
77.21843 155.20561 166.30490 305
88.90106 141.62013 163.56686 311
82.70238 147.84544 164.85411 415
76.32355 154.28923 166.27870 305
88.15884 140.68622 163.59416 311
80.90540 147.91425 164.50183 414
75.41336 153.32799 166.28053 305
108.33993 119.26553 171.50923 316
79.06569 147.97554 164.13358 412
74.49375 152.42462 166.25739 305
107.65710 118.52102 171.51247 316
77.14606 148.06876 163.77257 411
73.65264 151.47606 166.28476 305
107.02825 117.74516 171.50046 316
75.24915 148.11594 163.39522 410
72.76132 150.50589 166.29424 305
106.37699 116.98186 171.51758 316
74.18281 147.38936 163.33876 304
71.85706 149.58469 166.24796 305
105.70295 116.24744 171.52698 316
73.41309 146.34850 163.36372 304
70.97199 148.65398 166.26804 305
105.09799 115.44803 171.49983 316
72.68296 145.31332 163.43378 304
69.41192 148.37714 166.06114 407
104.45672 114.69776 171.52600 316
71.95172 144.26544 163.42854 304
67.40298 148.42899 165.63908 406
103.78970 113.89589 171.52115 316
71.23726 143.16203 163.46860 304
65.36275 148.51781 165.26396 405
55.41904 157.46945 166.17737 301
103.18676 113.13100 171.52751 316
70.53947 142.10886 163.53851 304
63.25420 148.62260 164.90030 404
54.49697 156.36620 166.17540 301
102.55439 112.32612 171.53461 316
93.95560 119.88525 171.59683 312
61.15950 148.67976 164.53900 403
53.59455 155.32198 166.20685 301
101.92081 111.57029 171.52843 316
93.27936 119.03588 171.63634 312
59.00875 148.74870 164.12239 402
52.69745 154.21849 166.19325 301
101.33050 110.76792 171.54457 316
92.62222 118.20130 171.62886 312
56.86752 148.86368 163.69218 401
51.83498 153.15298 166.20854 301
100.69203 109.96380 171.53140 316
91.97602 117.34415 171.60893 312
54.62326 148.90097 163.29849 399
50.89408 152.07710 166.21216 301
100.10340 109.14188 171.53798 316
91.32301 116.48235 171.61546 312
53.61089 148.03116 163.25201 300
50.05621 150.99370 166.15172 301
99.48292 108.36640 171.57413 316
90.70786 115.61961 171.61829 312
52.90876 146.80185 163.28937 300
49.12799 149.92348 166.17720 301
98.92326 107.55711 171.56366 316
90.07587 114.76492 171.64915 312
52.19023 145.61723 163.31734 300
47.80723 149.20457 166.06512 396
98.28763 106.75861 171.55347 316
89.41669 113.88619 171.64799 312
51.46482 144.39502 163.35049 300
45.44329 149.31364 165.64012 395
97.72086 105.92409 171.59482 316
88.82758 113.03756 171.64241 312
78.68308 121.08523 171.75487 308
43.05894 149.38136 165.18880 394
97.16896 105.08872 171.59053 316
88.18296 112.12405 171.65060 312
78.01740 120.11481 171.74184 308
40.57712 149.47369 164.73956 393
29.56486 158.11394 166.08557 297
96.57761 104.26268 171.59023 316
87.57119 111.27319 171.63890 312
77.33253 119.16073 171.73515 308
38.10683 149.56354 164.34746 392
28.64291 156.88512 166.02640 297
95.98053 103.46241 171.61391 316
86.97868 110.35844 171.68031 312
76.70736 118.21735 171.77220 308
35.60627 149.66289 163.90616 390
27.77254 155.67325 166.08084 297
95.41488 102.62161 171.59976 316
86.33467 109.49522 171.66814 312
76.05046 117.28152 171.78131 308
33.07518 149.75909 163.38437 389
26.87334 154.44182 166.07283 297
94.87396 101.80986 171.58569 316
85.76408 108.60520 171.65742 312
75.38515 116.33761 171.76381 308
31.21267 149.31676 163.14825 296
25.99901 153.18761 166.08972 297
94.30767 100.95342 171.58965 316
85.15623 107.69630 171.70149 312
74.73752 115.37468 171.77385 308
30.50871 147.96454 163.17732 296
25.06259 151.94789 166.09605 297
93.77757 100.12354 171.61844 316
84.55801 106.82612 171.69014 312
74.10033 114.41873 171.79614 308
62.14244 123.11073 171.89665 304
24.18496 150.71414 166.04686 297
93.20330 99.27202 171.59512 316
83.97702 105.91434 171.71394 312
73.49232 113.41100 171.78181 308
61.48331 122.07345 171.86768 304
22.30189 150.17188 165.83025 385
92.66128 98.40494 171.63826 316
83.38042 104.99902 171.71117 312
72.89540 112.45847 171.76006 308
60.76738 121.02708 171.88918 304
19.51160 150.28459 165.31827 386
92.14304 97.58989 171.63498 316
82.84743 104.11322 171.71538 312
72.27200 111.51208 171.79698 308
60.12946 119.99638 171.91226 304
16.69242 150.32013 164.85413 385
91.58813 96.71505 171.64973 316
82.24580 103.20302 171.72691 312
71.64604 110.53796 171.77258 308
59.48191 118.94549 171.92178 304
13.82519 150.40796 164.35838 384
-2148.77612 1643.23938 27.13927 490
-2148.21533 1643.62878 73.96339 499
-2148.09863 1643.33472 121.54364 499
-2147.68359 1642.94189 168.53171 499
-2147.77295 1642.89526 216.05954 483
91.10152 95.84960 171.64557 316
81.68575 102.27332 171.69611 312
71.01456 109.53960 171.79683 308
58.83414 117.85568 171.89969 304
10.95211 150.45564 163.93011 383
-1.15634 158.73647 165.67429 290
90.57191 94.99728 171.65388 316
81.11134 101.36190 171.70856 312
70.41753 108.56544 171.79701 308
58.15261 116.79142 171.92815 304
8.01324 150.57709 163.41113 381
-2.03553 157.29489 165.68912 290
-1596.04028 1229.79834 35.75116 485
-1597.94763 1230.58850 72.15524 485
-1599.03687 1231.68860 107.77110 499
-1600.85022 1233.11133 144.25984 499
-1602.84241 1234.15320 180.19003 489
-1604.28198 1234.86670 216.45151 489
-1606.33984 1236.48633 252.66911 432
90.02408 94.12629 171.65263 316
80.58757 100.41151 171.73323 312
69.82713 107.56921 171.79434 308
57.51452 115.75370 171.89972 304
4.93590 150.62112 162.87814 380
-2.97402 155.87471 165.67844 291
89.54296 93.28552 171.65401 316
80.03715 99.51723 171.72331 312
69.25271 106.54021 171.83813 308
56.89183 114.64735 171.90422 304
42.61764 124.05387 172.02844 300
-3.89936 154.48315 165.68973 291
89.00722 92.43288 171.65308 316
79.48546 98.55584 171.73770 312
68.68714 105.55016 171.84529 308
56.29099 113.56657 171.92056 304
41.89035 122.87182 172.05818 300
-4.81196 153.07013 165.70822 291
-999.03162 795.76422 48.02927 491
-999.22760 795.64868 72.39127 491
-999.25250 795.71185 96.55735 491
-999.32294 795.92645 120.60099 498
-999.32965 795.66602 144.31345 499
-999.55609 795.74170 168.52820 499
-999.45569 795.82867 192.23044 499
-999.68683 796.14697 216.36769 499
-999.71490 795.95380 240.27267 499
-999.44183 795.96271 264.33932 499
88.53212 91.52435 171.64264 316
78.95232 97.65252 171.71422 312
68.12486 104.55563 171.83978 308
55.64705 112.51958 171.92494 304
41.21496 121.70916 172.07674 300
-5.76443 151.70064 165.65891 291
88.01817 90.64856 171.64302 316
78.41635 96.69925 171.71783 312
67.51283 103.53912 171.85101 308
55.06137 111.43095 171.94153 304
40.59187 120.54533 172.02237 300
-7.74609 150.98599 165.41696 375
87.53051 89.78225 171.68414 316
77.92236 95.75666 171.75961 312
66.95735 102.58041 171.85919 308
54.45982 110.34119 171.91707 304
39.92565 119.32407 172.08032 300
-11.13374 151.04198 164.88278 374
87.04021 88.91037 171.66931 316
77.40815 94.80356 171.75745 312
66.42297 101.53773 171.84071 308
53.81021 109.24436 171.92209 304
39.24759 118.14349 172.07925 300
-14.50491 151.12401 164.34822 373
86.60057 88.03403 171.67578 316
76.87103 93.87188 171.74844 312
65.83567 100.55624 171.82961 308
53.23235 108.14953 171.97729 304
38.59965 116.97786 172.08162 300
-18.00471 151.22363 163.82253 371
86.08985 87.12122 171.67773 316
76.37608 92.95169 171.75542 312
65.30375 99.54249 171.83131 308
52.65596 107.03909 171.93022 304
37.98761 115.82220 172.08002 300
-21.62439 151.28871 163.23094 370
-37.11641 160.49951 165.15475 286
85.64742 86.25761 171.66805 316
75.85192 91.96796 171.74207 312
64.76817 98.47569 171.86415 308
52.04339 105.93694 171.96509 304
37.34922 114.63682 172.06779 300
20.11440 124.75485 172.20558 296
-38.05228 158.87068 165.20749 286
85.16043 85.32408 171.67807 316
75.37615 91.00531 171.75436 312
64.21863 97.49713 171.83572 308
51.47603 104.85403 171.96106 304
36.71898 113.43676 172.10600 300
19.43739 123.41489 172.22563 296
-38.87531 157.21465 165.15306 286
84.70148 84.42758 171.68224 316
74.90526 90.08207 171.76927 312
63.71967 96.43478 171.86845 308
50.93377 103.78069 171.95795 304
36.09074 112.22935 172.09537 300
18.75981 122.15668 172.23518 296
-39.76734 155.58032 165.20059 286
84.29502 83.54034 171.69986 316
74.41390 89.09297 171.75970 312
63.22082 95.40350 171.88232 308
50.38043 102.66388 171.98892 304
35.47153 111.03806 172.07588 300
18.05471 120.84258 172.24054 296
-40.63505 153.92303 165.19881 286
83.80635 82.67166 171.71814 316
73.93117 88.17435 171.78047 312
62.67380 94.38461 171.87445 308
49.79534 101.53983 171.98581 304
34.86811 109.83060 172.11377 300
17.41831 119.47900 172.25423 296
-41.55173 152.24141 165.17349 287
83.38985 81.74332 171.72136 316
73.42496 87.19389 171.79395 312
62.15514 93.32391 171.86902 308
49.22870 100.43944 171.99133 304
34.31581 108.59338 172.09015 300
16.78837 118.17395 172.24878 296
-44.75301 151.87744 164.76033 362
82.94662 80.81989 171.72278 316
72.96402 86.19656 171.81139 312
61.66188 92.31953 171.89267 308
48.73717 99.29197 171.96599 304
33.71919 107.36925 172.14471 300
16.11898 116.83623 172.28008 296
-48.88691 151.91878 164.13248 371
82.50369 79.92233 171.72008 316
72.49680 85.24054 171.78577 312
61.18660 91.27866 171.88431 308
48.15302 98.16578 171.98421 304
33.13477 106.15004 172.10080 300
15.48597 115.53744 172.23207 296
-52.80799 151.80774 163.56992 370
82.07038 79.02184 171.71637 316
72.04665 84.24423 171.77797 312
60.68158 90.23697 171.89519 308
47.67961 97.02879 171.98108 304
38.41256 101.87286 173.43721 323
25.45335 108.66344 174.41234 274
-6.17437 125.23344 172.46738 292
81.68994 78.09592 171.70517 316
71.59902 83.30912 171.78050 312
60.22157 89.15462 171.92365 308
47.11250 95.92930 171.98926 304
40.94747 99.13417 174.12570 324
34.85908 102.27847 176.46915 276
18.86164 110.50531 177.20572 276
81.26320 77.19389 171.73643 316
71.14458 82.33074 171.81569 312
59.71302 88.12214 171.88803 308
48.96761 93.56526 172.56822 326
43.40510 96.38200 174.80356 325
37.74381 99.32054 177.21336 323
28.36890 104.04072 179.10219 277
11.49368 112.61072 180.10699 288
80.86610 76.25969 171.73221 316
70.74164 81.34297 171.80765 312
59.23977 87.06136 171.88023 308
51.21062 91.07810 173.24586 327
45.77948 93.81268 175.47467 325
40.30560 96.59193 177.82466 324
32.20354 100.58231 179.90973 292
10.88898 111.25115 180.09180 288
80.45928 75.36231 171.72803 316
70.30301 80.33572 171.80084 312
58.81474 86.00071 171.92360 308
53.43073 88.65348 173.89836 329
48.16675 91.25677 176.08154 327
42.75447 93.92202 178.43179 326
31.68501 99.40495 179.90784 292
10.30185 109.88287 180.12106 288
80.04903 74.40339 171.75424 316
69.87742 79.36918 171.81500 312
60.40390 83.94338 172.46176 332
55.56073 86.29170 174.53934 330
50.37774 88.80740 176.71274 328
45.15899 91.37034 179.05388 327
31.13507 98.12155 179.95621 292
9.68771 108.55392 180.07269 288
-16.76953 121.40768 180.28825 284
79.66843 73.49896 171.72784 316
69.46030 78.36505 171.80229 312
61.47715 82.15230 172.86017 389
57.58408 84.04445 175.10924 331
52.59942 86.40823 177.32262 329
47.49874 88.86952 179.58679 328
30.60110 96.94044 179.92456 292
1.06596 111.07063 178.79565 287
-17.42303 119.85697 180.30855 284
79.28244 72.57635 171.73985 316
69.06487 77.37767 171.82448 312
62.22455 80.58762 173.12988 390
59.19132 82.02654 175.64098 388
54.75484 84.07556 177.89279 330
47.91039 87.31734 179.76398 296
30.10372 95.68453 179.92946 292
-9.13826 114.15169 177.18506 285
-18.01795 118.29568 180.34010 284
78.86677 71.60387 171.73010 316
68.61061 76.35532 171.83850 312
62.93732 78.99496 173.47408 391
59.94792 80.40538 175.89217 389
56.82304 81.85857 178.44746 331
47.47211 86.19604 179.80621 296
10.94497 103.04922 176.57620 288
-16.01739 115.55717 176.22455 342
-18.63405 116.77382 180.35620 284
78.51157 70.69316 171.76955 316
68.25135 75.37153 171.83577 312
63.67803 77.45416 173.73781 379
60.66650 78.79756 176.18848 390
57.62331 80.18220 178.69363 388
47.00657 85.02682 179.78239 296
17.09196 98.63564 177.74329 289
2.99058 105.06101 179.38834 286
-20.52447 115.76003 180.13445 340
78.15774 69.76928 171.72672 316
67.97830 74.32140 171.89169 382
64.40436 75.90950 174.03197 380
61.41920 77.24329 176.47339 391
58.40799 78.59354 178.95746 389
46.57473 83.90110 179.79422 296
22.05244 94.91080 178.74611 318
9.59526 100.48586 180.57584 288
-25.16923 116.03282 179.62686 339
77.79715 68.79759 171.74866 316
68.67094 72.80710 172.19315 383
65.16511 74.39149 174.32428 380
62.13826 75.69415 176.73135 392
59.13108 77.02057 179.21671 390
46.09307 82.77613 179.80519 296
24.81395 92.15341 179.36089 334
15.79601 96.14948 181.68535 289
1.68939 102.37482 183.58243 286
77.43792 67.89056 171.77121 316
69.36757 71.38130 172.46690 384
65.86012 72.85224 174.60504 381
62.86624 74.21380 176.99953 393
59.89427 75.48905 179.50031 391
32.97897 87.12019 177.27443 338
26.90029 89.74813 179.83450 336
19.66193 92.90646 182.36609 318
8.38241 97.82538 184.61420 288
77.08487 66.94061 171.73956 316
70.08073 69.89543 172.75874 385
66.58730 71.39065 174.91267 382
63.54777 72.68462 177.27066 394
60.44868 74.02581 179.68434 300
34.88282 84.91644 177.75082 339
28.94152 87.45813 180.29254 337
22.55425 90.17155 182.94559 319
14.28882 93.67520 185.51152 316
0.48900 99.56866 187.66795 287
76.71530 65.96354 171.77037 316
70.76289 68.47311 173.03822 386
67.33794 69.93003 175.20267 383
64.24932 71.21183 177.52832 395
60.08200 72.98485 179.71500 300
36.73821 82.73843 178.24921 340
30.94367 85.16770 180.75531 338
24.83442 87.76271 183.40240 335
17.34465 90.89583 186.03473 317
7.17926 95.12450 188.62712 288
-14.28693 104.08951 190.31320 268
76.38795 65.03884 171.76491 316
71.40802 67.05473 173.31819 386
68.02078 68.47800 175.47809 384
64.96452 69.75214 177.78639 396
59.67499 71.89070 179.72298 300
38.57325 80.62978 178.65936 341
32.88760 82.95587 181.17735 339
26.88039 85.41648 183.79117 336
20.27112 88.15623 186.52049 319
11.94826 91.58503 189.28174 316
-0.69248 96.78683 191.85019 287
76.05125 64.07053 171.77870 316
72.08549 65.67789 173.60600 387
68.75099 67.05361 175.74837 385
65.61268 68.30129 177.99446 397
59.32828 70.86203 179.70206 300
40.33287 78.50737 179.10310 342
34.79020 80.74943 181.61107 340
28.91322 83.13586 184.17647 338
22.72222 85.62651 186.94467 335
14.99218 88.76824 189.72491 317
6.08313 92.42232 192.58458 288
-15.10355 100.96078 194.75380 268
75.94625 63.02800 171.83197 391
72.71390 64.32655 173.87485 388
69.40623 65.62521 176.00543 386
66.32043 66.87751 178.27316 398
58.95356 69.79424 179.69238 300
41.71598 76.63771 179.43828 375
36.64294 78.65611 181.97833 341
30.93219 80.94531 184.59451 339
24.84853 83.34600 187.27872 336
18.01643 86.06754 190.13396 318
9.50483 89.47024 193.04727 316
-1.80139 93.91689 195.96762 287
76.53925 61.73639 172.12682 391
73.41536 62.94573 174.16232 389
70.09393 64.22301 176.25139 387
66.99119 65.47012 178.48894 399
58.61993 68.74397 179.72742 300
42.61781 74.98929 179.73602 376
38.34199 76.67130 182.33958 374
32.85060 78.76859 184.97737 340
26.93328 81.11302 187.67087 337
20.69729 83.51810 190.50298 335
12.71362 86.64088 193.40968 317
3.85780 90.13815 196.46652 314
-15.83005 97.80177 199.10638 268
77.12491 60.44484 172.37341 421
74.05476 61.61189 174.42496 390
70.78194 62.85420 176.52061 388
67.65917 64.08332 178.71590 400
58.26306 67.69338 179.70004 300
43.54655 73.27705 179.96367 377
39.31181 74.94279 182.60623 375
34.75047 76.69638 185.30730 341
28.97712 78.89891 188.03566 338
22.85177 81.24863 190.85565 336
15.73706 84.00858 193.78937 318
7.14135 87.26646 196.81877 316
-2.83932 91.06606 200.06160 287
77.42986 59.25970 172.53381 422
74.68797 60.29182 174.67458 391
71.44742 61.50764 176.76704 389
68.26754 62.71235 178.97238 401
57.89222 66.61378 179.72899 300
44.33238 71.72026 180.18686 389
40.27945 73.26975 182.85963 376
35.87367 74.89912 185.54405 373
30.92870 76.78790 188.34152 339
24.91812 79.01897 191.18094 337
18.59312 81.37929 194.13857 335
10.34833 84.50499 197.17586 317
1.40080 87.86719 200.43022 314
-18.97163 95.55637 203.36572 257
77.72252 58.07171 172.70964 423
75.05104 59.09021 174.85533 420
72.15089 60.16650 177.03163 390
68.95786 61.30905 179.17290 402
57.55598 65.55692 179.69240 300
45.07673 70.12257 180.43452 390
41.19246 71.58479 183.07486 376
36.90083 73.16013 185.81644 374
32.44149 74.82171 188.60234 371
27.03235 76.83076 191.48119 338
20.83774 79.09546 194.42101 336
13.50084 81.82135 197.44968 318
4.79504 85.01096 200.66507 315
-4.59119 88.52052 204.16530 313
77.98470 56.95461 172.88791 423
75.35075 57.91325 175.03807 421
72.64748 58.87103 177.19838 419
69.58038 59.96529 179.39969 402
49.44586 67.29092 178.06671 393
45.82565 68.60418 180.62680 390
42.09669 69.99166 183.33281 388
37.89012 71.46925 186.01141 375
33.45272 73.06663 188.84712 372
28.82990 74.74531 191.71672 370
22.98353 76.89024 194.65747 337
16.52428 79.22444 197.74895 319
8.04789 82.27806 200.91974 316
-1.03193 85.60566 204.35678 314
78.28233 55.78230 173.04228 424
75.67254 56.71769 175.16583 422
72.94514 57.69041 177.37561 419
70.15730 58.67125 179.59647 304
50.14985 65.81330 178.31787 394
46.55861 67.08153 180.84450 391
42.87481 68.37456 183.50912 389
38.86853 69.79506 186.25224 376
34.50247 71.38876 188.99736 373
29.90374 72.99209 191.95467 371
25.09130 74.70571 194.93987 338
18.76606 76.97810 198.03473 335
11.21335 79.67261 201.19112 317
2.39937 82.75379 204.57878 315
78.54680 54.65873 173.20607 426
75.94388 55.53938 175.36105 422
73.30267 56.48407 177.53830 420
69.88404 57.71504 179.59100 304
50.86903 64.34363 178.52388 395
47.29007 65.57733 181.09695 392
43.62288 66.82606 183.72685 390
39.83907 68.15289 186.46562 387
35.52275 69.67425 189.19791 374
31.02202 71.25880 192.13051 372
26.31492 72.88593 195.10152 369
20.99896 74.76898 198.26413 336
14.29615 77.07129 201.44339 319
5.73203 80.08401 204.75806 316
78.85320 53.54559 173.36859 427
76.25201 54.38662 175.49237 423
73.62204 55.32799 177.66338 421
69.56349 56.70397 179.59732 304
51.55502 62.87976 178.75629 395
48.03369 64.06012 181.25356 393
44.37903 65.30390 183.89468 391
40.61877 66.61608 186.63533 388
36.53930 68.00423 189.42519 375
32.08244 69.52319 192.29941 373
27.42606 71.11095 195.30710 370
22.59429 72.78429 198.41017 367
16.78498 74.76783 201.63229 335
8.95142 77.44339 204.94301 317
79.12637 52.38926 173.53583 428
76.56864 53.28110 175.65855 424
73.93403 54.16928 177.80586 422
69.30923 55.68806 179.63751 304
52.26152 61.44158 178.96539 396
48.75395 62.61551 181.45613 394
45.11331 63.82220 184.07559 391
41.41507 65.06061 186.79216 389
37.51621 66.34649 189.58971 376
33.09842 67.83263 192.42749 373
28.53990 69.38343 195.43211 371
23.71549 70.95775 198.51831 368
18.73479 72.68279 201.80267 366
12.07514 74.86349 205.09825 318
79.42399 51.28652 173.68864 428
76.87290 52.11940 175.79561 424
74.25574 52.98914 177.97232 422
69.01815 54.72134 179.60088 304
52.93270 59.98554 179.14464 397
49.47658 61.15984 181.66621 395
45.87365 62.28215 184.28371 392
42.18845 63.53682 186.95799 390
38.37347 64.76875 189.75090 387
34.12860 66.17926 192.61324 374
29.63788 67.66708 195.58775 372
24.90976 69.23070 198.66512 369
19.94489 70.82523 201.90192 366
14.76317 72.54989 205.30833 335
79.70408 50.20470 173.82808 429
77.14626 51.01040 175.93439 425
74.54926 51.85577 178.12877 423
68.74095 53.72263 179.60378 304
53.57711 58.56551 179.39458 398
50.16058 59.71152 181.87833 396
46.62721 60.82540 184.47638 393
42.96626 61.98130 187.15625 391
39.17609 63.22190 189.89943 388
35.16383 64.49073 192.78831 375
30.70203 65.94959 195.72162 373
26.02282 67.43736 198.82742 370
21.16570 69.00101 202.01721 367
16.05346 70.70197 205.38945 365
79.99793 49.08399 174.00082 430
77.45149 49.86846 176.10982 426
74.86234 50.72171 178.27611 424
68.48067 52.69867 179.62613 304
54.28572 57.18181 179.60071 399
50.84503 58.28240 182.05846 396
47.36525 59.38538 184.65865 394
43.74195 60.48544 187.31418 392
39.98609 61.71479 190.09143 389
36.09628 62.89734 192.96262 387
31.72742 64.25764 195.87010 374
27.12724 65.72301 198.93242 371
22.35074 67.23910 202.12569 368
17.28235 68.85729 205.42670 366
80.25891 47.98810 174.14052 430
77.77700 48.79249 176.25410 427
75.16716 49.54637 178.39281 424
68.19653 51.73014 179.63686 304
54.89779 55.82664 179.76366 400
51.55006 56.83804 182.24251 397
48.07013 57.92877 184.85265 395
44.49404 59.03102 187.46048 392
40.80093 60.14912 190.25211 390
36.95768 61.35987 193.06682 387
32.79606 62.60654 196.03534 374
28.27858 64.02224 199.07730 372
23.52211 65.49914 202.25014 369
18.50507 67.05959 205.56548 366
80.52219 46.91728 174.28476 431
78.05602 47.66119 176.38354 427
75.48400 48.45411 178.52641 425
67.98136 50.70540 179.62206 304
55.43139 54.50759 179.94443 413
52.25313 55.45084 182.45222 398
48.78397 56.50148 185.00014 396
45.24533 57.58036 187.65984 393
41.54830 58.68457 190.37943 391
37.73579 59.82825 193.23911 388
33.77589 61.01758 196.15387 386
29.33933 62.34823 199.18361 373
24.64481 63.80307 202.31465 370
19.73080 65.28204 205.59029 367
80.80731 45.82641 174.42746 432
78.37145 46.57351 176.52269 428
75.77930 47.30539 178.65941 426
67.73020 49.70887 179.61691 304
55.90086 53.19704 180.10892 413
52.78275 54.10909 182.62743 411
49.53023 55.06107 185.17001 397
45.97605 56.10140 187.80692 394
42.36605 57.20238 190.55676 392
38.55069 58.29434 193.36339 389
34.65203 59.43924 196.28384 387
30.41077 60.71632 199.28564 374
25.76632 62.06002 202.43134 371
20.96138 63.48273 205.71815 368
81.09073 44.77384 174.59563 432
78.63587 45.48374 176.66959 428
76.10358 46.19659 178.82265 426
67.45050 48.69940 179.64882 304
56.35316 51.88990 180.27623 414
53.28928 52.78823 182.73279 412
50.06270 53.74423 185.33336 409
46.75290 54.68275 187.95949 395
43.11409 55.74383 190.68744 393
39.37218 56.81970 193.48271 390
35.53870 57.90671 196.42387 387
31.45689 59.05728 199.41414 374
26.90206 60.40646 202.49915 372
22.09070 61.75083 205.75064 369
81.39429 43.71545 174.70911 433
78.93547 44.37313 176.81558 429
76.39281 45.09441 178.94176 427
67.25406 47.67568 179.62947 304
56.86563 50.64063 180.39417 415
53.78135 51.47284 182.89761 412
50.55790 52.36158 185.47136 410
47.27928 53.29328 188.08006 408
43.89016 54.24716 190.82590 393
40.17541 55.29444 193.59792 391
36.37943 56.37580 196.49408 388
32.38723 57.51709 199.50246 386
27.98034 58.74299 202.60406 373
23.28754 60.07485 205.83798 370
81.65895 42.65616 174.84657 434
79.24770 43.33571 176.93333 430
76.70455 44.01399 179.08009 428
60.11947 48.59102 178.11693 425
57.26003 49.36481 180.53688 422
54.21625 50.20522 183.05669 413
51.06842 51.07087 185.60280 411
47.79961 51.97371 188.21997 408
44.44125 52.89492 190.92931 406
40.99109 53.83433 193.74760 392
37.16789 54.88112 196.64551 389
33.26342 55.95469 199.63026 387
29.08658 57.13317 202.71512 374
24.44901 58.38371 205.91476 371
81.94770 41.60947 174.99013 434
79.53527 42.23129 177.08446 430
77.01517 42.89866 179.17682 428
60.49931 47.35985 178.23929 425
57.64877 48.09571 180.67273 423
54.74131 48.92305 183.16252 414
51.58777 49.72674 185.74132 411
48.34207 50.63620 188.34892 409
45.00628 51.53757 191.06487 406
41.55787 52.44268 193.83257 404
37.98743 53.40590 196.75911 390
34.11167 54.44942 199.68712 387
30.04299 55.53905 202.78114 385
25.57349 56.74664 205.98511 372
-187.20741 113.84856 202.26212 495
82.21416 40.57409 175.10240 435
79.79800 41.18274 177.18335 431
77.31409 41.84546 179.33092 429
60.86842 46.15898 178.37723 426
58.09290 46.88601 180.80713 424
55.18783 47.63761 183.29497 421
52.11620 48.44136 185.87425 412
48.88507 49.27143 188.44791 410
45.55907 50.14146 191.19420 407
42.13391 51.06288 193.92867 405
38.62904 52.01144 196.84628 402
34.97459 52.91725 199.82831 399
30.96187 53.96784 202.85504 386
26.65938 55.11274 206.09250 373
20.56482 56.72230 209.30121 262
82.46984 39.50256 175.23970 435
80.12942 40.13064 177.33194 432
77.61836 40.75723 179.42902 429
61.26353 44.94299 178.49956 427
58.45424 45.67416 180.92563 424
55.58762 46.38224 183.45282 422
52.57264 47.16770 185.95660 413
49.39152 47.95684 188.57399 410
46.13331 48.82407 191.29124 408
42.70271 49.65361 194.03105 405
39.23167 50.59309 196.89436 403
35.56622 51.47654 199.86566 400
31.86091 52.45605 202.96359 398
27.72019 53.50409 206.13390 384
22.72698 54.79163 209.44385 338
82.76620 38.48886 175.38727 436
80.38496 39.06236 177.44695 432
77.94302 39.69561 179.55327 308
61.61566 43.73299 178.65265 427
58.83643 44.43589 181.04974 425
56.00605 45.17076 183.54630 423
53.11446 45.86671 186.11330 420
49.93596 46.64712 188.70549 411
46.65507 47.50622 191.35924 409
43.28148 48.31742 194.14748 406
39.83904 49.18165 197.01993 404
36.18548 50.10168 199.96794 401
32.45826 51.00599 203.03952 398
28.59682 51.98372 206.21320 396
23.92953 53.13024 209.43736 342
83.04243 37.44742 175.52831 437
80.69698 38.01546 177.57103 435
77.75233 38.74709 179.57066 308
61.99649 42.55949 178.78069 428
59.27153 43.23553 181.20644 426
56.41234 43.92408 183.68472 423
53.51918 44.63844 186.23338 421
50.42913 45.36011 188.79337 412
47.18811 46.13538 191.47073 409
43.84897 46.95642 194.22205 407
40.39782 47.79369 197.09091 404
36.81142 48.65295 200.05881 402
33.15420 49.60760 203.10994 399
29.30633 50.49211 206.23465 396
25.14628 51.52496 209.49078 357
-186.84744 102.91208 209.36041 485
83.30618 36.42727 175.63742 437
80.98540 37.00633 177.71132 435
77.54109 37.81258 179.56314 308
62.38255 41.37544 178.88924 429
59.62331 42.04488 181.32448 426
56.81740 42.69978 183.76801 424
53.95483 43.39305 186.34531 422
50.95961 44.07258 188.91054 413
47.74892 44.84397 191.59973 410
44.41568 45.65340 194.32536 407
40.99880 46.42576 197.18504 405
37.42414 47.26878 200.09569 402
33.79161 48.12753 203.13887 400
29.97418 49.05439 206.29440 397
25.90250 49.98555 209.55728 357
-186.88446 100.24341 209.43536 485
83.60529 35.45387 175.73897 438
81.25387 35.94785 177.79414 436
77.39952 36.86640 179.55661 308
62.74559 40.21890 179.06046 429
60.01804 40.85690 181.44905 427
57.23316 41.51110 183.91425 425
54.35631 42.13116 186.41473 422
51.40036 42.80436 189.01926 420
48.28610 43.55532 191.66965 411
44.97299 44.30758 194.41702 408
41.57327 45.07680 197.23375 406
38.03085 45.92093 200.18706 403
34.38312 46.74104 203.20445 400
30.61886 47.59504 206.31143 398
26.62630 48.54657 209.59399 358
-187.45084 97.72350 209.37715 485
83.87600 34.42916 175.88925 439
81.55515 34.93536 177.91945 436
77.21655 35.92716 179.53664 308
63.11945 39.06597 179.14037 430
60.44119 39.65788 181.58246 428
57.64555 40.26134 184.01060 425
54.77376 40.93516 186.52463 423
51.87127 41.55698 189.11655 421
48.82740 42.24844 191.80089 411
45.50952 42.97305 194.50145 409
42.14249 43.76907 197.34447 406
38.64767 44.49909 200.26790 404
35.04753 45.34948 203.24753 401
31.31266 46.19543 206.36600 398
27.39798 47.03869 209.63289 361
-187.89955 95.09515 209.47267 485
-194.92570 96.74174 216.51221 295
84.15630 33.43884 175.99257 439
81.84322 33.94147 178.03667 437
77.06499 34.95607 179.55704 308
63.51938 37.91671 179.29689 431
60.81277 38.50699 181.69827 428
58.06910 39.09152 184.11913 426
55.20564 39.69056 186.66066 424
52.26797 40.35496 189.21721 421
49.29997 40.96863 191.91444 419
46.08874 41.66602 194.60553 410
42.72165 42.39955 197.39349 407
39.23182 43.17173 200.32825 404
35.68356 43.94330 203.30389 402
31.96996 44.78156 206.40666 399
28.11601 45.59081 209.63553 396
-188.36072 92.58925 209.42435 485
-188.07730 92.44748 216.41342 297
84.39355 32.44785 176.10889 440
82.10627 32.89600 178.17078 438
76.90748 34.00096 179.54822 308
63.90266 36.73790 179.40036 431
61.18452 37.33009 181.76953 429
58.47079 37.91124 184.23451 427
55.61942 38.49712 186.73126 424
52.74968 39.13037 189.32359 422
49.74711 39.72630 191.95926 419
46.62946 40.40226 194.70392 410
43.29665 41.07317 197.51404 408
39.85849 41.79202 200.38710 405
36.26190 42.54422 203.37395 402
32.61183 43.37036 206.47215 400
28.76453 44.13087 209.65738 397
-182.77667 88.76090 216.47432 439
84.66724 31.45065 176.22467 440
82.41816 31.92783 178.27133 438
76.76460 33.04903 179.56216 308
64.25336 35.61311 179.54875 432
61.56509 36.18246 181.89050 430
58.84020 36.70370 184.36256 427
56.04353 37.29060 186.83348 425
53.14557 37.87671 189.40370 423
50.18275 38.47817 192.04868 420
47.14952 39.13210 194.79402 418
43.86929 39.80407 197.57335 408
40.43186 40.46431 200.42555 406
36.88965 41.22485 203.40703 403
33.25951 41.96905 206.53699 400
29.43109 42.75167 209.71008 398
-182.90929 86.04842 216.51675 439
84.75836 30.48643 176.27144 459
82.62512 30.92382 178.36462 457
76.58588 32.09970 179.57495 308
64.61755 34.50285 179.64075 432
61.96625 35.01925 182.02531 430
59.24724 35.52550 184.42886 428
56.45621 36.07361 186.96751 426
53.61254 36.67389 189.52277 423
50.66200 37.26455 192.15735 421
47.61831 37.82567 194.84619 418
44.40696 38.49723 197.62874 409
41.01998 39.15160 200.51355 406
37.51538 39.84321 203.48721 404
33.84819 40.58512 206.54276 401
30.09109 41.32167 209.75322 398
-183.01212 83.52137 216.44341 439
84.80067 29.56708 176.33267 459
82.69924 29.95042 178.41682 457
76.44159 31.17574 179.57765 308
64.97010 33.37851 179.77295 433
62.34604 33.85965 182.12439 431
59.64668 34.38876 184.54030 428
56.88066 34.90541 187.04959 426
