# .PCD v.7 - Point Cloud Data file format
VERSION .7
FIELDS x y z rgb
SIZE 4 4 4 4
TYPE F F F U
COUNT 1 1 1 1
WIDTH 1406
HEIGHT 1
VIEWPOINT 4298.562988 -4097.642090 140.952896 0.001728 -0.114518 -0.001465 0.993419
POINTS 1406
DATA ascii
424.57477 19.27416 172.02318 305
441.19376 20.93455 172.19582 301
491.70334 25.88646 166.68956 455
4887.93994 458.62411 289.21323 465
268.66553 4.20773 203.50732 314
272.00638 4.56591 203.50803 310
410.12448 19.03517 171.87625 309
424.47479 20.54058 172.02611 305
441.14178 22.30418 172.19212 301
490.45065 27.45374 166.85233 456
4872.48438 486.28415 288.87994 483
268.67062 4.51356 203.49951 314
272.01215 4.88842 203.50352 310
410.06897 20.18824 171.86121 309
424.41782 21.78810 172.02571 305
441.04919 23.65805 172.17792 301
489.15607 29.01689 167.09924 457
4860.61279 513.84564 288.02737 486
268.68558 4.81449 203.50079 314
272.01602 5.19903 203.50960 310
409.96365 21.36806 171.89774 309
424.34183 23.07498 172.00497 305
440.97421 24.99817 172.17790 301
487.96417 30.51163 167.30113 457
4850.05518 540.73602 288.13046 493
268.67996 5.11533 203.49724 314
272.01584 5.52178 203.50212 310
409.89832 22.56772 171.87498 309
424.22617 24.31917 172.01616 305
440.84885 26.34807 172.19235 301
486.72449 32.00101 167.50699 458
4841.64111 568.39929 288.09326 493
268.68726 5.42313 203.50145 314
272.01874 5.85475 203.49841 310
409.79065 23.72466 171.86209 309
424.17444 25.55084 172.01714 305
440.72568 27.70376 172.15794 301
485.53925 33.48460 167.71394 459
4834.04736 596.99548 288.84070 493
268.67938 5.71509 203.50937 314
272.01602 6.17599 203.49872 310
409.68137 24.90668 171.84471 309
424.02753 26.80166 171.98419 305
440.63840 29.10606 172.13986 301
484.32532 34.99915 167.90091 460
4828.15479 624.36127 288.45746 466
268.67102 6.01701 203.50734 314
272.08380 6.50374 203.48235 282
409.60376 26.03071 171.88855 309
423.92343 28.07929 171.99718 305
440.54138 30.42645 172.15993 301
483.05936 36.45817 168.06772 461
4822.98633 653.13629 288.74899 466
268.67447 6.31814 203.50925 314
396.92288 25.34665 171.74709 313
409.47925 27.19984 171.85748 309
423.82614 29.36096 171.98592 305
475.42526 36.97903 165.10176 300
482.80344 38.09078 168.11638 294
4817.27588 680.70563 288.60687 466
268.66476 6.62897 203.49844 314
396.81830 26.46280 171.75096 313
409.36450 28.41445 171.88199 309
423.70816 30.59504 171.97810 305
475.21280 38.56813 165.11563 300
482.70621 39.71246 168.04993 294
4814.53271 708.88141 288.67798 466
268.65665 6.93165 203.50095 314
396.72513 27.52563 171.77170 313
409.20227 29.56736 171.87813 309
423.57788 31.87459 171.99506 305
475.10547 40.13581 165.10324 300
482.59271 41.33324 168.07286 294
4811.06055 737.17590 288.14612 466
268.65018 7.22833 203.50435 314
396.58334 28.64651 171.73486 313
409.07526 30.70034 171.85814 309
423.42996 33.11296 172.00697 305
474.87408 41.69022 165.10233 300
482.46942 43.01313 168.02336 293
4808.30664 766.52509 289.03467 389
268.62924 7.53669 203.50735 314
396.44626 29.72583 171.74719 313
408.93219 31.88120 171.88170 309
423.23038 34.38277 171.99402 305
474.68112 43.31350 165.05788 300
482.33630 44.58942 168.05811 293
4808.27979 795.28253 288.90393 390
4924.09521 815.29706 447.09909 443
268.61664 7.83582 203.50414 314
396.31436 30.80400 171.74686 313
408.80090 33.07258 171.86172 309
423.08548 35.60356 171.98563 305
474.37677 44.88112 165.12167 446
482.24805 46.29619 168.04807 293
4805.81006 823.75995 289.43124 390
4952.46436 849.58093 369.95081 398
4912.24219 843.02264 447.17053 481
268.59531 8.13473 203.50356 314
396.16495 31.88602 171.76019 313
408.63132 34.21466 171.85864 309
422.92282 36.89453 171.99561 305
472.92892 46.20273 165.32439 447
482.09674 47.87280 168.03839 293
4804.71924 852.00446 289.15179 390
4909.59180 872.08368 446.51797 498
268.57791 8.44062 203.49902 314
396.02557 32.98376 171.72151 313
408.50674 35.37479 171.87048 309
422.75525 38.14627 171.99796 305
471.50281 47.54633 165.60812 448
481.93234 49.49218 168.02646 293
4802.76562 881.84387 288.82706 389
268.55475 8.74379 203.50853 314
395.82755 34.08563 171.75403 313
408.33972 36.57958 171.85649 309
422.60321 39.37337 171.98650 305
470.08234 48.83212 165.80037 449
4801.31738 910.27856 289.76410 389
268.54257 9.05262 203.50848 314
395.65536 35.16038 171.71461 313
408.14465 37.73559 171.83263 309
422.37576 40.65417 171.96501 305
468.66602 50.14665 166.09726 450
4800.31494 938.51630 289.18225 389
268.51013 9.34470 203.50406 314
395.52670 36.27016 171.74243 313
407.97815 38.86471 171.83643 309
422.19534 41.91829 171.98540 305
467.31659 51.48089 166.30205 451
4798.64893 968.14264 289.08536 389
268.48184 9.65823 203.49747 314
395.34570 37.32032 171.74280 313
407.76688 40.07048 171.83589 309
421.99469 43.16054 171.99066 305
465.94974 52.73484 166.51199 451
4796.92236 997.68433 289.03418 389
268.45901 9.95331 203.49965 314
395.13605 38.42731 171.71259 313
407.58353 41.20119 171.84496 309
453.46219 51.49156 164.93640 304
464.56183 54.03133 166.75545 452
4795.05225 1026.44775 289.69995 389
268.42258 10.25887 203.50381 314
394.96796 39.49080 171.73111 313
407.34741 42.34206 171.84978 309
453.16962 52.97122 164.96866 304
463.23096 55.28654 166.96944 453
4792.77832 1054.96521 290.02734 389
268.39078 10.56218 203.50177 314
394.73584 40.58091 171.74101 313
407.13309 43.52695 171.86055 309
452.91034 54.39333 164.94611 304
461.71609 56.45488 167.24208 421
4791.65137 1084.83569 289.41794 388
268.36716 10.86378 203.50563 314
394.53320 41.64870 171.74136 313
406.92471 44.69929 171.86086 309
452.59943 55.81682 164.93942 304
459.85583 57.62572 167.51523 422
4790.47754 1114.20288 290.38785 388
268.32938 11.17770 203.50450 314
394.32260 42.72912 171.71538 313
406.69641 45.83010 171.82527 309
452.34357 57.24896 164.94397 304
458.06628 58.71045 167.82469 423
4788.19336 1142.81250 290.75610 388
268.29172 11.48050 203.49976 314
394.11874 43.84008 171.69661 313
406.46945 47.00785 171.81998 309
452.01587 58.74472 164.93311 304
457.32550 60.08742 167.96703 298
4787.13525 1172.16333 290.18417 388
268.24881 11.77847 203.50130 314
393.88245 44.92225 171.71552 313
406.23666 48.15343 171.81158 309
451.67862 60.16695 164.95827 304
457.03659 61.56144 167.89433 298
4785.97412 1201.63013 290.20868 388
268.20795 12.07781 203.50441 314
393.68683 45.96616 171.71754 313
406.00278 49.31427 171.83948 309
451.41699 61.57423 164.92308 304
456.78915 63.06010 167.88943 298
4783.75830 1232.05945 291.20706 388
268.16467 12.38565 203.50819 314
393.42725 47.05453 171.70302 313
405.76819 50.46958 171.81497 309
450.89957 62.98840 165.00499 427
456.52969 64.56079 167.91406 298
268.11789 12.68787 203.50124 314
393.19168 48.12484 171.71764 313
405.48044 51.60611 171.82164 309
449.17679 64.02579 165.26596 428
456.25424 66.03998 167.90550 298
268.11948 13.00458 203.49643 288
392.91110 49.23724 171.72119 313
405.20114 52.75507 171.83652 309
447.47437 65.02222 165.60826 429
455.95242 67.46934 167.88144 297
381.86862 47.09704 171.61333 317
392.67947 50.26947 171.69669 313
433.50125 62.40902 164.86366 308
445.80353 66.07426 165.87062 430
455.64893 68.94135 167.86549 297
381.61752 48.08249 171.60461 317
392.41562 51.39176 171.69455 313
433.16165 63.73238 164.87071 308
444.12491 67.02339 166.17087 431
381.37848 49.07864 171.59911 317
392.15005 52.41509 171.70792 313
432.81277 65.05260 164.85011 308
442.49982 68.04519 166.48410 432
381.08731 50.10789 171.59235 317
391.85812 53.52713 171.67444 313
432.49103 66.37608 164.85687 308
440.83533 69.02927 166.79469 433
380.81561 51.07965 171.58478 317
391.61600 54.57642 171.69377 313
432.11200 67.67188 164.85434 308
439.26086 69.99252 167.06604 434
380.57794 52.10794 171.60242 317
391.32175 55.66850 171.68677 313
431.75333 69.03171 164.85837 308
437.42657 70.91821 167.38101 420
380.28287 53.12227 171.59059 317
391.02567 56.70744 171.69762 313
431.31265 70.34032 164.86543 308
435.65887 71.75251 167.70529 421
380.00104 54.07827 171.57959 317
390.73160 57.76006 171.66751 313
430.94714 71.59079 164.87071 308
434.59149 72.88026 167.82430 302
379.72214 55.08560 171.55083 317
390.42206 58.82037 171.66614 313
430.53708 72.94243 164.87151 308
434.20111 74.22153 167.81430 301
379.42987 56.09524 171.59149 317
390.07681 59.90133 171.67653 313
430.05524 74.24107 164.87355 308
433.88596 75.57270 167.79385 301
379.09814 57.07595 171.58849 317
389.78842 60.96477 171.68910 313
428.63501 75.14120 165.08728 425
433.50543 76.89608 167.81757 301
378.79202 58.09109 171.55556 317
415.15820 71.58553 164.74194 312
426.98062 75.96600 165.42189 426
433.10806 78.25239 167.80267 301
378.47098 59.08508 171.58189 317
414.73438 72.77970 164.77393 312
425.31241 76.80122 165.75934 427
432.70792 79.59446 167.78961 301
378.15277 60.07898 171.57924 317
414.34167 74.01560 164.77809 312
423.63397 77.60706 166.03496 428
432.28799 80.94831 167.74722 301
377.85046 61.03634 171.54036 316
413.91452 75.23177 164.76685 312
422.04831 78.40041 166.32462 429
431.92050 82.28862 167.76933 301
377.49960 62.05710 171.55469 316
413.46548 76.38950 164.77748 312
420.39679 79.16850 166.64917 430
377.18265 63.02039 171.52968 316
413.03537 77.61558 164.79248 312
418.80151 79.98971 166.92427 431
376.83789 63.97786 171.55504 316
412.55777 78.82559 164.79785 312
417.20935 80.72673 167.22163 432
376.46384 64.99413 171.52202 316
412.13437 79.97921 164.78441 312
415.68777 81.48474 167.48199 433
376.13181 65.94030 171.54718 316
411.62216 81.19738 164.78078 312
414.15540 82.27775 167.74283 434
375.78018 66.92039 171.52094 316
411.18503 82.36813 164.82036 312
413.63187 83.46451 167.79942 305
398.66812 78.27055 164.66975 317
410.67331 83.58910 164.79150 312
413.18073 84.65197 167.79346 305
398.22772 79.33304 164.71098 317
409.61530 84.45504 164.97256 436
412.71460 85.89491 167.76335 305
397.80408 80.44750 164.66325 317
408.11758 85.16231 165.21873 437
412.30225 87.12650 167.76016 305
397.30450 81.54298 164.66508 317
406.57248 85.86661 165.55087 418
411.83218 88.34589 167.75084 305
396.82751 82.63931 164.69098 317
404.88434 86.46056 165.85416 419
411.34528 89.52314 167.74297 305
396.35193 83.76754 164.70782 317
403.20178 87.05683 166.16319 421
410.90982 90.76338 167.69025 305
395.82037 84.86104 164.70088 317
401.57352 87.61555 166.49940 422
410.42355 91.95369 167.70558 305
395.32751 85.94746 164.71802 317
399.92801 88.19522 166.82248 423
394.81570 87.03078 164.72914 317
398.27747 88.74152 167.14201 424
394.27661 88.09444 164.71471 317
396.70599 89.31921 167.45891 425
393.78360 89.18897 164.74788 317
395.27884 89.97392 167.73383 311
393.21597 90.23029 164.71051 317
394.73495 91.07153 167.72725 311
392.00842 90.95246 164.93576 427
394.27182 92.13786 167.69424 311
390.45087 91.49039 165.24210 428
393.76184 93.25739 167.68076 309
3783.26807 1931.42480 215.10892 388
388.95044 92.01691 165.53389 429
393.24503 94.35259 167.66495 309
3767.39038 1951.38525 215.27266 456
387.47412 92.50599 165.86235 430
392.70209 95.46812 167.66544 309
386.00714 93.05558 166.14580 431
392.18115 96.55726 167.65117 309
384.52960 93.56541 166.41084 432
391.65967 97.67338 167.66698 309
383.09525 94.06569 166.72357 433
391.12317 98.73862 167.64449 309
381.65204 94.52235 166.95450 434
390.58954 99.82246 167.64891 309
380.21524 95.03756 167.23801 435
378.82812 95.54307 167.51274 436
377.87292 96.28113 167.62946 315
377.31635 97.26718 167.63338 315
376.77808 98.29256 167.62450 315
20286.02344 12702.32520 5338.18115 1000
376.20306 99.28637 167.63432 315
375.63147 100.25052 167.58980 315
375.06870 101.20611 167.59059 315
374.46619 102.18677 167.61430 315
373.87186 103.18910 167.61894 315
260.37878 26.30681 222.85860 1000
373.29425 104.17928 167.60204 313
372.70776 105.14986 167.57207 313
372.09909 106.10940 167.57147 313
12350.81055 9831.81543 -3158.50464 1000
15566.80469 14078.47070 5070.11572 1000
4722.62012 4844.79785 216.22627 291
4664.08936 4841.92529 217.74341 291
4634.14697 4869.22900 216.62514 433
4740.90576 4988.65674 327.50647 418
4617.37109 4911.37256 216.85880 419
4686.64160 4988.03320 326.64365 419
4603.56396 4956.00244 217.61208 419
4632.34619 4988.93457 326.64841 420
4590.54980 5002.38135 216.47925 404
4585.69385 4997.76709 325.60559 488
3553.66650 3863.54370 217.38322 487
4566.81543 5039.05078 325.31207 421
4581.94727 5118.72217 217.87459 391
4578.09277 5178.44775 217.89735 398
4576.41602 5241.34180 217.09120 405
4576.39307 5307.05078 217.75482 404
4576.33350 5372.12744 218.18254 398
4575.90967 5441.93457 218.40915 398
18876.46875 34347.07031 7978.80127 1000
758.86078 1036.66040 100.94083 498
758.85785 1036.55383 120.36102 499
759.06342 1036.32361 139.56763 499
758.86108 1036.41809 158.68973 499
758.89337 1036.42737 177.96010 486
759.24298 1036.56384 196.96352 486
759.11078 1036.55127 216.05450 486
759.22247 1036.55798 235.27686 486
759.55292 1036.89502 254.41180 450
759.52466 1037.08704 273.37555 450
759.73877 1037.36963 292.72375 450
760.17322 1037.76123 312.12579 393
760.37592 1038.52441 331.34625 393
754.63879 1043.52905 177.54340 328
754.18933 1042.26416 196.92102 397
753.81506 1041.58850 216.25314 397
753.44586 1040.89453 235.17017 452
753.34729 1040.53040 254.49512 452
753.12469 1040.06824 273.45743 452
753.02704 1039.48755 292.55087 452
752.85559 1039.36621 312.05972 487
752.88696 1039.00391 331.19446 487
3110.20947 5918.29395 215.06413 415
3057.48730 5898.87402 214.67201 429
3005.42065 5886.40576 215.38991 440
2954.11255 5870.11377 215.36478 443
2905.96704 5860.63428 216.39833 438
2860.25977 5855.02441 214.94048 417
2817.65698 5854.08301 216.09923 402
2836.13940 5897.10449 320.67249 291
2773.84058 5853.19336 216.29573 355
2782.13525 5874.56836 320.75876 478
2731.96387 5856.39648 215.28514 356
2740.51709 5873.46973 320.91333 479
2695.29517 5870.73193 215.46014 264
2695.40894 5867.92334 320.42920 479
2655.66357 5874.91162 216.91983 480
2652.62427 5868.47900 319.22794 480
2613.02637 5874.45361 215.72563 481
2612.62646 5871.97363 319.22275 475
2568.02368 5869.03760 216.30246 481
2570.53149 5872.38867 319.04041 302
2529.28809 5874.50537 216.42259 482
2528.58228 5872.58936 318.92221 486
2502.75049 5911.55469 216.75066 340
2489.10034 5879.59961 319.09192 497
2525.25171 5970.42188 426.35178 402
2500.91089 6017.88965 216.17630 339
2498.33887 6010.30859 321.95059 339
2484.68774 5972.93652 426.09906 468
1406.64368 3189.15991 160.48483 296
2497.77002 6121.19043 324.37613 338
2452.14136 5997.60205 426.49368 495
1356.72253 3111.84253 162.90640 313
1431.02051 3316.17749 216.70657 468
2413.09497 6005.31641 425.57129 410
1354.84009 3167.77783 106.18974 295
1321.67493 3075.19409 163.02849 379
1408.02466 3317.13843 217.22937 468
1332.15027 3165.25635 107.16252 295
1307.36731 3095.78052 163.13557 393
1386.10754 3319.62622 216.80272 468
1309.48682 3163.45898 107.10683 295
1294.75232 3119.53857 162.58913 403
1363.79956 3320.52246 216.79591 469
1289.64893 3167.34106 107.04502 380
1280.94641 3143.68384 162.85689 409
1341.30286 3322.40527 216.44641 469
1277.48657 3197.52930 106.56923 380
1268.10315 3170.69971 162.71802 411
1319.08997 3323.53784 217.48584 469
1265.54248 3228.98682 105.90731 357
1256.01282 3197.86865 162.45126 410
1297.59473 3325.41602 216.60559 470
1255.69617 3265.33130 104.84139 351
1243.58423 3226.76855 161.60495 407
1275.27490 3326.95264 216.78355 470
1245.72290 3304.45923 103.39538 345
1231.54028 3259.71826 161.32991 385
1253.30786 3327.95264 217.39426 468
1237.60181 3352.89038 102.88010 321
1221.30298 3298.30566 160.80937 378
1233.39001 3335.34644 217.08534 460
1237.09961 3425.44360 100.62563 305
1212.63025 3341.52295 160.61110 354
1217.05908 3356.01050 216.95198 346
1209.09705 3406.39771 158.85509 305
1214.60156 3506.19629 158.06198 304
1220.59192 3612.49658 156.65431 302
1223.71399 3710.80762 155.15994 291
363.09570 4582.52197 1054.35962 1000
248.72031 1538.67249 91.90398 469
248.97699 1539.09607 117.26031 469
249.16646 1539.17529 142.18105 470
249.26546 1539.81738 167.79607 470
249.15015 1540.08704 192.94817 470
249.26077 1540.54846 217.86917 422
249.35013 1540.75305 243.26028 422
249.12123 1541.33533 268.40189 422
249.25342 1541.89075 293.95694 422
239.53876 1543.79102 116.77469 292
239.65219 1543.40857 142.28842 292
239.44336 1542.88855 167.50896 292
239.78555 1542.94556 192.90852 366
239.65538 1542.73535 218.20229 366
239.82538 1542.88916 243.36058 366
239.85397 1543.09595 268.78763 366
239.84995 1542.94360 294.07062 366
180.53583 1090.70129 217.94093 1000
-611.10706 9702.11914 2328.27222 1000
46.82140 900.67065 19.93903 1000
-264.08990 2039.36816 81.69586 462
-264.46060 2042.43445 116.19831 344
-276.81982 2039.01379 150.59996 380
-276.64899 2037.00745 184.84187 480
-276.28711 2036.89075 219.32133 499
-276.41806 2037.29175 253.72113 492
-276.63641 2038.99719 288.04855 462
-31861.05273 55834.52344 278.89273 1000
125.14670 149.72148 170.45142 316
124.25957 149.12410 170.44362 316
123.33089 148.53795 170.47130 316
122.05553 148.45964 170.30463 447
120.73241 148.52348 170.09923 437
-15172.91016 23035.11914 -2943.08252 1000
119.30253 148.61613 169.84988 437
117.88533 148.74246 169.61469 436
105.04091 154.84172 166.37015 314
104.04589 154.14833 166.39430 314
103.11255 153.48203 166.37691 314
102.14048 152.75056 166.41298 314
101.17017 152.07594 166.41383 314
-1100.14221 1692.00073 720.78198 1000
100.18684 151.33482 166.37459 314
99.25238 150.63818 166.38460 314
98.29153 149.90906 166.38326 314
97.34146 149.22610 166.36513 314
96.41145 148.50197 166.37146 313
95.47524 147.77618 166.37076 313
94.22511 147.37801 166.26215 427
92.59134 147.48125 165.93341 426
84.60552 156.72417 166.35147 309
90.90640 147.49680 165.64893 425
83.59247 155.90378 166.31270 309
-11291.67090 13182.63867 1957.55725 1000
89.25493 147.59543 165.34590 424
82.63521 155.10210 166.34520 309
87.57334 147.64299 165.08138 423
81.64011 154.25699 166.32849 309
85.88244 147.70834 164.73708 422
80.63755 153.46797 166.29019 309
-14633.40625 16392.31055 5396.52441 1000
-27147.88477 30204.04492 10465.58496 1000
84.12918 147.75963 164.42967 421
79.65435 152.64087 166.29810 309
82.36015 147.86626 164.10614 420
78.71015 151.81375 166.30312 309
80.59578 147.90065 163.77988 419
77.71504 150.97220 166.29193 309
78.80776 147.98305 163.43581 418
76.77850 150.17484 166.28601 309
77.58374 147.42174 163.34769 307
75.76859 149.28186 166.27429 309
76.77776 146.49887 163.41026 307
74.82156 148.42224 166.27138 309
75.92639 145.54135 163.43498 307
73.29750 148.20378 166.06425 415
75.06510 144.56903 163.45885 307
71.41252 148.24910 165.70595 414
-115.27361 113.85204 -43.26864 307
69.44521 148.34354 165.36853 413
60.75110 156.96017 166.18074 305
73.43958 142.65695 163.51242 307
67.53579 148.42766 165.06343 412
59.73183 156.01999 166.23499 305
72.61925 141.67880 163.56938 307
65.57195 148.48975 164.68346 411
58.75092 155.05228 166.19565 305
93.57697 119.99466 171.59045 315
63.58854 148.57011 164.34937 410
57.80251 154.10719 166.21460 305
92.87231 119.21591 171.59367 315
61.52007 148.64052 163.92467 409
56.81332 153.12471 166.22968 305
92.11184 118.45838 171.61520 315
59.48625 148.75363 163.53967 408
55.84025 152.16254 166.23293 305
91.36534 117.66222 171.61095 315
57.61931 148.61124 163.26060 303
54.81430 151.15031 166.16826 305
90.62006 116.86720 171.65523 315
56.80396 147.58830 163.31378 304
53.83772 150.22736 166.21927 305
89.91895 116.08897 171.65945 315
55.95957 146.48891 163.34541 304
52.90573 149.22679 166.18425 305
89.17696 115.26910 171.63467 315
55.15153 145.36867 163.37234 304
50.98976 149.06961 165.86108 404
88.46600 114.47401 171.65933 315
54.30759 144.27454 163.39185 304
48.79082 149.16548 165.50862 402
87.75095 113.66058 171.68137 316
78.72843 121.51395 171.74333 312
46.52388 149.23770 165.09328 401
36.11012 158.19078 166.09198 301
87.05880 112.87051 171.67288 316
77.93631 120.63072 171.71393 312
44.24633 149.31140 164.68089 400
35.13527 157.13521 166.06291 301
86.33858 112.06862 171.68451 316
77.22523 119.76028 171.75574 312
41.95004 149.41240 164.27429 399
34.15708 155.98204 166.10332 301
85.64772 111.24580 171.67253 316
76.45359 118.88042 171.74460 312
39.61023 149.50098 163.88622 398
33.14797 154.86644 166.12059 301
84.95642 110.43661 171.68243 316
75.71447 118.01064 171.76172 312
37.24196 149.62399 163.42776 397
32.17239 153.76421 166.06705 301
84.26977 109.61456 171.68629 316
75.00766 117.13664 171.78616 312
35.38701 149.23959 163.18053 300
31.19737 152.58551 166.11971 301
83.56432 108.74535 171.69522 316
74.27906 116.21120 171.75958 312
34.53953 148.01134 163.21999 300
30.24453 151.45062 166.12015 301
82.91683 107.94067 171.71309 316
73.51921 115.32492 171.78305 312
33.79445 146.76338 163.21632 300
29.26778 150.34296 166.05499 301
82.22169 107.07485 171.70470 316
72.80421 114.43311 171.77925 312
62.12324 122.80314 171.89143 308
27.24315 150.02092 165.82715 392
81.57024 106.27232 171.69559 316
72.11686 113.55683 171.77760 312
61.36540 121.79451 171.90300 308
24.69263 150.09810 165.35387 391
80.90564 105.41551 171.72816 316
71.40498 112.64124 171.80693 312
60.62055 120.86990 171.87692 308
22.05441 150.21011 164.90297 390
80.22628 104.52967 171.70859 316
70.68027 111.71556 171.81415 312
59.84204 119.86523 171.88083 308
19.34718 150.24901 164.43983 391
7.68487 159.08342 165.85497 294
79.56240 103.69607 171.70805 316
70.00702 110.80997 171.79352 312
59.10111 118.86443 171.88164 308
16.66227 150.34973 163.98579 390
6.64707 157.81279 165.80978 294
-31313.70508 23389.96484 9402.89453 1000
78.92094 102.85494 171.72926 316
69.28014 109.87610 171.81357 312
58.38489 117.90553 171.90681 308
13.94134 150.40501 163.49294 389
5.60076 156.54871 165.82860 295
-12580.92480 9372.51074 -289.53818 1000
78.29955 101.96385 171.75378 316
68.63172 108.99206 171.82176 312
57.65268 116.93159 171.91864 308
11.19235 150.48135 163.05168 388
4.56030 155.24179 165.80763 295
77.65056 101.11945 171.76476 316
67.96136 108.05330 171.80899 312
56.89267 115.90325 171.90237 308
10.27192 149.19447 163.04634 288
3.56356 154.00362 165.77049 295
77.01645 100.23035 171.77724 316
67.24346 107.08798 171.84160 312
56.15911 114.94036 171.95052 308
43.49309 123.89293 172.05203 304
2.52665 152.71350 165.76146 295
76.39912 99.37468 171.74770 316
66.60241 106.20377 171.86189 312
55.47595 113.94386 171.90419 308
42.68341 122.81392 172.02647 304
1.52768 151.42319 165.80843 295
75.78999 98.50164 171.77740 316
65.91360 105.26216 171.82031 312
54.78116 112.92911 171.93895 308
41.94466 121.70039 172.06718 304
-0.42603 150.76117 165.54265 383
-44535.32812 30708.00781 7402.11816 1000
75.13436 97.63438 171.78360 316
65.29836 104.31402 171.85707 312
54.03252 111.87347 171.95261 308
41.16375 120.60229 172.05669 304
-3.48708 150.82156 165.04419 382
74.56001 96.74610 171.75763 316
64.64639 103.33791 171.86290 312
53.35239 110.86658 171.94437 308
40.41022 119.48251 172.06728 304
-6.55976 150.88676 164.54155 381
73.92411 95.85236 171.78618 316
63.97779 102.39216 171.83733 312
52.66242 109.88125 171.97025 308
39.68069 118.40224 172.08603 304
-9.69472 151.02591 164.01839 379
73.32643 94.93681 171.79637 316
63.36460 101.44743 171.85574 312
51.96289 108.80845 171.94252 308
38.98735 117.33044 172.05257 304
-12.91608 151.10640 163.51562 378
-26.08912 159.69673 165.36533 290
72.72011 94.05442 171.77551 316
62.69683 100.50658 171.89307 312
51.31253 107.82522 171.94652 308
38.24199 116.19909 172.05220 304
-16.25400 151.18498 162.89536 377
-27.17885 158.12384 165.38443 290
72.14267 93.14823 171.80095 316
62.06457 99.54331 171.86818 312
50.61863 106.77549 171.94670 308
37.50516 115.11099 172.09636 304
22.32117 124.71742 172.21687 300
-28.16154 156.67349 165.31059 290
71.57162 92.22037 171.80168 316
61.44407 98.57833 171.85947 312
49.96995 105.71143 171.99754 308
36.76696 113.96901 172.05733 304
21.51371 123.51425 172.17825 300
-29.13350 155.16820 165.34424 290
70.96481 91.35044 171.78543 316
60.80708 97.58908 171.90131 312
49.29539 104.69050 171.95587 308
36.05727 112.87048 172.11441 304
20.79813 122.26378 172.20523 300
-30.10645 153.66592 165.37814 291
70.43504 90.42603 171.79024 316
60.23938 96.64049 171.92039 312
48.67130 103.64053 171.97192 308
35.38614 111.70153 172.12448 304
20.03772 121.04359 172.20428 300
-31.17915 152.11194 165.31277 291
69.86477 89.52176 171.81870 316
59.62740 95.65279 171.88779 312
48.01180 102.62187 171.97011 308
34.68439 110.58508 172.08994 304
19.27013 119.83404 172.26218 300
-33.72007 151.62050 165.01921 371
69.26697 88.58846 171.81786 316
59.01254 94.67910 171.93120 312
47.36277 101.52642 172.01855 308
34.01764 109.47182 172.12450 304
18.51327 118.59965 172.23636 300
-37.47232 151.66280 164.42911 369
68.71320 87.67786 171.81386 316
58.44588 93.65659 171.90967 312
46.69702 100.50880 171.98163 308
33.29874 108.29348 172.10109 304
17.79500 117.38664 172.22900 300
-41.29726 151.77568 163.81059 368
68.18107 86.73904 171.82147 316
57.83176 92.66398 171.92920 312
46.11147 99.46127 172.02177 308
32.62708 107.19211 172.11404 304
17.03321 116.14574 172.24861 300
-45.12610 151.89120 163.20351 367
67.63306 85.83176 171.85516 316
57.26996 91.67924 171.89862 312
45.47482 98.39459 172.00409 308
36.98881 103.21526 173.33888 318
17.48345 114.22976 172.53131 269
-1.99605 125.25396 172.41330 296
-64.21951 160.56511 164.90489 288
67.08596 84.89082 171.85202 316
56.67486 90.70180 171.90572 312
45.41961 97.01356 172.15706 320
39.58090 100.23309 174.19098 319
29.26044 106.03976 175.38037 271
9.78813 116.87797 175.04028 270
-65.17776 158.77344 164.91707 288
66.52937 83.94869 171.82655 316
56.11423 89.69351 171.93604 312
47.79357 94.29304 172.96309 322
42.15089 97.40768 174.96790 320
36.28299 100.60195 177.09406 318
21.80682 108.61445 177.68173 272
-66.15748 156.98029 164.95302 288
66.00353 83.02236 171.85944 316
55.51367 88.68545 171.96114 312
50.06995 91.64989 173.70581 323
44.57562 94.67012 175.69957 322
38.91460 97.71140 177.87585 320
32.02600 101.46278 179.92236 296
13.54313 111.49801 180.10188 292
65.46949 82.08665 171.87027 316
57.32404 86.45428 172.61513 326
52.25285 89.12414 174.48804 324
46.92487 92.00751 176.43892 323
41.50987 94.90454 178.55843 321
31.37111 100.32258 179.92534 296
12.84622 110.25853 180.04756 292
64.98777 81.14284 171.87306 316
59.36975 84.09094 173.36139 327
54.40774 86.67789 175.16273 325
49.25827 89.40104 177.13142 324
43.94606 92.20990 179.28825 322
30.76205 99.14640 179.92505 296
12.14308 108.97574 180.05777 292
-10.32131 120.77650 180.30582 288
64.45092 80.19056 171.87343 316
60.63958 82.17181 173.84549 385
56.52385 84.30464 175.88504 326
51.42484 86.92684 177.80441 324
45.78407 89.89425 179.80280 300
30.08763 97.99511 179.92303 296
11.48572 107.69270 180.07259 292
-11.07915 119.40279 180.30035 288
64.54255 78.93079 172.05869 376
61.30415 80.58347 174.19019 386
58.37917 82.11047 176.49033 384
53.62462 84.53899 178.50015 326
45.21386 88.79850 179.79471 300
29.47444 96.86153 179.91798 296
2.72540 110.54064 178.60725 293
-11.81015 118.00571 180.27016 288
65.23174 77.41344 172.39201 377
61.99960 79.02580 174.54912 387
59.08741 80.47754 176.84877 385
55.72624 82.19561 179.11505 327
44.68868 87.75596 179.80446 300
4.25841 108.07005 174.95009 283
-5.67286 113.04578 177.20926 292
-12.55089 116.52684 180.26079 288
65.87941 75.87859 172.75793 378
62.69569 77.46469 174.84789 388
59.79470 78.91152 177.18530 386
56.79465 80.34767 179.49985 384
44.12667 86.66593 179.85231 300
11.13124 102.97076 176.48448 284
-13.94564 115.46642 175.79900 348
-13.93353 115.40554 180.22803 348
66.55103 74.36983 173.09538 379
63.33355 75.94779 175.16577 389
60.46683 77.34834 177.49594 387
57.09515 78.97900 179.72722 304
43.58318 85.58480 179.81017 300
17.56361 98.26817 177.90141 286
2.88747 105.43661 179.01360 283
-18.06144 115.62064 179.63651 346
67.22606 72.90833 173.44272 380
64.00948 74.44355 175.52858 390
61.18628 75.80432 177.78139 388
56.58650 78.01966 179.70943 304
43.03533 84.53058 179.81523 300
22.23079 94.51972 178.98808 315
9.79944 100.43942 180.39185 285
-22.21276 115.88332 179.07698 345
67.87476 71.43899 173.75620 381
64.62127 72.94569 175.80557 391
61.84593 74.25755 178.09433 389
56.10000 76.99102 179.70840 304
31.03706 88.88330 177.30544 334
24.93613 91.70290 179.68330 332
16.25909 95.79813 181.74345 286
1.58560 102.79203 183.12292 283
-43.79314 124.22073 180.53123 284
68.51183 69.97270 174.10876 382
65.30212 71.48737 176.11572 392
62.54226 72.75515 178.37642 390
55.60346 75.98655 179.74083 304
32.92468 86.56664 177.87292 335
26.97153 89.31611 180.16101 333
19.88256 92.58956 182.49193 315
8.60116 97.89506 184.34720 285
-44.56015 122.59964 180.56500 284
69.14986 68.56145 174.43999 383
65.90749 70.03152 176.45906 393
63.17984 71.27489 178.66435 391
55.09597 75.01578 179.71643 304
34.80052 84.31663 178.42671 337
28.93824 87.00014 180.69923 334
22.72167 89.82997 183.13437 316
14.58556 93.53516 185.43784 314
0.38437 100.03427 187.13745 284
69.74267 67.17914 174.72826 384
66.52539 68.61126 176.73515 394
63.85815 69.82199 178.94566 392
54.64414 73.96782 179.73260 304
36.58614 82.13921 178.92329 338
30.88274 84.68069 181.19598 335
24.92629 87.35819 183.63725 333
17.55150 90.71377 186.02043 315
7.45750 95.27705 188.24557 285
70.40238 65.76791 175.05737 385
67.15955 67.19780 177.01433 395
64.48067 68.39565 179.23427 393
54.17409 72.96767 179.73505 304
38.34380 80.00772 179.40674 339
32.79694 82.43772 181.68796 336
26.94050 85.02164 184.09521 334
20.50514 87.89878 186.56685 316
12.25517 91.57724 189.07446 314
-0.70638 97.28210 191.21980 284
70.98145 64.40755 175.37215 386
67.77029 65.81046 177.32799 383
65.13833 66.95421 179.51764 394
53.69551 71.97063 179.73415 304
40.07363 77.93180 179.90248 340
34.62872 80.27540 182.13831 337
28.89797 82.74495 184.53336 335
22.88406 85.41117 187.05011 333
15.25242 88.69781 189.56645 315
6.37249 92.57606 192.14055 285
-17.29168 102.88490 193.51352 265
71.62754 63.06272 175.64084 387
68.45601 64.41373 177.63261 384
65.15268 65.82811 179.67406 308
45.15913 74.40741 177.88167 387
41.18555 76.12393 180.24966 374
36.44899 78.14091 182.64229 339
30.87482 80.52045 184.96846 336
24.93091 83.07326 187.51959 334
18.22838 85.94374 190.10008 316
9.86222 89.50723 192.66968 313
-1.75093 94.50480 195.24641 284
72.21059 61.76527 175.93457 387
69.05180 63.05420 177.90210 385
64.75134 64.87460 179.65819 308
45.86201 72.86562 178.13708 388
42.07053 74.47220 180.55328 374
37.91190 76.18545 182.99449 372
32.71933 78.40691 185.39551 337
26.97712 80.79470 187.90697 335
20.85345 83.39259 190.55162 332
12.97556 86.70497 193.13835 314
4.24753 90.35022 195.95866 312
-17.79903 99.64642 197.84290 265
72.80627 60.41159 176.23216 388
69.67482 61.69588 178.21223 386
64.32653 63.95751 179.66299 308
46.54702 71.28719 178.42599 389
42.89777 72.83419 180.84212 375
38.83205 74.49186 183.28630 373
34.57251 76.28115 185.84912 338
28.93762 78.60979 188.33414 336
22.94357 81.11446 190.88484 334
16.01688 83.94145 193.59473 316
7.55531 87.42931 196.35088 313
-2.73773 91.72668 199.26768 284
73.28787 59.15841 176.49425 419
70.32523 60.38315 178.46391 387
63.90529 63.01314 179.67751 308
47.19972 69.78802 178.66524 389
43.67966 71.24290 181.09761 387
39.71711 72.84378 183.55727 374
35.53404 74.54354 186.10689 371
30.84791 76.44604 188.68335 337
25.02323 78.85984 191.30582 335
18.80076 81.37766 194.03000 332
10.75833 84.65509 196.77631 314
1.89505 88.26679 199.72952 312
-18.14286 96.37042 202.16554 265
73.53575 58.01086 176.67181 419
70.93159 59.05373 178.74803 388
63.51787 62.01867 179.67796 308
47.90202 68.29750 178.92670 390
44.37411 69.67834 181.35170 388
40.65860 71.16135 183.86182 375
36.47984 72.83325 186.36420 372
32.16594 74.58212 188.96863 370
26.97471 76.65500 191.66840 336
20.94662 79.06364 194.36247 333
13.81142 81.88953 197.12999 315
5.21358 85.33572 200.04654 313
-4.04317 89.05457 203.24902 310
73.82625 56.86629 176.89336 420
71.22050 57.88803 178.95494 418
63.09798 61.10255 179.68889 308
48.54280 66.81333 179.21506 391
45.05922 68.17583 181.60463 389
41.48548 69.56053 184.10207 387
37.39615 71.14554 186.59491 373
33.17913 72.83158 189.21613 371
28.70931 74.56733 191.93570 368
23.08177 76.79747 194.68155 334
16.78175 79.26752 197.54536 317
8.50137 82.54413 200.38400 314
-0.53835 86.07272 203.54991 311
74.08440 55.74598 177.05022 421
71.54494 56.74212 179.09662 419
62.70307 60.13811 179.66396 308
49.19736 65.32790 179.46268 392
45.77713 66.63971 181.83717 390
42.17509 68.04543 184.34680 387
38.34987 69.49950 186.87892 374
34.10960 71.17513 189.46080 372
29.73422 72.83854 192.19565 369
25.08514 74.63010 195.01901 336
18.98419 76.98495 197.83717 333
11.59768 79.86938 200.70975 315
2.89273 83.21883 203.76932 313
74.35696 54.60653 177.26457 422
71.81704 55.59391 179.30074 419
62.30589 59.17594 179.66820 308
49.87408 63.90259 179.70691 393
46.43200 65.16656 182.09203 391
42.90310 66.49707 184.56488 388
39.23531 67.89306 187.10329 375
35.07990 69.45033 189.71225 373
30.77586 71.12815 192.39772 370
26.25039 72.81647 195.22337 368
21.13649 74.77187 198.08139 334
14.66291 77.23652 201.06549 316
6.23361 80.39407 204.09889 314
74.61515 53.49701 177.41438 422
72.06267 54.42183 179.45039 420
53.75751 61.25155 177.63828 396
50.48457 62.43586 179.97716 394
47.12881 63.73434 182.32683 392
43.63377 65.02859 184.77275 389
39.98677 66.34839 187.29701 387
36.04634 67.85342 189.89702 374
31.78333 69.41763 192.59695 371
27.34005 71.05963 195.40536 368
22.67837 72.78943 198.31772 366
17.03340 74.89822 201.33307 333
9.41979 77.74620 204.35258 315
-53638.77344 20020.09570 4954.59570 1000
74.87309 52.37273 177.59302 423
72.19202 53.33727 179.59644 312
54.35301 59.84249 177.89285 397
51.12585 61.02583 180.20276 395
47.76484 62.24469 182.54733 392
44.35427 63.51809 185.00783 390
40.72997 64.84309 187.54521 388
36.97484 66.19560 190.12791 375
32.76263 67.74519 192.79944 372
28.37182 69.33086 195.57019 369
23.74976 71.04155 198.48793 367
18.97916 72.74928 201.49437 364
12.48826 75.14339 204.56989 316
75.12013 51.27281 177.76721 424
71.87346 52.46044 179.59438 312
54.95586 58.51865 178.15518 398
51.77848 59.63187 180.43964 396
48.43731 60.85186 182.78496 393
45.04674 62.06441 185.20923 391
41.48108 63.33034 187.76006 389
37.83411 64.60722 190.34012 386
33.72409 66.08634 193.00391 373
29.37052 67.65106 195.79369 370
24.87017 69.27576 198.63274 368
20.12082 70.99107 201.65974 365
15.07863 72.74747 204.78857 332
75.40414 50.17815 177.96916 424
71.53178 51.55892 179.59447 312
55.55550 57.12728 178.39276 399
52.40918 58.26505 180.67744 397
49.11584 59.39201 183.02425 394
45.72812 60.59611 185.43510 392
42.22980 61.80789 187.94383 389
38.59858 63.09850 190.56067 387
34.70379 64.43769 193.23059 374
30.42118 65.96928 195.93538 371
25.92745 67.56261 198.81609 369
21.28099 69.17516 201.83527 366
16.37736 70.92303 204.92830 363
75.63466 49.11088 178.12035 425
71.18719 50.62844 179.60349 312
56.14848 55.83039 178.63773 400
53.01751 56.89356 180.91768 397
49.75884 58.02172 183.26234 395
46.38078 59.17691 185.64354 393
42.92546 60.37197 188.16214 390
39.34991 61.62273 190.71516 388
35.61295 62.88800 193.41872 385
31.42925 64.34397 196.12679 372
27.01883 65.85043 198.95505 370
22.36264 67.45196 201.92332 367
17.55510 69.06338 205.04932 364
75.91881 48.04340 178.30641 426
70.85065 49.72429 179.60738 312
56.58170 54.52430 178.82523 413
53.60067 55.52784 181.14577 398
50.41801 56.64551 183.43217 396
47.09480 57.74384 185.83348 394
43.62291 58.88694 188.35925 391
40.09672 60.12312 190.91376 389
36.38312 61.32303 193.56116 386
32.44333 62.66440 196.32198 373
28.07078 64.15308 199.12953 371
23.50797 65.68452 202.07748 368
18.71879 67.27533 205.20842 365
76.18134 46.96948 178.46034 426
70.49923 48.81718 179.59869 312
57.00007 53.29855 179.05042 414
54.07495 54.24689 181.34174 412
51.02317 55.26451 183.65414 397
47.76123 56.35918 186.05869 394
44.31878 57.49303 188.55409 392
40.81276 58.62602 191.10916 390
37.19124 59.85350 193.75037 387
33.40168 61.10866 196.49118 374
29.06253 62.51371 199.31851 371
24.59639 63.97247 202.23189 369
19.89363 65.51926 205.31366 366
76.42259 45.89235 178.63312 427
70.17371 47.92757 179.60033 312
57.42369 52.03160 179.20219 415
54.51759 53.00761 181.50964 412
51.52285 53.95134 183.86507 410
48.41202 54.98284 186.28693 395
45.04840 56.03182 188.70767 393
41.53376 57.20388 191.25992 390
37.95727 58.32399 193.88504 388
34.22439 59.53685 196.62978 385
30.13839 60.85859 199.47583 372
25.67102 62.34502 202.36778 370
21.05735 63.79496 205.40848 367
76.67418 44.82526 178.75372 428
69.87101 47.01981 179.63889 312
57.82610 50.82647 179.42593 422
54.91225 51.71487 181.70190 413
51.94391 52.69190 184.02783 411
48.93526 53.65358 186.42317 408
45.74796 54.66751 188.92162 394
42.29859 55.72676 191.42711 391
38.68969 56.85149 194.05875 389
35.02391 58.02709 196.76436 386
31.12223 59.28855 199.62428 373
26.72407 60.65148 202.50560 371
22.17507 62.13976 205.52638 368
16.61730 63.87757 208.65706 265
76.93426 43.80171 178.93166 428
69.57759 46.09344 179.61816 312
58.14564 49.63942 179.55870 423
55.36765 50.46494 181.87238 414
52.41671 51.39000 184.20876 412
49.36882 52.35399 186.57863 409
46.25324 53.31717 189.06116 407
43.02118 54.32615 191.60966 392
39.47062 55.42446 194.21864 390
35.82698 56.56057 196.92914 387
32.01008 57.72931 199.72473 385
27.75836 59.06154 202.65036 372
23.27872 60.46056 205.64633 369
18.14572 62.00013 208.73813 335
77.19949 42.74052 179.08585 429
69.25511 45.15155 179.62611 312
58.47184 48.44687 179.74167 424
55.76719 49.25333 182.04161 415
52.85970 50.14159 184.35327 412
49.83661 51.07515 186.75734 410
46.72915 52.00671 189.20480 408
43.55890 52.95987 191.76810 405
40.18576 53.99182 194.36940 391
36.56416 55.05572 197.07828 388
32.84048 56.23465 199.84435 386
28.83935 57.42575 202.74431 372
24.35681 58.79379 205.72620 370
19.34996 60.27608 208.82834 336
77.45003 41.72930 179.24628 430
68.94888 44.23147 179.61331 312
58.82764 47.25084 179.87833 425
56.16832 48.06558 182.19118 422
53.28238 48.88096 184.51976 413
50.32705 49.78563 186.89343 411
47.22839 50.68756 189.34186 408
44.07399 51.62486 191.87759 406
40.76949 52.62736 194.54037 403
37.36734 53.59369 197.22876 389
33.65150 54.71222 199.99837 386
29.75484 55.87374 202.85329 384
25.41354 57.13159 205.82002 371
20.56318 58.58413 208.94492 340
77.68640 40.72178 179.38757 430
61.77319 45.32204 177.85193 427
59.16944 46.06586 180.05234 425
56.52083 46.86821 182.36478 423
53.73439 47.65651 184.65860 414
50.79035 48.52797 187.04846 411
47.70072 49.38173 189.53062 409
44.56130 50.28496 192.01631 407
41.30849 51.27203 194.62415 404
37.93904 52.20178 197.33731 402
34.43797 53.22988 200.12199 387
30.60779 54.38153 202.99731 385
26.49690 55.56827 205.93607 372
21.75106 56.94732 208.99855 340
77.96399 39.67705 179.53650 431
62.11554 44.18976 178.02179 428
59.49747 44.89806 180.24292 426
56.85833 45.67414 182.47839 424
54.14475 46.45176 184.82262 421
51.24989 47.24677 187.22017 412
48.21910 48.12114 189.62985 410
45.08777 48.98634 192.15652 407
41.83517 49.91691 194.75746 405
38.51198 50.84392 197.44449 402
35.09818 51.82647 200.22943 400
31.45016 52.85204 203.06142 385
27.53639 53.99021 206.07397 383
22.93626 55.29861 209.10214 341
77.72566 38.82810 179.53377 316
62.41706 43.03794 178.17531 429
59.88181 43.72865 180.37694 427
57.21152 44.49290 182.65314 424
54.52114 45.22255 184.97008 422
51.70083 46.00859 187.37706 413
48.66284 46.85003 189.80693 410
45.59639 47.71935 192.30051 408
42.39400 48.59610 194.89317 406
39.05392 49.47888 197.58205 403
35.67276 50.45099 200.31601 400
32.10427 51.44831 203.20221 398
28.39486 52.43668 206.16307 384
24.03837 53.66608 209.21150 342
77.44751 37.91926 179.56108 316
62.73008 41.90508 178.32950 429
60.17769 42.60888 180.54810 427
57.57126 43.31526 182.77814 425
54.87246 44.02057 185.14034 423
52.15089 44.80322 187.51730 420
49.15130 45.59841 189.94974 411
46.08318 46.43101 192.42775 409
42.87984 47.26706 194.98106 406
39.63589 48.17839 197.64470 404
36.23187 49.08607 200.41203 401
32.73424 50.03272 203.26686 399
29.06761 51.01537 206.18878 396
25.19060 52.05213 209.27614 343
-187.68782 109.61056 205.42957 483
77.20696 37.06255 179.54134 316
63.05538 40.77604 178.50739 430
60.52981 41.45362 180.68042 428
57.91021 42.13827 182.96768 426
55.25436 42.85844 185.24092 423
52.53854 43.58870 187.64430 421
49.63195 44.32736 190.07076 412
46.58377 45.14501 192.54631 409
43.42208 45.97628 195.15009 407
40.13650 46.85341 197.76318 404
36.79404 47.72871 200.49297 402
33.33014 48.62614 203.34506 399
29.68233 49.61261 206.28581 397
25.93842 50.57785 209.31108 394
-187.72682 106.83983 205.43985 483
76.92679 36.18102 179.54941 316
63.39022 39.66275 178.63705 431
60.88534 40.31162 180.83908 429
58.29551 41.01517 183.11147 426
55.65165 41.67410 185.37907 424
52.90242 42.38528 187.77794 422
50.08981 43.09676 190.20515 413
47.06041 43.85561 192.70085 410
43.90919 44.69228 195.26408 408
40.68634 45.50032 197.87994 405
37.37356 46.35033 200.60107 403
33.91408 47.25307 203.43713 400
30.32009 48.19855 206.36237 397
26.61209 49.11913 209.38052 395
-187.69984 104.20456 205.53188 484
76.70995 35.34229 179.56050 316
63.71321 38.57784 178.78897 431
61.19853 39.18364 180.97275 429
58.60938 39.86428 183.24223 427
55.98594 40.49130 185.52747 425
53.26803 41.18217 187.91972 423
50.52385 41.87024 190.33072 420
47.52585 42.62107 192.80321 411
44.43322 43.41900 195.36067 408
41.21027 44.22006 197.98883 406
37.93989 45.05948 200.71248 403
34.47867 45.92392 203.49519 401
30.91251 46.80272 206.42076 398
27.25867 47.71597 209.45258 395
-188.08144 101.65792 205.44563 483
76.46127 34.42944 179.56740 316
64.02150 37.50283 178.97107 432
61.52774 38.10154 181.13435 430
58.98001 38.73523 183.35805 428
56.35687 39.33917 185.68924 426
53.68959 39.99612 188.03004 423
50.89486 40.68157 190.43860 421
48.03382 41.37693 192.91051 412
44.96528 42.11941 195.45731 409
41.74732 42.90145 198.11253 407
38.46376 43.71588 200.79169 404
35.05252 44.56854 203.57112 401
31.55160 45.42676 206.48601 399
27.92033 46.28703 209.52524 396
-188.46501 99.09177 205.51482 483
-187.39522 98.79507 212.46634 297
76.21125 33.57567 179.56412 316
64.34731 36.37897 179.11072 433
61.88409 36.99447 181.26718 431
59.31959 37.59975 183.52890 428
56.70127 38.22246 185.79291 426
54.04991 38.82570 188.14377 424
51.27831 39.50690 190.56790 422
48.46965 40.18325 193.06459 419
45.45119 40.86407 195.59035 410
42.29568 41.63239 198.20737 407
39.00791 42.39280 200.86302 405
35.66840 43.23441 203.69714 402
32.12716 44.05011 206.58694 399
28.52561 44.88081 209.53560 397
-185.86377 95.85988 212.42468 435
75.98603 32.71346 179.56752 316
64.66514 35.32819 179.22992 433
62.18380 35.90364 181.40721 431
59.66985 36.46842 183.65498 429
57.06996 37.06640 185.94559 427
54.42755 37.68869 188.27998 425
51.68514 38.32023 190.69286 422
48.86811 38.97795 193.14180 420
45.93765 39.64820 195.68515 411
42.79853 40.36898 198.27359 408
39.58689 41.08792 200.97337 405
36.20699 41.87274 203.75520 403
32.74269 42.70030 206.63942 400
29.18454 43.52407 209.59221 397
-185.95062 93.19550 212.50021 435
75.76616 31.81149 179.57025 316
64.99268 34.21633 179.40060 434
62.52730 34.78047 181.54408 432
60.00832 35.37257 183.80183 430
57.44857 35.93346 186.04030 427
54.78671 36.51324 188.40128 425
52.08063 37.14137 190.77583 423
49.26728 37.75461 193.24590 420
46.42094 38.39021 195.80545 418
43.31437 39.12563 198.37514 409
40.12008 39.80659 201.08696 406
36.77619 40.56726 203.80963 404
33.33786 41.34756 206.66893 401
29.78995 42.12196 209.67950 398
-186.00061 90.55283 212.47467 436
-196.74617 93.05868 219.35480 295
75.54811 30.94658 179.58482 316
65.29498 33.15978 179.55560 435
62.87466 33.68774 181.68185 433
60.36594 34.24766 183.90459 430
57.77275 34.80394 186.16417 428
55.16002 35.37336 188.51486 426
52.45956 35.97119 190.92296 423
49.69613 36.56276 193.38155 421
46.83729 37.20556 195.89430 419
43.84125 37.84736 198.49352 409
40.65483 38.54972 201.17116 407
37.36470 39.25866 203.90349 404
33.90800 40.00893 206.77290 402
30.40367 40.77211 209.71721 399
-186.09854 87.98937 212.56149 436
-190.42201 88.89856 219.26166 296
75.32135 30.04869 179.58727 316
65.60588 32.11570 179.67336 435
63.18963 32.60764 181.82773 433
60.69851 33.16180 184.06212 431
58.14204 33.69509 186.31248 429
55.54265 34.25103 188.61282 426
52.86644 34.83345 191.01964 424
50.09950 35.37321 193.46440 422
47.25118 35.98351 195.99037 419
44.34318 36.63020 198.57443 410
41.18431 37.25901 201.23190 408
37.89947 37.99813 204.00436 405
34.52926 38.69038 206.80035 402
31.01784 39.41467 209.78746 400
-186.25119 85.42806 212.46956 436
-184.69601 85.05248 219.30562 325
75.09257 29.16951 179.59509 316
65.90634 31.03747 179.81430 436
63.52226 31.54673 181.95778 434
61.03109 32.06260 184.15685 432
58.51365 32.57425 186.43428 429
55.90525 33.12041 188.76411 427
53.24947 33.64561 191.13031 425
50.48974 34.23386 193.58473 422
47.68324 34.80271 196.05905 420
44.79535 35.41703 198.66353 417
41.69617 36.00531 201.29752 408
38.47099 36.70910 204.03885 406
35.07690 37.37537 206.88783 403
31.59931 38.10744 209.82230 400
-182.04660 81.91740 219.35109 326
74.88676 28.28468 179.57707 316
66.22227 30.00489 179.93390 437
63.83759 30.49500 182.11847 434
61.35587 30.96910 184.28378 432
58.85812 31.49742 186.54408 430
56.26603 32.00516 188.85559 428
53.62642 32.50005 191.25006 425
50.88455 33.03962 193.66064 423
48.11748 33.59855 196.16307 421
45.23352 34.20220 198.72900 418
42.23067 34.78584 201.38477 409
39.02880 35.43478 204.14491 406
35.64679 36.10918 206.92377 404
32.19236 36.78338 209.88313 401
-180.15881 79.05566 219.31030 424
68.61092 28.56017 177.90399 459
66.41599 29.00232 180.07338 457
64.17268 29.44792 182.21744 435
61.71183 29.89089 184.43356 433
59.22520 30.39513 186.66988 431
56.62769 30.86394 188.97974 428
53.98845 31.37885 191.32800 426
51.30462 31.92147 193.77173 424
48.51189 32.42708 196.28183 421
45.66939 32.96881 198.84940 419
42.68298 33.58092 201.47952 416
39.53491 34.15235 204.21095 407
36.25246 34.79475 207.01929 404
32.81141 35.47697 209.92267 402
-180.18460 76.50545 219.37045 424
68.64384 27.60277 177.97433 459
66.44967 28.02304 180.12880 457
64.22099 28.41589 182.30000 455
61.97655 28.83903 184.53259 453
59.55746 29.28280 186.80225 431
56.99915 29.75029 189.10388 429
54.40830 30.24676 191.43718 427
51.69082 30.73613 193.87215 424
48.94376 31.28461 196.34097 422
46.08435 31.78693 198.91458 419
43.17565 32.32859 201.53456 417
40.09726 32.91224 204.28987 408
36.82199 33.54507 207.06104 405
33.40272 34.18833 209.97321 402
-180.25496 73.93793 219.29112 424
-23648.25977 4443.33203 4642.31055 1000
68.66444 26.63947 178.06470 459
66.51742 27.01049 180.18681 457
64.26283 27.44831 182.37315 455
62.02100 27.82391 184.58740 453
59.68076 28.24681 186.83986 451
57.30386 28.67460 189.19186 448
54.75187 29.13287 191.53009 427
52.08716 29.61176 193.95010 425
49.34364 30.11244 196.46198 422
46.48827 30.64191 198.99509 420
43.60872 31.13030 201.61189 417
40.59964 31.67638 204.32869 415
