# .PCD v.7 - Point Cloud Data file format
VERSION .7
FIELDS x y z rgb
SIZE 4 4 4 4
TYPE F F F U
COUNT 1 1 1 1
WIDTH 1416
HEIGHT 1
VIEWPOINT 6086.739746 -4099.693359 140.345474 0.168758 -0.125491 -0.004963 0.977624
POINTS 1416
DATA ascii
2589.14478 1756.07422 23.61592 330
2582.12769 1750.78491 72.57589 391
2652.88965 1803.09924 117.46156 495
2578.49292 1771.03149 23.70643 330
2575.32227 1768.14099 71.91300 391
2606.10522 1791.27466 119.01707 495
2568.20825 1785.41968 23.41593 329
2568.62891 1785.96558 71.66720 390
2558.31372 1800.90088 23.68865 329
2561.09277 1802.53491 72.08532 390
2548.40771 1815.73572 23.49425 329
2554.28760 1820.53137 71.32920 390
2538.43921 1830.75513 23.20144 431
2548.14551 1838.56592 71.10722 298
2529.66040 1846.72156 23.32471 431
2542.96240 1858.11035 71.07956 298
2520.96924 1863.10693 22.72175 430
2711.37378 2017.69763 59.73388 464
2511.41626 1879.35889 22.24741 430
2536.13989 1899.45520 69.42924 441
2502.95386 1894.98083 22.23144 430
2696.15674 2055.45264 58.52956 378
2494.10034 1912.00269 21.89772 430
2688.10742 2075.16455 58.06186 378
2485.30371 1927.77283 21.95249 430
2679.77441 2094.48169 58.12097 378
2476.08618 1944.63013 22.08588 429
2672.23779 2113.62134 58.17752 378
2467.43457 1960.79138 21.06600 429
2664.67139 2132.78857 57.77994 377
2458.49365 1977.63794 21.26204 429
2569.84106 2075.27319 63.00365 427
2449.18286 1993.93677 21.06243 429
2440.81860 2010.23779 20.48381 487
2432.48389 2027.94678 19.97058 487
2423.49146 2044.65332 19.75534 487
2418.99414 2065.20532 19.49853 455
2416.58447 2088.98096 18.44755 397
2416.43433 2114.24854 16.81536 304
4892.33447 4613.94629 1.99762 1000
14709.93359 31281.18359 -8392.92969 1000
1273.66614 2386.52051 4.31748 494
1275.73425 2391.13818 46.89937 498
6448.43115 16835.39844 1406.14111 1000
1204.63306 5324.08838 -133.68001 443
1174.71863 5346.60303 -135.73363 445
1145.97424 5371.31299 -136.23872 444
1116.59766 5397.84766 -137.74478 444
1086.67603 5424.85303 -140.17148 445
1056.69934 5455.84619 -141.34743 436
1028.12683 5491.41602 -142.84892 428
999.53094 5532.95557 -145.95096 410
973.13770 5587.39746 -149.26427 368
946.93732 5656.54395 -153.06505 366
920.00403 5727.26953 -156.55357 365
892.70581 5798.56982 -162.35600 364
865.56769 5872.70264 -165.75661 362
1437.13232 20207.12891 4258.74902 1000
445.90814 4144.81885 -120.91769 492
446.53931 4157.16455 -53.17963 489
-649.55542 5842.79883 -167.01642 363
-682.66022 5816.06396 -164.94673 467
-716.35175 5796.81543 -164.41484 483
-748.65967 5777.64795 -163.05743 469
-782.95367 5763.87744 -162.66820 469
-816.58026 5749.45898 -161.80412 440
-850.77045 5738.41992 -162.05351 417
-886.31989 5726.52637 -162.57613 420
-919.93878 5719.21973 -161.63721 365
-926.06982 5749.75244 -66.98649 340
-955.50543 5711.30273 -162.29694 366
-958.89105 5725.58057 -67.04705 499
-1095.88245 6392.65576 1856.15649 1000
-992.80078 5715.58691 -161.95523 499
-993.11896 5718.26514 -67.60974 499
-1027.99756 5707.09668 -161.88622 499
-1028.65747 5710.27734 -66.87215 499
-1062.18604 5698.06543 -162.76791 499
-1062.24390 5697.11963 -65.94323 499
-1097.21558 5690.50293 -161.91605 499
-1097.53455 5689.46826 -66.29111 499
-1132.13879 5682.94727 -161.76129 499
-1132.24036 5685.13574 -67.41521 499
-1166.63611 5675.85742 -162.16386 499
-1168.90991 5678.96973 -67.05270 499
-1202.53064 5667.52637 -162.46767 499
-1203.38733 5669.85645 -67.72832 499
-1237.96838 5660.63330 -162.31577 499
-1238.54370 5663.23926 -67.25697 499
-1257.78235 5736.70312 26.41138 289
-1335.62915 5893.68066 -179.55367 499
-1294.24097 5737.09473 26.83505 494
-1372.21228 5885.26416 -179.52242 499
-1346.59692 5789.65820 23.86760 477
-1342.61108 5772.78955 122.24062 476
-1482.25769 5731.11719 -171.19450 491
-1484.87561 5614.96533 -164.77367 499
-1521.05872 5606.25684 -163.98271 498
-1613.19116 5779.05908 -177.54736 357
-1605.27246 5637.55859 -169.09668 492
-1638.17249 5617.03418 -167.42032 493
-1670.98889 5604.78613 -167.71204 486
-1732.71082 5670.33887 -74.02985 274
-1615.02747 4211.74951 -158.28693 458
-1435.65442 3292.65259 -84.05333 295
-1405.07141 3183.27563 -74.62742 296
-1374.39734 3076.45459 -65.77621 305
-1358.73206 3002.04614 -59.82221 318
-1371.11646 3026.07324 -5.81633 311
-1352.61584 2947.36694 -56.16522 361
-1360.83118 2961.56567 -1.61705 351
-1353.79236 2905.54541 -53.22812 373
-1373.22070 2941.58154 -0.82304 453
-1355.79260 2867.93628 -50.58429 385
-1391.29199 2931.44824 -1.46768 472
-1360.21387 2834.73486 -48.00430 405
-1411.44385 2925.83740 -1.76130 471
-1366.44189 2805.26343 -46.59429 414
-1432.13269 2919.95361 -1.76548 471
-1373.58386 2777.55054 -44.61655 409
-1451.87061 2914.81836 -2.52925 471
-1379.90442 2749.00171 -42.82777 415
-1472.17480 2908.45459 -2.17663 470
-1387.12476 2723.31396 -41.15549 420
-1493.34570 2902.99854 -2.79494 470
-1394.46350 2698.30200 -40.20144 422
-1513.37109 2897.10278 -2.83172 470
-1402.30774 2674.87524 -38.50023 418
-1534.28259 2891.66870 -3.73569 469
-1420.79089 2667.31738 -38.89666 316
-1554.91638 2885.90430 -3.85575 469
-1473.47742 2715.48755 -44.07514 297
-1584.01111 2892.04077 -5.77068 373
124.39575 148.62093 168.49684 489
120.32575 150.70811 167.38306 316
120.23795 148.87959 167.76971 490
119.15568 150.38846 170.47771 312
118.55018 149.34935 167.42761 316
118.27460 149.74786 170.50365 312
117.69238 148.69289 167.38919 316
117.41542 149.08092 170.51070 312
116.72752 148.13849 167.35092 439
115.36456 148.10495 167.16422 438
112.77752 149.69955 166.39752 314
111.86847 148.98883 166.37221 314
111.00506 148.32845 166.36827 314
110.13854 147.59280 166.40601 314
109.25668 146.87389 166.36993 314
108.42961 146.15736 166.37465 314
106.89279 146.27248 166.12737 420
99.23232 155.59431 166.39340 310
105.25253 146.41438 165.77893 419
98.29060 154.80167 166.35852 310
103.66266 146.60895 165.47409 418
97.37695 154.00241 166.39175 310
101.98840 146.73347 165.15244 417
96.47236 153.21844 166.36725 309
100.34388 146.95598 164.80293 416
95.55810 152.48199 166.35274 309
98.64549 147.12604 164.47406 415
94.65208 151.68666 166.39638 309
96.95197 147.28712 164.16249 413
93.74937 150.83960 166.35240 309
95.30643 147.36777 163.83641 423
92.84216 150.07231 166.34813 309
93.64764 147.42044 163.51749 422
91.98360 149.24940 166.34978 309
92.46404 146.91283 163.41113 307
91.07345 148.41943 166.35149 309
91.73059 145.98836 163.46919 307
90.22284 147.60419 166.35414 309
90.91799 145.09648 163.46240 307
88.55714 147.63213 166.08714 420
90.17823 144.13666 163.52623 307
86.77451 147.67812 165.76860 418
77.98315 156.95233 166.26506 305
89.37099 143.24083 163.53300 307
85.02619 147.74498 165.41006 417
77.02349 156.02061 166.29167 305
88.63747 142.32790 163.58394 311
83.25323 147.82945 165.10216 416
76.07527 155.13660 166.31778 305
87.88179 141.39020 163.59583 311
81.44001 147.86447 164.76039 415
75.22133 154.21344 166.26970 305
87.09839 140.47716 163.63211 311
79.60931 147.92746 164.41776 414
74.28635 153.29707 166.28247 305
107.22880 118.94375 171.51143 316
77.73936 148.02768 164.06889 413
73.37885 152.40398 166.29710 305
106.54730 118.21862 171.50711 316
75.86790 148.13049 163.73210 412
72.41767 151.44551 166.26697 305
105.86211 117.46641 171.52258 316
73.95181 148.15938 163.39030 411
71.58279 150.49011 166.29201 305
105.21985 116.70664 171.52136 316
73.02548 147.32620 163.35025 303
70.66850 149.56152 166.28162 305
104.55526 115.95439 171.51379 316
72.29280 146.25706 163.40176 304
69.72865 148.62091 166.24664 305
103.87287 115.16408 171.53708 316
71.49646 145.23698 163.41992 304
68.07236 148.42659 166.02449 408
103.25581 114.40894 171.51367 316
70.74029 144.14966 163.45998 304
66.05386 148.49231 165.63835 407
102.58722 113.62583 171.54219 316
70.00394 143.10635 163.50551 304
64.02181 148.58389 165.25668 406
54.08335 157.53656 166.19150 301
101.94272 112.83995 171.52351 316
93.37688 120.51253 171.60352 312
61.91565 148.65321 164.90565 405
53.16954 156.49570 166.17197 301
101.32987 112.07087 171.53107 316
92.70817 119.67267 171.62918 312
59.83636 148.73315 164.51266 404
52.23976 155.43787 166.18225 301
100.66605 111.26418 171.57220 316
92.02421 118.80792 171.61203 312
57.68011 148.79472 164.10904 402
51.33344 154.35861 166.19139 301
100.03290 110.50644 171.57753 316
91.35300 117.96104 171.65599 312
55.50047 148.87454 163.71739 401
50.39003 153.28354 166.20131 301
99.43867 109.71911 171.55634 316
90.70131 117.11513 171.63678 312
53.24078 148.98799 163.31998 400
49.52272 152.19203 166.19289 301
98.80249 108.91284 171.57735 316
90.02316 116.29611 171.65434 312
52.20609 148.06615 163.25516 300
48.59300 151.08829 166.15958 301
98.20069 108.12045 171.58035 316
89.39379 115.42204 171.66013 312
51.50735 146.90720 163.28035 300
47.73854 149.99655 166.19588 301
97.56287 107.29235 171.60040 316
88.69643 114.56982 171.65820 312
50.73454 145.68913 163.36310 300
46.39232 149.23033 166.02380 397
96.99083 106.50058 171.58746 316
88.10284 113.69621 171.65698 312
77.99112 121.88277 171.76242 308
44.04953 149.33279 165.63071 396
96.39308 105.70052 171.56744 316
87.42937 112.86149 171.68593 312
77.28883 120.98786 171.75529 308
41.64499 149.42365 165.22328 395
95.76102 104.85621 171.59660 316
86.79567 111.98091 171.67903 312
76.56821 120.01623 171.73317 308
39.19187 149.52165 164.76926 393
27.97293 158.42833 166.04518 297
95.16630 104.05983 171.60602 316
86.14454 111.10608 171.68088 312
75.93867 119.09352 171.77307 308
36.74501 149.60994 164.37206 392
27.03550 157.13300 166.04945 297
-25554.33594 20098.31836 -2994.04785 1000
94.58416 103.22873 171.58290 316
85.54737 110.23866 171.65616 312
75.22786 118.15141 171.76353 308
34.19683 149.69571 163.91481 391
26.13675 155.92880 166.05861 297
94.00406 102.41216 171.61502 316
84.90034 109.34216 171.67722 312
74.58848 117.19151 171.75580 308
31.65020 149.80312 163.42728 390
25.22444 154.69870 166.05186 297
93.46505 101.58463 171.60640 316
84.29478 108.44090 171.68080 312
73.92754 116.23339 171.76910 308
29.58495 149.48962 163.09775 296
24.30848 153.48232 166.02547 297
92.90246 100.73645 171.60963 316
83.68872 107.53664 171.70363 312
73.27546 115.26299 171.75995 308
28.89846 148.15363 163.18900 296
23.39418 152.21985 166.08617 297
92.30400 99.88496 171.62602 316
83.09172 106.66059 171.68959 312
72.60911 114.31288 171.76102 308
60.58649 123.07368 171.87604 304
22.54926 150.96085 166.03703 297
91.75959 99.07762 171.64137 316
82.51241 105.75807 171.68910 312
71.99157 113.38259 171.79202 308
59.92898 122.08538 171.87274 304
20.89799 150.25281 165.90254 385
91.18909 98.21710 171.61424 316
81.88615 104.86176 171.70688 312
71.34348 112.40002 171.78804 308
59.20015 121.00873 171.86893 304
18.13625 150.27672 165.39790 387
90.66620 97.37189 171.64893 316
81.30724 103.96124 171.71477 312
70.71341 111.43210 171.80453 308
58.52768 119.94077 171.92648 304
15.34976 150.38802 164.96785 386
90.12589 96.54485 171.64897 316
80.71327 103.06337 171.69928 312
70.10813 110.43134 171.78281 308
57.85295 118.89885 171.90918 304
12.50163 150.45348 164.46242 384
89.59048 95.67619 171.65298 316
80.17686 102.11893 171.73190 312
69.45120 109.46178 171.79556 308
57.22989 117.84374 171.89857 304
9.57775 150.51669 163.94206 383
-3.14234 159.19090 165.63876 290
89.02250 94.82658 171.64235 316
79.59930 101.21345 171.71957 312
68.85854 108.45605 171.81726 308
56.50852 116.81297 171.89613 304
6.61557 150.58009 163.50023 382
-4.00440 157.75575 165.66997 290
88.48872 93.97515 171.64717 316
79.02695 100.32835 171.75095 312
68.26508 107.50285 171.84235 308
55.87294 115.74846 171.90186 304
3.58797 150.68889 162.93541 381
-4.95281 156.38208 165.64532 291
87.99306 93.10712 171.64555 316
78.48508 99.36546 171.76663 312
67.64587 106.52035 171.82549 308
55.22280 114.66266 171.93065 304
40.88582 124.13110 172.06825 300
-5.88920 154.97887 165.70787 291
87.47127 92.23385 171.65579 316
77.91087 98.46040 171.76393 312
67.02060 105.52487 171.86067 308
54.59095 113.57097 171.92361 304
40.20293 122.95734 172.03101 300
-6.85457 153.54454 165.68227 291
86.93575 91.38308 171.66750 316
77.35113 97.54108 171.73268 312
66.44733 104.52864 171.83432 308
53.96133 112.54951 171.91525 304
39.50648 121.78083 172.04710 300
-7.75958 152.13568 165.63846 291
86.45729 90.50541 171.69586 316
76.79934 96.57710 171.74669 312
65.86930 103.48545 171.85730 308
53.35783 111.44216 171.94148 304
38.82990 120.60657 172.08221 300
-9.15363 151.00070 165.54692 376
85.93477 89.62065 171.66263 316
76.28172 95.66462 171.74158 312
65.31248 102.49786 171.84845 308
52.70364 110.36831 171.94070 304
38.13979 119.48728 172.08421 300
-12.53133 151.05128 165.03220 375
85.43923 88.73161 171.69177 316
75.75856 94.73421 171.77237 312
64.72844 101.47604 171.83994 308
52.10372 109.28137 171.94258 304
37.47491 118.26561 172.10777 300
-15.96740 151.12186 164.45273 373
84.97898 87.84908 171.70195 316
75.19488 93.75637 171.78517 312
64.18280 100.49284 171.88284 308
51.50494 108.17327 171.96861 304
36.81280 117.12412 172.10950 300
-19.44188 151.27386 163.94142 372
84.46116 86.97894 171.67480 316
74.68002 92.80021 171.79886 312
63.58514 99.45168 171.87201 308
50.88790 107.07844 171.94344 304
36.14117 115.86852 172.07071 300
-22.97838 151.33920 163.35709 371
83.97498 86.10656 171.69658 316
74.18501 91.89416 171.76575 312
63.04315 98.44442 171.89740 308
50.24920 106.00086 171.96478 304
35.49499 114.69139 172.09940 300
18.20435 124.91667 172.24434 296
-40.28074 159.46732 165.17126 286
83.48843 85.19452 171.69730 316
73.65491 90.94983 171.80499 312
62.50262 97.42237 171.86676 308
49.66507 104.90122 171.96150 304
34.88797 113.52715 172.08882 300
17.51456 123.61820 172.24681 296
-41.24371 157.80449 165.17789 286
83.05514 84.28938 171.72176 316
73.16537 89.95819 171.77744 312
61.93119 96.41900 171.85492 308
49.11478 103.78767 171.95918 304
34.25484 112.34852 172.11108 300
16.76105 122.33997 172.22603 296
-42.15326 156.19559 165.17978 286
82.58251 83.43192 171.70184 316
72.67182 89.02545 171.80983 312
61.40850 95.35287 171.87924 308
48.53898 102.65009 172.00110 304
33.64721 111.10095 172.09299 300
16.09435 120.99497 172.24136 296
-43.06313 154.50388 165.16135 286
82.08607 82.52622 171.73766 316
72.15722 88.06724 171.81557 312
60.88469 94.36449 171.88843 308
47.98200 101.53916 172.01181 304
32.97918 109.90883 172.14410 300
15.45451 119.73643 172.23178 296
-43.95833 152.82472 165.15280 286
81.64992 81.59235 171.71107 316
71.67353 87.06335 171.81183 312
60.36533 93.28526 171.88934 308
47.39744 100.41487 172.01280 304
32.36848 108.69622 172.11938 300
14.77196 118.37451 172.26857 296
-46.16055 151.87297 164.95125 363
81.21210 80.72577 171.71855 316
71.20394 86.13020 171.81865 312
59.83965 92.27253 171.87813 308
46.88244 99.30923 172.00438 304
31.79820 107.51788 172.15437 300
14.11145 117.05268 172.27982 296
-50.15438 151.88649 164.33788 371
80.76761 79.81889 171.71541 316
70.71063 85.14993 171.80904 312
59.34653 91.21889 171.91350 308
46.27796 98.19484 172.01114 304
36.72393 103.28224 173.39932 275
19.24641 112.64944 173.46617 273
-54.12709 151.77629 163.72366 370
80.30909 78.89864 171.71277 316
70.26259 84.19354 171.83516 312
58.83221 90.18905 171.92892 308
45.77368 97.10874 171.99335 304
39.50315 100.36508 174.11584 322
29.65198 105.56057 175.77176 274
12.60270 114.52793 176.32980 274
79.88831 77.97340 171.75833 316
69.81757 83.19483 171.83221 312
58.37064 89.13395 171.92360 308
47.68256 94.66335 172.59007 325
42.02248 97.64434 174.84154 324
36.20068 100.61926 177.18823 322
23.08791 107.40858 178.41374 275
79.48574 77.05937 171.73064 316
69.36143 82.23616 171.81958 312
57.85405 88.11343 171.89693 308
49.98285 92.13583 173.32750 326
44.45438 94.94193 175.50623 325
38.82543 97.84357 177.85301 323
30.61219 101.98332 179.91261 292
9.21082 112.93359 180.08968 288
79.05993 76.16006 171.74504 316
68.88849 81.25665 171.81085 312
57.37636 87.02454 171.94621 308
52.20530 89.65613 173.96352 327
46.84656 92.34332 176.12282 326
41.33365 95.11025 178.46059 324
30.06252 100.80858 179.92686 292
8.64585 111.55961 180.09975 288
78.61446 75.22455 171.75252 316
68.44714 80.28099 171.83209 312
59.35477 84.79202 172.57814 330
54.40343 87.22719 174.63603 328
49.14068 89.83005 176.78387 326
43.82043 92.43790 179.12483 325
29.49798 99.55317 179.91765 292
8.01875 110.16917 180.14166 288
78.19115 74.30594 171.77116 316
68.02449 79.29898 171.84674 312
60.92954 82.74042 173.07330 387
56.48895 84.87571 175.23436 329
51.37371 87.37093 177.35992 327
46.21917 89.89667 179.70990 326
28.98494 98.30595 179.97139 292
7.43158 108.83186 180.12938 288
-19.21815 121.77193 180.36200 284
77.83420 73.38331 171.74353 316
67.56154 78.29378 171.81111 312
61.67723 81.15069 173.40918 388
58.53669 82.65565 175.82280 331
53.54941 84.98491 177.96571 329
46.25304 88.51411 179.80000 296
28.38905 97.08705 179.95618 292
-3.56575 112.45322 178.40344 287
-19.85061 120.28710 180.35167 284
77.41744 72.45009 171.76250 316
67.15251 77.29943 171.82953 312
62.39454 79.54169 173.71198 389
59.39957 80.95869 176.17705 387
55.69393 82.71442 178.54105 330
45.79491 87.40613 179.83302 296
6.40290 105.98190 176.07010 286
-13.57168 115.38920 176.85953 343
-20.52322 118.73901 180.38873 284
77.02594 71.52442 171.76289 316
66.75172 76.28200 171.83311 312
63.10149 77.99523 174.00508 390
60.09710 79.35641 176.47130 388
57.06251 80.81522 178.96291 386
45.33645 86.25938 179.80856 296
12.98608 101.32037 177.36980 287
-17.86795 115.61719 176.31548 342
-21.11684 117.14283 180.38739 284
76.64929 70.59635 171.76492 316
67.33213 74.81578 172.11493 381
63.80756 76.46310 174.27798 391
60.82845 77.81101 176.74709 389
57.82430 79.18108 179.22311 387
44.86851 85.14148 179.79929 296
19.07214 96.89633 178.55376 288
5.02121 103.35037 180.11732 286
-22.35656 115.85210 180.27437 341
76.23371 69.64050 171.75572 316
68.05122 73.33672 172.43607 382
64.47015 74.94019 174.60500 392
61.57845 76.23917 176.98706 391
58.60465 77.59250 179.48445 388
44.40429 83.99290 179.85036 296
22.86728 93.66505 179.32057 318
11.63933 98.75424 181.31848 287
-26.96261 116.11345 179.71606 339
75.88200 68.68284 171.77760 316
68.70615 71.85065 172.74947 382
65.23016 73.42696 174.86086 380
62.27136 74.69829 177.27461 392
59.16550 76.09669 179.72238 300
31.57211 88.33706 177.39096 336
25.38804 91.06734 179.91805 334
17.53555 94.53580 182.38512 316
3.80102 100.60960 184.21561 286
75.48594 67.74570 171.75253 316
69.41227 70.39366 173.05611 383
65.93903 71.90376 175.18246 381
63.00708 73.20438 177.55521 392
58.73426 75.07190 179.71237 300
33.51991 86.04773 177.83275 338
27.44194 88.68908 180.39151 335
20.48788 91.72642 182.94000 317
10.41872 96.10530 185.25314 287
-8.97071 104.58935 186.76656 268
75.16298 66.81107 171.78462 316
70.10131 68.96457 173.34030 384
66.64063 70.41981 175.44548 382
63.71164 71.72643 177.77727 393
58.35785 73.99529 179.70447 300
35.40399 83.83363 178.30353 339
29.49345 86.33797 180.80025 336
23.27923 89.04292 183.45221 334
15.15863 92.46716 186.02988 316
2.59725 97.91314 188.33894 286
74.79728 65.89659 171.76361 316
70.76437 67.58337 173.60027 385
67.36786 69.01385 175.74745 383
64.37763 70.22390 178.07477 394
57.92187 72.96156 179.69325 300
37.23033 81.68291 178.77057 340
31.50731 84.07979 181.27789 337
25.37418 86.64009 183.87726 335
18.15103 89.68527 186.55254 317
9.27705 93.49197 189.25435 287
-9.89983 101.52734 191.10101 268
-2552.69678 1171.96948 69.04910 406
-2549.02515 1170.80774 118.59261 491
-2548.07471 1170.15186 167.62930 499
74.69624 64.80931 171.87117 388
71.41779 66.17544 173.88995 386
68.05203 67.54254 176.01537 384
65.06045 68.80251 178.28990 395
57.55451 71.89336 179.72719 300
39.06754 79.58498 179.20137 341
33.39011 81.87919 181.66240 339
27.46394 84.36337 184.25829 336
21.08127 86.99231 187.01160 318
12.80574 90.40891 189.71970 316
1.46131 95.09901 192.41051 286
75.29423 63.48290 172.13210 389
72.08450 64.80943 174.16066 387
68.76455 66.13536 176.28696 385
65.76881 67.37782 178.54283 396
57.16783 70.87666 179.70103 300
40.83066 77.52126 179.66829 342
35.27171 79.74059 182.10768 340
29.48571 82.12846 184.70311 337
23.32187 84.59760 187.42079 335
15.83453 87.63855 190.15211 317
7.20909 91.19548 193.05064 314
-10.65266 98.40840 195.47134 268
75.89684 62.14756 172.43861 390
72.72456 63.43928 174.43604 388
69.44606 64.73385 176.55482 386
66.41498 65.93505 178.79031 397
56.78402 69.79327 179.70239 300
41.79152 75.78141 179.94008 375
37.15841 77.63512 182.53275 341
31.45960 79.92974 185.05881 338
25.40891 82.30756 187.79338 336
18.84764 84.93167 190.61507 318
10.42116 88.31763 193.45836 315
0.38295 92.35161 196.45341 286
-1939.73657 867.27753 63.81314 389
-1941.65186 868.48853 102.07349 389
76.53550 60.83065 172.70224 391
73.38267 62.08449 174.70457 389
70.09879 63.36399 176.81941 387
67.09353 64.52576 179.03931 398
56.42918 68.74429 179.70778 300
42.71479 74.12584 180.18480 376
38.42432 75.76980 182.82973 373
33.39567 77.79220 185.47060 339
27.49012 80.05925 188.11336 337
21.27448 82.54939 190.94548 335
13.56907 85.55315 193.87968 317
4.78361 89.02975 196.91562 314
-11.30047 95.34911 199.75583 268
76.88443 59.62225 172.91718 421
74.00602 60.73625 174.95096 390
70.82260 61.97678 177.03447 388
67.74603 63.17693 179.25569 399
56.02762 67.66439 179.70689 300
43.61598 72.48435 180.47032 387
39.38861 74.05111 183.05313 374
34.97824 75.77299 185.80327 372
29.51657 77.90764 188.46204 338
23.42499 80.26872 191.27983 336
16.60464 82.88450 194.18950 318
8.06601 86.17524 197.24763 315
-1.12299 89.69520 200.49318 313
-1276.99719 581.49658 190.45514 345
-1276.44275 581.31488 216.83455 412
-1276.92651 581.42719 243.33147 462
77.20807 58.45914 173.06287 422
74.51057 59.48460 175.22385 419
71.45523 60.65664 177.32419 388
68.37254 61.81575 179.47858 400
48.03376 69.50402 178.11198 391
44.36161 70.89083 180.65540 388
40.37149 72.38335 183.30716 375
36.01549 74.03957 186.01350 373
31.44262 75.76129 188.83759 339
25.50720 78.04282 191.60822 337
19.23571 80.42315 194.52296 334
11.25918 83.42844 197.57274 316
2.38835 86.76818 200.79413 314
-13.01400 92.59908 203.92857 258
-1276.51306 570.49988 164.23210 480
-1278.49622 571.23309 190.63895 439
-1281.00989 572.28088 216.65480 379
77.47445 57.32615 173.23451 422
74.81720 58.27600 175.36018 420
72.11564 59.28207 177.55655 389
68.62147 60.63620 179.63480 304
48.74301 67.99648 178.33893 392
45.07786 69.35860 180.91336 389
41.28391 70.73518 183.54112 376
37.02059 72.31721 186.21042 374
32.56553 74.02731 189.04234 371
27.54133 75.83218 191.92397 338
21.43719 78.15781 194.82878 335
14.33346 80.74524 197.86673 317
5.75288 83.94258 201.01602 315
-3.61200 87.40451 204.49142 312
77.75514 56.15990 173.41876 423
75.13504 57.15010 175.55139 421
72.43684 58.11816 177.70284 419
68.30365 59.64825 179.62798 304
49.46941 66.48995 178.58150 393
45.86359 67.78906 181.10623 390
42.10057 69.13127 183.75314 388
37.99958 70.64495 186.44604 375
33.60269 72.27020 189.20647 372
28.99139 73.96613 192.12773 370
23.56473 75.92768 195.06625 336
17.19748 78.23580 198.13071 334
8.98052 81.22614 201.28365 316
-0.03896 84.52494 204.69391 313
78.04459 55.03734 173.57181 424
75.44769 55.95420 175.71703 422
72.77205 56.92185 177.87430 419
67.96233 58.60652 179.61716 304
50.13747 65.02200 178.79886 393
46.57367 66.28449 181.34492 391
42.88372 67.63628 183.95792 389
38.93594 69.00587 186.68109 376
34.63305 70.56658 189.41322 373
30.08615 72.19076 192.30074 370
25.34702 73.89528 195.34979 368
19.43218 75.97789 198.37605 335
12.13856 78.61655 201.55101 317
3.35294 81.74400 204.85539 315
78.29634 53.91564 173.72757 424
75.73224 54.81334 175.85037 422
73.06152 55.75597 178.02509 420
67.64715 57.63306 179.61464 304
50.80453 63.54116 179.01321 394
47.27881 64.75340 181.55093 392
43.61946 66.05059 184.17221 390
39.86899 67.37923 186.84546 387
35.61272 68.85474 189.64023 374
31.14123 70.47061 192.48349 371
26.46982 72.07906 195.50291 369
21.58336 73.82290 198.60670 366
15.14959 76.04535 201.78174 334
6.70224 78.99259 205.09727 316
78.57893 52.79971 173.91405 425
76.02220 53.67711 175.99611 423
73.38781 54.60320 178.18999 421
67.38152 56.63972 179.63303 304
51.49675 62.11610 179.24626 395
48.03053 63.32467 181.73486 393
44.41435 64.53874 184.35522 390
40.64507 65.84480 187.07271 388
36.60469 67.21852 189.79332 375
32.21926 68.72395 192.64848 372
27.60945 70.31239 195.63548 370
22.77806 71.96630 198.72487 367
17.44339 73.80728 202.00194 335
9.91180 76.38724 205.24277 317
78.85366 51.67824 174.08884 427
76.32892 52.53256 176.17824 424
73.69336 53.44902 178.33060 421
67.07937 55.63818 179.62895 304
52.20245 60.65897 179.46437 396
48.73469 61.81122 181.96304 394
45.13033 63.01754 184.52330 391
41.44370 64.31996 187.23386 389
37.55873 65.57502 189.97816 386
33.22434 67.05984 192.86545 373
28.71151 68.56769 195.82632 371
23.88658 70.19534 198.86494 368
18.95762 71.89041 202.09846 365
13.01246 73.84586 205.46960 318
79.15308 50.59361 174.20396 428
76.60267 51.41446 176.31421 424
73.98060 52.27179 178.47652 422
66.80075 54.65294 179.63251 304
52.84840 59.23600 179.68130 397
49.44695 60.40245 182.15726 395
45.89080 61.53450 184.76135 392
42.22830 62.76270 187.40114 390
38.39731 64.04983 190.16638 387
34.26169 65.39318 192.98825 374
29.74132 66.86535 195.92352 372
25.06670 68.41437 199.03131 369
20.14214 70.01225 202.21559 366
15.03321 71.76443 205.55624 364
79.44961 49.47278 174.36458 429
76.92036 50.31532 176.45023 425
74.32822 51.13966 178.60176 423
66.47172 53.65979 179.63644 304
53.51353 57.86227 179.85558 398
50.09639 58.95891 182.32184 395
46.62133 60.09312 184.90080 393
42.95822 61.24890 187.56929 391
39.17665 62.49582 190.32687 388
35.28986 63.78044 193.15143 375
30.84429 65.16877 196.12143 372
26.18135 66.68551 199.12602 370
21.33241 68.21825 202.32808 367
16.28441 69.91869 205.67847 364
79.71383 48.37729 174.53357 429
77.17435 49.18889 176.62311 426
74.63075 50.01317 178.77557 423
66.21292 52.66740 179.66342 304
54.17454 56.48589 180.05829 399
50.83835 57.52470 182.54764 396
47.33956 58.61786 185.11737 394
43.76381 59.76054 187.76579 391
40.00590 60.97761 190.47388 389
36.13627 62.19100 193.32852 386
31.88707 63.51979 196.22194 373
27.28669 64.97724 199.26204 371
22.51756 66.48026 202.43533 368
17.48395 68.08022 205.73567 365
79.98650 47.30951 174.69815 430
77.49169 48.06285 176.75937 426
74.90466 48.85999 178.90916 424
65.92429 51.64110 179.63239 304
54.80453 55.12179 180.26918 412
51.51051 56.12228 182.74400 397
48.04140 57.19906 185.25676 395
44.49958 58.29977 187.92024 392
40.79769 59.44877 190.65929 390
36.95352 60.61480 193.44537 387
32.90017 61.86454 196.36731 374
28.38171 63.26296 199.42177 372
23.70629 64.74942 202.51817 369
18.72210 66.29848 205.82228 366
80.23808 46.25079 174.83670 431
77.77408 46.98209 176.91434 427
75.23833 47.76080 179.02574 425
65.67520 50.67906 179.66640 304
55.26649 53.80659 180.40300 412
52.11598 54.77800 182.92163 410
48.77022 55.76290 185.48267 396
45.24059 56.83796 188.05534 393
41.57934 57.97749 190.81674 391
37.80946 59.08539 193.58438 388
33.85720 60.27116 196.53490 386
29.47089 61.59867 199.52019 372
24.79947 63.02573 202.65945 370
19.97539 64.50909 205.88606 367
80.54424 45.18270 174.98535 431
78.07121 45.90743 177.05615 428
75.54642 46.67013 179.17802 425
58.74257 51.62251 178.15530 422
55.70195 52.52036 180.55309 413
52.61544 53.43967 183.06421 411
49.38473 54.37691 185.64154 408
45.96402 55.41811 188.22745 394
42.36157 56.48154 190.94153 391
38.61716 57.60726 193.75745 389
34.70658 58.72802 196.62558 386
30.56751 60.00752 199.62791 373
25.97033 61.36172 202.75583 371
21.12424 62.73624 205.96222 368
80.80359 44.11840 175.12839 432
78.38541 44.81252 177.20650 428
75.81954 45.54488 179.29868 426
59.12418 50.38425 178.28549 423
56.19056 51.22729 180.74120 414
53.11962 52.14672 183.22198 411
49.93197 53.06569 185.76808 409
46.65556 54.00915 188.37099 407
43.13121 55.02199 191.06618 392
39.42856 56.09501 193.90111 390
35.57680 57.20990 196.73582 387
31.57771 58.38288 199.73222 385
27.05308 59.69908 202.84453 372
22.32014 61.07563 206.07388 369
81.06592 43.05378 175.27432 433
78.64041 43.74540 177.33211 429
76.14671 44.45776 179.43211 427
59.51221 49.18198 178.42659 424
56.65844 49.98568 180.87082 415
53.57013 50.85665 183.36856 412
50.43014 51.71463 185.89215 410
47.14457 52.66210 188.51414 407
43.81581 53.62513 191.25145 405
40.19020 54.63324 193.99760 391
36.41378 55.69225 196.87389 388
32.43614 56.82498 199.83124 386
28.15245 58.05496 202.93158 373
23.44935 59.39236 206.15456 370
81.35333 42.03101 175.38976 433
78.95081 42.66327 177.46906 430
76.42983 43.35271 179.58720 427
59.88438 47.94899 178.60197 424
57.06610 48.74329 181.02127 422
54.07453 49.56770 183.49176 413
50.91062 50.40727 186.02643 411
47.67496 51.31591 188.63814 408
44.33672 52.23314 191.35277 406
40.91681 53.19300 194.12531 403
37.19543 54.20713 197.01962 389
33.29630 55.28857 199.98611 386
29.25449 56.43347 203.01006 373
24.61274 57.69064 206.19737 371
81.63049 40.99734 175.54649 434
79.21297 41.61819 177.60725 430
76.22625 42.44383 179.54799 308
60.24515 46.72931 178.71550 425
57.46634 47.50745 181.16701 423
54.54076 48.29510 183.63670 414
51.43554 49.10089 186.17851 411
48.23251 49.98544 188.78432 409
44.87928 50.89551 191.44524 406
41.45597 51.81297 194.23758 404
37.96276 52.77082 197.08647 401
34.17253 53.76187 200.04958 387
30.16800 54.86382 203.09711 385
25.71255 56.03488 206.29280 372
-187.33134 113.58546 202.55962 495
81.91115 39.92599 175.67027 435
79.51611 40.55185 177.70808 431
76.00051 41.48847 179.55875 308
60.61674 45.53196 178.86208 426
57.86288 46.28601 181.26549 424
54.97327 47.04192 183.77116 421
51.93472 47.81058 186.30623 412
48.73335 48.66194 188.87122 410
45.44482 49.51922 191.55167 407
42.05727 50.41928 194.33464 405
38.56280 51.34324 197.17535 402
34.89915 52.30865 200.13426 399
31.03117 53.35189 203.16988 385
26.84068 54.42002 206.36958 372
-188.05304 111.05022 202.56436 495
82.18465 38.92678 175.79568 435
79.80190 39.53423 177.85191 432
75.82157 40.56129 179.56639 308
61.00303 44.34844 179.01770 426
58.23531 45.05968 181.42300 424
55.37805 45.80235 183.90038 422
52.41389 46.56450 186.40990 413
49.27690 47.36961 189.02768 410
46.01288 48.20031 191.69017 408
42.59895 49.06419 194.45689 405
39.13139 49.93083 197.25818 403
35.56092 50.89434 200.24716 400
31.77711 51.84687 203.25716 397
27.81585 52.88599 206.44444 384
-188.38478 108.45142 202.55440 484
82.43526 37.87284 175.90544 436
80.08456 38.48196 177.96385 432
75.58819 39.61242 179.57585 308
61.37600 43.17271 179.12328 427
58.62270 43.87127 181.56053 425
55.79934 44.54979 184.02586 423
52.92196 45.29662 186.56154 420
49.79955 46.05364 189.11212 411
46.50827 46.87903 191.77037 408
43.17865 47.68997 194.52689 406
39.74491 48.60602 197.35973 403
36.14294 49.45810 200.28908 401
32.45602 50.43419 203.33084 398
28.60072 51.34076 206.48250 395
22.98014 52.78068 209.70445 263
82.71399 36.90322 176.03404 437
80.38876 37.44157 178.10771 433
75.39716 38.67906 179.55927 308
61.72848 41.98990 179.29233 428
59.01858 42.67474 181.66757 426
56.20993 43.36818 184.11723 423
53.33574 44.04020 186.67039 421
50.30913 44.76855 189.23003 412
47.04993 45.55329 191.88525 409
43.73922 46.40294 194.61975 407
40.32392 47.20298 197.46767 404
36.77863 48.11290 200.39658 401
33.06421 48.99043 203.38840 399
29.31069 49.91016 206.50729 396
24.95525 50.94787 209.78902 356
-186.77315 102.57511 209.67612 485
82.96253 35.87720 176.17912 437
80.67307 36.44060 178.20088 433
75.21602 37.69968 179.56046 308
62.10706 40.80092 179.40431 428
59.40437 41.46186 181.81361 426
56.62472 42.15076 184.22893 424
53.75908 42.81753 186.73973 422
50.77774 43.51860 189.36804 412
47.59806 44.24425 191.97182 410
44.31123 45.07210 194.71393 407
40.92160 45.85891 197.53546 405
37.39091 46.67483 200.42906 402
33.71069 47.55784 203.44571 400
29.94423 48.47519 206.59955 397
25.72943 49.47864 209.79152 357
-186.90814 99.94444 209.72079 485
83.25649 34.87186 176.28539 438
80.96661 35.39810 178.32391 436
75.03810 36.79720 179.59338 308
62.48035 39.67775 179.54536 429
59.80401 40.29629 181.90494 427
57.00570 40.93553 184.36737 425
54.15302 41.57403 186.84964 422
51.24965 42.27634 189.44371 420
48.11823 42.96591 192.07237 411
44.84138 43.72244 194.79114 408
41.46249 44.51760 197.64098 405
37.98563 45.34047 200.49632 403
34.34888 46.15797 203.52214 400
30.60538 47.04752 206.60663 398
26.46885 47.99469 209.81386 358
-187.35699 97.34610 209.64572 485
83.50796 33.87221 176.44534 438
81.24045 34.38929 178.45224 436
74.84016 35.81948 179.55719 308
62.83959 38.51899 179.65419 430
60.14701 39.12542 182.05112 428
57.42223 39.75821 184.46751 425
54.56585 40.37466 186.95541 423
51.68188 41.02987 189.57114 420
48.63846 41.67828 192.19861 411
45.39058 42.43169 194.92442 409
42.05788 43.16179 197.68631 406
38.54922 43.95353 200.56738 404
35.00863 44.74792 203.55110 401
31.25469 45.58664 206.65764 398
27.20541 46.51624 209.86050 358
-187.85022 94.77635 209.63210 485
-195.05675 96.35548 216.70831 295
83.80703 32.89514 176.53456 439
81.49767 33.38395 178.57283 437
74.66565 34.87645 179.56071 308
63.24457 37.37365 179.79532 430
60.56554 37.95559 182.13814 428
57.82504 38.57487 184.57396 426
54.98709 39.15948 187.07404 424
52.12184 39.79417 189.64059 421
49.11506 40.43270 192.29826 419
45.97066 41.12180 194.97409 409
42.60910 41.83941 197.76529 407
39.15913 42.57995 200.65501 404
35.59973 43.36531 203.65073 402
31.92623 44.22266 206.71332 399
27.93645 45.07428 209.89703 359
-188.26877 92.13554 209.65190 485
-188.25485 92.19540 216.72212 297
84.06350 31.88794 176.66025 440
81.80747 32.37471 178.68724 438
74.50639 33.93111 179.60257 308
63.59848 36.21592 179.88600 431
60.92447 36.80695 182.28645 429
58.18972 37.35024 184.69012 427
55.41334 37.98280 187.18808 424
52.53943 38.56546 189.74762 422
49.56837 39.17220 192.40193 419
46.49702 39.83807 195.08507 410
43.19763 40.54309 197.87579 408
39.75578 41.29065 200.69574 405
36.20423 42.02800 203.69385 402
32.53100 42.79607 206.77539 400
28.63821 43.61106 209.95857 359
-182.61719 88.36223 216.73619 439
84.22596 30.95031 176.74826 458
82.05936 31.38432 178.78246 438
74.35500 32.95702 179.58743 308
63.97086 35.12677 180.00357 432
61.32432 35.63953 182.36923 429
58.60812 36.18333 184.79044 427
55.80436 36.76508 187.29604 425
52.94387 37.34669 189.82664 422
50.02234 37.95767 192.44147 420
46.96849 38.58051 195.16881 417
43.74409 39.25032 197.93413 408
40.36140 39.93457 200.81154 406
36.83371 40.66235 203.72670 403
33.22683 41.39584 206.82986 400
29.35457 42.23056 209.97627 362
-182.69118 85.66610 216.74741 439
84.27985 30.02837 176.81827 459
82.20403 30.44030 178.86740 457
74.17677 32.02453 179.57483 308
64.33723 34.00063 180.14439 432
61.67952 34.51566 182.51720 430
58.97770 35.01519 184.93108 428
56.23507 35.59971 187.37050 425
53.36465 36.13089 189.94676 423
50.47551 36.75126 192.53079 421
47.45185 37.33868 195.23125 418
44.28822 37.97583 197.99905 409
40.93236 38.61303 200.86180 406
37.42564 39.34745 203.80914 404
33.82014 40.05667 206.85918 401
30.05983 40.82236 210.00725 363
-182.75427 83.07177 216.66563 424
84.32208 29.07779 176.85077 459
82.25422 29.48244 178.93245 457
67.23550 32.35738 177.95212 435
64.68809 32.84714 180.25136 433
62.04727 33.37721 182.61859 431
59.35863 33.89562 185.02211 428
56.62924 34.40551 187.47287 426
53.82622 34.97301 190.01985 424
50.88968 35.50355 192.66032 421
47.87707 36.10192 195.32219 419
44.82946 36.69579 198.09720 416
41.50802 37.35306 200.90508 407
38.05077 38.02467 203.87085 404
34.43435 38.68728 206.87483 402
30.71955 39.39488 210.02879 363
-182.73817 80.44693 216.66217 424
84.40596 28.16829 176.91112 459
82.31894 28.56597 178.99426 457
67.60938 31.26915 178.10689 436
65.04333 31.74607 180.39630 434
62.45615 32.24207 182.71735 431
59.77828 32.73470 185.11124 429
57.02692 33.23797 187.60394 427
54.23570 33.75154 190.12547 424
51.35207 34.31402 192.74078 422
48.38108 34.83879 195.38640 419
45.30037 35.43710 198.15881 417
42.06724 36.03850 200.99959 408
38.64648 36.69804 203.91797 405
35.05983 37.33123 206.94264 402
31.38274 38.00599 210.05630 400
-182.83389 77.82588 216.67023 425
-189.98894 79.16705 223.73805 322
84.43378 27.20819 176.97705 460
82.37643 27.60732 179.03513 458
67.92533 30.18754 178.23305 436
65.39252 30.67290 180.50645 434
62.80368 31.09445 182.81418 432
60.17178 31.62570 185.24075 430
57.43459 32.08223 187.67758 427
54.61856 32.59324 190.19212 425
51.74853 33.10118 192.81216 422
48.82257 33.63694 195.45529 420
45.79584 34.18013 198.22334 417
42.64920 34.75380 201.06302 408
39.19514 35.37132 203.93620 406
35.68832 35.98038 206.96484 403
32.03243 36.63054 210.09225 400
-182.88112 75.25485 216.69055 425
-187.37941 76.08118 223.61696 323
84.51174 26.32373 177.00252 460
82.40498 26.66407 179.09425 458
68.15347 29.15438 178.29935 455
65.76145 29.57972 180.58055 435
63.20828 30.02681 182.94446 433
60.55134 30.45471 185.33438 430
57.81541 30.94690 187.77962 428
55.07740 31.43282 190.27203 426
52.18359 31.91462 192.89015 423
49.25175 32.41424 195.52843 421
46.22538 32.93212 198.30486 418
43.11056 33.48412 201.11421 416
39.82470 34.08431 204.00864 406
36.28947 34.63368 206.99667 404
32.66941 35.27653 210.12506 401
-182.80853 72.65955 216.73056 425
-184.80405 73.04063 223.60504 323
84.56875 25.38160 177.07808 460
82.49342 25.76344 179.11847 458
68.19710 28.12949 178.36266 456
65.85262 28.49212 180.67035 454
63.47695 28.92411 183.02135 451
60.93127 29.32887 185.40100 431
58.22492 29.79803 187.86481 428
55.44987 30.26404 190.40034 426
52.64027 30.71305 192.94240 424
49.74080 31.20652 195.62451 421
46.70049 31.73186 198.35324 419
43.63516 32.23170 201.17482 416
40.40728 32.78857 204.06612 407
36.91959 33.32197 207.02498 404
33.33878 33.93584 210.12512 402
-182.81221 70.03049 216.71371 425
-182.83998 70.04095 223.52174 361
84.59949 24.46918 177.09413 461
82.53428 24.79859 179.16769 458
68.28775 27.07715 178.38698 456
65.91053 27.48186 180.69002 454
63.52810 27.84805 183.04852 452
61.06768 28.27246 185.47372 449
58.54454 28.64555 187.94695 447
55.86816 29.10225 190.46852 427
53.08270 29.53111 193.05836 424
50.18150 30.01524 195.67253 422
47.18864 30.47787 198.42783 419
44.09099 30.97315 201.23650 417
40.89895 31.48523 204.07951 414
37.50334 32.06077 207.10371 405
33.95333 32.64530 210.15179 402
-182.20865 67.33688 223.51836 361
84.66781 23.54184 177.14928 461
82.60212 23.89665 179.22363 459
68.36145 26.08411 178.43134 456
65.99679 26.43980 180.72844 454
63.60698 26.79241 183.11810 452
61.15555 27.18853 185.52269 450
58.65237 27.57179 187.99631 447
56.05772 27.98973 190.51376 445
53.42828 28.38855 193.09108 442
50.61655 28.83514 195.76373 422
47.62993 29.24839 198.45145 420
44.57633 29.76892 201.28384 417
41.40877 30.20893 204.15211 415
38.12982 30.76107 207.13228 406
34.54242 31.29751 210.20770 403
-181.52380 64.73891 223.52019 361
84.72169 22.66275 177.22237 461
82.64827 22.93035 179.27095 459
68.40602 25.06819 178.46558 457
66.08479 25.43096 180.76430 454
63.68089 25.76145 183.12038 452
61.23797 26.12227 185.56444 450
58.74284 26.49371 188.00963 447
56.16019 26.88987 190.52736 445
53.52215 27.25870 193.15662 443
50.80717 27.67284 195.78867 440
48.04213 28.09197 198.53595 437
45.05884 28.53456 201.33929 418
41.91398 28.99488 204.16742 415
38.67668 29.46146 207.17619 413
35.15675 29.99257 210.19801 403
-180.99756 62.03843 223.54091 361
84.78984 21.73740 177.25354 461
82.74261 22.03054 179.31093 459
68.50435 24.06206 178.53117 457
66.16420 24.37944 180.81447 455
63.75894 24.71301 183.16077 452
61.30544 25.04944 185.58884 450
58.80894 25.41614 188.07016 448
56.25796 25.79215 190.58492 445
53.63143 26.13981 193.15150 443
50.91372 26.54098 195.80835 440
48.13304 26.95071 198.56262 438
45.29251 27.34628 201.32706 435
42.41470 27.73619 204.25636 432
39.16659 28.20206 207.18973 413
35.78402 28.67624 210.26807 404
-180.27980 59.38523 223.44411 361
84.85132 20.84299 177.29861 462
82.78465 21.08471 179.32159 460
68.56802 23.01373 178.55949 457
66.23222 23.33682 180.86647 455
63.83533 23.67246 183.22652 453
61.40599 24.02515 185.64043 450
58.91328 24.33095 188.07068 448
56.34974 24.67030 190.59105 446
53.70552 25.03304 193.21788 443
51.05446 25.40294 195.82217 441
48.24947 25.77262 198.59404 438
45.41414 26.16612 201.38245 435
42.51962 26.55504 204.24248 433
39.48867 26.97964 207.23186 430
36.37957 27.40536 210.26155 427
-179.97527 56.76949 223.48494 383
84.90769 19.93256 177.30962 462
82.86093 20.18791 179.37529 460
68.61008 22.02123 178.62715 457
66.32711 22.31204 180.90219 455
63.92658 22.63701 183.25389 453
61.46547 22.92494 185.65892 451
58.96735 23.25421 188.10831 448
56.44612 23.58916 190.65826 446
53.80232 23.95585 193.20679 443
51.11875 24.29994 195.84912 441
48.37165 24.67272 198.59804 438
45.51881 24.99148 201.39047 436
42.58661 25.40035 204.25911 433
39.63203 25.77383 207.24051 430
36.51230 26.17110 210.30067 428
-180.00562 54.20182 223.42323 383
84.98778 19.01525 177.37903 462
82.90551 19.25190 179.40146 460
68.67418 21.02571 178.65173 458
66.35478 21.30854 180.93846 455
63.99820 21.61690 183.30769 453
61.54680 21.86851 185.70125 451
59.07670 22.18050 188.14281 448
56.53809 22.53812 190.65195 446
53.91916 22.85091 193.24394 444
51.22842 23.16255 195.88869 441
48.46912 23.51257 198.60379 439
45.62046 23.83510 201.39478 436
42.73655 24.20012 204.26859 433
39.71388 24.56471 207.22385 431
36.65024 24.95687 210.27480 428
-179.97041 51.62558 223.45558 383
85.03448 18.10795 177.39026 462
83.00631 18.34618 179.44621 460
68.77062 19.98485 178.68562 458
66.46079 20.29522 180.98042 456
64.08982 20.55666 183.33780 453
61.65174 20.86558 185.72997 451
59.15915 21.15540 188.18213 449
56.61441 21.43066 190.70749 446
53.98000 21.72222 193.28444 444
51.29722 22.05036 195.92244 441
48.56787 22.38814 198.65010 439
45.72445 22.70935 201.43881 436
42.85178 23.04076 204.30598 433
39.87956 23.36614 207.27794 431
36.82530 23.73121 210.29707 428
-179.98686 49.08423 223.51707 383
85.10897 17.21454 177.42809 463
83.05506 17.43309 179.48758 461
68.84602 19.00208 178.70515 458
66.52113 19.23250 181.01476 456
64.15624 19.51663 183.34749 454
61.73486 19.79525 185.75401 451
59.24432 20.04253 188.19827 449
56.69899 20.33696 190.70795 447
54.06936 20.64879 193.30885 444
51.41080 20.91058 195.95094 442
48.66566 21.25202 198.63750 439
45.83802 21.55193 201.45998 436
42.94809 21.84824 204.28828 434
40.01635 22.22001 207.27896 431
36.93538 22.53872 210.31189 429
-180.01657 46.54800 223.44160 383
85.16734 16.28850 177.47221 463
83.09441 16.51105 179.51909 312
68.91360 17.98319 178.76166 458
66.61219 18.25866 181.05801 456
64.21966 18.50349 183.41048 454
61.82620 18.76283 185.80296 452
59.32153 19.00977 188.22041 449
56.80750 19.24751 190.76273 447
54.21758 19.53526 193.32072 444
51.50109 19.83113 195.93837 442
48.75865 20.11292 198.67194 439
45.98080 20.42401 201.44537 437
43.10189 20.68949 204.34763 434
40.14721 20.98687 207.25381 432
37.07072 21.29933 210.33076 429
-179.93506 44.02114 223.42514 384
85.23883 15.38267 177.49623 463
83.03034 15.60194 179.51595 312
68.99125 16.99818 178.78856 458
66.69914 17.23290 181.07138 456
64.32256 17.46743 183.43449 454
61.88347 17.66603 185.81990 452
59.42118 17.92350 188.27925 449
56.89260 18.19626 190.79262 447
54.27646 18.41192 193.36137 445
51.61003 18.71778 196.00702 442
48.90539 18.98411 198.67656 439
46.10221 19.26592 201.46483 437
43.22007 19.55315 204.33548 435
40.30679 19.80831 207.26469 432
37.21622 20.09221 210.30780 429
-179.91705 41.46137 223.45891 384
85.32473 14.50070 177.55238 463
83.00397 14.72521 179.49588 312
69.08352 15.98021 178.82782 459
66.74862 16.19669 181.13220 457
64.41260 16.42221 183.44434 454
61.97006 16.65958 185.82520 452
59.52690 16.88777 188.28532 450
57.00322 17.10377 190.80000 447
54.38709 17.35567 193.34888 445
51.70323 17.60933 196.01952 442
49.01850 17.85163 198.73515 440
46.20635 18.10498 201.48674 437
43.36764 18.37771 204.37602 435
40.39052 18.61670 207.29265 432
37.36250 18.90577 210.31203 429
-180.02391 38.99550 223.49763 384
85.36742 13.58659 177.57690 464
82.92867 13.81050 179.51611 312
69.14885 15.00140 178.86752 459
66.85318 15.20867 181.12906 457
64.49721 15.39656 183.46446 454
62.07616 15.59816 185.89047 452
59.60092 15.79450 188.33508 450
57.09188 16.02537 190.83052 447
54.46914 16.25700 193.39403 445
51.86042 16.47384 196.01665 443
49.13667 16.70640 198.71429 440
46.36423 16.94748 201.51550 438
43.49049 17.22628 204.35612 435
40.57523 17.45373 207.30791 432
37.51881 17.70918 210.35629 430
-179.91063 36.39073 223.44225 384
85.43031 12.71761 177.62816 464
82.90877 12.89013 179.50964 312
69.22890 14.00822 178.89465 459
66.91438 14.16272 181.18430 457
64.55986 14.34507 183.52065 455
62.13933 14.56045 185.91209 452
59.68128 14.77135 188.35799 450
57.18629 14.98693 190.86201 448
54.56594 15.18173 193.40686 445
51.92467 15.38864 196.04942 443
49.23712 15.57192 198.75682 441
46.45191 15.82426 201.50343 438
43.61928 16.02541 204.35780 435
40.71116 16.25789 207.30496 433
37.63230 16.51557 210.34607 430
-179.98158 33.89135 223.42810 384
85.50761 11.78928 177.62424 464
82.88531 12.00368 179.53831 312
69.33144 12.99939 178.91954 459
67.01385 13.18836 181.21944 457
64.63972 13.34406 183.52519 455
62.23375 13.52583 185.94167 453
59.77335 13.68423 188.35368 450
57.27512 13.89471 190.84677 448
54.70513 14.08770 193.44951 446
52.05953 14.27034 196.07698 443
49.39766 14.46093 198.75854 441
46.60830 14.68284 201.55624 438
43.75776 14.90872 204.38519 435
40.83949 15.09479 207.32291 433
37.81429 15.34056 210.37721 430
-179.97905 31.39604 223.47427 384
85.58940 10.90234 177.68939 464
82.81009 11.11086 179.53369 312
69.38912 12.02241 178.94296 460
67.12237 12.14922 181.22437 457
64.75852 12.34233 183.56145 455
62.33379 12.45669 185.93166 453
59.88094 12.65667 188.39937 450
57.36414 12.82375 190.90154 448
54.81123 12.99904 193.46375 446
52.20786 13.16382 196.06212 443
49.52608 13.33588 198.77501 441
46.74688 13.55236 201.54370 438
43.88399 13.75008 204.40152 436
40.97785 13.93442 207.34441 433
37.93903 14.10929 210.35808 430
-179.92302 28.88791 223.44765 384
85.67056 10.02742 177.69351 464
82.79443 10.17813 179.50684 312
69.47372 11.01982 178.99718 460
67.16970 11.13513 181.24608 458
64.82433 11.29574 183.59268 455
62.45368 11.44899 185.96709 453
59.98553 11.58069 188.41617 451
57.46244 11.74001 190.90454 449
54.94150 11.89391 193.47002 446
52.32721 12.07518 196.11476 444
49.60107 12.21043 198.79449 441
46.83754 12.39575 201.57961 439
44.00790 12.57489 204.42082 436
41.09558 12.75258 207.36894 433
38.11420 12.92447 210.36801 430
-179.91057 26.32878 223.45020 384
85.72457 9.14378 177.70398 464
82.78076 9.30687 179.50934 312
69.54327 10.01757 179.01140 460
67.24001 10.16349 181.28848 458
64.89880 10.28130 183.60216 455
62.53405 10.40508 185.98381 453
60.07648 10.56056 188.43990 451
57.59386 10.66465 190.95609 449
55.06635 10.82510 193.50339 446
52.43590 10.98757 196.14352 444
49.75103 11.14615 198.82353 441
