# .PCD v.7 - Point Cloud Data file format
VERSION .7
FIELDS x y z rgb
SIZE 4 4 4 4
TYPE F F F U
COUNT 1 1 1 1
WIDTH 1350
HEIGHT 1
VIEWPOINT 6559.619141 -2562.659912 144.186783 -0.838470 -0.071956 -0.107661 0.529339
POINTS 1350
DATA ascii
95.12163 -105.79230 171.62593 316
86.29951 -112.81441 171.73082 312
76.24559 -120.81969 171.78754 308
40.01441 -149.68913 165.06822 394
28.43096 -158.91934 166.13116 297
95.75167 -106.56367 171.63495 316
86.95264 -113.67288 171.73972 312
76.94075 -121.73824 171.79532 308
42.42941 -149.58408 165.46391 396
96.32710 -107.39346 171.63264 316
87.58164 -114.52019 171.72145 312
49.96244 -145.27103 163.40956 300
44.81571 -149.47057 165.90248 397
96.96540 -108.20250 171.62959 316
88.27951 -115.40572 171.71414 312
50.68054 -146.48987 163.39680 300
46.96519 -149.56705 166.23456 302
97.57245 -108.98496 171.62587 316
88.91500 -116.23113 171.71988 312
51.42152 -147.65706 163.35123 300
47.87556 -150.66861 166.25140 302
98.22041 -109.77637 171.62947 316
89.57652 -117.06534 171.71170 312
52.16774 -148.83910 163.30031 300
48.79636 -151.71356 166.22604 302
98.83032 -110.55605 171.63623 316
90.26485 -117.92113 171.71463 312
53.88280 -149.16725 163.53188 401
49.71975 -152.78293 166.22842 301
99.48231 -111.34117 171.61777 316
90.95058 -118.79728 171.67281 312
56.11734 -149.05698 163.94403 402
50.59095 -153.82108 166.27536 301
-1810.66833 -1772.20215 125.85262 358
100.10852 -112.10361 171.62500 316
91.62419 -119.62885 171.66035 312
58.25072 -148.97591 164.37817 403
-51.09729 -44.97945 -14.77409 301
-1776.84302 -1764.91895 126.63678 372
-2089.90674 -2040.42285 162.98900 1000
100.77507 -112.92921 171.61938 316
92.30853 -120.44704 171.69769 312
60.38588 -148.90790 164.76193 404
52.43666 -155.99478 166.22755 301
-1804.37134 -1811.53442 80.01643 334
-1746.09448 -1759.47632 127.42278 403
101.41911 -113.69753 171.59866 316
69.10519 -142.84085 163.57774 304
62.45385 -148.83734 165.11551 406
53.40390 -157.04710 166.25793 301
-1763.98145 -1797.39160 81.97980 335
-1722.00720 -1759.10315 128.23755 395
102.06284 -114.46153 171.60085 316
69.83028 -143.86961 163.55508 304
64.49194 -148.76151 165.52618 407
54.28537 -158.07617 166.25208 301
-1725.84546 -1784.95874 84.02552 390
-1697.78516 -1758.89075 128.88998 395
102.71822 -115.19651 171.58699 316
70.58438 -144.92276 163.51172 304
66.56841 -148.67062 165.89279 408
-1689.59741 -1772.73145 85.60056 279
-1675.14148 -1760.13989 129.39508 410
103.35658 -115.98409 171.57167 316
71.35977 -145.99287 163.47070 304
68.51900 -148.59918 166.20335 409
-1657.48108 -1764.99036 87.28390 298
-1654.54712 -1762.07629 129.34761 361
104.06554 -116.73225 171.56534 316
72.13406 -147.01668 163.43420 304
69.80227 -149.23077 166.31371 306
-1630.86182 -1761.42920 88.45882 377
-1635.21484 -1765.87524 129.90158 361
104.71088 -117.45892 171.58459 316
72.89445 -148.07774 163.39862 304
70.68668 -150.20306 166.32552 306
-1607.15039 -1761.03540 88.96898 388
-1616.77612 -1769.97021 130.26701 361
105.40455 -118.25027 171.57585 316
74.40350 -148.37512 163.60503 412
71.58957 -151.11975 166.35966 306
-1585.71082 -1761.33923 89.78365 389
-1598.46411 -1773.62122 130.53885 366
106.09891 -118.97951 171.57401 316
76.27253 -148.29573 163.98338 413
72.49551 -152.02249 166.35464 306
-34665.11719 -34322.36719 -7092.82227 1000
-1564.43799 -1762.06812 91.08366 390
-1580.75281 -1778.56274 131.14310 367
-33188.26172 -32876.10547 2472.74170 1000
106.78786 -119.71887 171.56781 316
78.15340 -148.22458 164.34335 414
73.40778 -152.95752 166.35535 306
-1543.26624 -1763.22839 91.60813 442
-1567.87573 -1787.33093 131.05215 295
86.86490 -141.22710 163.66385 311
79.97200 -148.19475 164.62834 415
74.29963 -153.87122 166.33774 306
-1524.54602 -1765.47864 91.89997 454
-1555.23315 -1797.14185 131.52841 405
87.59414 -142.13083 163.66187 308
81.81024 -148.10107 165.01950 416
75.27029 -154.79953 166.37462 306
-1506.01001 -1768.91223 92.83146 455
-1570.81604 -1835.26648 129.78738 470
88.36045 -143.05266 163.62471 308
83.56569 -148.02139 165.33780 417
76.19545 -155.69119 166.36906 305
-1488.44116 -1772.48279 93.08885 456
-1553.43726 -1839.95105 130.19533 471
-1554.71191 -1840.57483 172.18753 471
89.12170 -144.00064 163.60727 308
85.32471 -147.97931 165.65685 418
77.09883 -156.58981 166.39046 305
-1470.55664 -1776.18665 93.86562 464
-1536.76746 -1845.28845 130.55688 471
-1542.03357 -1850.55151 172.18852 338
89.93048 -144.94803 163.54614 308
87.10027 -147.88058 165.97070 419
-1453.67871 -1780.16064 94.03933 464
-1520.26538 -1850.29431 130.62476 472
-1552.05847 -1884.33740 171.94781 337
90.71244 -145.83153 163.50327 308
88.82388 -147.85966 166.30420 420
-1436.75647 -1783.72034 94.44659 465
-1511.69849 -1863.76648 130.90404 362
-1561.91614 -1917.83728 171.33870 336
91.49313 -146.75320 163.47813 307
90.10881 -148.24966 166.42003 310
-1420.89221 -1788.01208 95.10101 472
-1520.90100 -1897.22009 129.38266 360
-1572.70471 -1952.80408 170.49461 335
92.28241 -147.63239 163.43979 307
90.98496 -149.06200 166.45815 310
-1404.57861 -1792.93201 95.52120 473
-1531.14600 -1931.56592 128.35922 359
93.84903 -147.62440 163.74115 423
91.89426 -149.84636 166.44888 310
-1388.43555 -1797.27283 95.82166 473
-1456.71704 -1872.66650 131.52443 475
95.53581 -147.58989 164.06752 424
92.80915 -150.66939 166.41078 310
-1373.01575 -1802.14111 96.22319 474
-1439.91846 -1877.37048 131.93384 475
97.15869 -147.52040 164.39406 414
93.69234 -151.44798 166.45134 310
-1357.61536 -1806.20618 96.57350 475
-1419.70251 -1878.10168 132.65294 476
98.86067 -147.33232 164.71666 415
94.60364 -152.20923 166.41879 310
-1342.23425 -1811.25977 96.78623 475
-1413.05298 -1892.77966 132.55484 354
-1437.64819 -1921.97046 255.38405 335
100.55704 -147.16895 165.02655 417
95.53747 -153.00104 166.44519 310
-1326.29956 -1815.49548 97.23660 476
-1417.19995 -1921.88245 131.18773 440
-1429.71436 -1936.06628 172.45264 477
-1415.11829 -1919.30725 255.08676 494
102.18413 -146.98602 165.39575 418
96.43184 -153.78566 166.46678 310
-1310.93127 -1819.81738 97.51443 477
-1428.98254 -1959.55469 130.10822 440
-1402.95728 -1929.36145 255.54843 480
103.79144 -146.83337 165.69719 419
97.35365 -154.55518 166.45341 310
-1295.59143 -1824.72449 97.58837 477
-1386.37878 -1933.00635 255.14041 277
-1386.41919 -1933.23059 296.19046 277
105.43101 -146.69331 165.98677 420
98.25608 -155.36099 166.46033 310
-1280.01379 -1828.78076 98.14523 478
-1316.97632 -1872.69226 134.77263 479
107.03811 -146.52646 166.30775 421
99.18315 -156.11667 166.43570 310
-1265.43628 -1833.20825 98.63054 478
-1301.21472 -1877.32654 134.96054 480
-1302.50610 -1879.28101 174.55988 319
-1383.19983 -1978.73267 339.49643 479
108.22392 -146.78041 166.46962 314
-1250.48096 -1837.76917 98.71516 478
-1290.56104 -1888.21240 135.26587 339
-1292.34839 -1889.92346 174.88101 338
109.11726 -147.49294 166.46329 314
-1235.22156 -1841.89893 98.63943 478
-1281.35547 -1900.26331 135.21623 431
-1294.91846 -1916.82947 174.20644 332
109.97243 -148.22395 166.47675 314
-1220.82471 -1846.65149 99.37092 479
-1315.14062 -1967.88513 132.45387 342
-1305.85083 -1955.73511 173.80342 331
110.86624 -148.90805 166.48331 314
-1205.48547 -1850.97205 99.71997 479
-1326.81140 -2008.16321 130.83975 341
-1317.36169 -1995.70068 172.72942 330
111.73701 -149.58290 166.45430 314
-1190.73584 -1855.26111 100.06908 480
-1337.38342 -2047.19470 129.75687 346
-1329.80188 -2036.53137 172.30951 327
112.63329 -150.28967 166.45291 314
-1176.05347 -1859.40979 100.22289 480
-1220.86633 -1918.53613 135.54996 483
115.41238 -148.45644 167.33351 439
-1161.28650 -1863.60071 100.21165 481
-1226.74951 -1951.83435 174.50005 326
-1221.63220 -1944.25598 253.77707 492
-1226.85754 -1951.81201 293.79016 290
116.59381 -148.67833 167.43456 316
-1147.05811 -1868.09607 100.53638 481
-1238.92688 -1992.94983 174.04300 325
-1220.97742 -1969.02246 254.13544 335
117.46526 -149.36188 167.45734 316
117.25285 -149.70128 170.54117 312
-1132.51196 -1872.05811 100.60462 482
-1251.45508 -2035.92871 173.37067 323
-1244.41467 -2026.80591 255.17438 493
118.32713 -150.03922 167.43159 316
118.14201 -150.32750 170.51079 312
-1117.84802 -1876.50732 100.96047 482
120.25610 -149.23604 167.91228 490
-1103.90027 -1881.04895 101.32394 483
120.10172 -151.36398 167.42801 316
-1089.57043 -1885.29736 101.48900 483
-1074.91101 -1889.12451 101.81293 484
124.38848 -148.95299 168.61649 489
-1060.76611 -1893.31934 101.94920 484
-1047.32800 -1897.67554 102.46304 485
-1032.73645 -1901.71375 102.25064 485
-1018.57928 -1905.56458 102.75028 486
-1005.04333 -1909.90259 102.79831 486
-990.86554 -1914.17969 102.96668 487
-977.64606 -1918.74426 103.10554 496
-1055.74414 -2043.18494 135.67915 490
-965.57513 -1926.06934 103.10280 496
-954.19073 -1933.68237 103.58504 496
-942.93756 -1941.30054 103.66790 496
-13555.23730 -22906.03516 -681.99078 1000
-931.08972 -1948.55615 103.42347 496
-919.13269 -1956.52087 103.36909 496
-907.35291 -1964.04883 103.05527 465
-1009.60889 -2171.69775 91.52748 479
-997.12085 -2180.36938 91.91830 479
-984.19482 -2189.09448 91.81263 348
40.64513 -1332.59363 83.33621 437
40.31509 -1336.05847 105.47266 437
39.38609 -1341.75769 126.98008 320
49.31364 -1330.65918 83.90118 498
48.72377 -1333.59912 105.80224 498
48.66836 -1336.37292 127.41711 494
48.11893 -1338.83533 149.47792 498
57.20976 -1333.03357 83.82326 464
56.85147 -1336.15808 105.45098 464
56.41185 -1340.33813 127.28112 409
55.84597 -1344.27759 149.15948 344
64.53419 -1341.26746 83.07610 348
372.38593 -13103.31250 3040.91968 1000
7283.54932 -34481.57812 -6793.10449 1000
2212.39062 -3363.59668 83.12703 301
2233.16113 -3350.01099 83.48666 434
2360.96436 -3564.06274 142.56100 296
2261.87720 -3350.40625 82.33614 426
2367.68555 -3523.66309 143.66357 440
2290.25073 -3350.84106 82.05340 421
2381.15723 -3497.04688 144.02029 440
2317.90698 -3349.83325 81.43015 421
2393.54346 -3470.56836 143.85657 443
2347.20264 -3350.46826 81.30170 414
2406.30933 -3443.98462 144.50742 444
2378.49854 -3353.20776 80.64494 402
2418.81519 -3417.48413 145.25555 443
2410.75928 -3357.19922 80.67874 394
2432.41626 -3391.16211 145.24832 443
2443.90479 -3363.94434 79.25945 396
2447.28809 -3368.88818 145.02510 483
2479.15723 -3371.97485 79.10303 385
2472.22046 -3361.63208 145.45670 415
2520.05054 -3387.12305 77.70396 357
2509.88281 -3371.32739 144.71048 405
2565.47632 -3407.98145 76.48064 354
2550.99658 -3386.79614 143.99098 370
21336.91602 -30601.40820 1387.76331 1000
2612.29150 -3430.32251 74.25387 359
2596.57959 -3409.00415 143.02101 368
2659.07983 -3451.65283 72.53505 369
2772.84766 -3613.62134 138.40520 257
2705.63599 -3473.85791 71.47449 367
2700.38770 -3465.59033 141.20554 273
2754.55713 -3496.05591 70.33443 366
2746.34204 -3483.01587 140.87704 313
2805.54639 -3519.22217 67.95131 360
2794.20752 -3505.24927 140.35463 350
2859.50171 -3546.32471 67.23103 359
2845.61133 -3528.41431 140.13412 349
1878.67358 -1991.99402 86.61484 430
1887.43152 -1978.42139 86.52342 495
1890.85913 -1981.87683 128.72614 469
50238.19141 -40768.82031 -1941.04700 1000
2981.59717 -2117.87085 100.64133 498
2985.78149 -2120.48853 156.94873 498
362.12451 -110.76667 167.60640 313
362.82596 -109.83564 167.57626 315
363.52734 -108.92606 167.61842 315
364.21014 -108.00127 167.61420 315
364.88397 -107.11488 167.62262 315
365.58423 -106.17802 167.62810 315
366.23019 -105.26199 167.62595 315
366.92340 -104.33867 167.64323 315
367.62613 -103.38116 167.63573 315
368.28769 -102.43542 167.61501 315
368.88962 -101.50249 167.62767 315
3850.03979 -2378.49219 143.03995 376
369.57297 -100.56561 167.62555 315
3845.08423 -2343.50464 143.68156 486
370.21243 -99.62645 167.66261 315
3930.59058 -2367.19360 70.88526 370
3851.24121 -2316.91919 144.45670 484
371.03131 -98.74827 167.60754 438
3925.69922 -2332.29297 70.61279 410
3859.00830 -2289.39404 144.67604 488
372.42651 -98.25798 167.32285 437
3926.00317 -2300.63745 71.42534 419
3865.75513 -2263.60474 143.82346 488
373.85666 -97.81709 167.11797 436
382.94034 -103.35835 167.65482 309
3929.80200 -2271.22290 72.45478 418
3875.85107 -2238.53467 144.08961 473
375.27490 -97.32649 166.83147 435
383.55890 -102.29375 167.67966 309
3934.93042 -2243.48560 71.90330 432
3884.99072 -2213.66113 144.04362 438
376.71039 -96.77585 166.59845 434
384.22681 -101.24674 167.68980 309
3941.23901 -2215.21533 73.20464 433
3895.57935 -2188.89819 144.16289 443
378.15991 -96.29341 166.36493 433
384.84201 -100.21053 167.70743 309
3948.02417 -2189.14282 72.91114 434
3906.91309 -2165.03613 145.05711 445
379.63977 -95.81247 166.09894 432
385.47690 -99.17281 167.72008 309
3933.47168 -2149.21265 74.55135 303
3918.68042 -2141.65674 144.88020 420
3970.29248 -2170.72974 285.62033 334
381.13995 -95.27820 165.81848 431
386.09683 -98.07676 167.71437 309
3934.87012 -2120.38525 74.43130 371
3930.67896 -2118.39429 144.30954 421
3933.98975 -2119.91455 284.53839 415
382.65005 -94.78120 165.53157 430
386.67044 -97.02083 167.72810 311
3940.92456 -2092.62622 75.56947 373
3944.10254 -2095.21948 145.04219 367
4017.40283 -2136.58130 215.26682 330
3940.63892 -2093.03052 284.70804 482
384.15427 -94.21336 165.26100 429
387.32629 -95.98908 167.72783 311
3948.78223 -2068.19775 75.70978 373
3958.79785 -2073.40796 144.96837 367
3972.01904 -2081.00269 214.93336 332
3954.98633 -2071.67773 284.99063 481
385.65607 -93.69314 165.01848 428
387.89413 -94.93344 167.72331 311
3959.07812 -2043.98853 74.97823 434
3972.03418 -2051.05176 145.30643 367
3984.96021 -2056.94312 214.45049 499
3969.10181 -2049.08032 284.62195 481
387.14590 -93.09268 164.73586 317
388.53445 -93.84787 167.70555 311
3970.53760 -2019.33203 76.04120 435
3986.80566 -2028.07520 144.52946 367
3998.24292 -2035.11414 214.74861 499
3983.56787 -2027.47388 284.93777 481
387.74170 -92.08617 164.73227 317
389.13779 -92.78197 167.72453 311
3981.70288 -1996.18127 75.20284 434
4007.89771 -2009.40710 145.34616 265
4011.83838 -2012.15015 214.70020 497
3998.15186 -2005.08813 284.71304 481
388.33679 -91.03851 164.74368 317
390.40536 -92.06496 167.52058 426
3994.49072 -1972.48926 75.65512 435
4029.65967 -1990.86682 145.23389 265
4021.88843 -1987.02893 214.80539 499
4011.72021 -1982.88147 285.18155 481
4030.29370 -1991.85901 356.16803 488
4028.07178 -1991.33691 426.19482 488
388.99103 -89.97189 164.75168 317
391.97592 -91.55013 167.28838 425
4007.47290 -1950.51440 75.07103 435
4043.60449 -1968.89868 144.89241 498
4036.81201 -1965.70349 214.83528 498
4026.83960 -1960.12012 285.48761 480
389.60815 -88.93371 164.72636 317
393.62802 -90.96222 166.97406 424
4021.00464 -1927.77771 75.54562 435
4057.47192 -1946.54272 144.57256 498
4051.19336 -1943.26172 215.66554 498
4041.08716 -1938.79614 285.30124 480
390.18469 -87.85144 164.69876 317
395.25339 -90.42849 166.69582 423
404.45370 -94.97868 167.73009 305
4036.04492 -1905.98279 75.41008 435
4072.67432 -1923.89478 144.97292 498
4070.91577 -1924.06750 215.34993 498
4055.48901 -1915.37671 285.28235 480
390.76697 -86.82959 164.74350 317
396.90808 -89.80836 166.38589 422
405.06155 -93.80911 167.73055 305
4050.44800 -1883.81738 76.07441 435
4087.21313 -1902.25037 145.05789 498
4085.51538 -1901.75269 214.71883 498
4069.62012 -1893.14502 285.64563 480
391.38934 -85.74651 164.70432 317
398.58493 -89.23788 166.06502 421
405.62866 -92.62218 167.74083 305
4064.61475 -1861.89087 75.52824 434
4101.98486 -1879.33582 144.52385 497
4099.60059 -1878.84216 215.67101 497
4084.34253 -1870.96497 285.08862 480
391.92465 -84.67200 164.71254 317
400.26395 -88.65371 165.80026 420
406.18069 -91.44240 167.75069 305
4079.05566 -1839.83496 75.69461 434
4115.14062 -1856.29004 145.23073 265
4114.79883 -1856.79114 214.88640 497
4098.67090 -1848.72021 285.73541 480
4200.15186 -1897.92334 359.78027 468
392.50137 -83.60204 164.72351 317
401.99527 -88.04115 165.44858 419
406.74185 -90.28455 167.74081 305
4093.62915 -1816.69543 75.03206 434
4128.50488 -1833.63843 144.22272 265
4129.01123 -1833.83716 215.58621 497
4113.52100 -1827.07654 285.69250 479
4211.75879 -1872.33728 359.45636 462
393.07922 -82.55784 164.68500 317
403.70901 -87.44901 165.16394 417
407.30911 -89.12623 167.75575 305
4108.38281 -1795.32385 75.59109 434
4140.92383 -1809.52002 145.09749 263
4128.40869 -1804.73047 285.58548 467
393.62665 -81.45134 164.67017 317
405.48337 -86.81313 164.79581 313
407.85226 -87.93232 167.77390 305
4123.22021 -1772.88135 75.40351 434
4153.55762 -1785.75696 144.51636 263
4278.13770 -1842.80420 361.79532 448
370.94193 -70.00385 171.51669 316
406.03143 -85.64930 164.79840 313
408.37622 -86.73849 167.82507 305
46830.00000 -20779.74023 -9948.41211 1000
4138.34473 -1750.06567 75.44210 434
4165.86523 -1762.70898 144.78093 263
4293.17725 -1820.40857 361.09961 425
371.38147 -69.09455 171.51546 316
406.61072 -84.51746 164.84224 313
408.93332 -85.56799 167.80119 305
4152.50732 -1728.48779 74.36617 433
371.81995 -68.12419 171.54449 316
407.18408 -83.37596 164.81297 312
410.29086 -84.69334 167.58516 434
4167.08887 -1704.80066 74.26633 438
372.28510 -67.14210 171.54028 316
407.72644 -82.18447 164.80470 312
411.84470 -83.94705 167.33934 433
4181.82129 -1682.99255 74.69360 438
372.73831 -66.20959 171.53673 316
408.27829 -81.05645 164.81863 312
413.41171 -83.16236 167.06741 432
4196.44141 -1660.22131 73.97238 437
4466.86719 -1773.27722 139.92085 495
226.45117 -5.29140 217.42778 1000
373.13943 -65.24878 171.54488 316
408.85159 -79.86703 164.78775 312
415.02414 -82.36521 166.80511 431
4211.85986 -1638.33398 74.20345 437
4330.91797 -1686.15125 143.34894 406
373.57605 -64.26453 171.53494 316
409.37872 -78.71652 164.78278 312
416.62869 -81.62294 166.54420 430
4226.11768 -1615.50903 74.21571 437
4247.50977 -1623.68530 144.75856 318
374.01630 -63.30849 171.55190 316
409.89972 -77.47929 164.79933 312
418.30447 -80.80773 166.27379 429
427.72498 -84.54433 167.82468 301
4240.85547 -1592.79932 74.46339 437
4262.67529 -1600.80566 144.75140 314
374.39755 -62.33166 171.56982 316
410.40683 -76.34859 164.78421 312
419.91315 -79.99820 166.02078 428
428.24896 -83.26208 167.77763 301
4255.91943 -1570.14429 73.74159 436
4276.96729 -1578.07593 144.12669 314
374.83136 -61.37605 171.56375 316
410.97366 -75.13164 164.78134 312
421.61127 -79.20074 165.75041 427
428.72849 -81.94456 167.81793 301
4270.62500 -1547.07495 73.66559 436
4291.90869 -1554.28406 144.09814 314
375.20480 -60.38192 171.55618 316
411.45554 -73.97529 164.79832 312
423.27002 -78.35200 165.42194 426
429.26523 -80.60522 167.85011 301
4286.20605 -1524.09009 73.45148 436
4305.67480 -1531.61072 143.89520 314
375.58456 -59.43979 171.58305 316
411.96442 -72.80294 164.79242 312
424.99994 -77.57424 165.11870 425
429.74606 -79.31698 167.82410 301
4387.33057 -1533.27930 143.43736 498
376.01199 -58.44296 171.55421 316
386.61725 -62.30875 171.66904 313
426.52313 -76.64233 164.91194 308
430.18719 -77.99760 167.81607 301
4393.19092 -1506.23743 142.86253 498
4503.78125 -1545.97400 216.38031 272
376.37213 -57.49063 171.58919 316
387.02628 -61.26750 171.66348 313
427.03452 -75.36709 164.86990 308
430.68655 -76.64797 167.87640 301
4407.22852 -1481.92798 143.27438 473
376.75946 -56.49976 171.58702 316
387.42645 -60.17924 171.68385 313
427.56378 -74.11214 164.85431 308
431.12857 -75.32802 167.83601 301
377.13989 -55.53565 171.58321 316
387.82626 -59.16302 171.70235 313
428.06677 -72.82718 164.84616 308
431.97705 -74.14010 167.77840 422
377.48099 -54.52796 171.56502 316
388.19965 -58.08966 171.69566 313
428.57452 -71.51308 164.84598 308
433.82224 -73.27347 167.46016 420
377.84671 -53.56073 171.58673 316
388.56073 -57.05992 171.67461 313
429.04938 -70.20100 164.86310 308
435.58975 -72.38998 167.19939 419
378.21957 -52.55212 171.59631 316
388.94800 -56.01370 171.67310 313
429.52313 -68.91970 164.88867 308
437.49948 -71.50271 166.86081 418
264.91705 -16.11419 203.50009 293
389.33746 -54.92487 171.67200 313
430.01547 -67.62588 164.86243 308
439.33398 -70.53300 166.55945 432
265.03140 -15.80795 203.50888 314
389.68787 -53.89516 171.68517 313
430.46274 -66.36683 164.89119 308
441.01736 -69.58251 166.30550 431
265.15726 -15.52262 203.49883 314
390.06613 -52.80975 171.69380 313
430.90170 -64.99344 164.84563 308
442.67664 -68.52317 166.01779 430
453.00888 -71.65424 167.86153 297
265.28702 -15.22589 203.50502 314
390.40115 -51.77970 171.72711 313
402.67416 -55.34609 171.84705 309
444.41119 -67.52481 165.71149 429
453.42596 -70.18681 167.91377 297
265.42526 -14.93746 203.50842 314
390.74509 -50.70842 171.71419 313
403.05661 -54.23909 171.81674 309
446.07831 -66.45764 165.44675 428
453.81555 -68.69085 167.89723 297
265.54703 -14.64215 203.50327 314
391.06317 -49.61108 171.70010 313
403.40628 -53.05106 171.82719 309
447.86673 -65.44756 165.19920 427
454.23880 -67.27867 167.91417 297
265.67535 -14.35334 203.49977 314
391.38025 -48.56489 171.70253 313
403.76535 -51.92711 171.81343 309
449.18491 -64.28708 164.93500 303
454.66779 -65.76933 167.92703 297
265.80106 -14.05981 203.50653 314
391.73135 -47.50385 171.69188 313
404.10410 -50.81404 171.82353 309
449.61325 -62.89234 164.99507 303
455.05023 -64.30769 167.91057 297
265.91476 -13.76078 203.49913 314
392.03015 -46.43423 171.71893 313
404.43021 -49.64110 171.81645 309
450.05930 -61.44445 164.93242 303
455.42010 -62.83531 167.92316 298
48633.82031 -12552.48047 214.90471 1000
266.03400 -13.47889 203.50610 314
392.35794 -45.34676 171.74147 313
404.75073 -48.46088 171.86800 309
450.41522 -60.01607 164.93954 303
455.73135 -61.36966 167.92569 298
266.15210 -13.18205 203.50078 314
392.65054 -44.27203 171.69975 313
405.08829 -47.31470 171.84669 309
450.83981 -58.56459 164.96146 303
456.85281 -60.05484 167.80339 422
266.26474 -12.87776 203.50972 314
392.98349 -43.21878 171.75113 313
405.40530 -46.18057 171.83018 309
451.25043 -57.15781 164.96973 303
458.68753 -58.94146 167.50444 421
266.37625 -12.59008 203.50653 314
393.24228 -42.10579 171.73602 313
405.73111 -45.02452 171.86224 309
451.60516 -55.76126 164.98883 303
460.57742 -57.84486 167.21408 420
266.49670 -12.29649 203.50139 314
393.55353 -41.04501 171.74368 313
406.01086 -43.91240 171.87080 309
451.97800 -54.28892 164.98381 303
462.40488 -56.66223 166.95380 452
266.61087 -11.99941 203.50514 314
393.82132 -39.97881 171.74266 313
406.31293 -42.72961 171.84625 309
452.41345 -52.85812 164.96323 303
463.75052 -55.39588 166.74628 452
266.71185 -11.70748 203.50574 314
394.08395 -38.88900 171.73309 313
406.59122 -41.57376 171.87407 309
420.90106 -44.62672 171.97473 305
465.18698 -54.05728 166.54584 451
266.82187 -11.41300 203.49774 314
394.36401 -37.81366 171.74255 313
406.87289 -40.43028 171.86745 309
421.22449 -43.36963 172.02084 305
466.59000 -52.80992 166.27696 450
266.92508 -11.11163 203.50162 314
394.63199 -36.74199 171.74530 313
407.18259 -39.23995 171.86694 309
421.51523 -42.12467 172.00525 305
467.96323 -51.44676 166.10672 449
267.03375 -10.80691 203.50012 314
394.85696 -35.66233 171.75304 313
407.44223 -38.10696 171.88817 309
421.79395 -40.87583 172.02618 305
469.36203 -50.16959 165.85181 448
267.12646 -10.51423 203.49785 314
395.14667 -34.56014 171.75508 313
407.66467 -36.94958 171.88736 309
422.08136 -39.63969 171.99074 305
470.80334 -48.82934 165.63319 447
267.22937 -10.21023 203.49922 314
395.36874 -33.46366 171.75948 313
407.93341 -35.74767 171.84262 309
422.31799 -38.35977 172.02913 305
472.23270 -47.47816 165.41626 446
481.89618 -49.23153 168.05594 293
3371.18750 -574.61432 111.85841 401
267.33112 -9.91448 203.50095 314
395.60428 -32.40319 171.76622 313
408.20291 -34.59926 171.85938 309
422.60608 -37.15849 172.00830 305
473.72171 -46.07863 165.24513 445
482.16135 -47.59817 168.04710 293
3373.65112 -555.17303 112.36878 443
267.41891 -9.61106 203.50154 314
395.83621 -31.30301 171.74080 313
408.41440 -33.44171 171.86012 309
422.83585 -35.86106 172.00603 305
474.60480 -44.60078 165.09270 300
482.41077 -45.94006 168.05968 293
267.51755 -9.32421 203.50237 314
396.06906 -30.21170 171.77713 313
408.65503 -32.28901 171.86534 309
423.07565 -34.61381 172.03816 305
474.93188 -43.09995 165.10492 300
482.70914 -44.31985 168.06015 293
12029.88281 -1924.36890 -566.84851 1000
267.60117 -9.01846 203.50554 314
396.24692 -29.10638 171.75743 313
408.88278 -31.11490 171.89468 309
423.34192 -33.37489 172.02670 305
475.24951 -41.47198 165.12193 300
482.92383 -42.70485 168.07072 293
267.69931 -8.72470 203.49913 314
396.45032 -28.03101 171.75323 313
409.11041 -29.96868 171.86766 309
423.58325 -32.11338 172.02480 305
475.48999 -39.88539 165.09476 300
483.11655 -41.02836 168.05569 293
267.78635 -8.41747 203.51010 314
396.65762 -26.91717 171.77187 313
409.30951 -28.73960 171.85603 309
423.78293 -30.86703 172.00627 305
475.74631 -38.30019 165.10831 300
483.32239 -39.43658 168.12770 293
267.87262 -8.11520 203.50262 314
396.85632 -25.86051 171.76776 313
409.51279 -27.60493 171.86688 309
424.03036 -29.58266 172.01065 305
440.77658 -31.87883 172.18835 301
483.49768 -37.80140 168.12794 294
267.95480 -7.81327 203.50508 314
397.05075 -24.77556 171.75299 313
409.68802 -26.43446 171.86255 309
424.22543 -28.31460 172.03279 305
441.00229 -30.51755 172.19908 301
483.87271 -36.13921 168.08002 459
268.03754 -7.52020 203.50049 314
397.20856 -23.64781 171.74432 313
409.89511 -25.22713 171.86082 309
424.44315 -27.08893 172.05472 305
441.19366 -29.15830 172.20421 301
485.11612 -34.70399 167.92953 458
268.12576 -7.22297 203.50293 314
397.39899 -22.54803 171.76505 313
410.09122 -24.06353 171.89497 309
424.59180 -25.81190 172.04256 305
441.41544 -27.79748 172.20293 301
486.35803 -33.16151 167.76826 458
268.19952 -6.91277 203.50961 314
271.65213 -7.30764 203.49402 282
410.28949 -22.93450 171.87274 309
424.77841 -24.54870 172.02512 305
441.59085 -26.44024 172.18701 301
487.54398 -31.63626 167.59303 457
268.28003 -6.61523 203.50078 314
271.67566 -6.97136 203.50598 310
410.43469 -21.70129 171.90941 309
425.00540 -23.27827 172.04289 305
441.79251 -25.03777 172.22342 301
488.83289 -30.03454 167.40822 456
268.35104 -6.31459 203.50873 314
271.75562 -6.65407 203.49969 310
410.62674 -20.54900 171.90163 309
425.14877 -22.00479 172.02390 305
441.98178 -23.72969 172.18617 301
490.08655 -28.51324 167.18239 455
268.43079 -6.01537 203.50406 314
271.83408 -6.32694 203.50127 310
410.76379 -19.37593 171.90326 309
425.36057 -20.73243 172.03397 305
442.17886 -22.32118 172.21722 301
491.39410 -26.99395 166.98021 454
268.50800 -5.70491 203.50110 314
271.89932 -6.00755 203.50488 310
410.90735 -18.17687 171.87065 309
425.49326 -19.50953 172.02458 305
442.35895 -20.97681 172.19182 301
492.64624 -25.37104 166.79575 453
268.56888 -5.40269 203.50452 314
271.97107 -5.67658 203.50656 310
411.05261 -17.04556 171.90648 309
425.62689 -18.23972 172.04230 305
442.45560 -19.59975 172.19106 301
493.92950 -23.76152 166.61000 453
268.63260 -5.10472 203.49916 314
272.04626 -5.36502 203.49785 310
411.19778 -15.82002 171.87753 309
425.79736 -16.96021 172.03613 305
442.63828 -18.22905 172.22949 301
495.25104 -22.21237 166.36389 452
268.70383 -4.79400 203.50032 314
272.11752 -5.03818 203.50145 310
411.32254 -14.65833 171.92079 309
425.92737 -15.70189 172.03865 305
442.75931 -16.85447 172.18843 301
496.53741 -20.53225 166.19377 451
268.76749 -4.50071 203.49904 314
272.16953 -4.71203 203.50212 310
411.41849 -13.49443 171.92232 309
426.03748 -14.38577 172.06059 305
442.89157 -15.46657 172.17923 301
462.65735 -16.70018 172.37407 297
268.82977 -4.19064 203.50533 314
272.23999 -4.38865 203.50063 310
411.56152 -12.31615 171.92192 309
426.16803 -13.14724 172.03958 305
443.02194 -14.08713 172.22778 301
462.79871 -15.22135 172.41475 297
268.88889 -3.89050 203.50595 314
272.30515 -4.06655 203.50928 310
411.66873 -11.12581 171.92174 309
426.29507 -11.87163 172.03418 305
443.17014 -12.74831 172.19450 301
462.95135 -13.72127 172.38834 297
268.95264 -3.59324 203.50185 314
272.36111 -3.74694 203.50165 310
411.73682 -9.95591 171.90309 309
426.38336 -10.60795 172.04356 305
443.27017 -11.33416 172.18161 301
463.07294 -12.22478 172.40587 297
269.00717 -3.28454 203.50264 314
272.42267 -3.42659 203.50893 310
411.89224 -8.75878 171.88396 309
426.48169 -9.31500 172.06525 305
443.39365 -9.98667 172.17657 301
463.14877 -10.76738 172.41016 297
269.06412 -2.98915 203.50529 314
272.47281 -3.08907 203.50504 310
411.96619 -7.59476 171.87738 309
426.54926 -8.05684 172.04999 305
443.49048 -8.59963 172.21391 301
463.24554 -9.22680 172.38475 297
2683.25635 -80.96437 95.84731 350
269.11475 -2.68340 203.50345 314
272.53680 -2.76750 203.50188 310
412.00015 -6.40294 171.90631 309
426.63754 -6.80333 172.02138 305
443.56268 -7.21008 172.22054 301
463.33655 -7.72420 172.38162 297
2646.76318 -64.94837 97.92348 349
2636.94897 -64.50719 138.01363 361
269.16919 -2.37750 203.50388 314
272.57361 -2.44723 203.50536 310
412.10400 -5.24025 171.88300 309
426.74924 -5.52835 172.02490 305
443.64575 -5.88121 172.19145 301
463.39545 -6.24451 172.42632 297
2619.16089 -49.65699 99.37580 352
2608.23462 -49.40611 139.18456 362
269.21848 -2.07845 203.49942 314
272.63306 -2.11713 203.50993 310
412.15280 -4.04730 171.92761 309
426.79211 -4.24604 172.07372 305
443.70450 -4.48250 172.24002 301
463.48178 -4.73307 172.40266 297
2589.65918 -34.41161 100.77204 350
2580.35352 -34.41632 139.71141 363
269.26611 -1.77332 203.50867 314
272.67841 -1.80281 203.49927 310
412.21436 -2.84898 171.92961 309
426.82449 -2.96633 172.03777 305
443.77179 -3.10310 172.21375 301
452.19452 -3.18184 174.49199 423
2560.10767 -19.21255 101.81821 352
2552.18384 -19.46362 141.06860 364
269.30786 -1.46970 203.51013 314
272.73026 -1.47326 203.50873 310
412.24847 -1.68823 171.92538 309
426.88306 -1.72267 172.04245 305
443.84189 -1.75562 172.20306 301
452.19189 -1.73642 174.50073 424
513.37585 -1.87463 168.28877 288
2531.05029 -5.29727 103.63023 353
2526.55078 -5.19715 141.66039 366
269.35803 -1.16585 203.50949 314
272.76352 -1.15164 203.50581 310
412.32034 -0.49219 171.91977 309
426.95526 -0.43955 172.06306 305
443.84427 -0.33976 172.20403 301
463.67053 -0.24011 172.37193 297
513.43384 -0.08217 168.33363 288
2503.73560 9.09064 104.85474 354
2500.97607 8.67258 142.27234 357
269.39255 -0.86065 203.50253 314
272.81094 -0.83184 203.51016 310
412.35580 0.66867 171.88950 309
427.00977 0.85406 172.01901 305
443.92383 1.03288 172.22290 301
451.98196 1.08860 174.50168 426
2476.15381 22.81290 106.39251 356
2476.27710 22.36620 143.28362 358
269.43393 -0.55239 203.49902 314
272.84457 -0.50541 203.50732 310
412.37729 1.86673 171.90323 309
427.01608 2.12672 172.05136 305
443.94278 2.39879 172.23164 301
463.74500 2.72225 172.38364 297
2449.55176 36.10847 107.77365 357
2451.95117 35.73212 144.32011 359
269.46982 -0.25678 203.50888 314
272.89008 -0.17485 203.49693 310
412.38736 3.05154 171.89737 309
427.01328 3.36469 172.05966 305
443.95193 3.79595 172.23880 301
463.75467 4.25573 172.41861 297
2424.21460 49.32571 109.14286 354
2428.63403 49.34350 144.56804 323
269.51169 0.04466 203.50211 314
272.93039 0.14396 203.50206 310
412.43298 4.20440 171.89108 309
427.02930 4.64656 172.05049 305
443.93906 5.12603 172.22556 301
463.78030 5.69391 172.39253 297
2398.88062 62.02300 110.12443 347
2398.61816 61.88668 145.95084 373
269.53857 0.35099 203.50880 314
272.95239 0.46733 203.50526 310
412.41202 5.41111 171.89180 309
427.05209 5.90149 172.06299 305
443.97815 6.50358 172.21149 301
463.79871 7.22448 172.39865 297
2372.80103 74.47711 111.51073 348
2375.37280 74.56905 146.22943 375
269.57568 0.64955 203.50116 314
273.01862 0.79906 203.49287 281
412.44281 6.59445 171.89832 309
427.04172 7.18329 172.06915 305
443.94867 7.87370 172.18375 301
463.75562 8.67929 172.37738 297
2347.52344 86.74678 112.49986 347
2352.77734 87.15342 147.22612 374
269.60941 0.96034 203.49907 314
273.12103 1.11890 203.47955 281
412.43326 7.77787 171.90388 309
427.05573 8.48529 172.01753 305
443.94913 9.28902 172.23085 301
463.74890 10.19986 172.43257 297
2323.96631 98.60149 113.80495 385
2330.36084 99.18752 148.12830 386
269.63776 1.25934 203.50363 314
399.67902 8.26825 171.78375 313
412.45261 8.95706 171.90741 309
427.05356 9.74927 172.03436 305
443.91162 10.63202 172.20177 301
463.71747 11.68219 172.36697 297
2351.45239 113.10870 77.44292 353
2304.15015 110.66000 114.57811 340
2311.39868 111.15604 148.28902 408
2316.86304 111.24425 182.80975 402
269.66501 1.56270 203.50394 314
399.65088 9.34688 171.76436 313
412.41122 10.12353 171.87575 309
427.02396 11.02093 172.02005 305
443.88550 11.99658 172.21088 301
463.69608 13.17078 172.37117 297
2331.05273 125.18986 78.65155 346
2287.34302 122.49518 115.44594 414
2296.10449 122.67454 149.18245 420
2301.41870 123.43276 182.78790 413
269.68927 1.86098 203.50839 314
399.63651 10.48233 171.77556 313
412.40186 11.30775 171.88394 309
427.00888 12.29101 172.01711 305
443.86145 13.38640 172.23746 301
463.60684 14.70772 172.40012 297
2311.01074 136.49673 79.78093 352
2272.63428 133.98500 115.99630 421
2282.38647 134.84950 149.27686 421
2291.43652 135.33876 183.46347 488
269.71878 2.16589 203.50720 314
399.58560 11.59648 171.75330 313
412.36151 12.48523 171.88760 309
426.93454 13.52634 172.03371 305
443.83105 14.79284 172.18018 301
497.12045 18.61712 166.30969 483
2295.24927 148.37471 80.79805 371
2259.07495 146.17337 116.74759 428
2270.64746 146.90912 149.69057 423
2288.13867 147.57033 183.40410 488
269.73532 2.46718 203.50308 314
399.53928 12.67534 171.78694 313
412.33838 13.68327 171.88011 309
426.90515 14.79671 172.01320 305
443.75955 16.11224 172.20671 301
496.23416 20.24841 166.44832 452
2281.75586 160.25899 81.41746 378
2246.52710 157.34631 117.38543 433
2261.17651 158.56371 150.28737 395
2285.17725 160.48277 183.16209 447
269.76172 2.77210 203.50670 314
399.48886 13.76378 171.77086 313
412.26047 14.83091 171.89558 309
426.85104 16.08935 172.02588 305
443.72006 17.53555 172.21733 301
495.00058 21.84247 166.68427 453
2268.66650 171.97096 82.73511 388
2234.46313 168.69710 117.65059 444
2258.63306 171.04765 150.33435 301
2292.47437 173.81641 183.29497 444
269.76935 3.06750 203.50693 314
399.45764 14.86258 171.75417 313
412.19254 16.05521 171.91234 309
426.77640 17.35266 172.05867 305
443.65839 18.89902 172.18634 301
493.72650 23.45317 166.83226 454
2256.38989 183.16255 83.19627 389
2223.41040 180.49483 118.50410 397
2263.82983 184.02905 150.16455 302
2298.89868 187.34306 182.98082 443
269.78528 3.37655 203.50816 314
399.38284 15.95491 171.74907 313
412.16653 17.22270 171.89229 309
426.72375 18.60492 172.01004 305
443.58908 20.22757 172.18369 301
492.42447 24.98825 167.08861 455
2245.05103 195.22507 83.86425 391
2213.25659 191.86749 118.74264 401
2266.70117 197.19379 150.18080 320
2305.41821 201.02589 183.17747 442
269.80487 3.67997 203.50197 314
399.36136 17.07211 171.75676 313
412.06461 18.39571 171.90369 309
426.67480 19.87750 172.06454 305
443.48444 21.60566 172.20172 301
491.14505 26.53439 167.31845 456
2234.08276 206.48013 84.39384 392
2203.89722 203.05980 119.04865 402
2283.14771 211.27017 149.07516 390
2312.36450 214.26860 182.80524 388
269.81555 3.97321 203.49768 314
399.28680 18.14663 171.77553 313
411.98035 19.56256 171.88939 309
426.58356 21.13981 172.01521 305
443.36154 22.98525 172.20999 301
489.90546 28.09620 167.52538 456
2223.24292 217.70160 85.28962 398
2194.55029 214.68611 119.73795 409
2300.30786 226.49323 148.72939 389
2319.04419 228.53238 182.94385 441
269.82361 4.27434 203.50253 314
399.20905 19.23532 171.77217 313
411.94144 20.72842 171.87386 309
426.45923 22.39493 172.04486 305
443.30563 24.38331 172.18343 301
488.69455 29.57188 167.67958 457
2213.47803 228.74445 85.80978 398
2185.94165 225.95921 120.16164 463
2475.29785 259.52948 142.70061 403
2325.97583 241.95703 182.81644 440
269.82736 4.58157 203.50644 314
399.12860 20.37573 171.77576 313
411.80814 21.89222 171.90317 309
426.35983 23.69398 172.04225 305
443.18372 25.71316 172.21349 301
487.45782 31.10229 167.85403 458
2204.23364 240.56731 86.08930 410
2177.99487 237.05838 120.46677 469
2482.65942 274.45056 142.64369 492
2333.14697 255.66891 182.33441 439
269.83911 4.88117 203.50475 314
399.03323 21.43964 171.76558 312
411.75919 23.07975 171.89992 309
426.24500 24.92014 172.05811 305
443.10065 27.09378 172.18326 301
486.22052 32.66648 168.07109 459
2195.21289 251.57771 86.60439 410
2170.16992 248.45769 120.44023 469
2360.06006 272.77286 146.45081 381
2340.08423 269.73233 182.44992 438
269.84415 5.18471 203.50531 314
398.95520 22.52874 171.75749 312
411.65207 24.23120 171.87390 309
426.13049 26.21366 172.00441 305
442.94339 28.45997 172.21277 301
485.77820 34.21800 168.13141 294
2187.53662 262.95496 87.17760 417
2162.30371 259.13794 120.89865 470
2337.10767 282.78403 147.34543 382
2347.10913 284.08072 182.38260 438
269.85406 5.48343 203.50482 314
398.84033 23.66223 171.74663 312
411.51886 25.44516 171.89629 309
426.03705 27.48681 172.05414 305
442.81137 29.82393 172.18436 301
485.67529 35.83613 168.14642 294
2179.73218 273.80496 87.60487 418
2154.37451 270.44992 121.47264 471
2328.45996 294.57840 147.66696 491
2353.86768 298.70749 181.70715 437
269.84579 5.78720 203.50237 314
398.73444 24.74619 171.77673 312
411.41940 26.56848 171.86676 309
425.88492 28.71679 172.00333 305
477.98492 36.37880 165.11688 300
485.58429 37.53951 168.13480 293
2171.70264 285.08527 87.94006 424
2146.45776 281.44025 121.83874 471
2330.00269 308.27875 147.61150 491
2361.42261 312.78772 181.87007 436
269.84586 6.08783 203.50824 314
398.60315 25.81334 171.74529 312
411.28958 27.74355 171.91304 309
425.75916 30.01617 172.02881 305
477.77219 37.95873 165.07970 300
485.52011 39.17022 168.11116 293
2163.50562 296.27765 88.65963 424
2139.30396 292.11234 121.99301 475
2331.80542 321.91617 147.40654 461
2368.63428 327.44427 181.51575 436
269.84561 6.37742 203.50188 314
398.51254 26.93363 171.75578 312
411.14462 28.91862 171.90424 309
425.62198 31.24962 172.01213 305
477.59689 39.53747 165.13605 300
485.41000 40.77987 168.04131 293
2154.95337 307.11304 88.74639 424
2132.00586 303.43024 122.36258 476
2332.84863 335.37155 147.46397 486
269.83682 6.68044 203.50479 314
398.39688 27.99453 171.75406 312
411.02359 30.11025 171.88254 309
425.50235 32.50927 172.04715 305
477.40076 41.08053 165.08002 300
485.27255 42.43344 168.01593 293
2158.23755 319.60031 88.48533 274
2125.02954 314.46899 122.62259 481
2314.27759 345.49692 147.76389 343
269.83249 6.97851 203.50821 314
398.24564 29.09458 171.75023 312
410.86404 31.24940 171.88385 309
425.32242 33.75986 172.00995 305
476.73929 42.60533 165.21788 445
485.09616 44.04202 168.02110 293
2178.69067 335.40723 86.88021 274
2118.65991 325.29492 122.71323 482
2277.43652 352.42984 149.04088 305
269.82980 7.27505 203.50383 314
398.10532 30.19288 171.75018 312
410.74606 32.41780 171.88776 309
425.15005 35.01131 172.01140 305
475.34851 43.94386 165.45605 446
484.92319 45.67271 168.04573 293
2199.47314 351.71378 85.77071 274
2111.93823 335.86765 122.71673 484
2236.39014 358.08737 150.32098 290
269.81876 7.56887 203.50258 314
397.94431 31.27095 171.76445 312
410.59384 33.60075 171.87646 309
424.99329 36.26372 172.00897 305
473.92114 45.31309 165.69930 447
2106.24976 346.87518 122.99812 485
2164.59351 357.69543 152.52795 267
269.80048 7.86941 203.50607 314
397.83325 32.34129 171.77242 312
410.38660 34.74335 171.85828 308
424.80893 37.53677 172.01735 305
472.50171 46.65043 165.87029 448
2099.86816 357.76266 123.34927 485
269.79419 8.16287 203.50221 314
397.66650 33.46066 171.72975 312
410.26239 35.94131 171.86943 308
424.61273 38.76122 171.99625 305
471.04150 47.96455 166.14798 449
2093.95142 368.58408 123.64848 486
269.77057 8.46439 203.49918 314
397.49225 34.50338 171.72563 312
410.08157 37.09266 171.85172 308
424.43994 40.01761 172.00304 305
469.67026 49.21140 166.34578 450
269.75775 8.76614 203.49872 314
397.31345 35.62585 171.76219 312
409.86276 38.24356 171.88165 308
424.19400 41.27318 172.00545 305
468.32837 50.55285 166.59389 450
269.73767 9.06174 203.49944 314
397.15009 36.70774 171.74638 312
409.68588 39.38756 171.87805 308
455.92770 49.47406 164.95013 303
466.92023 51.82072 166.80887 451
269.71664 9.35787 203.50412 314
396.97617 37.78664 171.73471 312
409.50439 40.57821 171.87361 308
455.65433 50.86007 164.95399 303
465.55740 53.09841 167.04187 452
269.69681 9.64632 203.50252 314
396.75296 38.86388 171.73935 312
409.24615 41.70334 171.87534 308
455.39557 52.30233 164.96013 303
464.19748 54.32121 167.26212 453
269.67056 9.95143 203.50343 314
396.59836 39.94002 171.75354 312
409.04730 42.87812 171.87836 308
455.15076 53.76693 164.94099 303
462.85547 55.57970 167.47214 454
269.64990 10.23930 203.50766 314
396.38092 40.99966 171.73225 312
408.85379 44.01728 171.83360 308
454.84045 55.21602 164.94557 303
461.29816 56.73447 167.70099 422
269.61987 10.53867 203.50252 314
396.13821 42.08400 171.75423 312
408.60541 45.18419 171.83546 308
454.52985 56.60519 164.97673 303
459.89178 57.94904 167.94038 297
269.59515 10.82514 203.50970 314
395.91696 43.14938 171.73605 312
408.37003 46.33358 171.82732 308
454.23376 58.06491 164.93845 303
459.60556 59.40208 167.94556 297
269.55920 11.11920 203.50667 314
395.74203 44.22424 171.71783 312
408.13339 47.50443 171.82703 308
453.91309 59.48071 164.93513 303
459.35248 60.91760 167.91911 297
269.58478 11.43253 203.48526 285
395.49304 45.29887 171.74754 312
407.87979 48.65192 171.84578 308
453.58826 60.89289 164.98074 303
459.03888 62.36591 167.88416 297
384.35007 43.38275 171.62910 316
395.24533 46.34977 171.75018 312
407.61426 49.74848 171.86563 308
452.34537 62.09324 165.17191 427
458.79224 63.83706 167.90070 297
384.11813 44.36754 171.61922 316
395.04147 47.42776 171.70245 312
407.35486 50.89367 171.84335 308
450.65314 63.15522 165.42931 428
458.45078 65.33443 167.89113 297
383.90784 45.35194 171.62704 316
394.78128 48.48025 171.69624 312
407.10941 52.04842 171.85191 308
448.98569 64.10204 165.72542 429
458.14188 66.80141 167.88625 297
383.64706 46.34716 171.60484 316
394.52869 49.54791 171.73611 312
435.57156 61.68166 164.85199 308
447.31277 65.14252 166.03677 430
457.87393 68.28363 167.83693 297
383.43570 47.34884 171.62761 316
394.26199 50.63103 171.71622 312
435.18536 62.97454 164.84796 308
445.64575 66.17541 166.34596 431
383.19611 48.34734 171.60649 316
393.97955 51.68149 171.70090 312
434.90439 64.30749 164.85175 308
444.02420 67.14565 166.63994 432
382.92731 49.32289 171.61574 316
393.69479 52.74846 171.69614 312
434.49139 65.62700 164.83806 308
442.39468 68.09921 166.87343 433
382.65427 50.33106 171.60611 316
393.44168 53.80214 171.70009 312
434.18106 66.89939 164.84865 308
440.79306 69.09827 167.14278 434
382.38742 51.33022 171.60825 316
393.17493 54.85543 171.72252 312
433.77533 68.25192 164.86275 308
439.22296 70.03391 167.40544 420
382.09738 52.28229 171.60439 316
392.83459 55.88494 171.71735 312
433.38879 69.51686 164.88344 308
437.44241 70.90561 167.74210 421
381.83246 53.25713 171.61790 316
392.58017 56.94342 171.70189 312
432.97363 70.78062 164.84686 308
436.61484 72.02590 167.81689 301
381.57022 54.23393 171.59189 316
392.25214 58.01630 171.70084 312
432.56125 72.06879 164.86876 308
436.25586 73.36326 167.86671 301
381.27225 55.22083 171.58139 316
391.97064 59.05212 171.70322 312
432.13824 73.34001 164.88629 308
435.92368 74.72402 167.81880 301
380.95941 56.20374 171.59454 316
391.63342 60.09019 171.67757 312
430.53198 74.22548 165.15796 425
435.54291 76.03831 167.78519 301
380.65558 57.17756 171.60040 316
417.16385 70.72739 164.77698 312
428.91656 75.06503 165.48003 426
435.13867 77.39236 167.80681 301
380.35898 58.17033 171.55952 316
416.80457 71.91801 164.78085 312
427.24539 75.88346 165.78603 427
434.71600 78.70064 167.82260 301
380.03836 59.14858 171.56628 316
416.36789 73.12029 164.78514 312
425.61121 76.66576 166.06665 428
434.35031 79.98789 167.75012 301
379.75253 60.10464 171.58374 316
415.93011 74.26746 164.80193 312
423.95602 77.43504 166.36992 429
433.88992 81.34087 167.77570 301
379.41660 61.07307 171.55743 316
415.52042 75.45599 164.78830 312
422.43134 78.23434 166.67261 430
379.09229 62.04028 171.55663 316
415.03387 76.64009 164.79100 312
420.80731 78.97337 166.93758 431
378.75726 62.98539 171.54369 316
414.59467 77.83380 164.77213 312
419.24295 79.73019 167.19849 432
378.38586 63.99078 171.56258 316
414.15466 78.99785 164.76987 312
417.73703 80.48917 167.46069 433
378.06607 64.94314 171.53529 316
413.67114 80.16326 164.81549 312
416.24127 81.23561 167.71632 434
377.71429 65.86742 171.57376 316
413.20093 81.33176 164.82988 312
415.58472 82.38470 167.76286 305
377.34546 66.83309 171.55722 316
412.75540 82.46066 164.80899 312
415.17560 83.56401 167.77480 305
400.31381 78.28591 164.71860 316
411.74557 83.38744 164.97411 436
414.70703 84.75671 167.73354 305
399.86646 79.33515 164.68272 316
410.26230 84.12055 165.22269 437
414.28387 85.92983 167.76060 305
399.40781 80.42360 164.69551 316
408.83392 84.86524 165.50848 438
413.82080 87.16248 167.72771 305
398.90005 81.52877 164.71371 316
407.41736 85.53992 165.75490 439
413.33078 88.34196 167.71094 305
398.47885 82.60138 164.68919 316
405.85788 86.17250 166.05482 420
412.88220 89.51488 167.75046 305
397.96158 83.68941 164.70538 317
404.21716 86.69836 166.34488 421
412.37402 90.69316 167.71564 305
397.47064 84.74947 164.69884 317
402.63464 87.26913 166.63374 422
411.92941 91.88564 167.68683 305
396.93408 85.77790 164.70447 317
401.00925 87.83235 166.99371 424
396.48822 86.85266 164.71532 317
399.46558 88.39449 167.24348 425
395.92560 87.88515 164.74905 317
397.92548 88.91101 167.53154 426
395.44498 88.94754 164.74506 317
396.82022 89.69749 167.73790 311
394.82266 89.98336 164.77272 427
396.30960 90.77287 167.73137 311
393.34653 90.48936 165.03487 428
395.82260 91.83393 167.72609 309
391.87103 90.98051 165.36681 429
395.32538 92.86751 167.70142 309
390.42209 91.51223 165.63863 430
394.79044 93.94971 167.66066 309
388.93155 92.03283 165.93361 431
394.26645 95.02090 167.67731 309
387.49570 92.49428 166.17848 432
393.76794 96.08961 167.66811 309
386.13110 93.01423 166.46545 433
393.25250 97.18126 167.64404 309
384.68341 93.48158 166.74493 434
392.72220 98.22208 167.64363 309
383.31375 93.94355 166.96767 435
392.17041 99.26331 167.61533 309
381.94873 94.42267 167.22658 436
380.61600 94.90021 167.49077 437
379.59799 95.57573 167.64050 315
379.04657 96.53918 167.61957 315
378.50616 97.49608 167.61012 315
377.95691 98.48699 167.62634 315
377.38345 99.43663 167.62030 315
376.83130 100.35430 167.60072 315
54505.97656 36208.34766 5587.00732 1000
376.25531 101.29917 167.60248 315
375.66147 102.25598 167.61922 315
375.07550 103.17220 167.58405 313
374.51715 104.09688 167.58372 313
373.96176 105.05630 167.60880 313
373.36145 106.00799 167.56897 313
30385.69922 44528.10938 -8658.93945 1000
1197.40112 2015.07520 111.30856 440
1197.71899 2015.67651 147.88370 440
1198.13843 2016.61975 184.70644 440
1198.74597 2017.58093 220.93185 440
1198.93604 2018.07056 258.13043 439
1199.89404 2019.05994 295.00662 439
520.79266 1751.90576 103.36839 493
521.03455 1751.78040 132.42540 493
521.07373 1751.71143 161.75702 494
