# .PCD v.7 - Point Cloud Data file format
VERSION .7
FIELDS x y z rgb
SIZE 4 4 4 4
TYPE F F F U
COUNT 1 1 1 1
WIDTH 1400
HEIGHT 1
VIEWPOINT 6347.416016 -1567.345825 144.337784 -0.720291 -0.084582 -0.098576 0.681403
POINTS 1400
DATA ascii
392.22357 58.89178 171.70265 312
432.43784 73.02988 164.89272 308
436.18060 74.32104 167.84183 301
381.21399 56.11445 171.61118 316
391.85025 59.92096 171.70569 312
431.06775 73.99480 165.10910 424
435.73398 75.63284 167.80011 301
380.86169 57.08300 171.56963 316
417.38763 70.42352 164.76851 312
429.36911 74.82169 165.39287 425
435.25803 76.97459 167.83240 301
380.49304 58.05798 171.60101 316
416.90909 71.61861 164.78790 312
427.68936 75.65245 165.68427 426
434.84360 78.32333 167.79762 301
380.11575 59.04333 171.59435 316
416.47385 72.83070 164.79332 312
425.99948 76.46970 166.00117 427
434.36630 79.61153 167.78502 301
379.73950 59.96525 171.56097 316
415.95004 73.97723 164.80824 312
424.38474 77.23103 166.24579 428
433.88815 80.90931 167.77130 301
379.33023 60.92902 171.55469 316
415.47836 75.14756 164.79832 312
422.79349 78.05341 166.51459 429
378.97861 61.93005 171.54437 316
414.98465 76.36215 164.78009 312
421.14410 78.80173 166.79483 430
378.55893 62.85344 171.57230 316
414.46585 77.49967 164.78548 312
419.60233 79.57247 167.11632 431
378.14316 63.83638 171.57367 316
413.92328 78.66630 164.78564 312
418.01089 80.39050 167.34218 432
377.75604 64.80485 171.55377 316
413.44681 79.84202 164.78291 312
416.43576 81.13737 167.62335 433
377.35129 65.75264 171.56789 316
412.88629 80.98685 164.82384 312
415.26215 81.98941 167.76843 305
376.90161 66.68776 171.54176 316
412.34747 82.16111 164.80510 312
414.72031 83.20685 167.77202 305
399.86722 78.03668 164.67223 316
411.81168 83.32674 164.78139 312
414.25613 84.40116 167.77945 305
399.36902 79.06867 164.67599 316
410.40967 84.09461 165.02405 436
413.75574 85.56487 167.76956 305
398.86774 80.15694 164.67201 316
408.93967 84.81204 165.31467 437
413.21460 86.78365 167.75858 305
398.29871 81.25615 164.69727 316
407.43295 85.48701 165.52507 438
412.70615 87.95963 167.71019 305
397.80103 82.29197 164.70552 316
405.85071 86.13968 165.82584 420
412.14255 89.12915 167.70409 305
397.22672 83.40144 164.67834 317
404.21710 86.71529 166.12723 421
411.59052 90.26991 167.70464 305
396.70349 84.42558 164.70375 317
402.54883 87.27753 166.45918 422
411.08777 91.47576 167.69284 305
396.13168 85.48310 164.68195 317
400.91165 87.83819 166.75327 423
410.52664 92.65533 167.67873 305
395.53625 86.53350 164.72438 317
399.26169 88.42800 167.06097 424
394.98648 87.57623 164.72897 317
397.68927 88.96043 167.35814 425
394.41205 88.62156 164.71155 317
396.10165 89.52987 167.59323 426
1539.47559 683.48602 70.81798 369
1529.02661 678.02393 96.24825 373
393.82822 89.69869 164.70259 317
395.21530 90.40433 167.72911 311
1521.87585 684.43103 72.16302 372
1511.47046 679.06891 97.38058 374
1503.89307 674.84717 121.90218 385
392.99442 90.60172 164.80457 427
394.64917 91.48444 167.72276 311
1505.05420 685.61615 73.83577 374
1490.19043 677.99316 99.02003 376
1487.79297 676.33075 122.95163 386
391.45953 91.15627 165.09700 428
394.09113 92.53709 167.72780 311
1488.29260 686.77826 74.91056 374
1474.65881 679.47760 100.02180 351
1471.99646 677.75238 123.88256 388
389.93698 91.65722 165.33986 429
393.47360 93.62776 167.69653 309
1471.35352 687.61145 76.57038 373
1459.51489 681.05756 100.96754 375
1456.17053 679.20239 124.35706 389
1486.44568 696.03247 145.84151 388
388.48679 92.17264 165.65346 430
392.92361 94.68876 167.67288 309
1455.21375 688.34900 77.99624 375
1443.67542 681.99182 101.98544 377
1441.12793 680.70496 125.24384 390
1470.80212 697.27948 146.83246 389
386.96588 92.70790 165.91400 431
392.33310 95.73347 167.65550 309
1439.05090 689.61267 79.05088 377
1427.72083 683.14972 103.11126 376
1426.11792 682.07422 126.19122 391
1455.14246 698.55811 147.14449 400
385.54257 93.22099 166.15842 432
391.75247 96.78732 167.67404 309
1423.34778 690.25244 80.54495 378
1412.30408 683.69781 104.13554 377
1411.25012 683.35870 126.79185 392
1446.68079 703.67407 147.46619 411
384.08823 93.70454 166.46268 433
391.16245 97.84816 167.67061 309
1407.84668 691.14282 81.88009 377
1396.84766 684.77429 105.38409 378
1397.02710 684.66364 127.67938 394
1447.21948 714.10443 147.02794 414
382.65985 94.19709 166.67102 434
390.54865 98.90985 167.65895 309
1392.71912 692.05963 82.94602 378
1381.81458 685.56873 106.53590 380
1382.66101 686.04352 128.45509 395
1452.58191 727.38104 146.80940 452
381.23911 94.70474 166.94463 435
389.98602 99.90867 167.64868 309
1377.75635 692.70038 84.22922 379
1367.21191 686.08838 107.28828 381
1368.68323 687.12653 129.26822 396
1453.19800 737.89264 146.29616 451
379.81708 95.16248 167.21021 436
1362.83765 693.45972 85.32970 381
1352.45862 686.92981 108.20528 382
1354.87671 688.25519 129.81639 397
1454.28320 748.98315 145.96373 450
378.45877 95.63741 167.43378 437
1348.64038 693.86523 86.51290 382
1336.69702 686.85608 109.57535 345
1341.36609 689.76251 130.71257 399
1452.00085 757.87360 145.92613 496
377.25098 96.22208 167.64137 315
1348.05396 703.46564 64.01783 389
1334.57373 694.97815 87.80716 375
1322.07202 687.08002 110.61539 399
1327.92834 690.81171 131.53917 400
1341.46204 699.04865 152.12857 367
376.60278 97.19357 167.62489 315
1334.48706 704.48187 65.52089 391
1320.93591 695.72852 88.60640 376
1307.86084 687.56927 111.59064 400
1314.89661 692.06439 132.00401 401
1327.56726 699.97980 152.67590 395
376.02390 98.13686 167.64603 315
1321.44653 705.68878 66.73899 392
1307.39783 696.87256 89.77724 377
1294.99670 688.60284 112.46694 401
1302.00513 693.05402 132.83772 402
1314.27246 700.96863 153.26006 410
375.40207 99.06952 167.59813 315
1308.24207 706.76929 67.69451 393
1294.45129 697.50195 90.70762 378
1282.19971 689.81897 113.06229 403
1289.37524 694.32086 133.42062 403
1473.75342 814.25330 143.56596 446
374.74249 100.01982 167.62973 315
1295.39453 707.88995 69.09035 394
1281.58252 698.63605 91.86980 380
1270.45496 691.41907 113.85398 370
1276.95117 695.41949 133.86874 403
1474.67358 825.74231 143.11845 446
374.12305 101.00099 167.62450 315
1282.90332 708.87720 70.17253 395
1268.94543 699.34766 92.88634 381
1259.29761 692.86420 114.66857 274
1265.11829 696.75732 134.54860 404
1475.57141 837.49890 143.00591 445
373.47406 101.92794 167.59232 315
1270.26709 709.86737 71.02753 396
1256.35291 700.24280 93.73109 382
1249.93994 695.86682 114.94964 407
1253.12097 698.03149 135.04855 406
1476.44666 849.64594 142.26152 444
372.87225 102.86934 167.62309 315
1258.09473 710.66827 72.17611 397
1243.95447 701.03925 94.72954 383
1237.87891 696.95978 115.95244 408
1241.25098 699.08423 135.75749 405
1462.80298 851.28540 143.02359 417
372.18085 103.76444 167.57516 315
1246.27039 711.86249 73.49925 398
1231.94543 701.85724 95.64332 384
1226.06018 697.87793 116.59689 409
1228.33496 699.56232 136.44353 409
1458.08508 859.23224 143.05316 420
371.56290 104.70061 167.58983 315
1234.06580 712.93341 74.43797 383
1220.00659 702.49622 96.53629 377
1214.50854 698.90540 117.34004 411
1216.92859 700.67694 137.02986 411
1464.65063 875.04584 142.19592 440
370.88718 105.60057 167.59317 313
1222.19238 713.49158 75.54482 384
1207.54602 702.89508 97.49345 378
1203.34534 699.93481 117.85031 412
1205.36523 701.68988 137.49277 411
1465.22864 887.17517 141.66573 439
48710.50391 34619.03125 14123.33008 1000
370.23859 106.55959 167.58423 313
1210.15198 714.04138 76.38319 374
1195.37866 703.46625 98.59070 379
1192.04517 700.98047 118.51070 413
1194.21533 702.76190 138.05017 413
1466.29883 899.36237 141.23856 438
369.59479 107.49492 167.56023 313
1198.29370 714.86780 77.45954 375
1183.04883 703.70428 99.34341 380
1180.83472 702.00482 119.27796 414
1183.27441 703.61572 138.78987 414
1188.79333 707.73431 157.95409 416
1186.74170 715.44153 78.74300 376
1171.34155 704.16754 100.51055 381
1169.96741 702.87677 120.13836 415
1172.45166 704.80811 139.38316 415
1178.71936 709.58337 158.12259 305
1175.31763 716.13159 79.76796 377
1159.74634 704.46552 101.27357 382
1159.18713 704.04877 120.66286 416
1161.66919 705.68884 139.78313 416
1168.48950 710.84937 158.76363 419
1163.77661 716.68500 80.45947 378
1148.17944 704.65759 102.03434 383
1148.47729 704.77289 121.34956 417
1151.00439 706.87842 140.33794 414
1157.75537 711.76422 159.11726 420
1152.94226 717.05975 81.72569 379
1137.15186 705.02179 102.91803 382
1137.82251 705.68433 121.85483 419
1140.85681 707.75061 140.71396 415
1147.27112 712.86139 159.23717 421
1141.87976 717.81140 82.54705 380
1126.63391 705.93500 103.58051 384
1127.85913 706.77045 122.56184 428
1130.49927 709.01697 141.28311 425
1137.05591 713.87714 159.62251 422
1131.13428 718.32684 83.38832 383
1116.02942 706.57874 104.32693 385
1118.24268 708.10345 123.13483 429
1120.90430 710.42102 141.48547 426
1126.68140 715.07715 160.27180 423
1120.49854 719.10791 84.24333 384
1106.62646 707.96362 105.20439 383
1108.75098 709.74091 123.62386 446
1111.75952 712.17456 142.05962 444
1116.67798 715.96637 160.41364 429
1116.76843 716.07690 179.16727 429
1126.46228 732.89111 63.33010 374
1110.49121 720.06226 85.11551 390
1097.23572 709.29028 105.65562 398
1100.28174 711.78253 123.99848 447
1103.17798 714.16736 142.42265 445
1107.71826 717.80078 160.70312 450
1108.52588 718.40302 179.49762 447
1116.15186 734.05127 64.37714 377
1100.73560 721.08746 85.85049 396
1088.38110 710.88837 106.32437 405
1091.80884 714.05084 124.48246 457
1095.14734 716.60529 142.86092 446
1099.37048 720.11493 160.84294 451
1100.13916 720.53455 179.61276 451
1106.13159 734.88452 65.35276 378
1091.59485 722.76862 86.65248 406
1080.00989 712.92206 106.96783 453
1084.04578 716.15399 124.83363 458
1087.16052 719.00684 142.99791 455
1091.08582 722.32965 161.34407 456
1091.77209 722.66589 179.65503 452
1096.72766 735.95361 66.18075 382
1083.01404 724.39746 87.28866 408
1071.20752 714.66754 107.23142 371
1076.28711 718.81378 125.26801 460
1079.47485 721.48798 143.40567 456
1083.22449 724.42194 161.44600 457
1084.96228 726.00049 179.92906 485
1087.94421 737.85187 66.79401 394
1074.72314 726.42316 87.74978 409
1063.17773 716.91833 107.84005 459
1068.47339 721.26495 125.39127 464
1071.81226 724.22076 143.43527 457
1076.84900 728.28650 161.53201 492
1080.59729 731.72559 179.85782 490
1079.56335 739.96533 67.49446 395
1066.70081 728.70654 88.51018 412
1055.75122 719.11664 108.12029 464
1061.17114 723.71417 125.72157 468
1066.98669 728.93536 143.70630 266
1072.61462 733.88733 161.41547 491
1076.38757 737.12555 179.66165 490
1071.59204 742.04156 68.06652 400
1058.65662 730.74670 88.93187 412
1048.18677 721.52716 108.58865 465
1053.85022 726.63940 126.16942 470
1063.53845 734.97430 143.50548 347
1068.46350 739.16150 161.60233 490
1072.34070 742.58624 179.79128 490
1063.40918 744.09009 68.65955 401
1051.09082 733.16144 89.35271 412
1041.06323 724.20642 108.87795 468
1046.82239 729.52698 126.26085 472
1058.88672 740.22400 143.42645 490
1063.64758 744.42804 161.40207 490
1055.55493 746.17914 69.44118 399
1043.34106 735.59576 89.88008 416
1033.72058 726.96143 109.28358 469
1039.76135 732.12738 126.74239 472
1054.56604 745.19940 143.36539 490
1059.85754 750.01971 161.42210 406
1069.13525 758.35461 179.50005 406
1047.93835 748.48798 70.01853 410
1036.04956 737.79077 90.33098 417
1026.82703 729.74170 109.56355 417
1032.64001 734.97998 126.94901 472
1051.49634 751.95184 143.15746 408
1061.25610 760.59863 161.23730 408
1069.89709 768.46698 179.11737 405
1040.35144 751.08795 70.35121 410
1028.79236 740.43646 90.67782 417
1020.27032 732.53809 109.85825 418
1025.90247 737.52917 127.30991 473
1052.45532 762.34436 142.88133 311
1061.91748 770.83527 160.66597 407
1070.67688 778.78412 179.18008 404
1033.11804 753.47772 70.76535 411
1021.39490 743.02783 91.13047 417
1013.60687 735.42279 110.30698 478
1019.00500 740.62006 127.60741 477
1054.23047 773.02393 142.18771 292
1062.54529 781.19989 160.21220 406
1071.50659 789.31183 178.79524 403
1025.86328 756.04639 71.50476 410
1014.47888 745.31732 91.58543 422
1008.74414 739.98767 110.25341 274
1012.40692 743.59589 127.77963 481
1055.14221 783.68048 141.85301 291
1063.26819 791.35931 159.97725 405
1072.45410 799.79242 178.34933 402
1018.79950 758.89178 71.77912 411
1007.68292 748.10669 91.76149 423
1003.06506 743.60089 110.43326 477
1006.01227 746.43634 127.77200 481
1056.17981 794.44629 141.16576 291
1064.24402 802.08893 159.59554 404
1073.31250 810.63904 178.23964 401
1011.80585 761.46814 72.29911 411
1000.90466 750.70966 92.08066 423
996.51556 746.61224 110.65504 478
999.31244 749.28619 128.11076 481
1052.24329 800.41650 141.03427 280
1064.29822 812.22198 159.37967 406
1074.20483 821.42346 177.90738 401
1004.93494 764.27631 72.54079 412
993.92761 753.45575 92.61998 424
989.98553 749.55554 111.00176 480
992.93195 752.37799 128.29047 486
1051.98035 810.15295 140.77716 331
1065.66528 823.48779 158.64650 402
1075.04224 832.45990 177.57716 400
998.00604 766.78137 72.84701 412
987.21545 756.31720 92.83792 427
983.65839 752.59552 111.27082 481
986.89569 755.77850 128.36424 486
1186.98572 953.29480 127.79231 436
1066.72815 834.64807 158.28993 401
1075.68628 843.65796 177.32903 399
991.27954 769.44855 73.42883 413
980.97357 759.15564 93.01012 428
977.45081 755.88904 111.30336 481
980.63232 758.95636 128.68234 487
1175.62964 954.07751 128.20091 437
1067.28918 845.75543 158.05251 400
1076.76294 854.91364 177.11441 398
984.67206 772.37115 73.54419 417
974.53418 762.00531 93.35928 428
971.28418 758.96185 111.54275 481
974.32874 761.93164 128.94685 486
1164.64331 954.64801 128.58667 438
1068.09546 857.07898 157.36543 399
1077.69092 866.55054 176.89174 397
978.01562 775.24628 73.89080 418
967.85034 764.92511 93.63804 429
965.31799 762.04993 111.72414 487
968.63788 765.62421 129.04984 492
1080.36328 879.88013 136.09471 433
1068.98315 868.34363 157.19743 397
1078.34717 878.03638 176.70808 396
971.49573 778.03534 74.44191 418
961.89160 767.75580 93.97321 435
959.56274 765.56573 111.88637 487
962.96674 769.15253 128.92148 493
1070.10132 880.11603 136.42915 434
1069.25647 879.71527 156.76390 396
1079.28442 890.09991 176.41811 394
965.11389 781.03979 74.56451 426
955.87451 771.03534 94.05952 436
953.64734 768.98059 112.08018 486
957.31018 772.53882 129.27116 493
1060.05688 880.53680 136.94846 435
1070.73254 891.82617 156.22971 395
1080.41980 901.96350 176.08690 393
959.22308 784.38867 75.02544 426
949.78125 774.43164 94.30212 436
948.06525 772.50879 112.34145 487
951.47614 776.15948 129.19179 493
1057.02502 888.32410 136.81264 466
1071.79932 903.78949 155.73706 394
1081.14209 914.06354 175.73201 391
953.03015 787.58575 75.07098 427
944.07208 777.65930 94.65301 436
942.34290 776.06250 112.20129 489
945.96393 779.77179 129.50175 493
1054.61804 896.81329 136.32431 465
1072.44983 916.18512 155.42365 393
1082.34204 926.36145 175.41841 390
947.13165 790.65778 75.30795 427
938.18787 780.94153 94.67028 439
936.96948 779.70526 112.42932 489
940.57184 783.58453 129.35249 494
1052.10352 904.87708 136.22955 465
1073.43311 928.39801 154.62305 392
1083.20386 939.16754 174.92769 389
941.13544 793.93567 75.46642 432
932.32794 784.11432 94.87260 439
931.35852 783.19952 112.41640 484
935.08710 787.33057 129.62674 494
1049.57703 913.61401 135.80496 464
1074.52856 941.08820 154.15276 391
935.35626 797.26691 75.78143 432
926.55859 787.74365 95.12059 439
925.75751 786.58502 112.57784 484
929.74854 791.09961 129.41992 484
1046.91040 922.08118 135.61557 463
929.53229 800.92993 75.95704 432
921.03162 791.07172 95.18217 440
920.32312 790.15851 112.57090 484
924.46185 794.88019 129.48595 484
1044.37158 930.71167 135.36023 296
26136.21289 29316.50000 8673.59961 1000
924.01550 804.08020 75.93420 432
915.32166 794.22772 95.35622 440
914.64532 793.57135 112.76868 485
919.00439 798.46112 129.58482 484
1042.66138 940.12805 134.89700 310
918.17303 807.74469 76.18012 432
909.61407 797.85120 95.42022 440
909.16547 797.15118 112.76804 485
913.53149 802.19989 129.80090 470
1039.69189 948.20258 134.55019 300
912.49127 811.07568 76.17242 433
904.12213 801.15295 95.63596 440
903.66241 800.74664 113.08475 485
908.38159 806.33740 129.64079 455
906.47650 814.32422 76.55463 442
898.24457 804.48151 95.60151 441
898.25226 804.31677 113.10075 485
903.07654 809.93750 129.65875 455
900.73718 817.40808 76.70063 442
892.75751 807.71979 95.64380 441
892.57245 807.68726 113.02409 484
897.73987 813.91473 129.78125 455
895.05786 820.79047 76.79020 442
887.19415 811.10687 95.72498 441
887.35443 811.40625 113.21046 484
892.73376 817.89502 129.97946 455
889.12036 823.97845 76.83308 443
881.38940 814.34039 95.88887 441
881.85059 814.92194 113.17979 483
887.44275 821.79016 129.90231 447
883.44495 826.99500 76.97582 443
876.00397 817.98431 96.13138 443
876.50775 818.71185 113.41619 483
882.57703 825.87292 129.83459 430
877.41370 830.23981 77.36390 451
870.61700 821.23584 96.02910 444
871.18372 822.33026 113.44183 481
877.56378 830.02142 129.73224 430
871.93982 833.47217 77.40357 445
864.95563 824.92493 96.19634 444
866.13776 826.03284 113.41919 481
872.42078 834.40027 129.74800 430
866.22162 836.93884 77.55549 451
859.63843 828.40045 96.11182 446
860.99774 830.02649 113.43182 478
867.46094 838.49603 129.73114 430
893.90417 883.86993 70.36969 252
854.15796 831.76202 96.21135 450
855.66412 833.87817 113.28337 478
862.65271 842.74347 129.69183 417
849.14404 835.87177 96.37865 450
850.66876 837.83887 113.33889 479
857.82001 847.29736 129.64766 401
843.90851 839.54071 96.22154 461
845.56885 841.78711 113.41927 477
852.70026 851.41754 129.63475 401
838.62805 843.35205 96.29470 461
840.45142 845.66510 113.31626 477
847.99139 855.87628 129.64041 401
833.48102 846.78699 96.28294 461
835.30591 849.72913 113.36240 474
843.13910 860.22211 129.55109 400
828.31604 850.93433 96.32368 463
830.33575 853.66376 113.25867 474
823.21387 854.91174 96.20235 483
825.28174 857.59113 113.07331 474
831.03595 865.69806 129.78300 363
817.94464 858.57666 96.22826 483
820.17926 861.62396 113.19719 474
812.92297 862.47754 96.16332 461
7535.02979 19431.13281 5090.60840 1000
-1435.49438 29128.11328 -2138.97046 1000
-130.67233 2534.73608 51.45966 499
-130.84222 2535.44458 93.65408 488
-130.68369 2536.73755 135.78940 488
-130.79785 2537.73389 177.86246 488
-131.26703 2538.91968 219.18858 488
-131.26524 2540.04858 261.48901 488
-955.63501 4913.35840 971.52893 1000
-7909.16260 20626.30469 -3051.08081 1000
-639.77802 2067.46021 71.65709 497
-639.82324 2067.35815 108.39915 498
-639.41888 2066.47412 145.28488 498
-639.17340 2066.26538 181.82129 498
-639.52802 2065.96997 218.73170 498
-638.99933 2065.19653 255.36954 498
127.46508 148.24800 169.59602 485
126.42139 148.01149 169.48816 441
124.66172 148.85713 169.00041 489
120.62073 149.19940 168.34529 489
116.95329 150.76079 167.39598 316
116.09382 150.09901 167.45358 316
115.24123 149.44087 167.44330 316
112.09190 151.95593 166.40414 314
111.23389 151.29146 166.37363 314
110.35971 150.60960 166.38309 314
109.47021 149.87779 166.36777 314
108.58728 149.19440 166.41133 314
107.74175 148.50444 166.40764 314
106.86227 147.83287 166.37067 314
105.99442 147.08519 166.37109 314
105.12510 146.45694 166.36676 423
103.58852 146.63280 166.09566 422
96.11503 155.90633 166.39780 309
102.00990 146.74693 165.77364 421
95.19593 155.14622 166.35005 309
100.43121 146.89667 165.47722 420
94.23782 154.42262 166.36566 309
98.81960 147.06194 165.13335 419
93.33282 153.62572 166.37692 309
97.17043 147.22595 164.80307 418
92.44964 152.83861 166.35623 309
95.57771 147.32268 164.52051 427
91.54870 152.04288 166.33414 309
94.00838 147.38403 164.21158 426
90.68107 151.27974 166.34717 309
92.38630 147.46501 163.93210 425
89.78576 150.49130 166.35912 309
90.77861 147.51979 163.60219 424
88.88731 149.65559 166.35222 309
-1174.29675 1576.17505 114.06796 499
-1175.10388 1576.33374 148.83690 499
-1175.63721 1576.96313 183.31438 499
-1175.91370 1578.03857 217.78815 489
-1176.61572 1578.32715 251.94794 489
-1177.50208 1579.36035 286.76819 489
89.36209 147.33975 163.38176 307
88.03098 148.83351 166.33054 309
88.63121 146.44005 163.39473 307
87.15224 148.03764 166.33350 309
87.82124 145.50449 163.45473 307
85.81114 147.70065 166.16515 422
87.08459 144.59088 163.47177 307
84.10320 147.80009 165.87329 421
86.32879 143.70737 163.53719 307
82.41755 147.84378 165.54472 420
74.12339 156.59767 166.27032 305
85.54704 142.76630 163.53969 307
80.64153 147.91495 165.21017 418
73.23930 155.72995 166.29126 305
84.80271 141.83025 163.58704 307
78.91115 147.98888 164.91847 417
72.31840 154.80089 166.28842 305
104.74439 119.77297 171.53156 315
77.09287 148.07465 164.57925 416
71.43674 153.89328 166.28506 305
104.08948 119.01167 171.50786 315
75.29939 148.13815 164.19490 415
70.49346 152.97371 166.28149 305
103.39157 118.27367 171.52074 315
73.43157 148.20480 163.86023 414
69.59219 152.01126 166.23532 305
102.76314 117.51005 171.53085 315
71.59614 148.23781 163.53629 413
68.70678 151.06157 166.24550 305
102.06942 116.76393 171.52322 315
70.10095 147.94679 163.28510 303
67.83690 150.17427 166.24451 305
101.44176 116.03543 171.52205 316
69.37225 146.92441 163.32812 303
66.95918 149.20483 166.23294 305
100.78703 115.25457 171.54843 316
68.62941 145.88345 163.38087 303
65.80938 148.52290 166.17152 410
100.12750 114.50535 171.57391 316
67.88416 144.80855 163.43095 303
63.86034 148.54309 165.83556 409
99.49465 113.69942 171.58505 316
67.13909 143.76866 163.47823 304
61.86941 148.63847 165.48232 408
98.89758 112.94780 171.55560 316
90.41743 120.68981 171.64050 312
59.82412 148.72003 165.06616 407
50.53304 157.28001 166.13676 301
98.27242 112.19170 171.58505 316
89.73862 119.84996 171.62721 312
57.76472 148.81073 164.68211 406
49.59410 156.20576 166.14275 301
97.65076 111.41148 171.56354 316
89.07536 119.02020 171.63403 312
55.66196 148.87984 164.35391 405
48.70467 155.10721 166.13574 301
97.01077 110.61254 171.57872 316
88.40284 118.18208 171.67920 312
53.55991 148.98602 163.95020 404
47.80914 154.07436 166.17693 301
96.40069 109.80616 171.60623 316
87.74671 117.35310 171.65950 312
51.43857 149.07356 163.51149 402
46.92273 152.99402 166.15263 301
95.80087 109.02702 171.60324 316
87.10563 116.47050 171.68558 312
49.50541 148.94078 163.23181 300
45.99470 151.91049 166.18196 301
95.19767 108.22456 171.61929 316
86.48444 115.61639 171.68878 312
48.76462 147.74294 163.23936 300
45.10785 150.81953 166.17215 301
94.59366 107.43950 171.60574 316
85.83121 114.77734 171.67033 312
48.02474 146.56873 163.27623 300
44.20546 149.74039 166.16187 301
93.95886 106.61827 171.59950 316
85.20175 113.93764 171.69295 312
75.21394 122.21397 171.75542 308
42.44276 149.40579 165.88078 398
93.38694 105.82048 171.60695 316
84.56715 113.06643 171.67493 312
74.51497 121.31036 171.76913 308
40.13932 149.49234 165.51062 397
92.79582 105.01625 171.63965 316
83.91892 112.20822 171.66847 312
73.85773 120.36182 171.77150 308
37.71803 149.57611 165.06435 396
92.23048 104.19412 171.60818 316
83.32702 111.30396 171.69278 312
73.14413 119.40385 171.78516 308
35.35287 149.64952 164.60803 395
24.65624 158.24075 166.05334 297
91.64851 103.35879 171.60706 316
82.71428 110.44180 171.67957 312
72.48194 118.47820 171.79565 308
32.90395 149.77313 164.22435 393
23.78294 157.00290 166.06442 297
91.06271 102.54210 171.63220 316
82.08383 109.58712 171.69475 312
71.82737 117.56420 171.78877 308
30.40404 149.89619 163.72585 392
22.83536 155.73669 166.06966 297
90.50433 101.71642 171.66383 316
81.45854 108.68118 171.70192 312
71.18214 116.60941 171.78668 308
27.85614 149.96460 163.33975 391
21.91995 154.49031 166.01685 297
89.96259 100.92270 171.62798 316
80.86591 107.81612 171.74242 312
70.54968 115.62469 171.79442 308
26.33749 149.24222 163.13129 296
21.02859 153.28624 166.05118 297
89.38535 100.05736 171.64137 316
80.29509 106.89719 171.74846 312
69.92137 114.66913 171.83437 308
25.65118 147.90723 163.18825 296
20.18185 152.02702 166.00487 295
88.85735 99.22208 171.64171 316
79.68896 106.01962 171.70947 312
69.30701 113.74069 171.83418 308
57.37045 122.57416 171.90210 304
19.26196 150.81264 166.04924 295
88.30112 98.38748 171.65518 316
79.11432 105.13576 171.70908 312
68.66464 112.75354 171.81760 308
56.67188 121.54197 171.94191 304
17.33346 150.31015 165.79842 389
87.76031 97.54386 171.64748 316
78.50319 104.21257 171.72441 312
68.02342 111.80865 171.84662 308
55.98743 120.51321 171.95273 304
14.59946 150.39594 165.30478 388
87.21900 96.70699 171.67343 316
77.97523 103.30582 171.72414 312
67.38983 110.80883 171.85544 308
55.31421 119.42835 171.94531 304
11.81280 150.47408 164.83792 387
86.72086 95.84049 171.65404 316
77.38134 102.40388 171.77243 312
66.80340 109.88575 171.83229 308
54.65268 118.41398 171.94806 304
9.00717 150.56306 164.38086 386
86.19075 95.01184 171.67708 316
76.82100 101.48529 171.77727 312
66.20661 108.85357 171.84125 308
54.04076 117.34491 171.94302 304
6.08315 150.59135 163.86230 384
-6.31614 159.18904 165.61920 290
85.64113 94.15776 171.68355 316
76.28488 100.58661 171.74193 312
65.58691 107.88275 171.84317 308
53.35705 116.29945 171.96950 304
3.18997 150.66116 163.42418 383
-7.19499 157.78883 165.59802 290
85.14573 93.30222 171.66599 316
75.71414 99.68649 171.78854 312
64.99752 106.90197 171.87041 308
52.74599 115.19572 171.94742 304
0.22820 150.77489 162.84886 382
-8.15391 156.38739 165.67140 290
84.64902 92.44014 171.68326 316
75.17433 98.75136 171.78323 312
64.42168 105.92834 171.84032 308
52.10731 114.13646 171.93976 304
37.85094 123.69680 172.08569 300
-9.07323 154.93335 165.62233 291
84.12434 91.59248 171.68951 316
74.60172 97.82427 171.76775 312
63.84399 104.94062 171.84142 308
51.46291 113.04779 171.94691 304
37.10834 122.48906 172.05843 300
-10.01634 153.59222 165.63385 291
83.65003 90.67633 171.69150 316
74.07199 96.90314 171.78104 312
63.25892 103.95396 171.89180 308
50.84393 112.02867 171.97675 304
36.46826 121.31598 172.10902 300
-10.90810 152.12035 165.59694 291
83.12919 89.84940 171.69536 316
73.54720 95.95244 171.78065 312
62.69790 102.91199 171.87004 308
50.20544 110.94360 171.98285 304
35.79605 120.17743 172.07639 300
-12.37703 151.05695 165.50420 377
-4096.61279 2769.52661 49.31345 499
82.62682 88.93430 171.68808 316
73.04987 95.03014 171.79321 312
62.12679 101.95615 171.90106 308
49.64693 109.84811 171.97614 304
35.12268 119.01108 172.08644 300
-15.69135 151.18105 164.93793 376
82.15707 88.06556 171.70375 316
72.51977 94.10532 171.77692 312
61.56148 100.93163 171.85970 308
48.99827 108.76434 171.95863 304
34.48992 117.83164 172.08719 300
-19.03731 151.22763 164.43359 375
81.68401 87.17323 171.72974 316
72.02990 93.15028 171.81580 312
61.01609 99.89779 171.91312 308
48.41719 107.67842 171.98264 304
33.82816 116.65462 172.10672 300
-22.49627 151.27402 163.88368 373
81.23501 86.32746 171.74510 316
71.49559 92.19597 171.82274 312
60.47920 98.92342 171.87088 308
47.86241 106.55677 171.97752 304
33.21582 115.47955 172.11406 300
-26.00233 151.41483 163.29172 372
80.76273 85.43569 171.73068 316
70.99494 91.24084 171.81015 312
59.96194 97.87359 171.92203 308
47.23798 105.48270 172.00284 304
32.59176 114.26813 172.09500 300
15.35848 124.59101 172.28654 296
-43.26968 159.67296 165.12119 286
80.28946 84.52711 171.72632 316
70.52958 90.29596 171.78831 312
59.40564 96.86001 171.89256 308
46.69813 104.35126 172.00404 304
31.93772 113.06584 172.14409 300
14.64999 123.26226 172.27179 296
-44.14828 157.97943 165.07314 286
79.82113 83.64847 171.72346 316
70.03207 89.35907 171.80190 312
58.85166 95.85285 171.91226 308
46.11138 103.27438 172.01854 304
31.30140 111.88612 172.12752 300
14.01473 121.98656 172.25826 296
-45.04679 156.34596 165.12906 286
79.35817 82.73740 171.74739 316
69.52963 88.37946 171.82765 312
58.33613 94.78999 171.89781 308
45.52439 102.17844 172.02820 304
30.69612 110.65533 172.16414 300
13.34239 120.65913 172.29837 296
-45.89599 154.66566 165.14426 286
-3661.58008 2230.07300 71.09428 495
78.91485 81.85980 171.74553 316
69.04041 87.42114 171.83464 312
57.83893 93.77468 171.91792 308
44.97992 101.05801 172.01546 304
30.10588 109.50082 172.14392 300
12.68928 119.32451 172.30867 296
-46.76285 152.96268 165.08438 286
78.49679 80.93634 171.72804 316
68.57629 86.49073 171.82849 312
57.35332 92.76916 171.89438 308
44.41668 99.91380 172.04694 304
29.53160 108.25758 172.15025 300
11.98478 118.00362 172.27319 296
-48.73837 151.87003 164.89229 374
78.07716 80.06673 171.75700 316
68.10325 85.52589 171.84688 312
56.81668 91.70610 171.93198 308
43.88034 98.79777 172.04315 304
37.06246 102.60352 173.99013 319
18.96550 112.52960 173.87708 270
-52.54252 151.81174 164.35619 373
77.64124 79.12568 171.73029 316
67.64399 84.52833 171.84727 312
56.35662 90.69749 171.90997 308
45.57262 96.51799 172.54819 321
39.71848 99.68827 174.70546 320
30.42659 104.74360 176.35193 271
11.87199 114.74554 176.64726 271
77.19198 78.24399 171.74831 316
67.20524 83.54924 171.85617 312
55.87388 89.62660 171.95183 308
47.93402 93.81237 173.27603 322
42.25947 96.89908 175.41901 321
36.38653 100.03422 177.73672 319
23.40184 106.94758 178.86885 273
76.80209 77.33424 171.73793 316
66.72939 82.61803 171.85037 312
55.58031 88.46873 171.97255 325
50.28887 91.23792 173.96970 323
44.74936 94.16968 176.13553 322
39.03657 97.18037 178.40581 320
28.45853 102.72354 179.97032 292
7.26020 113.85731 180.14742 288
76.37874 76.38383 171.78654 316
66.31162 81.60697 171.85637 312
57.69597 86.09364 172.68890 327
52.55384 88.73569 174.68045 325
47.15278 91.55747 176.76025 324
41.59662 94.38393 179.03159 322
27.91941 101.48664 179.97446 292
6.70469 112.53348 180.10872 288
75.97929 75.46941 171.74704 316
65.87955 80.61508 171.85579 312
59.75097 83.79326 173.35429 328
54.73830 86.30029 175.31551 326
49.49310 88.99240 177.39714 325
44.13889 91.75430 179.63126 323
27.39012 100.26998 179.93779 292
6.04775 111.14413 180.10519 288
-3144.06836 1719.44653 93.79691 497
75.56295 74.58325 171.78427 316
65.44338 79.63264 171.84264 312
60.86736 81.94177 173.76547 385
56.87213 83.98119 175.93416 327
51.70984 86.51792 177.99988 326
44.47638 90.20185 179.79930 296
26.80795 99.08551 179.93890 292
5.47952 109.79381 180.17285 288
75.15117 73.62994 171.75647 316
65.02496 78.68331 171.85741 312
61.55443 80.35056 174.06142 386
58.53533 81.84396 176.46495 384
53.90344 84.14419 178.57755 326
43.99662 89.07546 179.82153 296
-2.57048 112.08794 174.65895 290
-2.59357 112.12709 178.87335 290
-21.52804 121.51913 180.37581 284
74.78938 72.71632 171.75659 316
65.65913 77.15588 172.18181 377
62.30494 78.81029 174.32831 387
59.30010 80.25424 176.77216 385
56.04855 81.84431 179.17906 327
43.55004 87.92917 179.82339 296
4.69376 106.91130 176.13643 283
-11.88557 114.97984 177.44901 289
-22.18916 119.97423 180.40947 284
74.37003 71.80055 171.79385 316
66.36714 75.64855 172.45372 378
62.99090 77.24469 174.64751 388
60.06109 78.65862 177.00558 386
57.01864 80.15537 179.50932 384
43.04665 86.84979 179.83864 296
11.67025 101.93342 177.50591 285
-16.88423 115.57614 176.73167 345
-22.86257 118.47619 180.40332 284
74.03236 70.87221 171.77789 316
67.08949 74.15407 172.77469 379
63.67036 75.76151 174.95447 389
60.75773 77.12810 177.31485 387
57.62688 78.60431 179.71169 300
42.58586 85.67750 179.85512 296
18.12630 97.27444 178.76088 286
3.29345 104.23962 180.15341 284
-23.44185 116.94150 180.41570 284
73.61840 69.90779 171.78632 316
67.78307 72.63284 173.07304 380
64.35424 74.21162 175.19669 390
61.51154 75.56047 177.57852 388
57.19862 77.55098 179.73694 300
29.17373 90.61645 177.25388 333
22.28750 93.81653 179.60231 315
10.32766 99.38502 181.40784 285
-25.57043 116.05231 180.21382 342
73.28861 69.00917 171.81155 316
68.47438 71.16573 173.36636 381
65.07021 72.75530 175.48059 391
62.22097 74.03201 177.83440 389
56.79689 76.55283 179.73413 300
31.22149 88.22794 177.75658 334
24.99393 91.06743 180.22243 332
16.85002 94.80636 182.56519 286
2.01379 101.58159 184.25774 284
72.90955 68.05346 171.77917 316
69.13953 69.73846 173.65836 382
65.73547 71.28095 175.76074 392
62.89854 72.54740 178.13171 391
56.38979 75.51373 179.70148 300
33.14378 85.92066 178.24709 335
27.08921 88.70350 180.70139 333
19.94164 91.91173 183.19165 315
9.03452 96.78870 185.36491 285
73.12514 66.87017 171.94762 385
69.82508 68.31599 173.94711 382
66.41149 69.80160 176.02771 380
63.57835 71.07735 178.38055 392
55.98573 74.44048 179.73793 300
35.05600 83.71706 178.70975 336
29.12856 86.32470 181.16789 334
22.82186 89.09514 183.72987 316
14.51309 92.82155 186.24147 314
0.75234 98.90262 188.32584 284
73.73643 65.48723 172.24634 386
70.49974 66.90024 174.23175 383
67.12564 68.39659 176.33534 381
64.27788 69.58883 178.61456 392
55.60362 73.41810 179.74078 300
36.94130 81.52612 179.17665 338
31.15268 84.06532 181.59013 335
24.98270 86.69797 184.14195 333
17.56691 89.98009 186.71634 315
7.85330 94.14744 189.27902 285
74.35202 64.15843 172.54776 387
71.15459 65.51390 174.53244 384
67.83846 66.94891 176.59262 382
64.98472 68.14904 178.86234 393
55.20454 72.34470 179.74043 300
38.73938 79.42222 179.60361 339
33.07495 81.82414 182.00648 336
27.10902 84.41338 184.54436 334
20.52810 87.18860 187.24881 316
12.10993 90.79133 189.85249 313
-0.35437 96.13287 192.38692 284
74.98542 62.82861 172.81180 388
71.79184 64.15905 174.81985 385
68.52499 65.52028 176.83688 383
65.64473 66.75998 179.11038 394
54.82758 71.31965 179.75005 300
40.49307 77.33839 180.03108 372
34.98215 79.63741 182.43022 337
29.14590 82.09766 184.96315 335
22.90290 84.75494 187.65433 333
15.24656 87.98972 190.34509 315
6.35216 91.68159 193.18025 312
-16.23346 101.24956 195.06732 265
75.62464 61.51054 173.08470 388
72.45856 62.80645 175.07684 386
69.17814 64.16176 177.13498 384
66.28315 65.33910 179.36008 395
54.45106 70.26270 179.75578 300
41.45261 75.63545 180.32294 373
36.86580 77.52644 182.86957 339
31.09080 79.92377 185.36386 336
25.05736 82.39064 188.02335 334
18.27116 85.20777 190.78896 316
9.69901 88.78630 193.58565 313
-1.44146 93.38092 196.39049 284
76.18777 60.22308 173.34804 419
73.09175 61.47582 175.35336 387
69.89687 62.77485 177.39764 385
66.94968 63.93423 179.58385 396
46.23598 72.36658 178.06021 387
42.39426 73.95737 180.59662 374
38.11766 75.67645 183.15358 372
33.03526 77.75542 185.75568 337
27.11216 80.12350 188.35156 335
20.85381 82.73203 191.15616 332
12.92109 85.90629 193.94604 314
3.90320 89.55514 196.96855 312
-16.88601 98.06635 199.43579 266
76.45548 59.05231 173.53679 419
73.71879 60.16541 175.59364 388
70.56458 61.39656 177.61185 386
66.83217 62.90095 179.63185 304
46.97374 70.83540 178.29581 388
43.26914 72.31995 180.82787 386
39.07789 73.99710 183.42648 372
34.72409 75.75491 186.08101 370
29.14844 77.94579 188.71458 336
23.03815 80.39622 191.45010 333
15.98588 83.22659 194.30298 315
7.33766 86.67328 197.26500 313
-2.52369 90.56020 200.45291 284
76.75483 57.91356 173.70198 420
74.13300 58.93210 175.81136 418
71.21346 60.06374 177.86124 387
66.53055 61.92352 179.62735 304
47.69739 69.31615 178.53508 389
44.00207 70.73562 181.07117 387
40.04272 72.31160 183.62245 373
35.69039 74.03010 186.30382 371
31.16258 75.77209 189.07118 337
25.17377 78.17001 191.80026 335
18.81904 80.66541 194.65250 332
10.58767 83.88805 197.60033 314
1.49829 87.43142 200.78889 312
77.02594 56.76009 173.87207 421
74.44204 57.78366 175.94965 419
71.74902 58.79149 178.08498 416
66.19091 60.95668 179.62413 304
48.37175 67.77775 178.77957 390
44.75568 69.20494 181.25497 387
40.96760 70.63369 183.90564 374
36.69945 72.31223 186.48973 372
32.28848 74.01038 189.24515 369
27.18937 75.93452 192.06287 336
20.99848 78.32840 194.97971 333
13.75130 81.16518 197.92133 315
4.93334 84.53555 201.05794 313
-4.62940 88.22395 204.43877 310
77.29313 55.62152 174.05894 422
74.70728 56.61084 176.12653 419
72.06470 57.63390 178.25075 417
65.88477 59.95321 179.63661 304
49.09065 66.28332 178.97244 391
45.53019 67.65096 181.48981 388
41.81804 69.03979 184.08546 386
37.67926 70.58970 186.71515 373
33.30157 72.25404 189.44295 370
28.69771 74.00633 192.32297 368
23.18851 76.10441 195.22658 334
16.72989 78.55543 198.20691 332
8.28299 81.76853 201.30051 314
-0.97695 85.20383 204.62984 311
77.58997 54.53244 174.22188 422
75.00291 55.48705 176.27452 420
72.39400 56.46308 178.40646 418
65.58712 58.94888 179.63678 304
49.81653 64.80893 179.20441 392
46.21910 66.13271 181.70624 389
42.59019 67.49620 184.27252 387
38.64029 68.95411 186.97133 374
34.31237 70.58982 189.66022 371
29.79334 72.26030 192.49023 369
25.08319 73.99850 195.44684 366
19.00013 76.22472 198.45015 333
11.50195 79.04844 201.55840 315
2.53762 82.38531 204.85760 312
77.85892 53.39147 174.38449 423
75.30117 54.30743 176.44460 421
72.70381 55.29041 178.54001 419
65.28586 57.98035 179.64049 304
50.46914 63.39983 179.44583 393
46.95559 64.65409 181.90230 390
43.35376 65.95204 184.49654 388
39.59347 67.32946 187.14392 385
35.31726 68.86285 189.88469 372
30.85975 70.50703 192.66508 370
26.20003 72.22393 195.63789 367
21.19075 74.02398 198.69101 334
14.63992 76.44080 201.80328 316
5.93649 79.58148 205.02896 313
78.14008 52.26969 174.53935 424
75.62363 53.19585 176.58922 422
73.01445 54.11277 178.71019 419
64.98248 57.00489 179.63715 304
51.17362 61.91770 179.65907 393
47.69746 63.17683 182.12875 391
44.09714 64.45884 184.70654 389
40.37411 65.78124 187.31120 386
36.32711 67.21551 190.05284 373
31.92285 68.80791 192.88698 370
27.30873 70.43655 195.78365 368
22.50540 72.14187 198.86731 365
17.01414 74.16455 201.99709 333
9.22670 76.92846 205.24329 315
78.41024 51.19279 174.68419 424
75.90990 52.07183 176.72752 422
73.32357 52.96170 178.85149 420
64.71893 55.98027 179.67041 304
51.81083 60.51604 179.86729 394
48.40069 61.72960 182.30965 392
44.80633 62.97061 184.85568 390
41.12323 64.25076 187.49734 387
37.29497 65.57426 190.24135 385
32.95603 67.14368 193.04556 371
28.43974 68.70929 195.91679 369
23.65449 70.37634 198.99078 366
18.72147 72.14310 202.14487 363
12.42929 74.31434 205.46194 316
78.68680 50.08933 174.85033 425
76.19752 50.97501 176.87871 423
73.63636 51.84836 179.01375 421
64.41881 54.98711 179.67477 304
52.50135 59.12550 180.06749 395
49.08365 60.24859 182.54791 393
45.57721 61.45834 185.08226 390
41.92280 62.74658 187.66327 388
38.14472 64.00993 190.39658 385
33.96112 65.46085 193.18019 372
29.52828 66.98934 196.06799 370
24.78761 68.63551 199.12254 367
19.93495 70.30321 202.24232 364
14.75030 72.07702 205.57787 362
78.97208 48.99345 174.98177 426
76.50377 49.85096 177.02409 424
73.94704 50.71555 179.11340 421
56.45874 56.60710 177.91953 398
53.14605 57.69265 180.28368 396
49.76493 58.87400 182.71179 394
46.27514 60.03159 185.24191 391
42.70004 61.22525 187.85616 389
38.93738 62.52175 190.56422 386
35.01962 63.81044 193.36517 373
30.57840 65.29562 196.26653 371
25.93173 66.89510 199.25075 368
21.08101 68.49355 202.39925 365
16.01788 70.20970 205.67406 363
79.25471 47.92979 175.15451 427
76.77455 48.76749 177.19003 424
74.21176 49.61954 179.26894 422
57.00417 55.30663 178.11879 412
53.81740 56.35732 180.49861 397
50.49464 57.45897 182.88947 395
47.03366 58.58753 185.44685 392
43.46708 59.77118 188.04288 390
39.75524 60.96237 190.69991 387
35.86935 62.25330 193.52370 385
31.64085 63.66732 196.40045 372
27.05143 65.16451 199.38039 369
22.26970 66.76472 202.47255 366
17.29605 68.40301 205.76189 364
79.52129 46.88790 175.27864 429
77.05641 47.66552 177.30455 425
74.54462 48.50692 179.41772 423
57.43102 53.99663 178.27094 412
54.40161 54.99903 180.63913 410
51.15852 56.04904 183.11938 395
47.70747 57.13443 185.60948 393
44.20476 58.31285 188.20290 391
40.50616 59.48124 190.85536 388
36.72576 60.71075 193.66934 386
32.64448 62.03464 196.51331 372
28.12261 63.44646 199.50990 370
23.42842 65.02560 202.58588 367
18.52854 66.57790 205.86075 364
79.80080 45.81138 175.42909 429
77.38200 46.58990 177.48294 426
74.82846 47.38586 179.55209 423
57.90902 52.72956 178.42816 413
54.90324 53.71914 180.83437 411
51.78275 54.70239 183.26549 409
48.46840 55.71865 185.78770 394
44.95119 56.85108 188.35844 391
41.29097 58.01791 191.05127 389
37.52068 59.16779 193.76593 386
33.65163 60.43080 196.66316 384
29.23631 61.80571 199.59993 371
24.59849 63.26342 202.68251 368
19.71527 64.79195 205.90926 365
80.06542 44.74961 175.55461 430
77.66491 45.51394 177.58479 426
74.73757 46.40669 179.58653 308
58.33870 51.51289 178.61720 421
55.35571 52.43301 180.95695 412
52.24739 53.39083 183.41566 409
49.08127 54.36597 185.93274 407
45.64394 55.38746 188.53111 392
42.04901 56.53081 191.15717 390
38.35592 57.68560 193.92561 387
34.48220 58.89263 196.80281 385
30.30358 60.16410 199.74246 372
25.71271 61.58241 202.77594 369
20.87629 63.06097 206.01605 366
80.34351 43.70486 175.72429 431
77.95628 44.44730 177.74142 427
74.51816 45.49449 179.56982 308
58.69527 50.26240 178.74950 422
55.82853 51.16397 181.12671 412
52.75156 52.09573 183.54863 410
49.57951 53.04544 186.08319 408
46.31659 53.99594 188.65598 405
42.82651 55.07691 191.33423 391
39.14646 56.18562 194.07089 388
35.34066 57.36133 196.92316 386
31.34227 58.52884 199.86873 383
26.80139 59.92259 202.90672 370
22.07508 61.37096 206.09718 367
80.61379 42.66999 175.84302 431
78.22820 43.38097 177.84798 428
74.25814 44.53848 179.58415 308
59.11031 49.02950 178.88069 422
56.26691 49.87390 181.27086 413
53.23660 50.77076 183.73167 411
50.11964 51.72324 186.23349 408
46.87550 52.68157 188.77228 406
43.54679 53.63476 191.44099 403
39.94503 54.73357 194.19527 389
36.15795 55.84026 197.00436 386
32.23496 57.01659 199.92403 384
27.94201 58.30637 202.98036 371
23.25698 59.68169 206.14531 368
80.89194 41.63508 175.98251 432
78.52692 42.33342 178.01585 428
74.06631 43.61488 179.58362 308
59.46071 47.86189 179.04982 423
56.68425 48.66151 181.40244 421
53.72256 49.48339 183.83932 411
50.57787 50.41155 186.33031 409
47.41351 51.32070 188.89020 407
44.10180 52.31616 191.54768 404
40.66710 53.30933 194.30917 402
36.97680 54.37148 197.13603 387
33.08052 55.45976 200.06892 385
28.98585 56.64842 203.05397 372
24.36263 57.98394 206.22017 369
81.15604 40.58809 176.10947 433
78.81355 41.26453 178.13594 429
73.86690 42.66957 179.60178 308
59.87054 46.62111 179.14699 424
57.09100 47.44487 181.56383 421
54.16813 48.25175 183.99081 412
51.09576 49.10231 186.46783 410
47.93375 50.03907 189.05208 407
44.61571 50.92570 191.68890 405
41.22805 51.92741 194.42876 402
37.74859 52.90017 197.24271 400
33.95848 53.99428 200.16560 386
29.95947 55.10365 203.15486 383
25.48087 56.34248 206.29158 370
81.44494 39.59689 176.26187 433
79.06480 40.25466 178.26027 430
73.62459 41.74555 179.58324 308
60.19860 45.44429 179.30443 424
57.46051 46.20869 181.68224 422
54.62355 46.97757 184.12338 420
51.61245 47.85915 186.62093 411
48.45211 48.68687 189.13133 408
45.16676 49.63149 191.81117 406
41.79295 50.51513 194.50290 403
38.31382 51.49646 197.30295 400
34.71763 52.49746 200.22179 398
30.83302 53.59709 203.25916 384
26.60385 54.73637 206.38078 371
-187.25565 113.84764 202.55511 495
-57319.36328 15907.69824 3153.65918 1000
81.70216 38.56141 176.38797 434
79.38633 39.20482 178.39627 430
73.46206 40.82356 179.56917 308
60.61681 44.28189 179.42937 425
57.84970 44.99818 181.83234 423
55.04573 45.79176 184.22194 421
52.09161 46.54618 186.74835 411
48.96957 47.38897 189.25217 409
45.72239 48.26830 191.92229 406
42.37251 49.18385 194.62651 404
38.89926 50.14053 197.38702 401
35.36935 51.07170 200.31328 399
31.61380 52.09544 203.34402 396
27.62324 53.13508 206.44740 382
-187.97144 111.29880 202.56380 495
81.98540 37.56106 176.48019 435
79.66525 38.16899 178.52179 431
73.26402 39.87775 179.60297 308
60.97574 43.10484 179.55975 426
58.25029 43.80505 181.91628 424
55.44322 44.55362 184.33913 421
52.56042 45.28537 186.83400 419
49.44359 46.10487 189.40636 410
46.26123 46.96007 192.01613 407
42.91953 47.84456 194.71208 405
39.48880 48.72920 197.48035 402
35.93368 49.65337 200.36137 399
32.29873 50.67035 203.39690 397
28.49659 51.61916 206.50072 394
22.94795 53.08464 209.62709 263
82.23911 36.57592 176.62563 435
79.95753 37.17388 178.64026 432
73.06141 38.91661 179.60521 308
61.31808 41.92955 179.68692 426
58.65073 42.60178 182.07372 424
55.87060 43.33282 184.48486 422
53.00333 44.08623 186.97258 420
50.00162 44.84280 189.50327 410
46.80394 45.67600 192.10316 408
43.50619 46.52605 194.80510 405
40.08813 47.38765 197.55914 403
36.59331 48.29115 200.47124 400
32.92676 49.24575 203.44812 397
29.11815 50.18993 206.53967 395
24.89000 51.29237 209.73990 355
82.53275 35.56083 176.76523 436
80.20647 36.14624 178.75371 432
72.86184 37.96869 179.61479 308
61.71320 40.78633 179.82321 427
58.99347 41.45756 182.17155 425
56.27202 42.11814 184.61626 423
53.40869 42.83090 187.05939 420
50.46357 43.58865 189.62222 411
47.30753 44.37051 192.23471 408
44.06710 45.20008 194.90533 406
40.65298 46.03431 197.64560 403
37.18762 46.88491 200.51904 401
33.54760 47.80095 203.50993 398
29.83126 48.77907 206.57553 395
25.61882 49.79219 209.76042 356
-186.77850 102.97693 209.62367 485
82.80939 34.56623 176.86310 437
80.52098 35.11692 178.85030 433
72.67500 37.01722 179.61674 308
62.08807 39.61707 179.97495 428
59.37594 40.29021 182.31570 426
56.63785 40.93719 184.70439 423
53.81901 41.65274 187.18242 421
50.91607 42.35741 189.69690 419
47.82835 43.11138 192.30939 409
44.60298 43.90741 194.98846 407
41.26024 44.70851 197.74074 404
37.78332 45.52439 200.61641 401
34.17145 46.42067 203.58028 399
30.47897 47.32392 206.60583 396
26.33609 48.32122 209.80942 356
-186.83411 100.23393 209.62932 484
83.05164 33.58479 176.98604 437
80.79700 34.12500 178.96097 433
72.51286 36.10783 179.60216 308
62.46227 38.47969 180.10143 428
59.76833 39.10231 182.41853 426
57.03762 39.77606 184.82498 424
54.22240 40.42795 187.28972 422
51.35103 41.11772 189.80025 419
48.34025 41.82194 192.41829 410
45.13651 42.60115 195.06204 407
41.81968 43.38685 197.81241 405
38.34545 44.20914 200.65915 402
34.82394 45.02328 203.64040 400
31.11967 45.92825 206.66475 397
27.08668 46.87908 209.80331 357
-187.29779 97.71679 209.65089 485
83.33280 32.62201 177.11002 438
81.08453 33.13217 179.09512 434
65.40079 36.73373 177.91211 431
62.80775 37.35861 180.22290 429
60.14516 37.94927 182.53107 427
57.46132 38.57958 184.92632 425
54.68026 39.24850 187.39851 422
51.81718 39.87267 189.88510 420
48.84610 40.56091 192.48576 417
45.66879 41.32352 195.18245 408
42.40093 42.08150 197.91275 405
38.93433 42.85359 200.76462 403
35.39676 43.65372 203.68500 400
31.73086 44.52691 206.69084 398
27.80242 45.42972 209.88219 358
-187.82097 95.22225 209.61928 485
-195.77734 96.95553 216.59923 294
83.57993 31.63869 177.22919 438
81.33257 32.12442 179.19244 436
65.75552 35.65302 178.07784 432
63.15096 36.20003 180.33084 430
60.54272 36.79676 182.66270 428
57.83880 37.40857 185.05791 425
55.06239 38.03902 187.49030 423
52.23904 38.69840 189.98322 420
49.29551 39.32205 192.58992 418
46.20941 40.03716 195.27235 409
42.93863 40.75738 197.96042 406
