# .PCD v.7 - Point Cloud Data file format
VERSION .7
FIELDS x y z rgb
SIZE 4 4 4 4
TYPE F F F U
COUNT 1 1 1 1
WIDTH 1425
HEIGHT 1
VIEWPOINT 6394.199707 -1036.497925 147.713791 -0.656146 -0.091902 -0.098423 0.742522
POINTS 1425
DATA ascii
282.20547 870.96698 57.89853 419
281.30331 859.10840 74.48887 431
280.55405 848.77136 90.36431 434
280.75128 851.59113 104.31435 491
281.08212 854.95856 118.17583 487
294.27695 1026.76160 115.33268 298
277.00662 872.46783 57.56659 421
276.24384 860.61401 74.35171 431
275.48016 850.20135 90.19086 434
275.76535 853.22998 104.17889 486
275.95679 857.12573 117.81415 487
288.14178 1026.19421 115.53752 266
271.78793 873.94879 57.25615 420
271.10538 862.22345 74.02793 431
270.49698 852.02307 89.97446 432
270.63330 854.82190 103.99028 486
270.88000 858.91296 117.73328 486
281.68610 1026.10852 115.38819 479
266.65308 876.09375 56.99765 419
266.02722 864.30402 73.82379 429
265.41501 853.90186 89.86767 432
265.58029 856.75232 103.87096 483
265.69580 860.87964 117.46996 486
275.31696 1023.88092 115.82468 480
261.45593 878.09271 56.63073 419
260.84943 866.36609 73.50483 429
260.31058 855.93439 89.69251 431
260.29837 858.35840 103.56055 482
260.62991 862.87616 117.35978 485
269.10416 1021.56018 115.92265 461
256.30896 880.18970 56.33436 421
255.58731 868.30878 73.29458 429
255.23872 857.97345 89.32882 431
255.15686 860.40723 103.38623 482
255.40874 864.97900 117.06034 480
262.49493 1018.22418 116.46040 462
250.84401 882.24249 56.10793 420
250.36716 870.38770 72.91506 428
249.94872 859.94226 89.14949 431
250.00504 862.30829 103.23475 478
250.27388 867.23700 116.89292 479
256.28503 1014.54077 116.84870 462
245.64536 884.46918 55.72415 420
245.19873 872.51849 72.47138 421
244.88286 862.14960 88.72118 429
245.00960 864.30048 102.79776 478
245.01537 869.39191 116.78078 479
249.95418 1011.18304 117.21706 463
240.26987 886.83820 55.20087 418
239.95186 875.03650 72.28502 421
239.65680 864.41766 88.56712 429
239.65639 866.51758 102.58359 477
239.92747 871.78491 116.40633 478
243.88884 1007.13104 117.66734 453
234.91560 889.18774 54.90816 430
234.74998 877.26111 71.83646 420
234.60246 866.78381 88.20572 428
234.56876 868.40271 102.33139 477
234.64967 873.90228 116.12343 478
237.62408 1003.11639 117.97258 454
229.63252 891.27289 54.52107 430
229.47743 879.83716 71.39796 420
229.34885 868.91870 87.72548 428
229.28500 870.60156 102.00059 473
229.37135 876.41821 115.95934 477
231.46896 998.88287 118.32703 454
224.15343 893.54156 54.07093 417
224.13423 882.25232 70.95158 419
224.02135 871.26440 87.46209 427
223.92825 872.53839 101.87556 473
224.15527 878.48920 115.59094 474
225.16249 994.90076 118.84716 455
218.88474 896.18262 53.54322 417
218.79767 884.72705 70.67951 419
218.84689 873.53088 87.09225 427
218.69717 874.36945 101.63479 472
218.88593 880.72699 115.33035 473
219.17944 990.91052 119.27324 456
213.54521 887.15167 70.17599 419
213.37755 876.01086 86.86712 426
213.53596 876.53595 101.45033 472
213.42276 882.81445 115.20629 473
213.08722 986.90430 119.69675 457
154.93912 26919.00000 3765.44336 1000
207.92984 889.63446 69.90087 418
208.12025 878.24451 86.46458 426
208.04875 878.41052 101.15635 471
208.02399 884.98254 114.80762 462
207.33838 982.69928 120.06886 451
202.62561 892.07410 69.39310 418
202.73656 880.63342 86.16728 425
202.64658 880.44330 100.69387 471
202.55397 887.39526 114.51834 462
201.29376 978.10260 120.45365 452
197.15907 894.43140 69.07158 430
197.31541 883.09137 85.75996 425
197.46587 882.57953 100.53207 470
197.13774 889.88177 114.28220 461
195.46924 973.98041 120.75835 453
191.60603 896.68024 68.69007 429
191.98816 885.57672 85.32507 424
192.01677 884.57086 100.18906 470
191.77762 892.43811 113.91152 459
189.83102 969.48474 121.28021 440
186.16422 898.84680 68.29018 429
186.40369 888.01178 85.00680 424
186.62013 886.84741 99.85789 463
186.38870 894.64618 113.66953 458
183.73628 967.35394 121.54746 265
180.57822 901.16425 67.83537 428
181.07306 890.43134 84.47224 423
181.00467 888.97668 99.69282 463
180.79089 897.02606 113.56098 458
178.06880 967.29620 121.28802 266
174.96140 903.25330 67.30522 428
175.57365 892.97925 84.10265 421
175.52586 891.04315 99.31758 462
175.17719 899.73822 113.10107 441
169.32391 905.76123 66.89010 426
169.91153 895.63892 83.57959 421
170.10017 893.21643 98.90838 462
169.56407 902.74884 112.74234 436
163.68605 908.20282 66.51608 434
164.35045 898.35419 83.11723 423
164.56320 895.69592 98.61154 451
163.95639 905.18848 112.29599 435
158.62833 900.92578 82.71001 422
158.88467 898.28607 98.27455 451
158.27704 907.99542 112.02841 435
153.08527 903.68658 82.38697 422
153.29268 900.67230 97.75206 450
152.64088 910.47253 111.67419 434
147.34201 906.41907 81.83070 441
147.52318 903.41046 97.52415 450
146.83549 913.59619 111.26289 417
141.58278 909.31958 81.45423 440
141.71506 905.84241 97.05721 443
140.87170 916.13434 111.04626 416
135.71674 912.19818 80.76721 440
135.99342 908.69415 96.57909 442
135.09259 919.11743 110.50484 440
133.96310 933.03021 124.42620 396
129.95888 914.97021 80.22500 439
130.23531 911.37836 96.24989 441
129.30379 921.92194 110.18047 439
123.84863 918.13849 79.86449 432
124.52155 911.35522 96.03312 274
123.26371 924.94623 109.75121 439
117.97635 922.48077 79.01382 426
118.59512 914.28192 95.67467 457
116.69214 933.90399 108.63933 262
112.83528 917.01257 95.17784 408
106.94177 919.79608 94.78082 407
100.92371 922.56537 94.34397 454
-1097.31396 2419.81250 81.44586 365
-1097.21448 2419.36670 126.27073 428
-1097.83118 2419.86475 171.44337 474
-1098.08008 2420.61328 216.71614 497
-11539.29395 20107.65625 3284.13940 1000
127.56189 148.31058 169.55933 485
126.55713 148.00578 169.45139 441
124.75724 148.92484 168.97589 489
123.31723 149.15898 168.69897 278
-17035.90234 26444.52930 -2371.82812 1000
120.72380 149.30769 168.29887 489
119.29182 149.57558 167.98380 273
117.18056 150.69800 167.40390 316
116.35253 150.01883 167.42131 316
115.51709 149.38551 167.43776 316
114.66224 148.72490 167.44447 316
111.50340 151.20895 166.40518 314
110.65332 150.52739 166.37727 314
109.78696 149.86708 166.41693 314
108.93555 149.16924 166.36432 314
108.06194 148.48474 166.40837 314
107.21851 147.77670 166.40593 314
106.38113 147.04434 166.37486 314
105.52054 146.42374 166.37175 423
103.96278 146.53995 166.07904 422
96.53662 155.81554 166.37466 310
102.43889 146.70259 165.74083 421
95.64389 155.06905 166.39000 310
100.83038 146.85707 165.43654 420
94.72609 154.30389 166.35181 310
99.26606 147.02237 165.12521 419
93.84970 153.50592 166.39029 310
97.64763 147.18658 164.82130 418
92.95107 152.77725 166.38385 309
96.05333 147.34389 164.47728 427
92.07999 151.98914 166.38127 309
94.45436 147.35646 164.23071 426
91.17531 151.14627 166.38664 309
92.89099 147.46582 163.89024 425
90.28796 150.35619 166.34137 309
91.29018 147.48114 163.57344 424
89.46510 149.60489 166.37737 309
89.94209 147.25053 163.41074 307
88.57601 148.78020 166.37039 309
89.16349 146.32889 163.41132 307
87.69540 147.95657 166.36127 309
88.43513 145.42818 163.46800 307
86.32558 147.72118 166.15247 422
87.66920 144.56699 163.49324 307
84.68118 147.75647 165.81595 420
-1520.35352 1871.50549 49.02969 346
-1519.72424 1870.68298 91.06733 346
-1519.67188 1871.19592 132.73805 413
-1519.84607 1870.96729 174.61307 413
-1519.73389 1871.33105 216.77840 413
-1520.09094 1870.86035 258.21198 413
86.90578 143.64990 163.50932 307
82.97932 147.82373 165.54163 419
74.78783 156.47353 166.27518 305
86.18406 142.69395 163.56320 307
81.20708 147.88174 165.20456 418
73.89497 155.55005 166.29672 305
85.45084 141.75371 163.59087 307
79.47719 147.93793 164.89406 417
73.01743 154.65915 166.24983 305
105.34038 119.75175 171.48947 316
77.70488 148.04460 164.51596 416
72.14027 153.73026 166.27310 305
104.65760 119.01806 171.50916 316
75.88721 148.08923 164.20662 415
71.25107 152.83890 166.27095 305
104.03510 118.28465 171.52351 316
74.05363 148.14980 163.83571 414
70.34281 151.87506 166.28490 305
103.36296 117.56505 171.53786 316
72.25832 148.25525 163.49162 413
69.47712 150.99477 166.26456 305
102.73701 116.79517 171.51076 316
70.84964 147.86069 163.30087 303
68.58589 150.04791 166.27757 305
102.08034 116.04146 171.51608 316
70.12527 146.83716 163.35637 304
67.70679 149.11159 166.22766 305
101.47350 115.27766 171.52377 316
69.39112 145.74208 163.37511 304
66.55059 148.44624 166.16998 410
100.84138 114.53978 171.53322 316
68.63889 144.71315 163.41016 304
64.59591 148.54291 165.78461 409
100.18958 113.73823 171.54895 316
67.91888 143.69464 163.47839 304
62.61192 148.59970 165.40858 408
99.58685 112.98288 171.56232 316
91.18123 120.70321 171.62125 312
60.54662 148.71362 165.07249 407
51.39665 157.14256 166.19258 301
98.97225 112.22140 171.57538 316
90.50639 119.87945 171.61897 312
58.55674 148.74785 164.66008 406
50.46370 156.04512 166.18590 301
98.35696 111.42798 171.59100 316
89.84832 119.04949 171.64845 312
56.45754 148.86548 164.30455 405
49.61326 154.99609 166.15720 301
97.77197 110.62895 171.56856 316
89.18668 118.18737 171.63000 312
54.38399 148.91530 163.90707 403
48.69248 153.87854 166.15338 301
97.13374 109.84922 171.60178 316
88.57056 117.35062 171.66171 312
52.23088 149.01909 163.53389 402
47.86116 152.85751 166.17770 301
96.56618 109.05492 171.59383 316
87.91194 116.48276 171.64905 312
50.41865 148.76747 163.22284 300
46.95884 151.78473 166.15790 301
95.96222 108.26901 171.56918 316
87.28786 115.64548 171.68768 312
49.65993 147.62302 163.27272 300
46.03784 150.71048 166.15877 301
95.39515 107.45394 171.59857 316
86.64573 114.78348 171.65915 312
48.95864 146.40712 163.33331 300
45.19397 149.58134 166.18661 301
94.80986 106.67743 171.62521 316
86.03400 113.93180 171.69356 312
48.29082 145.22786 163.36264 300
43.33339 149.34276 165.83702 398
94.19215 105.88011 171.59862 316
85.41611 113.09638 171.68268 312
75.38026 121.29760 171.77623 308
40.99663 149.42953 165.48250 397
93.65374 105.03673 171.60213 316
84.79361 112.23171 171.69177 312
74.73141 120.36488 171.76450 308
38.61382 149.57095 165.06775 396
93.06290 104.25036 171.63515 316
84.19495 111.33300 171.69470 312
74.06884 119.41412 171.76088 308
36.20918 149.66139 164.62701 395
25.76132 158.03555 166.00723 297
92.51843 103.42989 171.62523 316
83.55963 110.46074 171.67799 312
73.41413 118.50158 171.80521 308
33.77226 149.70398 164.15941 393
24.85718 156.80759 166.07115 297
91.93458 102.61797 171.61256 316
82.96716 109.58428 171.72528 312
72.79455 117.52032 171.77124 308
31.36070 149.80319 163.72716 392
23.98066 155.55037 166.00655 297
91.40288 101.78688 171.62859 316
82.37830 108.69845 171.70834 312
72.14256 116.56921 171.76372 308
28.81972 149.96114 163.27301 391
23.08652 154.31470 166.02386 297
90.83174 100.94701 171.63335 316
81.80686 107.84676 171.73138 312
71.49874 115.62335 171.81934 308
27.43149 149.10863 163.11699 296
22.20418 153.11363 166.00597 297
90.29593 100.10037 171.65540 316
81.22044 106.93528 171.72325 312
70.86871 114.71410 171.81494 308
26.78650 147.75047 163.21417 296
21.34863 151.86714 166.05380 297
89.77658 99.29314 171.65894 316
80.65636 106.06068 171.70940 312
70.24557 113.75617 171.81554 308
58.37072 122.54620 171.91124 304
20.43356 150.59473 166.01976 295
89.25899 98.45728 171.67299 316
80.07502 105.17252 171.72749 312
69.63305 112.76283 171.82727 308
57.69334 121.50256 171.92183 304
18.28749 150.27867 165.71190 389
88.73644 97.60280 171.67838 316
79.48260 104.27084 171.73003 312
69.03616 111.81563 171.81873 308
57.02639 120.45298 171.90167 304
15.61506 150.36920 165.25311 388
88.18508 96.78349 171.63663 316
78.95361 103.33408 171.72380 312
68.41724 110.83486 171.84387 308
56.36758 119.43625 171.91965 304
12.84443 150.42245 164.80881 387
-40345.60547 28892.00000 4299.26953 1000
87.66140 95.90839 171.67511 316
78.36502 102.45254 171.75291 312
67.83491 109.85344 171.80081 308
55.74784 118.36575 171.93994 304
10.00751 150.51860 164.34705 386
87.15076 95.06423 171.67877 316
77.82297 101.56362 171.72255 312
67.22642 108.89667 171.81645 308
55.11543 117.32620 171.94934 304
7.13001 150.57004 163.82779 384
-4.97364 158.96716 165.66133 290
86.63507 94.20161 171.65930 316
77.27747 100.60417 171.77470 312
66.65301 107.92484 171.82132 308
54.47365 116.26384 171.91859 304
4.28236 150.65544 163.35458 383
-5.85445 157.56693 165.61879 290
86.14203 93.35470 171.66891 316
76.73584 99.70763 171.73453 312
66.06167 106.94932 171.84872 308
53.81824 115.19471 171.91924 304
1.30155 150.70946 162.87283 382
-6.69890 156.11555 165.66057 291
85.64455 92.49719 171.70218 316
76.22803 98.80846 171.74236 312
65.47932 105.93864 171.84755 308
53.19240 114.14841 171.93488 304
39.00135 123.63386 172.07306 300
-7.64826 154.76340 165.66666 291
85.14188 91.62864 171.69205 316
75.69665 97.88296 171.75970 312
64.92690 104.93959 171.83171 308
52.58850 113.05074 171.93674 304
38.33693 122.47845 172.10109 300
-8.58855 153.35385 165.61137 291
84.67945 90.74142 171.67656 316
75.14948 96.94389 171.75409 312
64.35337 103.92535 171.85860 308
51.98889 111.98452 171.97675 304
37.62643 121.29325 172.07558 300
-9.44495 151.91702 165.65433 291
84.21211 89.91248 171.70825 316
74.64849 96.02017 171.75179 312
63.82090 102.95123 171.85789 308
51.39656 110.92118 171.97298 304
36.97939 120.15326 172.08646 300
-11.19043 151.07634 165.46367 377
83.71930 89.02624 171.70929 316
74.13162 95.08971 171.80312 312
63.28214 101.93299 171.86931 308
50.77820 109.82967 171.97691 304
36.33624 118.93727 172.08626 300
-14.47551 151.13683 164.88623 376
83.23837 88.15240 171.72362 316
73.64769 94.14475 171.75787 312
62.73428 100.92712 171.88971 308
50.19753 108.76378 171.95753 304
35.70515 117.76295 172.09587 300
-17.81715 151.16641 164.42610 374
82.78207 87.26255 171.70583 316
73.14907 93.20566 171.78470 312
62.17895 99.91541 171.87578 308
49.64547 107.68926 172.00584 304
35.09422 116.59959 172.08363 300
-21.30545 151.26630 163.85742 373
82.32059 86.38865 171.72548 316
72.64217 92.27059 171.78760 312
61.62886 98.95113 171.86507 308
49.02956 106.57504 172.01045 304
34.43155 115.41737 172.08485 300
-24.78727 151.34868 163.28197 372
81.88118 85.49992 171.70590 316
72.15797 91.30752 171.77831 312
61.09778 97.89497 171.86552 308
48.46657 105.49911 172.01817 304
33.86172 114.22437 172.12610 300
16.67113 124.48756 172.26183 296
-41.62222 159.39487 165.15054 286
81.44871 84.58893 171.71375 316
71.68796 90.36657 171.81259 312
60.58736 96.91182 171.90681 308
47.92944 104.37737 172.01770 304
33.20701 113.02582 172.11920 300
15.97758 123.18420 172.24316 296
-42.53745 157.76437 165.17772 286
-1959.01160 1288.49854 92.06970 417
-1958.76782 1287.99561 133.18506 466
-1958.09912 1287.74414 174.61758 466
-1957.54614 1287.54224 216.57823 494
-1957.55493 1287.26135 257.53720 494
81.00233 83.72829 171.71030 316
71.19823 89.39070 171.79155 312
60.08588 95.88118 171.90102 308
47.37624 103.29458 171.97758 304
32.63414 111.84953 172.09442 300
15.30603 121.88576 172.28082 296
-43.36022 156.10712 165.13422 286
80.55770 82.81710 171.70418 316
70.70747 88.45480 171.78546 312
59.55516 94.85029 171.92561 308
46.79560 102.17189 171.98694 304
32.04556 110.65099 172.11446 300
14.70929 120.58324 172.25229 296
-44.21472 154.39014 165.14799 286
80.10535 81.92826 171.70860 316
70.26678 87.48079 171.81175 312
59.06913 93.83338 171.90723 308
46.24431 101.03865 172.02051 304
31.44519 109.43979 172.13962 300
14.04101 119.31680 172.25433 296
-45.09701 152.75125 165.17336 286
79.69351 81.00786 171.72006 316
69.79222 86.52812 171.80167 312
58.57885 92.79658 171.90021 308
45.71926 99.93947 172.02641 304
30.85874 108.26995 172.15520 300
13.41436 117.95296 172.30762 296
-47.52298 151.96625 164.86464 364
79.26845 80.14651 171.73187 316
69.32479 85.56915 171.82524 312
58.11941 91.74419 171.90498 308
45.18396 98.86266 171.99902 304
34.34266 104.83117 173.08363 272
14.78092 115.51311 172.68350 270
-51.25857 151.90892 164.32042 373
78.83928 79.20078 171.74719 316
68.89357 84.62292 171.80394 312
57.61572 90.74098 171.94106 308
44.74266 97.70061 172.00986 321
38.79094 100.87669 174.20381 320
26.40896 107.61207 175.28470 271
-55.18206 151.81819 163.75745 371
78.43091 78.29218 171.73727 316
68.44892 83.62739 171.80782 312
57.12088 89.66338 171.90305 308
47.15406 95.04588 172.75491 322
41.39303 98.10478 174.89873 321
35.43346 101.28349 177.25011 319
19.41851 109.80152 177.88016 273
78.02921 77.37748 171.75002 316
68.03809 82.65292 171.83640 312
56.68288 88.60868 171.93970 308
49.45964 92.42825 173.43837 323
43.85347 95.38379 175.56815 322
38.12204 98.38516 177.89003 320
29.86512 102.72600 179.95290 274
8.79529 113.75266 180.09943 288
77.60775 76.49570 171.77560 316
67.59227 81.70219 171.85693 312
56.93958 87.22095 172.10727 327
51.73679 89.91364 174.12083 325
46.29919 92.72430 176.25029 324
40.68140 95.60141 178.51535 322
29.35555 101.49482 179.97133 292
8.22667 112.44779 180.11627 288
77.22203 75.57126 171.75024 316
67.17107 80.71543 171.84143 312
58.97530 84.90055 172.79590 328
53.94190 87.47419 174.78358 326
48.64359 90.18683 176.86494 325
43.23701 92.91224 179.17229 323
28.83352 100.23056 179.96303 292
7.60516 111.11358 180.14493 288
76.84599 74.65947 171.73964 316
66.75745 79.70871 171.84865 312
60.67326 82.78003 173.34999 385
56.08469 85.07426 175.41206 327
50.87531 87.69896 177.50150 325
45.64148 90.31792 179.75728 324
28.34239 99.04327 179.94002 292
7.01839 109.73486 180.11107 288
76.44157 73.74998 171.76085 316
66.33812 78.73828 171.85413 312
61.42762 81.18420 173.63220 386
58.14157 82.80220 176.03749 328
53.10843 85.26025 178.10364 326
45.45336 89.07561 179.80267 296
27.81104 97.79501 179.96684 292
1.09910 111.01884 179.26819 290
-19.83598 121.42709 180.32797 284
76.05927 72.81477 171.75667 316
65.92567 77.77753 171.85216 312
62.15452 79.58280 173.94173 387
59.11961 81.07372 176.36208 386
55.25757 82.96606 178.66164 327
44.97974 87.97446 179.84355 296
-7.94203 113.73412 173.50964 289
-8.00377 113.79372 177.80695 289
-20.52611 119.88072 180.36212 284
75.72769 71.87119 171.77623 316
66.27996 76.41738 172.06030 378
62.86007 78.03191 174.24065 389
59.85037 79.49101 176.65337 387
56.83741 80.92631 179.12155 385
44.51366 86.81001 179.81282 296
9.55140 103.61195 176.78065 285
-15.24599 115.49629 176.78154 345
-21.16503 118.32388 180.36200 284
75.36564 70.94800 171.79109 316
67.01188 74.87679 172.39276 379
63.54321 76.51846 174.53574 390
60.63241 77.91243 176.92032 388
57.57424 79.33476 179.37029 386
44.09431 85.73367 179.81865 296
16.09368 98.88823 178.14195 286
-0.50372 106.77340 179.27991 266
-21.74189 116.81689 180.32986 284
74.96998 70.02180 171.79744 316
67.71492 73.39627 172.68703 380
64.23229 75.03739 174.83005 391
61.35044 76.37379 177.20270 389
58.35268 77.73697 179.61858 387
43.64446 84.55769 179.81877 296
21.45005 94.86165 179.15321 315
8.14194 101.08587 180.82637 285
-23.83703 115.92146 180.18419 342
74.64326 69.10921 171.80043 316
68.38500 71.92835 172.97682 381
64.90088 73.52975 175.09927 392
62.05373 74.84819 177.46132 390
58.24060 76.55546 179.69136 300
30.67200 89.17630 177.30882 334
24.34236 92.08623 179.77583 316
14.75567 96.44661 181.99194 286
-1.80524 104.01230 183.44627 266
74.28732 68.16791 171.76111 316
69.07617 70.48561 173.29140 382
65.60461 72.03022 175.36977 379
62.74756 73.32694 177.74620 391
57.85087 75.54772 179.73633 300
32.58534 86.89717 177.79201 335
26.46136 89.65968 180.26099 333
19.03758 93.01111 182.76077 315
6.85781 98.45808 184.78246 285
73.94417 67.19037 171.81064 316
69.77027 69.04134 173.57947 383
66.34963 70.54956 175.67166 380
63.48576 71.82808 177.99287 392
57.48016 74.50867 179.73753 300
34.52760 84.66879 178.30287 337
28.53870 87.26360 180.74788 334
21.96580 90.23150 183.27794 316
13.51141 93.94545 185.77849 286
-2.93320 101.22655 187.58636 267
73.72383 66.19717 171.80731 386
70.45635 67.62500 173.84444 383
67.07684 69.12998 175.94608 381
64.12686 70.40115 178.21292 393
57.11975 73.44271 179.72174 300
36.39830 82.47453 178.73830 338
30.56133 85.00751 181.16153 335
24.36325 87.68813 183.79478 333
16.66886 91.06665 186.33981 315
5.59277 95.87715 188.71779 285
74.37258 64.88514 172.13432 387
71.12225 66.23501 174.10696 384
67.74831 67.66171 176.21834 382
64.83992 68.94808 178.47621 394
56.70730 72.38293 179.73764 300
38.26694 80.34042 179.20856 339
32.53851 82.73336 181.60399 336
26.49104 85.32506 184.21266 334
19.66368 88.24168 186.81664 316
11.12434 91.94515 189.53671 314
-3.98473 98.33907 191.74350 267
74.99097 63.52138 172.39890 388
71.78793 64.88091 174.38956 385
68.44048 66.25454 176.44020 383
65.53414 67.51344 178.73808 395
56.34511 71.33092 179.70212 300
40.05033 78.20676 179.65160 340
34.43145 80.54775 182.04944 337
28.54225 83.04684 184.60201 335
22.28210 85.68279 187.27582 333
14.26299 89.08636 189.93864 315
4.45919 93.19283 192.72131 285
75.58893 62.19344 172.64519 389
72.43310 63.51765 174.67662 386
69.15248 64.86941 176.72745 384
66.19527 66.10795 178.94830 396
55.97419 70.30319 179.75186 300
41.33217 76.40060 179.98981 373
36.32579 78.45500 182.44717 339
30.55585 80.82927 184.99387 336
24.39270 83.36057 187.65363 334
17.33468 86.26560 190.41853 316
8.65857 89.89239 193.23624 313
-4.83916 95.43391 195.94298 267
76.20407 60.89998 172.95363 389
73.08909 62.18454 174.92662 387
69.82309 63.50348 176.95192 385
66.85398 64.69612 179.17024 396
55.64687 69.27384 179.73035 300
42.26061 74.72800 180.24623 374
37.92865 76.43651 182.81029 372
32.51496 78.67389 185.37898 337
26.47896 81.11703 187.99977 335
20.17435 83.65047 190.79059 332
11.91367 87.01719 193.63963 314
2.85797 90.73595 196.62560 312
-22.59362 101.06100 198.82109 266
76.63683 59.70528 173.13318 419
73.69672 60.86855 175.18416 388
70.48569 62.13018 177.23206 386
67.49738 63.34928 179.42174 397
46.93480 71.54518 177.94136 388
43.17740 73.03711 180.47496 375
38.92749 74.74410 183.06873 373
34.41906 76.51924 185.75124 338
28.55560 78.88161 188.37610 336
22.34517 81.37177 191.15396 334
15.02518 84.29313 194.01143 316
6.28319 87.79932 196.97998 313
-5.53835 92.49139 200.03365 267
76.88836 58.53264 173.32976 420
74.25512 59.54888 175.41031 418
71.17126 60.79973 177.46997 387
68.06123 62.01642 179.63831 304
47.61956 69.99825 178.19557 389
43.92623 71.43275 180.74336 387
39.90977 73.02943 183.30559 373
35.51612 74.77078 185.98836 371
30.52972 76.72097 188.68410 337
24.48626 79.07008 191.45108 335
18.05592 81.62907 194.37627 317
9.53650 84.92419 197.28990 314
0.34667 88.52264 200.50668 312
77.17039 57.39471 173.48717 421
74.56867 58.40241 175.59903 419
71.82703 59.46666 177.69368 388
67.77944 61.02633 179.62546 304
48.32250 68.47430 178.41505 390
44.69209 69.92616 180.95618 388
40.84990 71.41399 183.56593 374
36.51759 73.07489 186.21564 372
32.03365 74.79144 188.95660 369
26.57590 76.90452 191.78188 336
20.32192 79.26942 194.67107 333
12.72331 82.18675 197.62206 315
3.86206 85.61229 200.77657 313
-6.20765 89.54135 204.16592 267
77.49265 56.26852 173.62752 422
74.88402 57.24094 175.73428 419
72.18163 58.23832 177.90025 417
67.45847 60.05951 179.61215 304
49.08020 66.98729 178.61113 391
45.45338 68.39337 181.17081 388
41.72366 69.80215 183.76741 386
37.52625 71.36855 186.43497 373
33.07141 73.06184 189.15855 370
28.44237 74.77679 192.03581 368
22.48195 77.06496 194.93361 334
15.83204 79.58661 197.97502 316
7.19855 82.80544 201.07281 314
-2.14651 86.35722 204.42636 311
77.74698 55.12610 173.81163 422
75.15829 56.07164 175.89445 420
72.52026 57.07570 178.02927 418
67.19778 59.04445 179.66145 304
49.73973 65.51820 178.84747 392
46.18784 66.86093 181.35439 389
42.48678 68.19738 183.95872 387
38.47345 69.67891 186.62633 374
34.12346 71.31824 189.38147 371
29.57322 73.01933 192.20259 369
24.65285 74.84848 195.21646 335
18.29385 77.18723 198.17053 333
10.45531 80.12443 201.28580 315
1.44211 83.43040 204.61406 312
78.04145 54.00000 173.98010 423
75.49442 54.92746 176.03484 421
72.83185 55.90130 178.17949 419
66.89303 58.08262 179.64609 304
50.44182 64.08318 179.07591 393
46.88632 65.36617 181.58850 390
43.24013 66.67990 184.18115 388
39.44888 68.08087 186.83357 385
35.12880 69.60110 189.54465 372
30.63298 71.25626 192.40416 370
25.93598 72.98469 195.36234 367
20.49764 74.93073 198.41238 334
13.56721 77.47442 201.55048 316
4.81102 80.68326 204.80869 314
78.31867 52.87195 174.13463 424
75.78233 53.80555 176.19687 422
73.16200 54.74711 178.33533 419
66.59072 57.06132 179.62233 304
51.15179 62.61696 179.30661 393
47.63781 63.88757 181.77377 391
44.02834 65.15805 184.37428 389
40.22659 66.49012 187.02423 386
36.14936 67.94544 189.78114 373
31.69462 69.55441 192.55684 370
27.08526 71.22202 195.50003 368
22.18355 72.92642 198.63106 365
16.27997 75.09591 201.76659 333
8.16345 77.96111 205.02563 315
78.60016 51.76982 174.25458 424
76.08743 52.67617 176.33705 422
73.44469 53.61061 178.46008 420
66.33691 56.07542 179.62267 304
51.80230 61.16969 179.48157 394
48.31857 62.41668 181.95006 392
44.76160 63.63651 184.51775 390
41.03108 64.95801 187.17113 387
37.13776 66.32523 189.96527 374
32.72993 67.85395 192.73280 371
28.16642 69.46701 195.66258 369
23.37790 71.13986 198.72740 366
18.39946 72.88683 201.95343 364
11.36974 75.34449 205.19551 316
78.89497 50.68787 174.42256 425
76.35433 51.56672 176.48828 423
73.74968 52.44127 178.64064 421
66.04897 55.08366 179.66371 304
52.49821 59.75109 179.71831 395
49.05853 60.97170 182.18170 393
45.47104 62.17502 184.71600 390
41.83625 63.41227 187.36618 388
37.98788 64.75369 190.10779 386
33.76713 66.19962 192.90909 372
29.24332 67.76218 195.86053 370
24.50555 69.38276 198.88443 367
19.57778 71.08194 202.06883 364
14.22986 72.91257 205.40222 332
79.18588 49.62308 174.59076 427
76.66884 50.44294 176.64101 424
74.06129 51.30580 178.77875 421
65.80675 54.10504 179.63969 304
53.17533 58.39064 179.88103 396
49.73352 59.49065 182.34192 394
46.25290 60.70076 184.88403 391
42.60081 61.94346 187.54163 389
38.82949 63.19448 190.25763 386
34.82082 64.57389 193.06897 373
30.34115 66.05321 196.01050 371
25.69246 67.64902 199.01588 368
20.81284 69.28963 202.14076 365
15.69855 70.98067 205.50659 363
79.46082 48.54486 174.71637 428
76.95273 49.36415 176.76324 424
74.40033 50.20649 178.90269 422
65.56134 53.12824 179.64220 304
53.82154 57.00138 180.11798 397
50.44406 58.08505 182.55231 395
46.97305 59.25644 185.08591 392
43.36920 60.41544 187.69902 390
39.63667 61.66510 190.41167 387
35.75665 62.97183 193.24947 385
31.41322 64.37408 196.14828 372
26.77255 65.90109 199.15089 369
22.00002 67.49078 202.29372 366
16.93063 69.17325 205.56339 364
79.74735 47.47417 174.88490 429
77.24529 48.24099 176.93410 425
74.68780 49.07869 179.04022 423
65.31242 52.10525 179.66214 304
54.45618 55.59191 180.28596 398
51.12958 56.66951 182.73355 395
47.69569 57.81439 185.28355 393
44.11450 58.93963 187.87907 391
40.41172 60.16917 190.55658 388
36.60136 61.39580 193.36885 386
32.43514 62.74635 196.24605 372
27.88629 64.22120 199.26457 370
23.13765 65.76501 202.37285 367
18.18550 67.37450 205.62868 364
79.99304 46.40075 174.98958 430
77.52459 47.15431 177.05118 426
74.99393 47.96808 179.18088 423
58.00854 53.35997 178.05560 413
54.97951 54.32186 180.46652 411
51.79166 55.29948 182.92499 396
48.38829 56.39654 185.45108 394
44.85059 57.51934 188.02005 391
41.22332 58.67733 190.74081 389
37.40578 59.86763 193.51167 386
33.49767 61.09315 196.40073 373
28.99132 62.54922 199.37393 371
24.26228 64.00388 202.45197 368
19.38290 65.54230 205.70766 365
80.28006 45.32401 175.17047 430
77.83787 46.09796 177.21362 426
75.29312 46.85363 179.28616 424
58.44724 52.10259 178.23273 414
55.41123 53.01786 180.60498 412
52.32347 53.99213 183.07877 409
49.10960 54.98133 185.61421 395
45.58117 56.08929 188.20898 392
41.97100 57.16711 190.86000 390
38.24119 58.35980 193.64790 387
34.33801 59.57186 196.50627 385
30.07580 60.88823 199.50313 372
25.43288 62.30843 202.55150 369
20.56791 63.82799 205.83011 366
80.55962 44.28009 175.30794 431
78.11559 44.99977 177.34547 427
75.61597 45.76746 179.41568 425
58.83553 50.84705 178.38974 422
55.89142 51.74206 180.76999 412
52.79095 52.66832 183.22362 410
49.63180 53.66021 185.73805 408
46.36118 54.62930 188.38048 393
42.72987 55.71487 191.01936 391
39.05649 56.84026 193.77223 388
35.15490 58.04054 196.65430 386
31.10365 59.24983 199.63620 373
26.51543 60.63653 202.70145 370
21.73570 62.08743 205.86092 367
80.85094 43.22520 175.44409 432
78.44092 43.95551 177.44690 428
75.91863 44.71028 179.54504 425
59.20106 49.64947 178.51138 422
56.34580 50.45661 180.89746 413
53.28254 51.41174 183.37767 411
50.12909 52.31382 185.90190 408
46.87444 53.27340 188.51105 406
43.49174 54.27362 191.16245 392
39.85057 55.37650 193.92108 389
36.00515 56.53345 196.78130 386
32.04599 57.68408 199.74777 384
27.66674 58.99343 202.80287 371
22.92299 60.38876 205.96162 368
81.13206 42.20949 175.55659 432
78.71807 42.90776 177.58623 428
75.77224 43.72857 179.56310 308
59.62601 48.42873 178.62677 423
56.79033 49.25213 181.04214 421
53.79782 50.09510 183.52139 412
50.65204 51.00963 186.00026 409
47.41037 51.95925 188.61220 407
44.10266 52.91431 191.26175 404
40.62078 53.93303 194.04546 390
36.83458 54.99014 196.86780 387
32.92768 56.15986 199.83722 385
28.73277 57.37527 202.84547 372
24.07450 58.73606 206.00783 369
81.37396 41.16064 175.67885 433
78.99471 41.82869 177.72360 429
75.59478 42.81709 179.59254 308
59.98832 47.22075 178.77106 424
57.19804 48.00266 181.21072 422
54.26079 48.84378 183.66170 412
51.18255 49.69582 186.11917 410
47.93663 50.63743 188.74565 407
44.65856 51.54561 191.39082 405
41.21630 52.51010 194.13188 402
37.64563 53.51747 196.99631 388
33.78062 54.64948 199.91646 386
29.74615 55.74269 202.94298 383
25.19788 57.04255 206.08144 370
81.67069 40.14674 175.81383 433
79.28137 40.77947 177.86668 430
75.37517 41.88214 179.57079 308
60.36092 46.01561 178.90041 424
57.61237 46.80375 181.29585 422
54.73575 47.56957 183.74808 420
51.64905 48.41044 186.28424 411
48.46652 49.28027 188.84773 408
45.16717 50.19083 191.51836 406
41.78794 51.12452 194.24527 403
38.28703 52.10086 197.07906 401
34.60080 53.14080 200.03752 386
30.65824 54.26150 203.04564 384
26.31511 55.39784 206.15344 371
-187.12315 114.39754 202.30632 495
81.93188 39.13128 175.96077 434
79.57446 39.76163 177.98759 430
75.19131 40.95169 179.56775 308
60.74371 44.82787 179.05534 425
57.99951 45.57637 181.45987 423
55.16304 46.32360 183.87848 421
52.16495 47.16134 186.41533 411
49.01289 47.99023 188.97542 409
45.74165 48.89424 191.62842 406
42.36744 49.80227 194.31889 404
38.89077 50.71302 197.15237 401
35.28316 51.71339 200.06534 399
31.51194 52.70685 203.11008 385
27.38860 53.81437 206.24022 382
21.47968 55.40076 209.43033 263
82.22572 38.09274 176.05997 435
79.88012 38.72699 178.09604 431
75.04489 39.99083 179.57388 308
61.10225 43.66760 179.18694 426
58.40012 44.36579 181.58730 424
55.56133 45.12243 183.99420 421
52.63789 45.87233 186.49776 412
49.48844 46.71376 189.06392 410
46.27858 47.57462 191.68896 407
42.94361 48.43827 194.41248 405
39.48445 49.34686 197.26472 402
35.91061 50.27348 200.14340 399
32.20372 51.23920 203.20398 397
28.31877 52.28549 206.30898 383
23.53618 53.53729 209.51384 340
82.48825 37.10933 176.20251 435
80.15376 37.70601 178.19653 432
74.86116 39.03440 179.57269 308
61.48128 42.45867 179.29546 427
58.75916 43.18704 181.71489 424
55.98854 43.92616 184.10602 422
53.09935 44.61462 186.65115 420
50.02456 45.42985 189.20667 410
46.80049 46.25146 191.80754 408
43.49000 47.08680 194.54565 405
40.03526 47.99889 197.34138 403
36.53296 48.89552 200.22119 400
32.81299 49.85234 203.24571 397
29.02046 50.83628 206.35971 395
24.75188 51.92070 209.55824 341
82.77188 36.09419 176.31194 436
80.46342 36.67340 178.31302 432
74.68471 38.11351 179.59317 308
61.87885 41.32233 179.44298 427
59.17148 41.99733 181.81061 425
56.37942 42.70785 184.25807 423
53.49316 43.38504 186.72771 420
50.52482 44.12925 189.29771 411
47.36451 44.97113 191.93074 409
44.04352 45.78201 194.61771 406
40.62682 46.62019 197.39082 403
37.11393 47.50854 200.32056 401
33.49115 48.41098 203.30304 398
29.71815 49.37734 206.38855 395
25.55192 50.39094 209.59535 356
-187.09018 103.64056 209.39162 295
-100.14995 24.39849 -27.62250 437
80.72796 35.65057 178.45596 433
74.50456 37.18776 179.57538 308
62.23272 40.14619 179.57513 428
59.52963 40.82066 181.93167 426
56.77662 41.51136 184.35124 423
53.91961 42.18641 186.81903 421
51.03345 42.88738 189.39857 419
47.88432 43.66727 192.01947 409
44.58097 44.46404 194.70122 407
41.22370 45.29562 197.51988 404
37.75496 46.11295 200.37878 401
34.08576 47.03066 203.37007 399
30.37477 47.90797 206.42435 396
26.33871 48.89072 209.63347 356
-186.79649 100.84876 209.41585 485
83.28664 34.10251 176.55487 437
81.02618 34.62984 178.57367 435
74.36498 36.22430 179.58215 308
62.62220 39.01829 179.68214 428
59.92512 39.65355 182.05504 426
57.16871 40.28844 184.46884 424
54.32909 40.98267 186.95448 422
51.44838 41.67284 189.48729 419
48.38589 42.39174 192.09474 410
45.15226 43.15427 194.82359 407
41.81792 43.94228 197.56525 405
38.33212 44.75608 200.41608 402
34.72150 45.63745 203.39516 400
31.02634 46.48696 206.47382 397
27.02168 47.47026 209.66272 357
-187.28278 98.25043 209.40530 485
83.56393 33.12286 176.65280 438
81.31210 33.63313 178.66400 436
-118.19066 27.26350 -28.28474 308
62.99141 37.88082 179.83430 429
60.31397 38.46626 182.15451 427
57.58932 39.12449 184.55550 425
54.78325 39.76256 187.04637 422
51.86951 40.43859 189.57707 420
48.93418 41.11251 192.21983 417
45.68708 41.87904 194.86397 408
42.38186 42.64175 197.64133 406
38.91317 43.42112 200.53407 403
35.37028 44.23680 203.46016 400
31.66301 45.10705 206.51584 398
27.79511 46.00262 209.70726 360
-187.72127 95.74841 209.40294 485
-196.68452 97.79732 216.49144 294
83.85680 32.14515 176.78931 438
81.59237 32.64059 178.79088 436
74.07171 34.33630 179.57378 308
63.35334 36.72361 179.95656 430
60.71532 37.34695 182.28992 428
57.98644 37.93231 184.68268 425
55.19303 38.55489 187.17451 423
52.29711 39.19654 189.67307 421
49.37882 39.87377 192.29395 418
46.25719 40.55816 194.95728 409
42.90842 41.32249 197.73633 406
39.51266 42.05825 200.58662 404
35.97480 42.89849 203.53702 401
32.32925 43.69067 206.54852 398
28.47802 44.57612 209.72174 361
-188.15862 93.10565 209.50743 485
-189.60388 93.40635 216.39418 296
84.10591 31.16873 176.86134 458
81.88823 31.67985 178.89798 437
73.92400 33.39672 179.60623 308
63.72896 35.62749 180.06393 430
61.08215 36.17196 182.39145 428
58.36949 36.78813 184.78340 426
55.57439 37.39220 187.25571 424
52.75193 37.99271 189.79443 421
49.83314 38.63067 192.36438 419
46.78796 39.31018 195.07664 409
43.52024 40.00103 197.80319 407
40.11953 40.77326 200.64777 404
36.57759 41.50494 203.55219 402
32.92909 42.33587 206.63916 399
29.18876 43.13990 209.77428 396
-182.82336 89.29825 216.40979 297
84.14130 30.26611 176.95103 458
82.06821 30.69278 178.97714 456
73.77924 32.43446 179.58232 308
64.08497 34.49428 180.16829 431
61.47618 35.02822 182.49792 429
58.77006 35.61332 184.89528 427
55.98756 36.17953 187.35751 424
53.17351 36.79064 189.85170 422
50.27000 37.42904 192.46855 419
47.23322 38.06777 195.15062 417
44.05833 38.74060 197.89207 408
40.66368 39.42730 200.71196 405
37.20852 40.17457 203.60332 402
33.59502 40.94845 206.65866 400
29.84919 41.74375 209.79929 397
-182.95459 86.72775 216.39691 439
84.20051 29.33563 176.99069 458
82.14169 29.76508 178.99973 456
66.99690 32.86380 178.01187 434
64.43356 33.36018 180.27283 432
61.83787 33.92962 182.62854 429
59.16607 34.45839 185.00050 427
56.43046 35.00695 187.44112 425
53.59691 35.60636 189.96237 422
50.67649 36.19149 192.52600 420
47.72454 36.81798 195.19365 418
44.60847 37.47379 197.97218 408
41.28254 38.15510 200.75769 406
37.82283 38.85908 203.65526 403
34.20702 39.58537 206.67766 400
30.52097 40.34209 209.82407 398
-182.99629 84.10067 216.40144 439
84.27016 28.41551 177.01695 459
82.18355 28.82831 179.05792 457
67.35259 31.79148 178.13194 435
64.80044 32.28059 180.40230 432
62.21288 32.77965 182.73386 430
59.56919 33.33518 185.10049 428
56.80358 33.88001 187.54858 425
54.00557 34.42513 190.05505 423
51.14936 34.99723 192.60104 421
48.14285 35.56772 195.28435 418
45.10802 36.19235 198.00769 416
41.82370 36.84853 200.82687 406
38.38576 37.54635 203.71284 404
34.84737 38.23117 206.72530 401
31.13150 38.97068 209.84592 398
-183.01389 81.45835 216.42862 424
84.31181 27.51727 177.06575 459
82.25721 27.89864 179.11891 457
67.68258 30.70065 178.23064 435
65.17931 31.17302 180.51796 433
62.60367 31.68921 182.79149 431
59.93928 32.20359 185.21198 428
57.25138 32.69884 187.64587 426
54.43364 33.22085 190.11618 424
51.58754 33.78439 192.71652 421
48.61794 34.35077 195.34595 419
45.59801 34.93598 198.10498 416
42.38329 35.52398 200.88199 407
-91.34673 17.56200 -6.09867 404
35.43267 36.90400 206.76483 402
31.78290 37.57693 209.85030 399
-183.09175 78.89133 216.43951 424
-190.14264 80.24701 223.44820 322
84.38599 26.59309 177.12363 459
82.31263 26.95352 179.16942 457
68.06174 29.62907 178.36945 436
65.51401 30.07814 180.59058 434
62.96721 30.55645 182.92278 431
60.34433 31.05212 185.26958 429
57.64865 31.54474 187.74068 427
54.86251 32.07058 190.23175 424
51.98949 32.57392 192.80693 422
49.09003 33.12695 195.43410 419
46.02922 33.69911 198.12646 417
42.94611 34.26278 200.92419 414
39.60003 34.90932 203.83401 405
36.07153 35.57820 206.82565 402
32.42308 36.26083 209.87996 400
-183.12613 76.33274 216.41945 424
-187.53305 77.18571 223.34627 322
84.41348 25.65543 177.18176 460
82.35725 26.01658 179.18326 458
68.10354 28.61613 178.40015 455
65.76964 29.01805 180.70021 453
63.32352 29.44145 183.00096 432
60.71587 29.90450 185.39005 430
58.04401 30.39118 187.82419 427
55.30140 30.91700 190.30042 425
52.41958 31.41087 192.88254 422
49.51003 31.91265 195.47371 420
46.54152 32.49940 198.19429 418
43.44135 33.01669 201.01787 415
40.18627 33.64140 203.86850 406
36.67119 34.24309 206.85887 403
33.07850 34.88143 209.92569 400
-183.11282 73.67656 216.40944 425
-185.00070 74.05763 223.26013 323
84.49297 24.73808 177.21236 460
82.45005 25.12949 179.22421 458
68.19940 27.56731 178.45551 455
65.83586 27.99018 180.73784 453
63.47047 28.41322 183.05739 451
61.01065 28.80086 185.46143 449
58.45410 29.29221 187.87990 428
55.71158 29.73283 190.36510 426
52.85508 30.22196 192.94035 423
49.95829 30.73471 195.54425 421
47.00687 31.27547 198.26498 418
43.93400 31.79431 201.03108 416
40.72898 32.31887 203.93248 413
37.28956 32.93063 206.86726 404
33.72239 33.57302 209.97290 401
-183.13780 71.10861 216.37668 425
-182.53818 71.03800 223.24762 361
84.57383 23.84522 177.22581 460
82.47974 24.18290 179.29100 458
68.24056 26.54511 178.48520 456
65.90605 26.95358 180.74500 454
63.52653 27.35840 183.12767 451
61.11052 27.76209 185.51924 449
58.60434 28.17313 187.96190 447
56.04549 28.59798 190.46964 444
53.30014 29.08549 193.02325 424
50.40271 29.52101 195.61145 421
47.45618 30.02329 198.33003 419
44.37357 30.52657 201.08597 416
41.24634 31.08523 203.94777 414
37.90556 31.66328 206.93195 404
34.36020 32.25242 210.00073 402
-181.95055 68.30132 223.20049 361
84.63078 22.94764 177.29402 461
82.55581 23.26245 179.30151 459
68.30650 25.57072 178.52589 456
65.98370 25.91735 180.80455 454
63.62996 26.33700 183.15996 452
61.18781 26.70028 185.54001 449
58.72552 27.09146 187.98589 447
56.15986 27.48991 190.46832 444
53.53732 27.95357 193.04027 442
50.84317 28.34499 195.69455 439
47.92847 28.83487 198.39510 419
44.85192 29.29959 201.16685 417
41.74491 29.82703 204.03419 414
38.48115 30.36269 206.97466 405
34.94363 30.91321 209.97757 402
-181.27817 65.66327 223.20963 361
84.67918 22.05308 177.31198 461
82.61208 22.35802 179.36308 459
68.38315 24.53612 178.55867 456
66.06815 24.88524 180.84816 454
63.69280 25.26427 183.16847 452
61.28205 25.65997 185.56261 450
58.80962 26.01251 188.03252 447
56.26193 26.41874 190.50610 445
53.65274 26.80811 193.10396 442
50.95778 27.26520 195.72917 440
48.20990 27.69119 198.43555 437
45.35913 28.09064 201.18193 417
42.21760 28.56720 204.03151 415
39.03232 29.10724 206.99776 412
35.59068 29.59231 210.00557 403
-180.65372 63.04611 223.15154 361
84.72543 21.13085 177.34038 461
82.68299 21.43032 179.38725 459
68.46015 23.53260 178.59619 457
66.15026 23.90601 180.87616 454
63.77448 24.22774 183.21153 452
61.34138 24.58648 185.61989 450
58.85255 24.98262 188.03714 447
56.31529 25.32160 190.56451 445
53.72497 25.71965 193.09335 443
51.07624 26.13387 195.73169 440
48.33045 26.53960 198.46095 437
45.49786 26.95350 201.22963 435
42.57697 27.36722 204.08569 432
39.53136 27.81944 207.03642 413
36.17681 28.29554 210.03073 403
-179.97408 60.35304 223.19606 361
84.81580 20.24194 177.41086 461
82.75745 20.49975 179.44299 459
68.57247 22.53337 178.65083 457
66.21758 22.84747 180.93233 455
63.85492 23.19513 183.26010 452
61.46062 23.55566 185.64018 450
58.97716 23.91856 188.04886 448
56.44467 24.27953 190.58482 445
53.83628 24.62596 193.15500 443
51.15663 25.02085 195.76141 440
48.41330 25.38585 198.47011 438
45.60907 25.77984 201.21338 435
42.71105 26.22226 204.08542 432
39.70304 26.63631 207.05188 430
36.60630 27.06533 210.05202 427
-179.57268 57.69231 223.22226 383
84.88541 19.32001 177.42924 462
82.82526 19.58718 179.43677 460
68.62598 21.54409 178.67856 457
66.29659 21.83885 180.94931 455
63.97039 22.15530 183.27332 453
61.51865 22.51455 185.64162 450
59.05816 22.83403 188.08539 448
56.54358 23.18708 190.59338 446
53.90286 23.50702 193.17592 443
51.23445 23.89369 195.78777 441
48.49786 24.23909 198.49188 438
45.69175 24.64211 201.23444 435
42.78496 25.01217 204.11745 433
39.80889 25.43779 207.02023 430
36.75836 25.87177 210.05470 428
-179.56058 55.17324 223.22540 383
-1092.28430 178.96454 303.81064 1000
84.94907 18.43957 177.47571 462
82.90764 18.71148 179.48235 460
68.69099 20.51160 178.71809 457
66.38055 20.84792 180.98911 455
64.04049 21.11272 183.29231 453
61.60531 21.46234 185.68208 451
59.12529 21.77972 188.11520 448
56.61162 22.11079 190.60513 446
54.02635 22.43419 193.16656 443
51.37060 22.79822 195.79541 441
48.61416 23.12207 198.49826 438
45.79384 23.50620 201.27794 436
42.91597 23.87071 204.09993 433
39.95795 24.24505 207.05350 431
36.89322 24.64376 210.08810 428
-179.52531 52.67271 223.14142 383
85.01213 17.50875 177.50607 462
82.95879 17.80058 179.50449 312
68.75912 19.51583 178.73898 458
66.47414 19.79554 181.01611 455
64.11698 20.08618 183.35057 453
61.72448 20.37932 185.72072 451
59.21535 20.68975 188.14906 448
56.69542 20.99722 190.63815 446
54.13523 21.31639 193.21452 444
51.46358 21.65078 195.80035 441
48.72602 21.98600 198.51390 439
45.91586 22.34494 201.29086 436
43.02196 22.69969 204.15318 434
40.08610 23.06951 207.04004 431
37.05471 23.42274 210.06328 428
-179.53632 50.13700 223.14314 383
85.08327 16.63124 177.53056 462
82.93027 16.88487 179.53551 312
68.84196 18.53716 178.78008 458
66.53242 18.79898 181.03302 456
64.19454 19.05669 183.37238 453
61.79807 19.36320 185.73456 451
59.32415 19.65979 188.15602 449
56.79173 19.94986 190.68196 446
54.23895 20.25868 193.22493 444
51.57553 20.56582 195.84010 441
48.83213 20.87087 198.51321 439
46.02478 21.18990 201.30255 436
43.16063 21.53009 204.11934 434
40.21882 21.86580 207.07745 431
37.17151 22.23372 210.11351 428
-179.61467 47.58630 223.11237 383
85.16015 15.75243 177.56270 463
82.89575 15.97839 179.53311 312
68.92623 17.54567 178.80345 458
66.65226 17.77538 181.07353 456
64.29412 18.03966 183.39687 454
61.90104 18.33221 185.74957 451
59.40965 18.57029 188.21039 449
56.91288 18.84861 190.70302 447
54.29939 19.13767 193.23819 444
51.64039 19.46385 195.88414 442
48.94249 19.72795 198.55414 439
46.15517 20.03943 201.28844 437
43.31626 20.35236 204.14481 434
40.36756 20.71542 207.05783 431
37.32589 21.04881 210.08978 429
-179.54927 45.01825 223.11627 383
85.24025 14.85571 177.58450 463
82.83797 15.08926 179.51782 312
69.04158 16.52244 178.80823 458
66.72855 16.77560 181.08591 456
64.39572 17.01037 183.41479 454
61.97237 17.26255 185.78954 452
59.53313 17.51004 188.24832 449
56.98626 17.80672 190.70073 447
54.43774 18.04214 193.28735 444
51.77830 18.32495 195.85616 442
49.07668 18.61847 198.55823 440
46.29364 18.91052 201.34845 437
43.42749 19.20656 204.19308 434
40.51194 19.49987 207.11697 432
37.47716 19.83711 210.08211 429
-179.49313 42.50792 223.19817 384
85.30956 13.95329 177.62755 463
82.80000 14.21008 179.50797 312
69.10603 15.53839 178.86513 458
66.82140 15.78779 181.14603 456
64.45012 16.01126 183.46181 454
62.03949 16.21206 185.82716 452
59.60389 16.46152 188.24062 449
57.10633 16.70307 190.73872 447
54.52919 16.99349 193.26567 445
51.89771 17.25082 195.88597 442
49.17458 17.51064 198.57576 440
46.39300 17.77151 201.36221 437
43.54983 18.02858 204.19350 435
40.66188 18.35239 207.12773 432
37.63842 18.65464 210.11215 429
-179.51453 40.03032 223.14157 384
85.37653 13.03914 177.63670 463
82.79844 13.31343 179.51651 312
69.17723 14.55259 178.89392 459
66.90009 14.77261 181.14403 457
64.56313 14.97147 183.47543 454
62.13189 15.20834 185.86336 452
59.68485 15.44456 188.27800 450
57.21168 15.63806 190.76074 447
54.63474 15.89691 193.31824 445
51.96515 16.13061 195.93756 443
49.32744 16.37756 198.61758 440
46.54133 16.61746 201.36569 437
43.72744 16.89330 204.20293 435
40.77400 17.16608 207.10378 432
37.78566 17.44606 210.13675 429
-179.54895 37.47215 223.12300 384
85.44975 12.17255 177.67857 464
82.76035 12.37568 179.49875 312
69.27481 13.57028 178.92244 459
66.96497 13.74132 181.17697 457
64.63049 13.97001 183.48596 454
62.22148 14.16889 185.84494 452
59.80235 14.38928 188.29529 450
57.28220 14.59099 190.76945 447
54.74290 14.82728 193.31660 445
52.12669 15.02695 195.93799 443
49.44199 15.27225 198.59360 440
46.67631 15.48525 201.39407 438
43.85382 15.72783 204.19254 435
40.93659 15.98178 207.10840 432
37.91149 16.23917 210.10155 430
-179.49969 34.91341 223.11960 384
85.51749 11.25652 177.69341 464
82.77200 11.48732 179.50580 312
69.36979 12.59133 178.94843 459
67.05994 12.76270 181.18034 457
64.72077 12.92915 183.50926 455
62.34927 13.13597 185.86938 452
59.90984 13.31961 188.32439 450
57.38360 13.50316 190.81158 448
54.82303 13.73426 193.34964 446
52.23700 13.93158 195.95712 443
49.56794 14.13873 198.60722 441
46.78658 14.37201 201.36461 438
43.98924 14.61937 204.22675 435
41.07281 14.84132 207.15024 433
38.06753 15.07502 210.11151 430
-179.53873 32.44045 223.09444 384
85.62994 10.39468 177.71881 464
82.77182 10.61079 179.53117 312
69.44395 11.59740 178.95987 459
67.14207 11.74457 181.23912 457
64.82710 11.91172 183.54596 455
62.42109 12.08173 185.92043 453
59.98848 12.26386 188.31364 450
57.48516 12.44287 190.80923 448
54.95261 12.62639 193.34305 446
52.36961 12.84289 195.95940 443
49.69586 13.02413 198.66475 441
46.91185 13.22419 201.39520 438
44.11718 13.42972 204.20587 435
41.21331 13.63586 207.12743 433
38.20367 13.87473 210.13127 430
-179.49516 29.89496 223.18527 384
85.67444 9.50134 177.74867 464
82.77415 9.70743 179.53743 312
