# .PCD v.7 - Point Cloud Data file format
VERSION .7
FIELDS x y z rgb
SIZE 4 4 4 4
TYPE F F F U
COUNT 1 1 1 1
WIDTH 1425
HEIGHT 1
VIEWPOINT 6563.097168 -168.168610 145.536957 -0.622759 -0.101403 -0.084757 0.771171
POINTS 1425
DATA ascii
-486.64914 841.37390 89.61835 408
-477.51480 830.23853 109.19930 427
-477.73795 830.68237 126.98448 466
-478.85690 832.12646 144.97659 465
-482.74536 837.02026 162.29250 464
-606.51422 983.89142 174.16211 359
95.84716 147.30690 164.41185 427
92.17373 151.64551 166.36267 310
-494.78000 840.52478 89.11600 408
-484.97791 829.16559 108.72627 426
-485.27295 829.40820 126.80022 465
-486.45178 830.66553 144.77449 464
-490.39938 835.63593 162.24011 463
-603.65039 968.31018 174.66653 360
94.26173 147.36908 164.10524 426
91.30093 150.84427 166.34406 310
-503.14838 839.95270 88.44142 407
-492.80127 828.11798 108.39601 425
-492.82074 827.96399 126.52741 464
-493.90564 829.29980 144.23564 463
-498.26511 834.37347 161.92007 463
-600.63361 952.90515 175.11089 361
92.68836 147.42514 163.77226 425
90.38049 150.07283 166.34375 310
-511.46179 839.06940 87.99110 405
-500.74893 827.13428 107.89771 409
-500.53894 826.60968 126.02470 463
-501.52191 827.90320 144.02878 462
-506.12271 832.90924 161.88838 462
-506.31961 833.45355 180.08377 462
91.04245 147.52946 163.50954 424
89.50838 149.25035 166.37221 310
-519.87256 838.18860 87.31840 405
-508.95779 826.16290 107.47530 407
-508.21704 825.36377 125.69463 456
-509.49936 826.63007 143.94411 454
-513.88409 831.64832 161.51176 461
-514.59839 832.52649 179.91522 461
90.01328 146.87756 163.42053 307
88.64449 148.44965 166.32568 310
-528.30652 837.63788 86.82465 399
-517.26331 825.40271 106.92239 406
-516.45020 824.17639 125.57113 455
-517.41498 825.53375 143.61087 453
-521.78381 830.51813 161.29884 456
-522.69305 831.10284 179.53648 449
89.28071 146.03072 163.44934 307
87.75533 147.63086 166.35835 423
-537.22693 837.29639 86.08762 399
-525.98700 824.83160 106.37192 400
-524.55615 823.03693 125.00899 455
-525.74615 824.66260 143.15239 437
-530.62738 829.67822 161.01947 437
-531.38074 830.80322 179.32222 436
88.47997 145.07523 163.49217 307
86.09691 147.73145 166.05614 422
-546.49713 837.19489 85.36325 397
-535.17816 824.59576 106.03648 399
-533.20654 822.67126 124.62955 439
-534.74573 824.26727 142.74689 436
-539.64032 829.69745 160.74763 431
-540.66650 830.69165 179.42865 435
87.72860 144.18729 163.48630 307
84.43933 147.75127 165.72467 421
75.77603 157.04919 166.28569 305
-556.70117 837.98010 84.45226 380
-544.20990 824.20813 105.19243 399
-542.43878 822.30115 124.06518 438
-543.75549 824.12939 142.54520 434
-549.28143 829.88275 160.45721 430
-550.06110 830.59338 178.91937 430
86.99489 143.28584 163.50655 307
82.71175 147.82695 165.39211 420
74.89590 156.17180 166.26155 305
-567.19208 838.91467 83.48447 379
-553.87512 824.60754 104.66537 389
-551.67059 822.40820 123.62528 430
-553.69720 824.38019 141.94647 423
-559.03986 830.23920 160.04555 428
-565.62219 837.10413 178.71814 288
86.22142 142.36232 163.53529 307
80.93475 147.90636 165.11748 419
73.95407 155.24561 166.24991 305
-578.37891 840.28729 82.75855 361
-564.02594 825.26154 104.00824 381
-561.25726 822.66779 123.17392 426
-563.45245 824.92493 141.47803 422
-575.16956 837.09436 159.52533 305
85.49862 141.44376 163.56816 307
79.18639 147.98805 164.73735 417
73.05952 154.31137 166.30174 306
-589.96814 842.07300 81.40236 371
-574.40094 826.19958 102.98618 381
-571.10455 822.66412 122.55462 422
-573.69177 825.33557 141.13785 412
105.31845 119.43510 171.50150 316
77.41998 148.05011 164.43640 416
72.14392 153.41197 166.28363 306
-602.00806 844.30603 80.34546 357
-585.49060 827.46753 102.34861 372
-581.34900 823.31836 121.76061 417
-584.53265 826.44452 140.38228 406
104.63035 118.73155 171.50621 316
75.59129 148.13301 164.08739 415
71.29836 152.48030 166.26465 306
-614.57172 846.95404 79.13807 356
-596.97821 828.90552 101.23717 365
-592.05072 824.11450 121.15920 409
-595.68732 827.71918 139.85687 407
104.00125 117.96944 171.52184 316
73.77386 148.18616 163.74600 414
70.38270 151.54883 166.25847 306
-628.08014 850.14728 77.86328 344
-608.87183 830.90460 100.48814 364
-603.37524 825.24695 120.32404 407
-606.68317 828.80237 139.47443 406
103.34115 117.22934 171.53587 316
71.93346 148.28386 163.40561 413
69.49370 150.65210 166.25293 306
-642.29547 853.63062 76.33835 343
-621.21613 833.01678 99.31743 360
-614.58868 826.17114 119.84234 405
-618.19995 829.95465 138.83817 405
102.68716 116.46822 171.53780 316
70.89789 147.46886 163.32451 304
68.61390 149.69385 166.26080 306
-656.26746 857.05145 74.73472 345
-634.55347 835.72778 98.28651 352
-626.11115 827.44073 118.89607 396
-629.97546 831.46844 138.21239 392
102.04650 115.73817 171.54761 316
70.13498 146.43405 163.34860 304
67.70959 148.78563 166.27306 306
-671.36182 861.26318 73.46397 340
-648.36768 838.86383 96.96738 351
-637.98218 829.09497 118.18977 394
-642.65912 833.41803 137.45844 391
101.36726 114.93382 171.55305 316
69.42068 145.44038 163.37582 304
66.18155 148.50745 166.04106 410
-686.78479 865.39697 71.79891 326
-662.26636 842.11902 95.91093 345
-646.08917 826.85925 117.72594 392
-655.90674 835.97888 136.64655 381
100.75803 114.19852 171.53247 316
68.67567 144.34570 163.44327 304
64.22987 148.54947 165.69225 409
-677.39691 846.02271 94.56644 344
-658.72577 828.52014 116.88260 355
-669.69617 838.58392 135.83359 383
-2198.36353 2275.50049 161.01419 344
-2196.72412 2274.96289 215.25758 411
-2196.41064 2274.54077 269.62506 462
100.11626 113.44245 171.57472 316
67.92625 143.30559 163.46472 304
62.19747 148.65199 165.29839 408
52.32541 157.81148 166.15117 301
-694.29669 851.48816 93.03433 331
-671.88226 830.35712 116.15988 382
-685.13641 842.90521 134.82095 360
99.48021 112.65282 171.54494 316
91.06615 120.37266 171.61841 312
60.19890 148.69519 164.96965 407
51.37982 156.78127 166.14229 301
-712.52386 857.78308 91.02134 321
-686.87323 834.20319 114.85411 366
-701.28668 847.37439 134.00035 350
98.87872 111.89326 171.57208 316
90.42982 119.52993 171.62450 312
58.13094 148.81981 164.56255 406
50.53961 155.69162 166.18803 301
-732.89905 865.82703 89.21922 320
-702.63226 838.54303 113.85187 356
-719.04376 853.17615 132.79527 352
98.26402 111.11327 171.58711 316
89.74240 118.70250 171.63676 312
56.07583 148.85954 164.18613 405
49.63727 154.63789 166.19958 301
-753.40588 873.74249 86.98566 331
-721.28436 844.73328 112.35857 355
-736.43011 858.53491 131.85110 351
97.60816 110.31259 171.59119 316
89.09058 117.86802 171.63216 312
53.91890 148.94348 163.77150 404
48.72741 153.59024 166.17139 301
-773.06830 880.19855 85.11901 330
-743.45953 854.05493 110.53806 323
-754.49109 863.61389 130.52185 336
97.02124 109.53872 171.59503 316
88.44272 117.03114 171.66377 312
51.80073 149.06227 163.36334 402
47.82204 152.52426 166.18474 301
-764.19836 861.37341 108.75368 322
-773.59668 869.90027 129.43637 341
-2036.69763 1973.03735 915.33771 1000
96.41369 108.72015 171.59491 316
87.82162 116.16351 171.64127 312
50.41003 148.39029 163.22336 300
46.90856 151.44478 166.18137 301
-785.74176 869.77222 106.91760 316
-793.99237 876.70337 128.05009 328
95.80183 107.91598 171.58575 316
87.17832 115.30746 171.63968 312
49.69475 147.23508 163.28554 300
46.07566 150.33095 166.17131 301
-809.95068 879.52954 105.00294 304
-816.33984 885.11700 126.77924 320
95.20718 107.13334 171.58525 316
86.51060 114.44936 171.68881 312
48.96378 146.03999 163.34091 300
45.10192 149.27986 166.14027 399
-835.97009 890.71460 102.58472 308
-840.36292 894.46252 124.92094 323
94.63251 106.31480 171.60957 316
85.86304 113.61964 171.69949 312
75.94263 121.84559 171.76326 308
42.81275 149.36345 165.75438 398
94.04376 105.53244 171.60641 316
85.26087 112.74604 171.69260 312
75.24261 120.95956 171.78343 308
40.47104 149.47815 165.35909 397
93.49595 104.71375 171.59332 316
84.62980 111.85899 171.68294 312
74.58697 120.02932 171.74686 308
38.17031 149.54614 164.88678 396
26.63330 158.90080 166.02043 297
92.89043 103.92131 171.61757 316
84.01849 111.01444 171.68053 312
73.92402 119.07591 171.75620 308
35.70949 149.64664 164.45361 395
25.68619 157.67274 166.06642 297
92.31763 103.06541 171.60237 316
83.41941 110.11189 171.68239 312
73.30128 118.15189 171.77306 308
33.26079 149.77116 164.03117 393
24.81144 156.48148 166.05669 297
91.75500 102.28428 171.60699 316
82.82128 109.24928 171.68073 312
72.61623 117.16828 171.78326 308
30.81504 149.88036 163.56926 392
23.91839 155.18417 166.07314 297
91.20069 101.43813 171.63953 316
82.20876 108.36991 171.68636 312
72.00826 116.25067 171.81006 308
28.25042 149.95833 163.17964 391
22.99802 153.99083 166.07747 297
90.64568 100.61510 171.63919 316
81.61942 107.51270 171.73305 312
71.37213 115.30099 171.77963 308
27.39061 148.74301 163.16470 296
22.15317 152.76921 166.06526 297
90.10095 99.75949 171.64160 316
81.00219 106.59430 171.72475 312
70.72964 114.32707 171.82370 308
58.86979 123.24162 171.91481 304
21.24362 151.53320 166.01257 297
89.57073 98.96218 171.64412 316
80.43356 105.68708 171.73041 312
70.10335 113.41755 171.80490 308
58.19541 122.19984 171.90698 304
20.36057 150.27837 166.06915 295
89.01173 98.12611 171.66380 316
79.88187 104.80932 171.73578 312
69.48285 112.43363 171.81587 308
57.52390 121.17162 171.88271 304
17.72217 150.32166 165.63553 389
88.49181 97.26895 171.65941 316
79.27712 103.89133 171.74110 312
68.84978 111.45473 171.82501 308
56.85331 120.07489 171.94388 304
14.99762 150.38107 165.13016 388
87.96156 96.43208 171.66971 316
78.74027 103.00507 171.75974 312
68.25562 110.48286 171.79842 308
56.19163 119.03149 171.93158 304
12.24613 150.45575 164.65311 387
87.43658 95.54862 171.68581 316
78.15803 102.11505 171.73096 312
67.60904 109.52869 171.83427 308
55.56046 118.01952 171.91539 304
9.40872 150.55046 164.22676 386
86.91816 94.69572 171.65672 316
77.59176 101.17644 171.73413 312
67.02408 108.51688 171.83141 308
54.93124 116.94681 171.92191 304
6.54023 150.62103 163.70953 384
-4.99064 158.56659 165.67609 290
86.40354 93.86657 171.66339 316
77.07266 100.26012 171.76213 312
66.44463 107.58228 171.85085 308
54.29042 115.88037 171.92497 304
3.57182 150.62114 163.19348 383
-5.94466 157.17496 165.68719 290
85.88483 93.01654 171.68820 316
76.51901 99.34383 171.75395 312
65.83791 106.59318 171.84703 308
53.63630 114.82573 171.92754 304
1.15333 150.40013 162.84343 285
-6.86812 155.80702 165.66371 291
85.37256 92.14095 171.70589 316
75.97193 98.41372 171.75209 312
65.26060 105.59626 171.85657 308
52.99858 113.79237 171.96211 304
38.81948 123.23908 172.05902 300
-7.72267 154.34993 165.65314 291
84.91207 91.26575 171.70518 316
75.42627 97.51141 171.76146 312
64.67145 104.61239 171.87050 308
52.40051 112.73840 171.93930 304
38.09970 122.09830 172.09412 300
-8.68210 152.93248 165.64091 291
84.37691 90.38846 171.70427 316
74.91432 96.59500 171.76706 312
64.11193 103.61326 171.85765 308
51.78527 111.63504 171.96298 304
37.46093 120.96326 172.09441 300
-9.63148 151.55537 165.63332 291
83.89633 89.53243 171.70006 316
74.36294 95.63612 171.79224 312
63.56802 102.61835 171.87448 308
51.14967 110.58066 171.96620 304
36.83130 119.76900 172.06212 300
-11.93770 151.03842 165.32796 377
83.40061 88.67317 171.67879 316
73.85233 94.69160 171.78065 312
63.00312 101.58823 171.87282 308
50.55573 109.50176 171.99471 304
36.16413 118.57561 172.11769 300
-15.23272 151.09636 164.78134 376
82.94386 87.79787 171.69313 316
73.36459 93.78487 171.77907 312
62.44436 100.58844 171.87344 308
49.97607 108.37670 171.98781 304
35.51295 117.40237 172.07999 300
-18.61056 151.21307 164.25859 375
82.49912 86.90240 171.72031 316
72.86726 92.82870 171.77061 312
61.89469 99.55318 171.87479 308
49.36429 107.31994 171.99329 304
34.85983 116.21294 172.08208 300
-22.01028 151.32858 163.70595 373
82.03058 86.03394 171.71590 316
72.35675 91.91502 171.77953 312
61.36884 98.57506 171.86433 308
48.77423 106.20734 172.01270 304
34.22532 115.03585 172.08960 300
-25.57187 151.39821 163.18504 372
-40.81376 160.66714 165.14117 286
81.56925 85.12050 171.71844 316
71.84056 90.93024 171.79462 312
60.82260 97.53137 171.86627 308
48.20006 105.11108 171.99670 304
33.61436 113.86225 172.13724 300
16.45819 124.12605 172.27814 296
-41.73631 158.96315 165.17714 286
81.09160 84.25767 171.71979 316
71.33266 89.99943 171.81906 312
60.31527 96.54678 171.86952 308
47.65466 104.02551 171.98058 304
32.96612 112.68653 172.12936 300
15.79489 122.83620 172.28610 296
-42.61811 157.31520 165.15257 286
80.62589 83.34295 171.74959 316
70.86559 89.03247 171.80246 312
59.78880 95.51673 171.91910 308
47.09626 102.92657 171.98630 304
32.35872 111.46716 172.09450 300
15.11857 121.53183 172.23778 296
-43.52811 155.72855 165.15144 286
80.17968 82.45921 171.71245 316
70.41931 88.08686 171.82054 312
59.24339 94.47676 171.89761 308
46.52116 101.82580 172.03627 304
31.72599 110.27828 172.10219 300
14.46484 120.23537 172.28227 296
-44.38366 154.03525 165.10861 286
79.77785 81.53095 171.71446 316
69.91199 87.12369 171.82576 312
58.77443 93.44145 171.92178 308
45.95138 100.70184 171.99841 304
31.16025 109.05682 172.13596 300
13.81063 118.91817 172.29607 296
-45.22629 152.32222 165.19812 286
79.32130 80.63335 171.75029 316
69.46816 86.17489 171.80052 312
58.25613 92.43330 171.93849 308
45.45277 99.57652 172.01834 304
30.53938 107.85171 172.15054 300
13.14503 117.57339 172.31516 296
-48.29951 151.95039 164.77870 374
78.90427 79.72910 171.74594 316
68.98902 85.19147 171.83984 312
57.75781 91.38472 171.91084 308
44.87428 98.47498 172.01534 304
37.05718 102.77180 173.77708 319
18.65947 112.89294 173.59459 270
-52.06289 151.84509 164.15753 373
78.45824 78.81733 171.76178 316
68.52707 84.22998 171.80827 312
57.24885 90.32347 171.90331 308
45.64997 96.63831 172.34930 321
39.75860 99.87927 174.47266 320
30.17212 105.05131 176.06708 271
11.42109 115.19959 176.31262 271
78.07616 77.94721 171.76576 316
68.10039 83.23851 171.84395 312
56.77249 89.27063 171.92540 308
48.04038 93.94440 173.05847 322
42.33053 97.06509 175.17442 321
36.42373 100.16962 177.49977 319
23.04310 107.34363 178.57384 273
77.65439 77.02378 171.75212 316
67.67239 82.27652 171.85582 312
56.32701 88.24434 171.94362 308
50.36371 91.35447 173.78429 323
44.81969 94.29917 175.87679 322
39.09484 97.33790 178.13765 320
29.64336 102.32114 179.95070 292
8.58340 113.39316 180.12993 288
77.25644 76.12255 171.76738 316
67.22898 81.30595 171.82838 312
57.80368 86.17798 172.47319 327
52.66235 88.84711 174.41359 325
47.21289 91.65784 176.52223 324
41.63817 94.57317 178.80016 322
29.11332 101.07561 179.93889 292
7.96649 112.06023 180.14056 288
76.85966 75.17384 171.76389 316
66.79506 80.32189 171.82512 312
59.86829 83.84894 173.13252 328
54.83493 86.43064 175.09261 326
49.54469 89.14401 177.18713 325
44.16288 91.85855 179.42659 323
28.57697 99.86283 179.96907 292
7.36614 110.70858 180.10521 288
76.42490 74.27225 171.76468 316
66.36050 79.34252 171.86797 312
61.01235 82.04310 173.53368 385
56.93911 84.04623 175.71638 327
51.79884 86.62872 177.77003 325
45.58152 89.78374 179.83974 296
28.04539 98.65609 179.98363 292
6.76596 109.30936 180.11836 288
-19.38150 122.49393 180.37640 284
-21482.76953 10925.97754 212.85767 1000
76.03516 73.34488 171.76265 316
65.93007 78.35996 171.85126 312
61.69302 80.42762 173.80922 386
58.66798 81.94835 176.22823 384
54.05660 84.24549 178.38075 326
45.08703 88.65002 179.81467 296
-1.58523 111.82489 174.62099 290
-1.63009 111.85912 178.86894 290
-20.07227 120.98775 180.31805 284
75.68713 72.43818 171.79262 316
65.86551 77.22297 171.94392 377
62.42338 78.85166 174.11290 387
59.43950 80.31434 176.54492 385
56.19107 81.93185 178.95140 327
44.63145 87.57519 179.80359 296
4.80812 106.99959 175.90479 283
-10.89754 114.67014 177.44334 289
-20.74305 119.42110 180.36227 284
75.30434 71.47672 171.76552 316
66.58421 75.65102 172.27655 378
63.13702 77.31208 174.42549 388
60.17859 78.72911 176.81660 386
57.15390 80.19512 179.25787 384
44.16277 86.42968 179.81012 296
11.81710 101.99982 177.25677 285
-16.45333 115.54717 176.60123 345
-21.36211 117.87959 180.36687 284
74.89405 70.57185 171.76331 316
67.30433 74.14442 172.56468 379
63.86026 75.78017 174.69418 389
60.89643 77.15985 177.09773 387
57.90186 78.62611 179.51254 385
43.70832 85.27752 179.80685 296
18.26550 97.30453 178.58295 286
3.39618 104.34628 179.99469 284
-21.95908 116.34718 180.37119 284
74.54601 69.61905 171.79628 316
68.01343 72.70076 172.86980 380
64.50576 74.28195 175.01091 390
61.62878 75.64132 177.37943 388
58.27370 77.21913 179.73375 300
43.30132 84.16466 179.82825 296
22.49654 93.86496 179.43864 315
10.42211 99.47903 181.18526 285
-25.15743 115.98029 179.99249 342
74.20076 68.68533 171.76672 316
68.70161 71.22871 173.17001 381
65.20614 72.80872 175.27591 391
62.37917 74.10283 177.64264 389
57.84530 76.19604 179.73409 300
31.40811 88.30051 177.56059 334
25.15199 91.13824 180.03531 332
16.99362 94.91078 182.36981 286
2.09890 101.70941 184.02461 284
73.85381 67.74761 171.78482 316
69.39238 69.77642 173.46548 382
65.94587 71.30373 175.55293 379
63.05941 72.58720 177.90012 390
57.42792 75.14076 179.71904 300
33.32749 85.97427 178.01735 335
27.24106 88.72817 180.47446 333
20.09530 91.93692 182.94516 315
9.17741 96.85165 185.16220 285
73.47092 66.82847 171.78656 316
70.06943 68.32872 173.75473 382
66.65580 69.83595 175.84346 380
63.74705 71.12609 178.13377 391
57.03857 74.08748 179.69540 300
35.24227 83.75626 178.48279 336
29.32792 86.41417 180.95230 334
23.00945 89.16327 183.50041 332
14.66598 92.90839 186.01653 314
0.86691 99.00130 188.12877 284
74.00306 65.49242 172.02171 386
70.72321 66.89523 174.03856 383
67.36241 68.38756 176.11880 381
64.43071 69.64846 178.42429 392
56.68714 73.06282 179.73125 300
37.16272 81.54914 178.98756 338
31.29096 84.10744 181.41148 335
25.18066 86.76351 183.94151 333
17.75378 90.00419 186.54048 315
7.98202 94.24915 189.06676 285
74.60964 64.14675 172.34460 387
71.39648 65.52478 174.33357 384
68.04920 66.93216 176.39882 382
65.11471 68.22124 178.67604 393
56.29123 72.00082 179.71040 300
38.98439 79.43572 179.41039 339
33.26446 81.88831 181.84984 336
27.27405 84.46581 184.37921 334
20.73526 87.25465 187.03581 316
12.23747 90.88274 189.66580 313
-0.25991 96.23083 192.19150 284
75.23145 62.79419 172.61858 388
72.06216 64.13364 174.61443 385
68.73161 65.56347 176.64346 383
65.80198 66.75586 178.89342 394
55.91854 70.91414 179.71658 300
40.75408 77.34492 179.82936 372
35.16195 79.69688 182.25497 337
29.29865 82.18272 184.79807 335
23.10361 84.80450 187.47343 333
15.38417 88.01647 190.15361 315
6.51732 91.73956 192.96391 312
-16.21400 101.31428 194.87265 265
75.84579 61.48510 172.89534 388
72.69745 62.81789 174.87366 386
69.44881 64.13477 176.89764 384
66.45178 65.38295 179.15866 395
55.55949 69.86943 179.72929 300
41.64620 75.64930 180.10382 373
37.07594 77.56464 182.66835 338
31.30679 79.95074 185.19098 336
25.22062 82.46992 187.82562 334
18.43848 85.26194 190.56148 316
9.85356 88.84477 193.35555 313
-1.35119 93.45982 196.25743 284
76.40434 60.20640 173.14934 419
73.33336 61.43219 175.11397 387
70.10556 62.74385 177.16774 385
67.12984 63.98265 179.39352 396
55.21543 68.85526 179.72136 300
42.57630 73.97450 180.40024 374
38.33028 75.69495 182.95351 372
33.23242 77.75835 185.53925 337
27.29840 80.16366 188.16637 335
21.00264 82.72464 190.94855 332
13.06639 86.00895 193.75673 314
4.11831 89.67515 196.77299 312
-16.85619 98.17584 199.23378 265
76.70335 59.04002 173.31430 419
73.99342 60.11184 175.37778 388
70.80341 61.43160 177.43413 386
67.81085 62.60880 179.59396 397
47.19997 70.85048 178.11299 388
43.46855 72.31285 180.60918 386
39.27603 73.97927 183.21231 372
34.89166 75.76852 185.89532 370
29.36960 77.97867 188.50249 336
23.20331 80.45712 191.29341 333
16.22393 83.24693 194.18047 315
7.49174 86.71249 197.12518 313
-2.41297 90.63642 200.25984 284
76.96349 57.88992 173.48947 420
74.38676 58.90069 175.58157 418
71.43111 60.06931 177.65416 387
67.60369 61.56779 179.65724 304
47.90033 69.31795 178.30316 389
44.23411 70.77741 180.87907 387
40.27980 72.32458 183.42065 373
35.93497 74.04906 186.13065 371
31.31610 75.83893 188.85466 337
25.31196 78.15516 191.59877 335
18.97091 80.68243 194.51981 332
10.79453 83.89949 197.42107 314
1.61582 87.48913 200.64087 312
77.24984 56.75674 173.65591 421
74.65328 57.76419 175.75702 419
71.97207 58.76959 177.88554 416
67.29565 60.58304 179.61833 304
48.60422 67.80392 178.53568 390
44.97956 69.18138 181.08049 387
41.19230 70.63351 183.69029 374
36.91231 72.29278 186.32787 372
32.44282 74.02884 189.09290 369
27.44291 75.97795 191.90683 336
21.17551 78.37492 194.78975 333
13.96032 81.18723 197.74634 315
5.09050 84.60979 200.86935 313
-4.45691 88.27071 204.27077 310
77.54839 55.62042 173.79900 422
74.98586 56.57505 175.90276 419
72.31670 57.58303 178.04300 417
67.00726 59.59984 179.66023 304
49.30324 66.31753 178.78168 391
45.72776 67.64854 181.32207 388
41.98597 69.08455 183.88766 386
37.89154 70.59966 186.53670 373
33.47411 72.30247 189.26456 370
28.90217 74.06213 192.16649 368
23.36481 76.15131 195.05801 334
16.91051 78.54074 198.09314 332
8.47785 81.78664 201.13123 314
-0.79037 85.31261 204.46834 311
77.84496 54.46710 173.99123 422
75.24529 55.44079 176.04825 420
72.61279 56.44256 178.19258 418
66.67670 58.61207 179.62627 304
50.01670 64.79714 179.03354 392
46.48291 66.15545 181.53125 389
42.77346 67.51619 184.07390 387
38.90221 68.98944 186.73830 374
34.55705 70.61028 189.46423 371
29.98662 72.25370 192.31381 369
25.26148 74.03041 195.30063 366
19.21955 76.27758 198.29192 333
11.70020 79.10155 201.42236 315
2.69375 82.41595 204.66782 312
78.11835 53.36006 174.14691 423
75.55508 54.29986 176.22101 421
72.95309 55.25928 178.33401 419
66.37497 57.64026 179.65482 304
50.69536 63.33582 179.24265 393
47.18388 64.61675 181.72838 390
43.52557 65.98449 184.26640 388
39.76743 67.34632 186.96405 385
35.52827 68.90073 189.67445 372
31.07014 70.51380 192.48535 370
26.40808 72.26312 195.44398 367
21.36708 74.07677 198.52475 334
14.79778 76.42574 201.68826 316
6.10494 79.64459 204.90404 313
78.41231 52.27551 174.27666 424
75.87698 53.16333 176.34715 422
73.23239 54.07899 178.48346 419
66.10084 56.64990 179.65260 304
51.39768 61.88856 179.41841 393
47.90359 63.18616 181.93283 391
44.31725 64.48235 184.49753 389
40.55692 65.76281 187.15581 386
36.53584 67.19905 189.86945 373
32.14444 68.83396 192.70499 370
27.48800 70.46518 195.63422 368
22.66403 72.18024 198.67279 365
17.16140 74.12867 201.85117 333
9.41858 76.94886 205.10277 315
78.66637 51.14597 174.46992 424
76.15714 52.02358 176.53201 422
73.56945 52.95179 178.63277 420
65.82352 55.67415 179.63234 304
52.07885 60.49590 179.64984 394
48.64061 61.69561 182.10205 392
45.06281 62.96619 184.68770 390
41.37564 64.27246 187.30843 387
37.54057 65.58344 190.05734 385
33.16599 67.12683 192.83905 371
28.60240 68.70788 195.77228 369
23.84355 70.40240 198.83253 366
18.85292 72.13996 202.01360 363
12.58417 74.33415 205.28450 316
78.95687 50.06961 174.61812 425
76.44818 50.92686 176.68085 423
73.84456 51.81451 178.77438 421
65.56422 54.68304 179.64008 304
52.75381 59.06644 179.87271 395
49.30808 60.22895 182.34250 393
45.78636 61.45618 184.87956 390
42.12382 62.70543 187.47034 388
38.33489 64.01928 190.19531 385
34.19258 65.43363 193.04692 372
29.73582 66.98716 195.89253 370
25.01556 68.61597 198.95425 367
20.07864 70.32780 202.12117 364
14.92301 72.09824 205.43185 362
79.26195 48.96207 174.75623 427
76.75613 49.80780 176.82632 424
74.18452 50.66457 178.93330 421
65.28305 53.66372 179.67870 304
53.40982 57.67483 180.04984 396
50.05626 58.80262 182.49971 394
46.53884 60.01891 185.02715 391
42.87677 61.22894 187.68851 389
39.16365 62.50683 190.35623 386
35.21025 63.78173 193.20207 373
30.79150 65.29281 196.05309 371
26.15705 66.90022 199.07657 368
21.28743 68.52999 202.19177 365
16.18654 70.20423 205.48148 363
-2956.58740 1072.55249 161.12601 377
-2955.33643 1072.39197 216.53593 437
-2954.86670 1072.39526 270.93613 437
79.54152 47.89874 174.88219 428
77.04178 48.70705 176.97250 424
74.47680 49.54682 179.05205 422
65.04142 52.67009 179.63852 304
54.09945 56.29847 180.29398 397
50.72449 57.40859 182.72156 395
47.27583 58.52974 185.24980 392
43.65740 59.72120 187.80669 390
39.94217 60.97870 190.51370 387
36.10781 62.23386 193.35150 385
31.82449 63.64899 196.20418 371
27.26081 65.17928 199.21346 369
22.44375 66.74010 202.29688 366
17.47598 68.38268 205.56380 364
79.80442 46.81427 175.05280 429
77.33152 47.62507 177.08745 425
74.78179 48.43816 179.20969 423
57.68316 53.95486 178.04843 412
54.67153 54.94907 180.44759 410
51.41639 55.97878 182.91109 395
47.99704 57.12273 185.39566 393
44.40721 58.25114 188.00914 391
40.76889 59.46252 190.69470 388
36.90747 60.66572 193.49289 386
32.85374 61.99328 196.38109 372
28.35604 63.47326 199.33900 370
23.62032 64.98970 202.44815 367
18.70628 66.58481 205.65167 364
80.05814 45.73812 175.21172 429
77.61010 46.50870 177.24065 426
75.08875 47.31502 179.31680 423
58.14319 52.68005 178.22867 413
55.11290 53.67358 180.62437 411
51.98524 54.65351 183.05588 409
48.68939 55.68858 185.59608 394
45.15870 56.81376 188.17691 391
41.51245 57.96946 190.85744 389
37.77114 59.15504 193.62936 386
33.85099 60.42392 196.46089 384
29.46214 61.82244 199.44312 371
24.76377 63.25014 202.50822 368
19.89945 64.81435 205.72922 365
80.33899 44.70687 175.32675 430
77.92892 45.47308 177.35826 426
75.41378 46.23090 179.45401 424
58.56199 51.45955 178.37753 421
55.61851 52.35044 180.76297 412
52.51392 53.32931 183.21167 409
49.31058 54.30064 185.74831 407
45.90931 55.37972 188.32341 392
42.32368 56.49706 190.98232 390
38.55753 57.65408 193.74174 387
34.66135 58.86291 196.59860 385
30.50860 60.13187 199.55664 372
25.92755 61.56937 202.62979 369
21.12050 63.06320 205.84924 366
80.61635 43.62711 175.46207 431
78.18709 44.38020 177.51711 427
75.62589 45.17040 179.56633 308
58.97880 50.22495 178.50485 422
56.05213 51.09978 180.92044 412
52.99100 52.03454 183.33145 410
49.82101 52.99838 185.85121 408
46.55562 53.98360 188.46500 405
43.04639 55.05540 191.12360 391
39.36890 56.14999 193.86662 388
35.54203 57.29865 196.73955 386
31.55271 58.50002 199.67484 383
27.04731 59.92376 202.74030 370
22.25475 61.32576 205.90015 367
80.88337 42.60489 175.59531 431
78.48628 43.28831 177.64212 428
75.41830 44.21934 179.58723 308
59.37181 48.97455 178.67451 422
56.50657 49.83256 181.06175 413
53.49138 50.73488 183.47470 411
50.33662 51.68563 185.98654 408
47.08745 52.61203 188.61763 406
43.73755 53.61061 191.26390 403
40.19038 54.69453 194.00487 389
36.37128 55.80722 196.86296 386
32.43792 56.97038 199.79544 384
28.12210 58.22953 202.80765 371
23.42106 59.62584 206.01164 368
81.17369 41.54458 175.74231 432
78.76917 42.25944 177.75200 428
75.20454 43.27041 179.58885 308
59.72942 47.79234 178.80328 423
56.93268 48.60965 181.19518 421
53.96376 49.46286 183.64319 411
50.84106 50.35101 186.16322 409
47.61864 51.28689 188.69994 407
44.34078 52.22899 191.39464 404
40.89346 53.24621 194.14392 402
37.20861 54.29485 196.96518 387
33.29515 55.45539 199.89284 385
29.22447 56.64760 202.90849 372
24.58787 57.94516 206.06071 369
81.45344 40.54621 175.85515 433
79.06684 41.17757 177.88942 429
75.01751 42.34200 179.56198 308
60.13039 46.56702 178.93855 424
57.32660 47.35318 181.32301 421
54.46864 48.19094 183.79076 412
51.35062 49.04342 186.28453 410
48.16977 49.98244 188.81259 407
44.85051 50.89869 191.49364 405
41.45673 51.85007 194.24771 402
37.94600 52.87352 197.04388 400
34.17535 53.95656 199.99872 386
30.14196 55.08490 202.99826 383
25.69896 56.34729 206.15536 370
81.70869 39.51857 175.98346 433
79.35093 40.16360 178.02281 430
74.83275 41.41082 179.57370 308
60.49134 45.37076 179.08098 424
57.70964 46.13679 181.47902 422
54.87785 46.91050 183.89571 420
51.82532 47.77283 186.37811 411
48.68756 48.65855 188.94719 408
45.41521 49.57081 191.61258 406
42.06047 50.50157 194.31903 403
38.55721 51.44908 197.14392 400
34.90887 52.43750 200.04675 398
31.04844 53.51815 203.09824 384
26.82850 54.69007 206.20552 371
-187.26611 113.97527 202.28525 495
81.99657 38.47592 176.13387 434
79.67243 39.11730 178.14037 430
74.64246 40.47526 179.58949 308
60.87667 44.17612 179.23723 425
58.12751 44.95431 181.58669 423
55.30046 45.71988 184.04741 421
52.35427 46.48268 186.51440 411
49.20699 47.35766 189.09192 409
45.95680 48.22214 191.68645 406
42.61383 49.11653 194.43179 404
39.12424 50.04108 197.21204 401
35.53889 51.00388 200.12627 399
31.82564 52.00606 203.12808 396
27.81978 53.10066 206.28186 382
22.86107 54.48814 209.45927 336
82.27435 37.46369 176.24422 435
79.93622 38.08395 178.26143 431
74.44242 39.52297 179.58762 308
61.23199 43.03435 179.35248 426
58.49906 43.72875 181.70287 424
55.71171 44.45877 184.15927 421
52.82654 45.25195 186.63431 419
49.73783 46.07438 189.17728 410
46.46711 46.92180 191.80620 407
43.15813 47.77137 194.52942 405
39.72063 48.67036 197.29929 402
36.15697 49.64262 200.21492 399
32.49657 50.61097 203.21313 397
28.65724 51.59220 206.30927 394
24.09483 52.82659 209.54465 340
82.55304 36.47519 176.39388 435
80.20571 37.06142 178.40030 432
74.24633 38.58578 179.58492 308
61.58257 41.84872 179.45834 426
58.87857 42.52135 181.83438 424
56.08022 43.27941 184.25606 422
53.22970 43.96930 186.73164 420
50.21532 44.76117 189.31792 410
47.04665 45.57881 191.92285 408
43.72637 46.46680 194.60562 405
40.29529 47.29053 197.40884 403
36.78700 48.20179 200.30411 400
33.13006 49.14890 203.25552 397
29.31599 50.15381 206.37238 395
25.17005 51.20332 209.55931 355
82.81367 35.45647 176.51686 436
80.51039 36.01950 178.50612 432
74.07265 37.66951 179.57924 308
61.97552 40.67740 179.62379 427
59.29854 41.34291 181.96588 425
56.49997 42.05020 184.36313 423
53.67989 42.75705 186.87379 420
50.75118 43.49638 189.40778 411
47.55800 44.31296 192.02225 408
44.27243 45.09875 194.69005 406
40.90841 45.95914 197.48613 403
37.38923 46.85082 200.35628 401
33.79272 47.73054 203.35579 398
30.01138 48.68607 206.43839 395
25.90188 49.73097 209.61270 356
-186.77893 102.96508 209.35909 485
83.07391 34.44790 176.62592 437
80.79085 35.01052 178.61163 433
73.93339 36.70144 179.57951 308
62.36979 39.51090 179.72084 428
59.65852 40.20602 182.08485 426
56.89539 40.87216 184.51302 423
54.08726 41.52274 186.95705 421
51.15422 42.25455 189.50920 419
48.10086 43.03808 192.09779 409
44.83761 43.81752 194.79631 407
41.46122 44.61168 197.56380 404
37.98630 45.44811 200.40364 401
34.38947 46.33189 203.39247 399
30.67039 47.23449 206.44962 396
26.69801 48.21270 209.63387 356
-186.91048 100.40520 209.43109 484
83.33870 33.47086 176.75826 437
81.09837 34.00367 178.73189 433
73.74258 35.78137 179.59140 308
62.71742 38.37823 179.85971 428
60.06593 39.01438 182.19131 426
57.30841 39.69061 184.60536 424
54.51274 40.35971 187.06508 422
51.61406 41.03136 189.58426 419
48.62612 41.75876 192.21155 410
45.38608 42.49594 194.88634 407
42.04220 43.31068 197.67065 405
38.58922 44.11242 200.49316 402
35.02006 44.95627 203.45427 400
31.29032 45.84530 206.49480 397
27.38703 46.76116 209.65067 357
-187.36125 97.84520 209.40115 485
83.64388 32.48554 176.86380 438
81.37264 33.00867 178.84958 436
73.57532 34.81215 179.60139 308
63.07380 37.22806 179.99548 429
60.44651 37.84234 182.31087 427
57.73624 38.48381 184.72343 425
54.92121 39.15299 187.16917 422
52.02257 39.81475 189.69559 420
49.08647 40.48523 192.29366 417
45.91823 41.23267 194.98599 408
42.60206 41.94873 197.71519 405
39.17452 42.78828 200.53764 403
35.64521 43.61446 203.49591 400
31.95155 44.41260 206.53459 398
28.16007 45.30146 209.73114 360
-187.88234 95.20993 209.42857 485
-195.09511 96.91396 216.45102 294
83.87817 31.51566 176.98665 438
81.72733 32.08576 178.87299 436
73.43594 33.87870 179.59903 308
63.44204 36.12014 180.10915 430
60.80196 36.69139 182.40669 428
58.09779 37.30404 184.83572 425
55.34573 37.92625 187.28174 423
52.47407 38.58998 189.79028 420
49.54765 39.22739 192.37340 418
46.48417 39.91110 195.05669 409
43.20447 40.66716 197.79527 406
39.76912 41.42651 200.61795 404
36.22885 42.23856 203.58340 401
32.62919 43.03816 206.60243 398
28.84945 43.88630 209.76468 395
-188.29085 92.70191 209.44272 485
-188.09233 92.57130 216.38705 296
84.01093 30.59397 177.02716 458
81.91588 31.04257 179.08737 456
66.40022 34.44097 177.95801 433
63.81875 34.98787 180.19893 430
61.18660 35.54317 182.52402 428
58.50017 36.16255 184.93741 426
55.76681 36.73733 187.35869 424
52.92597 37.36412 189.86719 421
50.00592 38.01766 192.50146 419
46.97184 38.67289 195.15654 416
43.74669 39.35299 197.87170 407
40.35162 40.11003 200.70668 404
36.86310 40.87871 203.62637 402
33.28074 41.63646 206.63576 399
29.51509 42.46286 209.78871 396
-182.87177 88.77752 216.39044 438
84.06059 29.65854 177.08519 458
81.99197 30.08282 179.13762 456
66.74627 33.31768 178.07928 433
64.16207 33.86141 180.34332 431
61.55424 34.43743 182.63924 429
58.88931 35.00389 185.04132 427
56.14551 35.54677 187.47937 424
53.34204 36.15623 189.95889 422
50.42472 36.79591 192.54201 419
47.41587 37.40952 195.19370 417
44.27162 38.08297 197.92735 408
40.91381 38.81100 200.75018 405
37.46244 39.54762 203.66437 402
33.86391 40.26512 206.69144 400
30.17420 41.06409 209.79976 397
-182.92650 86.17668 216.36011 439
84.09029 28.74664 177.12529 458
82.03024 29.16005 179.15483 456
67.07161 32.21988 178.19609 434
64.54889 32.76486 180.44366 432
61.96201 33.29831 182.74081 429
59.27411 33.83569 185.13423 427
56.53778 34.39478 187.54871 425
53.76456 34.99163 190.05623 422
50.85202 35.56372 192.62611 420
47.92065 36.17591 195.29355 417
44.80989 36.82410 198.01979 415
41.51741 37.48665 200.84146 406
38.08928 38.19651 203.71722 403
34.53206 38.90898 206.69545 400
30.81879 39.70802 209.80557 398
-183.02193 83.57848 216.35106 439
84.16757 27.83428 177.20686 459
82.08248 28.23620 179.21774 457
67.43819 31.16718 178.30136 434
64.88982 31.64325 180.55925 432
62.31016 32.15848 182.87064 430
59.66523 32.68922 185.22266 428
56.96907 33.24187 187.64619 425
54.17878 33.78585 190.15517 423
51.29680 34.34693 192.74661 421
48.37812 34.93490 195.38576 418
45.33140 35.57578 198.11137 416
42.08978 36.17981 200.89624 406
38.69572 36.90131 203.74791 404
35.13237 37.57903 206.75909 401
31.48854 38.30183 209.86433 398
-183.09116 81.03823 216.39792 424
84.23505 26.92670 177.22798 459
82.14329 27.32360 179.27188 457
67.76990 30.08292 178.41660 435
65.27972 30.57867 180.65634 433
62.70402 31.06722 182.94670 431
60.09097 31.58525 185.35339 428
57.36163 32.07352 187.75159 426
54.60844 32.63924 190.23766 424
51.76534 33.17676 192.82367 421
48.82445 33.71011 195.41745 419
45.79504 34.30320 198.16714 416
42.67208 34.90669 200.94293 407
39.28770 35.57792 203.83484 404
35.76006 36.22390 206.81830 402
32.08556 36.96416 209.88739 399
-183.07791 78.35442 216.37544 424
-189.49512 79.62405 223.39560 322
84.25949 26.00120 177.30077 459
82.20504 26.39545 179.32133 457
67.97977 29.01657 178.48633 455
65.63165 29.47127 180.78055 434
63.06343 29.92976 183.07030 431
60.44355 30.43337 185.40965 429
57.78253 30.92683 187.85048 427
55.02324 31.45267 190.32825 424
52.16241 31.97437 192.86102 422
49.24518 32.50639 195.51230 419
46.27671 33.09356 198.20218 417
43.15896 33.63484 200.99211 414
39.84357 34.25956 203.87231 405
36.37616 34.91372 206.83838 402
32.75634 35.59776 209.87959 400
-183.11819 75.83183 216.37236 424
-186.85927 76.50762 223.26915 322
84.33633 25.09711 177.30513 460
82.27190 25.47334 179.33072 458
68.04459 28.01820 178.53941 455
65.71478 28.43241 180.83444 453
63.35090 28.85899 183.16652 451
60.84063 29.31039 185.53723 430
58.18452 29.78649 187.91620 427
55.43052 30.27601 190.41316 425
52.63446 30.77765 192.95084 422
49.71093 31.29819 195.57945 420
46.73892 31.83083 198.29146 417
43.63327 32.41133 201.06024 415
40.41721 32.98267 203.91307 406
36.95593 33.57936 206.88367 403
33.38967 34.27521 209.93845 400
-5538.22998 1036.28552 119.87859 499
-183.09860 73.16573 216.33240 425
-184.30672 73.40597 223.19392 323
84.38902 24.17670 177.37053 460
82.36210 24.54378 179.39148 458
68.12611 26.98717 178.59201 455
65.79358 27.38814 180.83920 453
63.41770 27.83378 183.17700 451
60.97235 28.23489 185.57571 449
58.49689 28.68907 188.02919 446
55.82832 29.10344 190.50977 426
53.04065 29.63655 193.05069 423
50.17345 30.10301 195.63885 421
47.20679 30.61146 198.32082 418
44.09999 31.17330 201.07823 416
40.98971 31.68877 203.98114 413
37.57981 32.30297 206.92795 404
34.04385 32.90403 209.94815 401
-183.10266 70.61338 216.41650 425
-182.27562 70.49965 223.19272 361
84.46252 23.24968 177.40092 460
82.39017 23.62460 179.42352 458
68.17509 25.98263 178.64015 456
65.84381 26.38586 180.88069 454
63.51178 26.76417 183.24503 451
61.06666 27.15899 185.60388 449
58.57975 27.61651 188.06218 447
56.04809 28.04122 190.54105 444
53.42928 28.47840 193.10805 442
50.59805 28.91540 195.72240 421
47.65411 29.42272 198.41634 419
44.62479 29.91052 201.16002 416
41.46158 30.46593 204.00806 414
38.21204 30.99435 206.96092 404
34.66610 31.62467 209.96962 402
-181.64896 67.71851 223.15219 361
84.52496 22.37866 177.43410 461
82.49635 22.67942 179.49120 458
68.24229 24.98663 178.64435 456
65.91805 25.36562 180.92589 454
63.59068 25.71351 183.24866 452
61.15016 26.12785 185.64651 449
58.64747 26.51385 188.08955 447
56.14410 26.94088 190.55519 444
53.51584 27.34048 193.14490 442
50.83745 27.78588 195.73093 439
48.10592 28.22804 198.46312 419
45.08414 28.72885 201.21126 417
41.98039 29.21826 204.05534 414
38.77436 29.72359 206.97169 411
35.26519 30.30931 210.01096 402
-181.03938 65.13969 223.18391 361
84.58212 21.47541 177.48651 461
82.53910 21.76345 179.50156 459
68.32977 23.96237 178.71661 456
66.02191 24.35098 180.98358 454
63.63582 24.67174 183.30597 452
61.22009 25.04326 185.66357 450
58.73748 25.44132 188.11325 447
56.19996 25.85864 190.59540 445
53.61763 26.25148 193.17838 442
50.96449 26.67329 195.77844 440
48.21684 27.10354 198.44737 437
45.39402 27.49120 201.23575 435
42.45297 27.97087 204.06908 415
39.27075 28.44535 207.03137 412
35.86290 29.00573 210.03548 403
-180.38321 62.45319 223.15045 361
84.64486 20.54426 177.53275 461
82.48232 20.88597 179.53447 312
68.37595 22.98129 178.75151 457
66.10116 23.31911 180.99640 454
63.71510 23.64188 183.34167 452
61.29116 24.01729 185.69420 450
58.85494 24.39346 188.14241 447
56.29355 24.76603 190.64034 445
53.69879 25.15251 193.18114 443
51.04187 25.52943 195.78873 440
48.30113 25.96405 198.47932 437
45.51907 26.34885 201.27570 435
42.60439 26.79103 204.10194 432
39.65983 27.25690 207.03258 429
36.47456 27.70692 210.02872 410
-179.78169 59.81778 223.16379 361
84.72833 19.63999 177.55237 461
82.41467 19.95434 179.53593 312
68.45635 21.94786 178.76852 457
66.14051 22.29684 181.05394 455
63.80713 22.63291 183.37660 452
61.39773 22.99021 185.73625 450
58.92632 23.33309 188.17247 448
56.41818 23.69551 190.66942 445
53.83411 24.03057 193.19212 443
51.18335 24.40994 195.83849 440
48.42680 24.81241 198.52829 438
45.60132 25.21488 201.28160 435
42.75715 25.60186 204.10382 432
39.76366 26.02355 207.05508 430
36.67666 26.48468 210.06644 427
-179.47360 57.20507 223.11897 383
84.77927 18.76112 177.58952 462
82.34830 19.08178 179.51424 312
68.53303 20.97606 178.80905 457
66.23359 21.27261 181.09367 455
63.90166 21.59947 183.40556 453
61.50016 21.90822 185.76440 450
59.03473 22.23201 188.20544 448
56.49223 22.57745 190.67633 446
53.89389 22.95763 193.24557 443
51.26878 23.31564 195.86679 441
48.54955 23.67359 198.52408 438
45.72026 24.06775 201.30077 435
42.86493 24.44899 204.13768 433
39.87117 24.83960 207.04362 430
36.83717 25.24938 210.07317 428
-179.45534 54.68286 223.15654 383
84.83349 17.83560 177.62160 462
82.32793 18.18007 179.50012 312
68.60058 19.93484 178.84610 457
66.32848 20.25849 181.11662 455
63.98643 20.56083 183.41882 453
61.54048 20.87677 185.79503 451
59.09132 21.16936 188.21924 448
56.56179 21.52546 190.69203 446
54.00772 21.84091 193.25606 443
51.34191 22.17822 195.88719 441
48.64106 22.54263 198.53366 438
45.84086 22.93266 201.29851 436
42.94556 23.29268 204.16412 433
40.02068 23.68085 207.05420 431
36.99999 24.06269 210.07510 428
-4913.69336 666.11041 131.19490 408
-179.44653 52.07369 223.07170 383
-38482.66406 5015.17773 4705.66553 1000
84.93133 16.96129 177.67993 462
82.23362 17.28511 179.54245 312
68.68005 18.97454 178.88164 458
66.39761 19.24619 181.17096 455
64.02876 19.54604 183.47644 453
61.66888 19.81954 185.83656 451
59.20475 20.15219 188.26978 448
56.67551 20.45103 190.71693 446
54.11419 20.77121 193.26770 444
51.44441 21.08862 195.89160 441
48.75465 21.42649 198.57141 439
45.96576 21.77869 201.32910 436
43.09845 22.11122 204.16400 434
40.15258 22.48944 207.07913 431
37.13963 22.84542 210.07750 428
-179.51935 49.51727 223.12952 383
84.97941 16.05801 177.68698 462
82.21619 16.38609 179.51784 312
68.78713 17.97122 178.90169 458
66.47982 18.22215 181.16821 456
64.13599 18.51862 183.50143 453
61.73125 18.76653 185.83638 451
59.28288 19.09132 188.26472 449
56.79038 19.37473 190.76534 446
54.17912 19.67102 193.32130 444
51.54469 19.97835 195.92609 441
48.83838 20.28509 198.59061 439
46.09259 20.60894 201.31778 436
43.19555 20.94571 204.18976 434
40.28735 21.30516 207.08752 431
37.24998 21.64527 210.11230 428
-179.52316 47.08273 223.15897 383
85.03500 15.16372 177.73552 463
82.16352 15.49320 179.51578 312
68.84839 16.95133 178.92949 458
66.55318 17.20576 181.19632 456
64.20324 17.47441 183.51154 454
61.83873 17.72776 185.87131 451
59.38428 18.01384 188.29112 449
56.85032 18.28573 190.76064 447
54.30667 18.57701 193.30766 444
51.67829 18.86081 195.90866 442
48.96232 19.16976 198.58771 439
46.20085 19.48633 201.34143 437
43.35308 19.79858 204.17360 434
40.43207 20.12926 207.11084 431
37.42571 20.47557 210.07985 429
-179.51778 44.50517 223.05756 383
85.13376 14.28744 177.75388 463
82.13715 14.59231 179.53267 312
68.91043 15.96567 178.96092 458
66.62558 16.19523 181.24210 456
64.30051 16.43882 183.56783 454
61.89328 16.72330 185.92537 452
59.44998 16.94737 188.34787 449
56.95685 17.22727 190.79826 447
54.39239 17.47305 193.32097 444
51.76354 17.78625 195.95911 442
49.06025 18.04458 198.60507 440
46.29626 18.33905 201.34564 437
43.46586 18.62123 204.20020 434
40.56767 18.96891 207.08719 432
37.54421 19.23565 210.11943 429
-179.42815 41.99316 223.05733 384
85.19134 13.39962 177.77812 463
82.11169 13.68625 179.50572 312
69.02103 14.98360 179.02969 458
66.74068 15.19303 181.27249 456
64.38938 15.45463 183.58636 454
62.00172 15.65746 185.91870 452
59.54141 15.91045 188.34578 449
57.05764 16.16784 190.83803 447
54.48980 16.38940 193.38438 445
51.87591 16.67486 195.96051 442
49.20019 16.95161 198.61493 440
46.45935 17.21759 201.40543 437
43.62704 17.48186 204.22026 435
40.69691 17.76763 207.08737 432
37.71291 18.09292 210.10457 429
-179.50333 39.46707 223.05623 384
85.27610 12.51141 177.80537 463
82.05200 12.78503 179.53148 312
69.06940 13.98584 179.04784 459
66.81926 14.20797 181.29190 457
64.45788 14.40332 183.60553 454
62.11698 14.64797 185.97073 452
59.63959 14.86976 188.35492 450
57.14733 15.09036 190.82552 447
54.60089 15.33932 193.36841 445
51.98527 15.54100 195.95891 443
49.30738 15.80925 198.63271 440
46.57815 16.08381 201.38597 437
43.73705 16.32685 204.22224 435
40.84571 16.59538 207.13588 432
37.82627 16.85610 210.13873 429
-179.50188 36.94822 223.10242 384
85.32921 11.61562 177.86238 464
82.04790 11.87790 179.51228 312
69.18288 12.99542 179.06898 459
66.89948 13.20098 181.31076 457
64.56342 13.38159 183.62062 454
62.17527 13.60311 185.98473 452
59.77290 13.81289 188.41701 450
57.27846 14.03140 190.84451 447
54.69297 14.22672 193.39313 445
52.11865 14.45776 196.01045 443
49.45816 14.68767 198.66180 440
46.69897 14.94732 201.43123 438
43.88036 15.17803 204.22719 435
40.95948 15.45157 207.13211 432
37.99590 15.67722 210.12837 430
-179.39714 34.46954 223.02672 384
85.43029 10.74273 177.86606 464
82.03703 10.97964 179.52797 312
69.24527 11.99453 179.08833 459
67.00034 12.18437 181.35580 457
64.63963 12.38224 183.64403 455
62.28859 12.54893 185.99847 452
59.83429 12.74250 188.43347 450
57.34653 12.95224 190.87724 448
54.80585 13.17150 193.42880 446
52.24014 13.39380 196.02507 443
49.57716 13.58078 198.69481 441
46.84516 13.82372 201.43390 438
44.01340 14.02497 204.22517 435
41.12759 14.25572 207.15750 433
38.14692 14.51874 210.12645 430
-179.41093 31.87495 223.11755 384
85.48027 9.83483 177.89108 464
81.99826 10.09180 179.52083 312
69.33696 11.00585 179.12448 459
67.08886 11.18930 181.34409 457
64.76494 11.37581 183.67641 455
62.37815 11.51955 186.03188 453
59.94688 11.71176 188.45752 450
57.45830 11.87372 190.92201 448
54.92682 12.08354 193.43837 446
52.32475 12.29559 196.01689 443
49.68829 12.46583 198.68581 441
46.96940 12.65976 201.42256 438
44.15612 12.86572 204.24348 435
41.25116 13.08774 207.12999 433
38.26025 13.29432 210.10452 430
-179.44348 29.38866 223.01863 384
85.56325 8.94325 177.92963 464
82.02378 9.20182 179.52914 312
69.44609 10.04994 179.12717 460
67.14285 10.20404 181.40736 457
64.84979 10.35094 183.68378 455
62.45680 10.50970 186.03119 453
60.07503 10.66990 188.44647 451
57.57014 10.81720 190.91769 448
55.06220 11.01042 193.46800 446
52.45984 11.17994 196.03560 443
49.81177 11.35904 198.70966 441
47.10844 11.54777 201.43835 438
44.26883 11.74998 204.27005 436
41.40481 11.95472 207.17659 433
38.39285 12.12066 210.10959 430
-179.41768 26.91375 223.12486 384
85.66576 8.05664 177.95067 464
82.00920 8.30204 179.54369 312
69.53037 9.03909 179.17200 460
67.26775 9.20138 181.41006 458
64.94455 9.36243 183.72971 455
62.57772 9.49843 186.05421 453
60.17093 9.63380 188.46098 451
57.71439 9.79100 190.95090 449
55.18145 9.93860 193.48175 446
52.56649 10.11307 196.07228 444
49.93766 10.24969 198.70137 441
47.22779 10.43608 201.46635 439
44.38671 10.58794 204.28569 436
41.51949 10.75632 207.15364 433
38.56831 10.97623 210.12712 430
-179.36618 24.40019 223.08601 384
-186.77304 24.83890 271.21893 399
-186.83447 24.85320 278.14243 497
-186.73492 24.82667 285.11731 496
-186.71208 24.75899 292.13998 495
85.74641 7.20164 177.95770 464
82.01147 7.39057 179.52959 312
69.58834 8.08796 179.18275 460
67.33674 8.20942 181.41177 458
65.02966 8.31434 183.73326 455
62.66220 8.44597 186.06415 454
60.26978 8.57699 188.50182 451
57.82489 8.72351 190.96777 449
55.30383 8.86891 193.46887 446
52.72093 9.01702 196.06534 444
50.06129 9.15817 198.74138 441
47.35114 9.31482 201.46886 439
44.52708 9.44895 204.25526 436
41.68172 9.63557 207.18178 433
38.70873 9.75673 210.13354 431
-179.38177 21.79065 223.09506 384
85.82384 6.30319 177.96037 465
82.03748 6.49165 179.51076 312
69.68022 7.10318 179.19403 460
67.41694 7.18738 181.44469 458
65.12975 7.29277 183.76454 456
62.79059 7.40845 186.10333 454
60.37333 7.54608 188.49873 451
57.95050 7.67184 190.97646 449
55.42207 7.80575 193.48181 447
52.82983 7.90897 196.07195 444
50.19726 8.05093 198.77316 442
