# .PCD v.7 - Point Cloud Data file format
VERSION .7
FIELDS x y z rgb
SIZE 4 4 4 4
TYPE F F F U
COUNT 1 1 1 1
WIDTH 1351
HEIGHT 1
VIEWPOINT 6373.432129 -1829.789551 147.644073 -0.742858 -0.070522 -0.114750 0.655760
POINTS 1351
DATA ascii
63.64468 -148.79706 164.64684 407
56.08527 -155.71001 166.26770 301
104.70710 -112.69175 171.57678 316
96.35947 -120.45657 171.63094 312
65.77076 -148.73349 165.01576 408
57.11604 -156.74193 166.27228 301
105.46843 -113.46690 171.55249 316
73.60872 -143.26488 163.54306 304
67.91058 -148.65198 165.40189 409
58.14587 -157.78935 166.23865 301
106.18477 -114.22929 171.55943 316
74.50013 -144.32536 163.52768 304
70.00185 -148.52841 165.74991 410
106.96552 -114.99197 171.55293 316
75.31126 -145.32140 163.47305 304
72.04152 -148.49550 166.08676 411
107.70855 -115.73469 171.56526 316
76.20934 -146.37350 163.47389 304
73.81684 -148.67050 166.33887 306
108.48678 -116.49834 171.52565 316
77.07166 -147.37166 163.42764 304
74.81793 -149.58000 166.33159 306
109.23856 -117.23531 171.53429 316
78.05396 -148.26299 163.45235 414
75.83649 -150.50682 166.37054 306
109.98166 -117.95699 171.54501 316
80.05094 -148.18329 163.80287 415
76.84162 -151.45149 166.35049 306
110.79066 -118.72758 171.54169 316
81.97668 -148.07860 164.12393 416
77.85555 -152.29723 166.40158 306
111.56693 -119.42873 171.51314 316
83.87064 -148.03009 164.49042 417
78.84519 -153.24391 166.36313 306
92.10684 -141.32790 163.62793 311
85.76987 -147.96404 164.79578 418
79.89628 -154.09474 166.40169 306
92.94490 -142.22388 163.61006 311
87.60098 -147.89273 165.14120 419
80.86736 -154.99249 166.41396 306
93.84572 -143.15669 163.61745 311
89.47420 -147.81409 165.44592 420
81.94807 -155.87997 166.38443 305
94.69450 -144.04251 163.55038 311
91.29316 -147.73001 165.73578 421
82.94253 -156.77260 166.39677 305
95.59370 -144.89264 163.52077 311
93.09298 -147.70300 166.08270 423
-1935.57043 -2375.42725 268.26239 335
96.48461 -145.80557 163.54277 311
94.86475 -147.61301 166.36238 424
-1946.37280 -2417.21533 215.84801 293
-1898.48096 -2364.02881 267.53259 336
97.36069 -146.68126 163.48152 311
96.08250 -148.16916 166.45200 310
-1848.22803 -2336.39771 216.12804 342
-1871.15784 -2361.57251 267.19958 300
98.42722 -147.38255 163.51183 414
97.05715 -148.96007 166.48448 310
-1812.03357 -2323.84058 216.22530 343
-1926.97632 -2455.28589 269.47827 473
100.24613 -147.15327 163.89557 415
98.04520 -149.74155 166.43806 310
-1775.96533 -2311.94629 216.23088 357
-1910.24585 -2466.14551 269.55194 471
102.05962 -147.03362 164.23174 417
99.03590 -150.52449 166.44737 310
-1745.35010 -2305.27246 216.17770 402
-1892.42590 -2476.57202 269.05313 471
103.79836 -146.81187 164.55354 418
100.03348 -151.33659 166.44173 310
-1716.01440 -2299.51050 215.81627 404
-1876.65088 -2487.92749 269.66458 375
105.56113 -146.64426 164.86838 419
101.03219 -152.10660 166.45421 310
-1688.31409 -2294.05957 216.22679 419
-1859.45300 -2498.61304 269.02191 380
107.28023 -146.50153 165.17654 420
102.02183 -152.87271 166.43935 310
-1661.64624 -2291.35449 216.07745 420
-1843.79541 -2511.19214 269.07892 328
108.98463 -146.30292 165.49400 421
102.99890 -153.62207 166.47913 310
-1635.99426 -2289.06567 215.67688 430
-1705.29468 -2372.99438 265.83630 440
110.68127 -146.16212 165.81738 422
104.02354 -154.43269 166.46683 310
-1611.67346 -2287.32202 215.74683 431
-1680.52881 -2372.03149 265.87683 441
112.33147 -145.96014 166.10684 423
105.07011 -155.16534 166.48650 310
-1587.29285 -2285.95288 215.95074 441
-1660.36206 -2377.30542 265.59119 374
114.01811 -145.82227 166.39526 424
-38831.52734 -49785.14453 -6027.85547 1000
-1564.22961 -2285.54346 216.17795 442
-1658.93396 -2405.96802 265.69049 373
115.04744 -146.36978 166.47354 314
-1541.49756 -2284.74634 215.67149 443
-1658.02527 -2434.67603 266.41592 373
116.02339 -147.10464 166.44609 314
-13329.88770 -17723.94336 -883.96533 1000
-1519.14075 -2284.61011 216.03241 444
-1588.19653 -2374.92139 265.32526 445
116.99716 -147.74660 166.48364 314
-1496.63867 -2283.71045 216.33649 445
-1560.08887 -2368.91553 264.14984 446
118.25132 -148.07289 166.58739 430
117.52025 -149.03815 169.53230 430
-1474.18677 -2283.49927 215.70538 445
-1550.30029 -2385.54858 264.25800 403
119.87157 -147.92691 166.84616 430
119.14083 -148.88516 169.80467 431
-1452.00037 -2282.84912 215.61632 446
-1553.52136 -2420.61841 265.08511 398
121.35864 -147.82143 167.12886 441
120.70396 -148.75307 170.03360 432
-1430.19434 -2282.57446 216.38126 447
-1550.56750 -2448.42310 265.70135 462
122.82629 -147.86406 167.32869 442
122.21503 -148.64175 170.27951 440
-1408.61121 -2282.44482 216.11737 448
-1445.43152 -2333.09204 262.74326 450
123.91309 -148.34880 167.40222 316
123.65952 -148.68605 170.49812 312
-1387.16479 -2281.71704 215.99008 449
-1431.68140 -2344.92090 263.34857 483
-1501.95703 -2443.34375 461.97867 450
124.87126 -148.96304 167.40775 316
124.63161 -149.32510 170.50027 312
-1366.30774 -2281.56665 216.25668 450
-1435.63843 -2381.25415 263.58875 391
125.84003 -149.64201 167.37680 316
125.58123 -149.97406 170.48616 312
-1344.90491 -2280.77637 216.16667 451
-1435.33740 -2411.20117 264.31445 396
126.79460 -150.30428 167.37962 316
-1323.86157 -2280.24292 216.02919 452
-1434.25464 -2442.90161 263.95493 394
-1303.45251 -2279.79224 215.62265 453
-1434.06030 -2474.32812 265.08456 393
-1356.10620 -2358.60742 309.42758 467
-1354.76440 -2356.85962 355.16733 454
-1283.23352 -2279.71045 215.98405 454
-1432.24060 -2504.73315 265.55200 398
-1262.60754 -2278.95752 216.33778 454
-1242.75305 -2278.89331 216.37901 455
-1222.13782 -2278.41211 215.86211 456
-1355.59070 -2487.82007 312.70956 458
-1354.81689 -2486.05859 360.96335 458
-1202.75476 -2277.62817 216.08687 457
-1183.24255 -2277.83960 215.77060 458
-1163.27966 -2277.46167 216.34650 459
-1143.69470 -2276.93628 215.73769 459
-1125.39990 -2277.65234 215.91916 490
-1109.68225 -2282.60571 215.70241 490
-1093.32739 -2286.93408 216.11491 490
-1077.24646 -2291.49194 215.84036 491
-1061.82959 -2296.53052 215.93423 444
-1157.31274 -2502.46460 215.60164 372
-1146.59180 -2520.23901 216.03810 447
-1126.49548 -2519.77539 215.78377 448
-1109.37537 -2524.51074 215.67714 474
-1092.21875 -2529.17017 215.94705 475
-1077.00024 -2538.86548 216.36638 357
-13853.23535 -28625.12500 3353.11133 1000
-25110.44336 -54853.80469 3174.61621 1000
-313.96631 -1426.09802 140.94853 401
-302.41171 -1422.23962 141.41833 489
-303.58331 -1425.36121 166.31807 455
-304.69687 -1428.62634 191.39859 454
-293.49158 -1424.51099 141.80525 499
-293.94714 -1426.59290 166.47017 499
-294.98080 -1428.87341 191.36873 393
-295.79919 -1431.30530 216.18292 498
-298.30905 -1437.59106 241.53653 405
-286.10303 -1431.58301 141.45650 447
-286.92062 -1434.22913 166.44275 447
-288.08585 -1437.97742 191.15265 390
226.80663 -43.46893 211.26266 1000
488.74918 -12682.62695 422.79004 1000
12064.75195 -67733.84375 -5426.32861 1000
11085.38379 -62126.37500 16009.41797 1000
9660.13574 -21587.24219 5303.17529 1000
8827.20996 -17050.18359 1781.65295 1000
2246.14355 -3863.11938 1082.44885 1000
2351.55884 -2683.43799 215.19061 467
2370.64941 -2675.32446 215.58057 454
2391.74194 -2667.00171 215.35408 445
39072.11719 -47959.58203 8324.73926 1000
2412.51758 -2659.33521 215.44327 444
2433.59131 -2651.74365 215.82840 440
2572.35059 -2819.44653 275.24173 421
2455.65942 -2645.18701 215.75233 439
2577.72534 -2790.55347 275.07675 422
2477.54761 -2638.92383 215.26323 439
2582.93408 -2761.85889 275.03372 423
2499.95093 -2631.43042 215.09233 434
2587.42090 -2733.11816 275.12241 424
13371.27051 -15246.41406 1861.73865 1000
2523.04688 -2626.12305 216.01208 425
2592.49146 -2705.21045 273.90607 425
2547.88428 -2621.42920 215.97508 420
2596.95972 -2678.13672 273.79919 426
2572.29712 -2618.18335 215.29016 413
2601.79907 -2649.85327 273.79086 427
2598.92944 -2614.56201 215.22664 409
2612.74927 -2630.57666 273.53482 485
2626.60376 -2613.72266 215.82590 403
2631.85400 -2619.54932 273.48404 439
2656.88428 -2614.39502 215.59196 391
2660.88794 -2619.08789 274.41409 432
2690.14819 -2618.14526 215.93732 378
2695.99072 -2623.47559 274.34009 404
1645.50854 -1487.26477 148.76683 476
1648.26147 -1490.10461 182.59366 434
1652.03357 -1493.68188 215.83035 370
2730.92212 -2628.31860 275.05826 403
1655.28589 -1479.48145 148.72089 468
1657.27917 -1481.15686 182.45049 419
1658.91235 -1482.92358 215.94569 420
2800.61816 -2636.10718 215.72856 383
2838.30347 -2642.75049 215.14429 386
2877.09302 -2648.93970 216.10866 385
2917.38867 -2656.71533 215.58807 384
2957.04272 -2663.45947 216.06662 382
2998.54224 -2670.95044 216.13054 383
3035.82959 -2673.89502 216.02805 361
3084.65356 -2686.62036 215.56036 364
376.29492 -105.34428 167.65154 313
376.92111 -104.45124 167.62552 313
377.47507 -103.50735 167.67563 313
378.10440 -102.59660 167.66379 313
378.65427 -101.64765 167.67264 313
379.27298 -100.76430 167.68822 315
379.85345 -99.83173 167.68802 315
380.41837 -98.92492 167.67159 315
380.99588 -97.97637 167.66774 315
381.52658 -97.05450 167.69673 315
382.10638 -96.08916 167.70996 315
45818.01172 -28952.68750 5526.28906 1000
382.67548 -95.17882 167.67706 315
383.58450 -94.43939 167.60062 437
384.88046 -93.94830 167.34770 436
386.27765 -93.52579 167.07657 435
395.22177 -98.90162 167.66824 309
387.62933 -93.04485 166.83871 434
395.77716 -97.83673 167.71654 309
388.99860 -92.56050 166.60559 433
396.31693 -96.84432 167.70131 309
390.37213 -92.09041 166.34143 432
396.85901 -95.77457 167.70799 309
391.83569 -91.59183 166.05338 431
397.34308 -94.74221 167.70291 309
393.25571 -91.08663 165.78375 430
397.88934 -93.71291 167.76045 309
394.66284 -90.60764 165.48143 429
398.43655 -92.64091 167.72641 309
396.12283 -90.08513 165.20079 428
398.90448 -91.60783 167.76300 309
397.64621 -89.55778 164.94647 427
399.40698 -90.51028 167.76793 309
398.57831 -88.78173 164.81024 317
399.95374 -89.46978 167.78624 311
399.09509 -87.73788 164.79626 317
400.64233 -88.51457 167.70045 426
2735.07690 -1304.74988 123.39870 455
399.63101 -86.72668 164.79947 317
402.14349 -87.99458 167.46027 425
2739.91431 -1287.60303 123.77838 485
2744.37231 -1290.04895 169.52238 481
400.16122 -85.68375 164.74901 317
403.69833 -87.44092 167.13087 424
400.67822 -84.61988 164.78442 317
405.26309 -86.92209 166.82999 423
401.18732 -83.61703 164.74550 317
406.85654 -86.39680 166.55794 441
415.49789 -90.62148 167.73157 305
401.69534 -82.56586 164.78871 317
408.24002 -85.71925 166.31593 440
415.98700 -89.48260 167.76283 305
402.18335 -81.47388 164.76793 317
409.61923 -85.00758 166.04147 439
416.46957 -88.31168 167.75227 305
402.65244 -80.40689 164.76724 317
411.04965 -84.34150 165.81126 438
416.94315 -87.12160 167.80592 305
403.11975 -79.38304 164.74045 317
412.43674 -83.68053 165.56296 437
417.42392 -85.94728 167.77269 305
403.54572 -78.32215 164.77496 317
413.87424 -82.99419 165.27580 436
417.92249 -84.77593 167.79535 305
404.02643 -77.26192 164.74803 317
415.28378 -82.23698 165.05452 435
418.34601 -83.62443 167.81746 305
33713.73828 -14912.33301 1411.75537 1000
404.46280 -76.19366 164.78024 317
416.43167 -81.38685 164.83553 312
418.85040 -82.43800 167.80336 305
381.42007 -64.99757 171.62267 316
416.95312 -80.30354 164.85252 312
419.29056 -81.29066 167.82738 305
381.79285 -64.04126 171.63515 316
417.39056 -79.10799 164.82854 312
419.72583 -80.13832 167.81639 433
382.14456 -63.09091 171.60979 316
417.85529 -77.98448 164.86774 312
421.22107 -79.37516 167.59483 432
382.51279 -62.14262 171.62851 316
418.33615 -76.81101 164.84303 312
422.74496 -78.63705 167.30559 431
382.83301 -61.22451 171.64240 316
418.82135 -75.66105 164.84276 312
424.30914 -77.88552 166.99870 430
383.20062 -60.28499 171.63698 316
419.25031 -74.51491 164.81299 312
425.85443 -77.11076 166.74533 429
383.51486 -59.32336 171.63445 316
419.72256 -73.35045 164.83324 312
427.44702 -76.36234 166.48654 428
437.55338 -80.26450 167.78947 301
383.84665 -58.38696 171.62389 316
420.15103 -72.19199 164.81435 312
429.02957 -75.57713 166.20039 427
437.96640 -78.94746 167.83940 301
384.17947 -57.41798 171.65176 316
420.55508 -71.03594 164.82242 312
430.65549 -74.77283 165.88852 426
438.37158 -77.65372 167.85785 301
3643.79346 -1276.24915 156.34302 332
3645.91113 -1276.91895 216.40919 350
384.47482 -56.47720 171.65054 316
420.97302 -69.84689 164.83813 312
432.29446 -74.01334 165.59637 425
438.74991 -76.37895 167.82921 301
3627.39868 -1245.99890 156.86774 419
3633.80933 -1248.84375 216.31372 400
384.76840 -55.50243 171.65874 316
421.37543 -68.65820 164.79752 312
433.90817 -73.19133 165.28011 424
439.19324 -75.07066 167.83376 301
3621.83081 -1221.26306 156.68169 464
3637.65356 -1227.09863 216.12213 399
385.11478 -54.55475 171.67494 316
395.68283 -58.30276 171.73714 313
435.58337 -72.35056 164.97348 423
439.57086 -73.77709 167.85333 301
3619.93579 -1196.42529 157.66832 462
3646.59741 -1205.99207 215.87276 331
385.39594 -53.57420 171.64731 316
396.00327 -57.28499 171.74834 313
436.26559 -71.21119 164.88562 308
439.91351 -72.44631 167.88853 301
3617.80566 -1172.48010 157.26311 481
3690.82617 -1197.82617 216.31239 448
385.71454 -52.61902 171.63739 316
396.32007 -56.20877 171.76277 313
436.70438 -69.95026 164.91695 308
440.32953 -71.13591 167.91884 301
3616.47485 -1149.66675 157.42673 487
385.96454 -51.64155 171.63940 316
396.65207 -55.22722 171.75571 313
437.13306 -68.66998 164.92281 308
440.67413 -69.82974 167.87970 301
3617.13159 -1126.21094 157.21822 488
386.25671 -50.68913 171.67682 316
396.94110 -54.18080 171.77122 313
437.52432 -67.41189 164.92807 308
442.13129 -68.87528 167.64952 434
3616.90796 -1103.75500 157.59297 488
386.53076 -49.70768 171.64363 316
397.25552 -53.15108 171.78792 313
437.87012 -66.11233 164.88144 308
443.67456 -67.93995 167.37601 433
3621.48267 -1082.09290 157.91515 490
386.80118 -48.74680 171.64479 316
397.51434 -52.08047 171.76863 313
438.28000 -64.81901 164.93202 308
445.25854 -67.03859 167.11423 432
3623.12134 -1059.80652 158.26472 492
387.09509 -47.77272 171.68684 316
397.79260 -51.05435 171.75612 313
438.61493 -63.54604 164.91663 307
446.83292 -66.02779 166.82828 431
3622.50537 -1036.48059 157.71776 493
387.34354 -46.82437 171.66170 316
398.09973 -50.02617 171.78157 313
438.95801 -62.26905 164.93576 307
448.43808 -65.04800 166.56627 430
3624.53003 -1014.63489 158.37263 482
3711.99487 -1040.44165 216.21643 319
387.58783 -45.85746 171.65907 316
398.39133 -48.96493 171.76094 313
439.30460 -60.98556 164.91853 307
450.08130 -64.06959 166.31099 429
3678.18140 -1007.98175 98.34058 443
3624.51074 -992.42438 158.72314 492
3673.19995 -1005.83716 216.28627 491
3760.82544 -1032.19226 276.31277 327
387.81299 -44.83626 171.69409 316
398.63727 -47.92780 171.75705 313
439.68854 -59.64993 164.91870 307
451.74271 -63.09488 165.98347 428
461.83743 -65.98211 167.91011 297
3678.84009 -984.75281 99.07525 446
3627.76562 -970.94153 157.88875 495
3673.66235 -983.97595 215.98845 491
3708.24976 -993.96967 274.99417 328
388.06332 -43.85427 171.68527 316
398.89059 -46.92001 171.76207 313
411.13815 -50.31977 171.89232 309
453.43564 -62.14531 165.70741 427
462.13602 -64.54613 167.89496 297
3669.70898 -959.30841 98.83981 497
3631.92798 -949.59491 158.11661 495
3674.39380 -961.36627 216.61945 492
3669.75391 -960.24896 274.45279 499
3689.38745 -965.37305 333.81335 416
388.32510 -42.88083 171.68213 316
399.15640 -45.84412 171.77373 313
411.42761 -49.21214 171.89973 309
455.10852 -61.10158 165.44577 426
462.41348 -63.13077 167.91637 297
3659.81445 -934.88733 99.42325 316
3635.45044 -927.39355 157.92465 472
3683.47583 -941.16199 216.36298 329
3676.19995 -939.11121 274.83371 499
3696.09106 -944.83875 333.64755 416
388.55719 -41.92413 171.68213 317
399.37592 -44.78021 171.77156 313
411.71219 -48.07621 171.91499 309
456.79517 -60.04273 165.07884 425
462.76074 -61.66358 167.92093 297
3656.67700 -911.45789 99.70374 316
3640.76294 -907.07623 158.39165 472
3679.83203 -916.90619 216.26511 499
3681.67236 -917.56738 274.50894 499
388.78110 -40.94389 171.70439 317
399.64197 -43.77816 171.79950 313
411.95038 -46.94341 171.93637 309
457.61667 -58.82765 165.00237 303
463.02567 -60.16383 167.98380 297
3655.99585 -888.23334 100.68282 389
3645.39380 -885.21503 158.53316 472
3685.43726 -896.48004 216.29794 499
3688.62354 -896.45239 274.78638 499
388.96729 -39.95230 171.67693 317
399.84204 -42.71713 171.81607 313
412.18918 -45.84870 171.92313 309
457.99118 -57.37532 165.00812 303
463.29169 -58.73682 167.99976 297
3658.32617 -866.27612 100.58078 389
3651.16650 -865.00269 158.70598 438
3692.21289 -875.55292 215.95029 499
3693.21045 -875.90015 275.08334 498
389.20081 -38.96536 171.69194 317
400.11417 -41.66258 171.78340 313
412.47400 -44.67777 171.89743 309
458.28210 -55.97808 164.99403 303
463.58353 -57.27707 167.99411 297
3661.31958 -844.81329 99.93785 389
3657.19141 -844.03583 158.50633 438
3692.89307 -853.34235 216.57817 480
3694.90308 -853.68524 274.30667 499
3943.21631 -915.19708 341.05768 335
389.39163 -37.96476 171.68352 317
400.29584 -40.59245 171.79546 313
412.70840 -43.56350 171.89258 309
458.58237 -54.56330 164.98311 304
463.82431 -55.83496 167.97569 297
3664.80347 -823.21704 100.91463 389
3663.59863 -823.12799 158.16765 438
3698.23413 -831.77264 215.81462 499
3701.94604 -833.10248 274.33536 499
389.62051 -36.97679 171.69255 317
400.50775 -39.54395 171.77324 313
412.91812 -42.42093 171.90416 309
458.93771 -53.18741 164.99321 304
464.73251 -54.50326 167.88968 453
3668.29395 -802.55066 100.95351 446
3669.34717 -802.69073 158.21790 438
3704.36597 -810.51233 216.00975 499
3708.35181 -811.55255 274.81210 499
389.78909 -35.98543 171.68340 317
400.73352 -38.48982 171.79526 313
413.16272 -41.29558 171.91544 309
459.22852 -51.76150 164.99120 304
466.02579 -53.31545 167.67130 452
3673.66577 -781.61084 100.36739 446
3676.20361 -781.70837 158.04254 438
3710.54077 -790.20306 216.74734 498
3714.32593 -790.82062 275.05991 499
389.96649 -35.01630 171.68352 317
400.91782 -37.43881 171.81749 313
413.38208 -40.15628 171.91002 309
459.48193 -50.34265 164.99692 304
467.31580 -52.03713 167.45930 452
3679.40259 -760.10944 100.44253 446
3683.08057 -761.63025 158.08505 411
3722.98877 -770.46838 216.58232 499
3725.53418 -770.81659 275.20279 499
390.17245 -34.00377 171.68536 317
401.15787 -36.37492 171.79797 313
413.55939 -39.02999 171.92996 309
459.73367 -48.92653 165.03345 304
468.65936 -50.86396 167.27376 451
3685.01660 -739.36029 100.29841 446
3690.73047 -740.67279 158.02812 411
3729.93481 -749.66345 215.95416 499
3731.13281 -749.69702 275.00314 498
390.34769 -33.02799 171.70944 317
401.30826 -35.31355 171.79749 313
413.76855 -37.90600 171.95084 309
460.03058 -47.47497 165.03409 304
470.00259 -49.58772 167.08064 450
3689.53394 -718.34967 100.07791 446
3697.65698 -720.52637 158.17807 411
3735.96265 -727.71289 215.86711 499
3737.64404 -728.24170 274.82144 498
3879.70972 -757.49933 338.67496 493
390.51871 -32.04420 171.68872 317
401.51602 -34.27398 171.79495 313
414.00687 -36.78922 171.91331 309
428.27289 -39.61681 172.08044 305
471.34943 -48.32837 166.83250 449
3695.06006 -697.40363 99.90413 446
3705.11743 -699.99658 157.90930 411
3741.89429 -706.56732 216.37898 498
3743.62891 -707.47729 274.95853 498
3825.14087 -723.92004 336.09174 498
390.67972 -31.05149 171.68010 317
401.70062 -33.20219 171.78349 313
414.20096 -35.61367 171.91772 309
428.44281 -38.41523 172.05577 305
472.69812 -47.06924 166.61615 448
3701.43066 -676.34204 100.39914 480
3712.32031 -678.91882 158.15787 411
3748.71265 -686.07782 215.81010 498
3749.79175 -686.41675 275.22134 498
3810.22534 -697.60309 335.98395 498
390.83157 -30.03308 171.69429 317
401.85123 -32.12080 171.79555 313
414.37213 -34.45929 171.95273 309
428.66589 -37.19355 172.09578 305
474.11334 -45.71801 166.40314 447
3706.39648 -655.56793 100.41171 480
3720.42334 -658.76227 158.44252 411
3753.82642 -665.04742 216.19604 498
3756.21411 -665.24683 275.43497 498
3770.03931 -668.24915 334.25119 442
390.98871 -29.06510 171.70154 317
402.02475 -31.03857 171.80345 313
414.53033 -33.33947 171.93292 309
428.86829 -35.92829 172.07050 305
475.49951 -44.45426 166.13301 446
3712.13770 -635.07715 100.32129 479
3727.43896 -637.23181 157.92159 411
3879.79736 -665.74695 337.77811 339
391.12213 -28.04870 171.69800 317
402.18411 -29.99308 171.83408 313
414.71030 -32.21777 171.91257 309
429.02496 -34.71293 172.07036 305
476.89957 -43.12959 165.89334 445
3718.67847 -613.85168 100.10844 479
3735.29248 -616.60065 158.04555 345
3850.42090 -637.09930 337.21094 498
391.29068 -27.03727 171.69057 317
402.33368 -28.91403 171.81599 313
414.87253 -31.02440 171.95844 309
429.24936 -33.50925 172.07732 305
478.29877 -41.82741 165.67720 445
488.89688 -43.60993 168.09058 293
3723.87256 -592.85962 99.67595 479
3744.36304 -596.80835 157.41260 345
3858.66528 -615.87939 336.70993 487
3908.26465 -624.39551 399.75595 469
391.40955 -26.03139 171.72032 317
402.47064 -27.87180 171.82802 313
415.01096 -29.92681 171.95082 309
429.38504 -32.26663 172.06767 305
479.73932 -40.47107 165.41437 444
489.07068 -42.01256 168.07646 294
3729.53027 -571.60229 99.96417 479
3752.73877 -575.31793 157.71774 345
3907.93628 -600.48431 338.32205 337
391.52893 -25.05801 171.71165 317
402.62851 -26.80157 171.81261 313
415.20087 -28.75274 171.94412 309
429.56927 -31.02479 172.08131 305
481.19965 -39.14218 165.15111 443
489.19617 -40.38307 168.07524 294
3735.37231 -550.79053 100.33623 479
391.64963 -24.01581 171.68857 317
402.75815 -25.69512 171.83766 313
415.31082 -27.62352 171.94000 309
429.69214 -29.80050 172.07990 305
481.61969 -37.63371 165.14551 300
489.30725 -38.75674 168.14166 294
3741.72021 -529.45740 100.30076 496
391.77203 -23.01201 171.71275 317
402.87488 -24.64897 171.80362 313
415.48837 -26.46741 171.93555 309
429.86377 -28.54566 172.08470 305
481.79419 -36.07314 165.16600 300
489.44284 -37.18938 168.09409 294
3747.62061 -508.23724 99.93544 496
391.91345 -22.01347 171.71286 317
402.98889 -23.56739 171.80791 313
415.59613 -25.30873 171.94707 309
429.99277 -27.31378 172.10191 305
481.99280 -34.52179 165.14201 300
489.50778 -35.56689 168.18092 294
3753.44116 -487.83682 99.28632 496
391.98972 -21.02037 171.70009 317
403.12845 -22.48596 171.79346 313
415.72928 -24.16667 171.92778 309
430.12595 -26.05458 172.05344 305
482.19962 -32.93287 165.14442 301
489.63458 -33.95560 168.18988 294
3759.58105 -466.49075 99.68410 495
3931.60352 -489.43463 154.79878 476
3935.74829 -489.79706 216.23795 418
392.11551 -20.00480 171.69745 317
403.20413 -21.41119 171.79637 313
415.85098 -23.00564 171.92154 309
430.29352 -24.84741 172.08453 305
446.97876 -26.95407 172.24088 301
489.69833 -32.28386 168.18658 294
3765.57446 -445.29520 99.89594 495
3928.60400 -465.42340 155.43108 496
392.18658 -19.03261 171.73727 317
403.34772 -20.33856 171.83560 313
415.93671 -21.88146 171.92961 309
430.40176 -23.56792 172.07791 305
447.10141 -25.60660 172.23956 301
489.79227 -30.71514 168.18622 294
3772.14136 -423.48630 99.35944 495
3935.16162 -443.05173 155.64667 496
392.25696 -18.02372 171.73428 317
403.42578 -19.29573 171.84769 313
416.06802 -20.71270 171.96228 309
430.52609 -22.34575 172.05664 305
447.25696 -24.23166 172.24019 301
489.80881 -29.07620 168.19992 294
3778.16479 -402.62173 99.09429 494
392.37085 -17.01098 171.73535 317
403.48950 -18.19879 171.80296 313
416.17706 -19.55630 171.92448 309
430.60248 -21.08394 172.08598 305
447.34106 -22.92370 172.22150 301
490.87073 -27.60857 168.07863 456
3784.68994 -381.73871 98.91668 494
3825.74927 -385.66153 157.45004 494
392.43079 -15.99422 171.71156 317
403.58923 -17.11716 171.80626 313
416.23206 -18.37670 171.96928 309
430.73203 -19.88496 172.08305 305
447.43671 -21.54995 172.26083 301
492.06573 -26.03893 167.87019 455
3790.44653 -360.26874 99.53197 494
4014.42188 -382.35718 153.67123 313
392.48276 -14.95954 171.70386 317
403.65405 -16.05438 171.80440 313
416.30405 -17.24075 171.92679 309
430.82593 -18.62466 172.10901 305
447.54367 -20.22556 172.24512 301
493.30078 -24.55868 167.67088 454
3796.88281 -338.57077 98.60500 494
3855.80493 -343.80499 156.91270 495
392.57678 -13.99360 171.73712 317
403.72867 -14.95361 171.81389 313
416.41907 -16.10898 171.97166 309
430.88510 -17.39485 172.11719 305
447.66959 -18.84943 172.25014 301
494.54166 -23.06421 167.46350 454
3803.20361 -316.77353 98.99526 493
3911.51733 -326.70312 155.95140 496
392.62775 -12.96228 171.69624 317
403.82224 -13.87768 171.80759 313
416.46759 -14.92788 171.94121 309
430.94879 -16.12171 172.10297 305
447.70337 -17.51474 172.24733 301
495.83206 -21.47132 167.27173 453
3864.98486 -299.81989 97.21092 494
3910.49463 -303.51614 155.61972 497
392.65308 -11.95634 171.69710 317
403.82999 -12.78264 171.81798 313
416.55688 -13.76348 171.96126 309
431.05634 -14.87712 172.08527 305
447.79904 -16.15213 172.22536 301
496.93399 -19.91513 167.07719 483
3922.97998 -282.43576 94.76860 439
3909.26514 -281.05075 155.38139 497
392.70398 -10.94795 171.69926 317
403.90582 -11.71655 171.84013 313
416.57309 -12.63909 171.96083 309
431.09271 -13.66668 172.08618 305
447.85458 -14.80263 172.26181 301
497.59784 -18.32066 166.98837 483
3936.97510 -260.40115 94.55415 376
3877.99170 -256.28415 156.74918 306
4123.27295 -273.68454 215.86517 309
392.76309 -9.92553 171.73119 317
403.96820 -10.66721 171.82613 313
416.63431 -11.46018 171.94908 309
431.14154 -12.40907 172.09731 305
447.91367 -13.45082 172.27763 301
498.26703 -16.68732 166.87984 482
392.78754 -8.92217 171.70921 317
403.99237 -9.55825 171.81421 313
416.68558 -10.27763 171.92937 309
431.19815 -11.13176 172.07043 305
447.96768 -12.12416 172.24100 301
498.93524 -15.11001 166.70592 482
3894.77344 -212.03548 216.32483 302
392.82095 -7.92009 171.73595 317
404.02365 -8.48962 171.81955 313
416.71445 -9.14323 171.95164 309
431.26062 -9.90661 172.11090 305
448.05551 -10.80310 172.26625 301
467.69049 -11.75743 172.44901 297
392.85638 -6.87191 171.71399 317
404.01471 -7.39978 171.82323 313
416.76440 -7.99574 171.93633 309
431.27850 -8.62212 172.08362 305
448.05405 -9.44394 172.28110 301
467.74698 -10.35259 172.45992 297
392.84946 -5.88824 171.72777 317
404.07236 -6.32893 171.82909 313
416.75885 -6.80762 171.95871 309
431.31503 -7.37789 172.08693 305
448.11795 -8.09027 172.24635 301
467.77078 -8.83975 172.46886 297
392.87793 -4.85056 171.72418 317
404.04797 -5.21305 171.84259 313
416.76996 -5.65171 171.94730 309
431.33163 -6.14267 172.08707 305
448.10092 -6.70258 172.23532 301
467.75696 -7.39691 172.43428 297
392.88300 -3.85487 171.70058 317
404.08966 -4.15536 171.81537 313
416.78540 -4.53006 171.95473 309
431.32114 -4.88321 172.06215 305
448.16260 -5.35401 172.26176 301
451.53131 -5.45305 175.42146 401
392.84225 -2.82462 171.73250 317
404.06668 -3.05557 171.83626 313
416.77515 -3.36751 171.97324 309
431.32330 -3.64962 172.09152 305
448.12436 -4.01462 172.25902 301
451.45844 -4.08043 175.42110 496
392.82559 -1.83096 171.73917 317
404.06943 -1.98385 171.84769 313
416.78412 -2.18741 171.95906 309
431.32629 -2.38670 172.10210 305
448.14438 -2.67840 172.24631 301
451.41605 -2.71113 175.44576 496
392.84055 -0.80420 171.73737 317
404.05612 -0.93194 171.84077 313
416.76840 -0.99940 171.93579 309
431.29849 -1.15593 172.08328 305
448.11041 -1.28990 172.23767 301
451.45270 -1.34197 175.43919 496
392.81909 0.19464 171.72623 317
404.02707 0.16508 171.84364 313
416.77435 0.15853 171.96288 309
431.28979 0.07771 172.10031 305
448.12006 0.01773 172.22356 301
451.45566 0.01545 175.38724 496
392.77679 1.21527 171.73102 317
403.98386 1.27015 171.82867 313
416.74115 1.31434 171.92911 309
431.27542 1.34901 172.06027 305
448.09677 1.38932 172.24469 301
451.44421 1.38262 175.40869 496
392.77084 2.22625 171.68936 317
403.94391 2.35935 171.83844 313
416.69730 2.47142 171.93250 309
431.23193 2.59063 172.07143 305
448.04727 2.76620 172.26555 301
451.43079 2.76338 175.39746 496
392.69351 3.26969 171.72820 317
403.93036 3.41342 171.80386 313
416.64050 3.60123 171.93582 309
431.17789 3.81717 172.10495 305
447.99805 4.11745 172.21780 301
451.45438 4.12644 175.42307 496
392.65433 4.28216 171.73146 317
403.85538 4.49342 171.80234 313
416.58905 4.80357 171.96255 309
431.13043 5.10568 172.07820 305
447.97269 5.48057 172.24843 301
467.64792 5.86606 172.43973 297
392.61694 5.27536 171.70363 317
403.82877 5.61022 171.84088 313
416.54669 5.93547 171.93454 309
431.07855 6.36297 172.09317 305
447.93301 6.79405 172.27690 301
467.56287 7.34494 172.46422 297
392.55194 6.30683 171.69287 317
403.76352 6.66847 171.84137 313
416.49777 7.07896 171.94611 309
431.04495 7.61463 172.10629 305
447.86084 8.18297 172.23830 301
467.49808 8.80957 172.43251 297
392.48825 7.28683 171.70346 317
403.69040 7.73140 171.84053 313
416.39105 8.26403 171.92407 309
430.97241 8.86631 172.05177 305
447.78000 9.53481 172.23036 301
467.41916 10.29571 172.44768 297
392.42838 8.34059 171.71184 317
403.65256 8.84484 171.83081 313
416.35898 9.40121 171.92285 309
430.85547 10.06596 172.07669 305
447.67328 10.84196 172.26747 301
467.36526 11.79139 172.40826 297
392.32434 9.33576 171.70819 317
403.53320 9.94103 171.80318 313
416.25198 10.59384 171.94170 309
430.80298 11.33356 172.05681 305
447.58942 12.20940 172.21515 301
498.74155 14.90532 166.71931 482
392.28146 10.35279 171.69897 317
403.48322 10.97985 171.83287 313
416.13913 11.72566 171.91194 309
430.68158 12.56821 172.05746 305
447.51779 13.56234 172.27196 301
498.02930 16.52066 166.78923 482
392.15704 11.36973 171.69899 317
403.35257 12.08531 171.83644 313
416.09500 12.90135 171.91437 309
430.58829 13.85663 172.08669 305
447.39474 14.91992 172.26292 301
497.32770 18.16350 166.90845 483
392.09317 12.38552 171.70003 317
403.28134 13.18530 171.82036 313
415.97519 14.03256 171.93761 309
430.47797 15.11133 172.06615 305
447.28122 16.29452 172.23303 301
496.65225 19.74877 166.98018 451
391.96677 13.39835 171.71973 317
403.18042 14.24340 171.79723 313
415.83502 15.20773 171.92816 309
430.36707 16.30858 172.06923 305
447.14780 17.60404 172.23076 301
495.40497 21.31666 167.20627 452
391.87421 14.37694 171.71507 317
403.05435 15.31645 171.82910 313
415.74823 16.37284 171.91115 309
430.27490 17.57452 172.07544 305
447.04868 18.99071 172.22591 301
494.16266 22.85249 167.40866 453
391.76370 15.41378 171.72368 317
402.93274 16.38794 171.83116 313
415.62671 17.54378 171.92081 309
430.12573 18.82669 172.08493 305
446.89609 20.32135 172.23489 301
492.90894 24.38259 167.59816 454
391.62692 16.41235 171.69540 317
402.80023 17.49044 171.78903 313
415.51572 18.67915 171.95508 309
429.97870 20.05383 172.07091 305
446.77429 21.63576 172.24855 301
491.67590 25.94145 167.78596 455
391.54163 17.41087 171.71849 317
402.69159 18.54500 171.81944 313
415.34793 19.84422 171.90990 309
429.82864 21.29294 172.07295 305
446.59723 23.01704 172.22385 301
490.46451 27.42976 167.97997 455
391.41391 18.43793 171.71579 317
402.57669 19.65207 171.78503 313
415.20853 20.98449 171.92899 309
429.68988 22.52869 172.04100 305
446.43811 24.35639 172.20325 301
489.23407 28.92025 168.16232 456
391.27365 19.43616 171.68202 317
402.40173 20.70686 171.80643 313
415.03903 22.17708 171.90041 309
429.50815 23.80197 172.08496 305
446.28378 25.67647 172.21300 301
488.96661 30.54274 168.15982 294
391.13232 20.44527 171.68369 317
402.28024 21.77682 171.78983 313
414.92902 23.33150 171.91328 309
429.38306 25.05015 172.07562 305
446.08203 27.05189 172.21980 301
488.89481 32.18948 168.17451 294
2647.98169 291.39059 56.47697 361
390.98953 21.48534 171.70587 317
402.09607 22.85538 171.81390 313
414.71960 24.49148 171.92923 309
429.21924 26.30717 172.03621 305
481.30124 32.84446 165.09666 300
488.72934 33.83538 168.14778 294
2636.00488 304.87607 57.19083 495
2643.47290 305.46353 97.06052 473
2650.96802 306.40961 136.73480 415
390.80759 22.45699 171.69440 317
401.94122 23.92398 171.79482 313
414.55374 25.62463 171.92923 309
429.00058 27.55521 172.05864 305
481.02817 34.38916 165.12569 300
488.60898 35.45179 168.12398 294
2640.36230 320.16635 57.03601 425
390.63779 23.47080 171.69955 317
401.76810 25.02954 171.79523 313
414.38873 26.79600 171.92691 309
428.81451 28.77596 172.06587 305
480.86673 35.97512 165.09729 300
488.45853 37.04465 168.10379 294
390.50253 24.47868 171.69789 317
401.61310 26.07457 171.77119 313
414.20459 27.89666 171.92496 309
428.62247 30.03562 172.02769 305
480.57736 37.54301 165.14781 300
488.34457 38.62925 168.09840 294
390.33707 25.49730 171.67471 317
401.39960 27.15344 171.78496 313
414.01309 29.04878 171.91264 309
428.41898 31.22122 172.03064 305
480.38422 39.07372 165.12022 300
488.11832 40.27307 168.08690 294
390.14761 26.47753 171.68810 317
401.21085 28.24630 171.80222 313
413.83044 30.19684 171.91965 309
428.22363 32.50531 172.03383 305
479.05310 40.46407 165.34969 443
487.93594 41.90397 168.04622 293
389.93640 27.51032 171.69434 317
401.02252 29.29782 171.79205 313
413.63852 31.38146 171.88997 309
427.97968 33.71365 172.02339 305
477.57635 41.85661 165.53883 444
487.76801 43.53397 168.04605 293
389.78448 28.51667 171.67221 317
400.84879 30.38353 171.79437 313
413.38208 32.49962 171.89838 309
427.79483 34.96036 172.01920 305
476.14404 43.20880 165.82722 445
389.57645 29.49880 171.68623 316
400.60587 31.43345 171.80133 313
413.18515 33.66705 171.90770 309
427.55087 36.21919 172.01212 305
474.74564 44.52018 165.99048 446
389.38638 30.50285 171.67357 316
400.40115 32.51170 171.76556 313
412.94876 34.80549 171.89702 309
427.29517 37.44185 172.05083 305
473.31506 45.80503 166.28267 447
389.14780 31.49403 171.68373 316
400.17786 33.56984 171.76128 313
412.73770 35.95813 171.89323 309
427.04358 38.69075 172.05852 305
471.93948 47.15952 166.43843 447
388.95956 32.52129 171.67429 316
399.95038 34.66919 171.76903 313
412.47052 37.07792 171.88362 309
426.80685 39.91441 172.04961 305
470.57690 48.46181 166.69075 448
388.72015 33.50126 171.64258 316
399.73904 35.73855 171.76854 313
103.92706 20.95147 -24.71939 309
458.53021 47.59431 164.99466 304
469.16339 49.72580 166.92882 449
388.51230 34.49369 171.66299 316
399.52014 36.78387 171.77490 313
411.98138 39.36048 171.88963 309
458.22131 48.97582 165.00275 304
467.84439 51.00817 167.09978 450
388.28360 35.50000 171.68268 316
399.25937 37.85590 171.74657 313
411.73013 40.53808 171.89381 309
457.90524 50.45370 165.00140 304
466.44327 52.22377 167.33972 451
388.04514 36.49188 171.66827 316
398.98895 38.91740 171.76775 313
411.44919 41.66273 171.87440 309
457.60095 51.81569 164.94659 304
465.10342 53.50037 167.54495 452
387.78619 37.50085 171.64804 316
398.72635 39.98474 171.74380 313
411.19894 42.81711 171.85551 309
457.26495 53.24497 164.99316 303
463.80975 54.77377 167.67380 453
387.54959 38.45693 171.67519 316
398.45651 41.01129 171.73996 313
410.88843 43.92529 171.86214 309
456.91263 54.71133 164.95386 303
462.45496 55.97224 167.92258 453
387.29498 39.48411 171.66835 316
398.21631 42.08327 171.77516 313
410.62949 45.08176 171.87384 309
456.53894 56.07226 164.94214 303
461.87439 57.36554 167.95851 297
387.02942 40.44064 171.65384 316
397.93683 43.16033 171.76866 313
410.33466 46.17680 171.85547 309
456.15939 57.51842 164.97223 303
461.54453 58.79565 167.90956 297
386.74860 41.43534 171.66119 316
397.67023 44.20745 171.73880 313
410.03726 47.32780 171.89574 309
455.81958 58.92213 164.93201 303
461.22131 60.27563 167.89644 297
386.46625 42.41360 171.64897 316
397.36215 45.24180 171.74773 313
409.74301 48.45563 171.85619 309
455.33820 60.31219 164.99547 424
460.89386 61.71016 167.92891 297
386.18732 43.42521 171.63904 316
397.06082 46.31546 171.72919 312
409.38177 49.58398 171.84297 309
453.61823 61.36977 165.26602 425
460.53018 63.20916 167.87173 297
385.91678 44.41846 171.65393 316
396.76282 47.38071 171.71703 312
409.06125 50.72128 171.86014 309
451.89096 62.41037 165.55540 426
460.20175 64.67333 167.85951 297
385.63782 45.37590 171.61185 316
396.45361 48.38351 171.75732 312
437.62253 59.86236 164.86086 308
450.15869 63.39286 165.86617 427
459.81961 66.08603 167.89325 297
385.32108 46.36584 171.64055 316
396.12698 49.44518 171.71654 312
437.18665 61.21672 164.87799 308
448.48431 64.43586 166.12103 428
385.01837 47.35440 171.61267 316
395.83759 50.47692 171.73819 312
436.83240 62.50138 164.87225 308
446.87036 65.41278 166.44325 429
36955.98828 10743.12988 5255.48438 1000
384.71387 48.31321 171.64755 316
395.52466 51.55578 171.70468 312
436.43713 63.79844 164.84943 308
445.23392 66.43049 166.69849 430
384.41199 49.30025 171.62811 316
395.18860 52.59172 171.73854 312
436.00369 65.05775 164.88918 308
443.55939 67.41514 166.94437 431
384.05103 50.26194 171.61116 316
394.83725 53.62877 171.71765 312
435.58585 66.33405 164.87639 308
441.99445 68.34101 167.21307 432
383.73248 51.23153 171.61707 316
394.48685 54.66989 171.71986 312
435.16217 67.65466 164.86136 308
440.37613 69.31030 167.48317 433
383.42264 52.21816 171.61430 316
394.10831 55.73102 171.73363 312
434.73529 68.93496 164.86911 308
438.73730 70.22887 167.75290 420
383.10104 53.20358 171.61786 316
393.77316 56.76464 171.72131 312
434.25723 70.18985 164.85110 308
437.83951 71.44267 167.85445 301
382.73935 54.15138 171.59804 316
393.39203 57.75727 171.70477 312
433.74216 71.47080 164.85878 308
437.41287 72.71274 167.85017 301
382.38187 55.13375 171.57774 316
393.05765 58.79142 171.72212 312
433.25922 72.73161 164.87901 308
437.00607 74.00349 167.81139 301
1852.75293 564.38495 46.96326 336
1846.44470 562.21698 75.66851 342
382.01767 56.06005 171.58121 316
418.71295 69.06764 164.79599 312
431.73795 73.62280 165.15192 423
436.52853 75.33128 167.85001 301
1835.54602 569.46356 48.16500 359
1823.54492 565.04132 77.26784 362
381.67960 57.05372 171.60695 316
418.23831 70.20311 164.77634 312
430.05362 74.48211 165.41945 424
436.08527 76.64324 167.82494 301
1813.38696 573.02374 49.96420 360
1801.41772 568.41425 79.18434 363
1801.45715 568.40332 106.81078 370
381.31229 58.00242 171.58078 316
417.79095 71.40985 164.80679 312
428.37479 75.31998 165.73434 425
435.65796 77.93849 167.79013 301
1791.86951 575.98761 51.83050 360
1772.84009 569.01520 81.47291 345
1781.94727 572.30585 107.85797 374
380.92184 58.96088 171.56540 316
417.28772 72.58020 164.77655 312
426.74701 76.07475 166.00931 426
435.22519 79.26954 167.79784 301
1770.59460 578.55353 54.00687 363
1751.74133 571.54388 82.59366 375
1762.75574 575.87830 108.91768 375
380.55106 59.89801 171.56923 316
416.80463 73.72501 164.80064 312
425.12109 76.90925 166.32109 427
434.72382 80.56577 167.75751 301
1749.87305 581.86981 55.54660 364
1730.87451 574.60150 84.44942 376
1744.20972 579.55212 109.85640 363
380.14362 60.87936 171.58150 316
416.33365 74.93123 164.80984 312
423.50311 77.67628 166.56479 428
1728.99792 584.37494 57.33067 363
1712.21582 577.94214 85.48290 351
1727.09985 583.54559 110.65434 364
379.78442 61.80398 171.57635 316
415.80185 76.07820 164.77548 312
421.87726 78.45336 166.87582 429
1708.78674 587.05493 59.44372 364
1698.41907 582.85663 86.40524 273
1710.61792 587.55658 111.61491 327
379.37354 62.77148 171.55035 316
415.33859 77.21563 164.77443 312
420.28012 79.21832 167.09894 430
1689.06348 589.76367 60.77383 365
1681.29639 586.56946 87.54916 381
1695.73218 592.18677 112.44158 328
378.97086 63.73337 171.57066 316
414.80432 78.37289 164.77740 312
418.76297 80.02570 167.39935 431
1686.76135 598.96631 34.60689 373
1669.63928 592.03229 62.44372 367
1663.50073 589.69965 88.97464 382
1687.69312 599.60352 112.88732 265
378.55093 64.66456 171.56667 316
414.29367 79.55274 164.81941 312
417.18045 80.76510 167.63493 432
1668.93335 602.13770 36.63154 375
1651.02197 594.63629 64.14299 368
1646.24854 592.68036 90.05940 384
1779.45117 648.07886 106.29083 495
378.16553 65.59805 171.54845 316
413.74454 80.71300 164.82101 312
416.06503 81.71146 167.77029 305
1651.06885 605.07971 38.28276 376
1632.10620 597.23657 65.82140 369
1629.02271 595.55109 91.53002 385
1774.92004 657.46997 105.99503 498
377.72263 66.56668 171.55779 316
413.19757 81.87189 164.79662 312
415.58502 82.88615 167.76096 305
1633.89465 607.99170 39.91228 377
1614.28162 599.19678 67.53552 370
1612.37354 598.64972 92.42706 386
1780.71155 670.98816 105.66984 344
400.73767 77.77145 164.68698 316
412.60251 82.96220 164.83826 435
415.08215 84.08672 167.76723 305
1616.98560 610.70941 41.52790 378
1596.08496 601.58173 68.97153 372
1595.97473 601.35345 93.86622 388
1768.56689 677.30359 106.11489 277
400.22607 78.80885 164.70703 316
411.13956 83.68876 165.09552 436
414.57492 85.22678 167.78444 305
1600.15088 613.40131 42.97934 365
1578.80676 603.93250 70.21592 367
1579.89783 604.32568 94.66911 389
1763.98779 686.29089 106.03125 276
399.70755 79.87059 164.70387 316
409.67776 84.44273 165.34431 436
414.07745 86.43307 167.72925 305
1583.24207 615.77844 44.83081 366
1562.41907 606.34314 71.64331 368
1563.82922 607.39600 95.85659 390
1765.75671 698.52545 105.37032 268
399.14655 80.97312 164.72415 316
408.19275 85.12180 165.58997 437
413.56885 87.55099 167.74541 305
1566.57153 618.17206 46.29764 367
1546.23865 608.82269 73.28164 360
1548.44128 609.90161 96.84145 391
1768.74609 711.27722 104.84420 268
398.61691 82.05312 164.67456 316
406.73849 85.86008 165.82184 419
413.00732 88.72585 167.72508 305
1550.28052 620.68854 48.12319 368
1528.75085 610.61597 74.55899 362
1532.70947 612.42383 97.82774 392
1771.68945 724.34070 104.61047 268
398.09290 83.09049 164.72675 317
405.10394 86.39348 166.14099 420
412.45853 89.91545 167.74533 305
1533.51831 622.73016 49.53405 361
1511.34558 611.97784 75.94344 360
1517.73499 615.36835 99.14511 393
1526.88403 619.64514 121.85723 396
397.52060 84.14938 164.72629 317
403.45020 86.98206 166.43713 421
411.95496 91.06335 167.70030 305
1516.67798 624.28845 51.50790 361
1495.18506 614.07806 77.45568 331
1502.91052 617.95770 100.06039 395
1514.47144 623.14526 122.73350 306
396.97168 85.19714 164.73495 317
401.77795 87.57293 166.76651 422
411.40338 92.21864 167.73112 305
1500.86792 626.25226 53.06661 362
1480.01062 616.32379 78.66076 395
1488.60925 620.32172 100.91535 396
1499.45825 625.77332 123.47263 398
396.41928 86.24152 164.71182 317
400.16284 88.10349 167.04089 423
1485.17053 628.48096 54.35761 363
1465.82581 618.75250 79.90820 367
1474.30579 623.00928 102.05719 397
1485.13843 628.06891 124.22756 400
395.84674 87.25584 164.70862 317
398.62000 88.68407 167.35030 424
1469.87903 630.43970 55.87033 364
1453.69263 621.80920 80.88060 274
1460.04785 625.24017 102.84901 399
1470.92297 631.03467 124.77567 401
395.25363 88.30949 164.72585 317
397.03220 89.19080 167.61526 425
1455.18188 632.16400 57.08430 367
1443.67004 626.54907 81.54935 409
1447.07373 628.24414 103.66077 410
1457.39758 633.44232 125.78128 402
394.67816 89.34113 164.73785 317
396.05936 90.05311 167.72713 311
1440.67725 634.29913 58.54717 368
1431.39514 629.48065 82.19804 426
1434.79041 631.14703 104.54425 430
1443.74182 635.79980 126.18579 403
393.88135 90.26806 164.79034 426
395.47281 91.16325 167.72191 311
1449.62939 648.74493 33.94001 359
1427.65930 636.88489 59.80189 380
1420.43689 633.12885 83.24477 429
1424.25085 635.07849 105.13427 431
1431.74341 639.01068 126.77440 432
392.36063 90.80250 165.08047 427
394.92697 92.17305 167.70879 311
1435.86536 650.70593 35.31116 364
1415.06287 639.83002 60.76701 391
1409.94653 636.78729 83.75410 437
1413.73474 639.15985 105.73190 442
1421.23267 642.92755 127.29205 438
390.89285 91.33814 165.35092 428
394.33514 93.25029 167.68944 309
1422.57727 653.38306 36.88192 369
1403.82947 643.07568 61.77931 392
1399.73328 640.99152 84.62537 441
1404.12378 643.19397 106.32779 440
1410.81189 646.86584 128.03180 439
389.34973 91.84064 165.65060 429
393.78152 94.29437 167.66985 309
1411.33484 656.49884 37.67960 382
1393.06494 646.48431 62.84446 395
1390.02063 644.88611 85.28407 448
1394.62598 647.36035 106.78379 441
1401.69897 651.24335 128.49158 492
387.89224 92.36918 165.92404 430
393.19055 95.34743 167.70276 309
1400.11145 659.95575 38.86572 388
1382.66333 650.02625 63.69268 400
1380.86804 649.17004 85.95049 451
1386.15833 651.75494 107.13377 437
1397.83740 658.23926 128.36987 492
386.42740 92.90244 166.18857 431
392.62219 96.40616 167.68367 309
1390.01709 663.34009 39.93969 389
1372.38843 653.50220 64.56768 404
1372.09180 653.29004 86.21109 455
1377.83472 656.75513 107.55347 416
1392.95886 665.34619 128.42386 489
385.01086 93.38912 166.43689 432
392.05667 97.45505 167.64308 309
1379.38940 667.18085 40.65940 399
1362.78809 657.37256 65.21680 404
1363.49915 657.95087 86.75263 459
1371.27979 662.22009 107.92665 409
1388.00598 671.84314 128.32794 489
383.57907 93.85915 166.70905 433
391.41245 98.48505 167.67249 309
1370.12610 670.77155 41.76102 399
1353.32971 660.95575 65.86474 405
1355.12622 662.06781 87.32737 460
1366.58850 668.84259 108.04296 300
1388.38843 681.59308 128.19743 428
382.15576 94.37849 166.95976 434
390.85764 99.54029 167.62888 309
1360.53003 674.53699 42.53147 400
1344.13818 665.02838 66.71027 406
1346.86121 666.68762 87.75460 461
1368.41748 679.29224 107.36549 293
1390.05884 692.26825 127.55750 427
380.75305 94.86631 167.18697 435
1351.04053 678.46558 43.32861 401
1335.24487 669.11987 67.06484 412
1338.54932 671.10223 88.16444 466
1371.58398 690.63672 106.49184 299
1391.76770 703.16779 127.20548 426
379.37399 95.35543 167.42262 436
1342.01306 682.30560 44.08857 401
1326.64209 673.18127 67.94656 413
1330.73792 675.57770 88.93150 466
1374.50098 702.08905 105.98931 299
1393.51965 714.02313 126.56669 425
378.08643 95.88255 167.62122 315
1333.47742 686.41803 44.72351 402
1318.19360 676.83893 68.52805 413
1322.86377 679.87061 89.27662 473
1374.07581 711.53821 105.39626 281
1395.32617 725.06250 126.23357 424
377.48303 96.82300 167.60599 315
1324.70349 690.59613 45.27345 403
1309.83789 681.03113 68.97534 388
1315.17249 684.78143 89.71432 472
1376.14160 722.65503 105.02145 360
1396.92261 735.51904 125.56642 420
376.87817 97.79213 167.63599 315
1316.22876 694.44708 46.04401 408
1301.17285 684.98755 69.66965 365
1307.77673 689.32507 90.07095 473
1545.46899 839.97473 88.30869 463
1399.15942 747.26233 125.30257 422
376.25476 98.74466 167.62785 315
1307.86365 698.58649 46.79206 409
1293.14270 689.24261 69.94932 479
1300.57947 693.98376 90.48670 482
1539.95715 847.98407 88.31605 494
1401.17395 758.58704 124.73663 421
375.60413 99.64216 167.61174 315
1300.01965 702.78381 47.37596 417
1285.56152 693.54443 70.43227 387
1293.92981 698.73584 90.60906 483
1537.06702 857.54675 87.92917 434
1403.19055 770.23669 124.00667 420
375.00699 100.59391 167.60440 315
1291.96436 707.24445 47.58573 426
1278.63074 698.09589 70.87810 480
1287.07849 703.86841 90.73852 480
1528.11169 863.52435 88.12788 417
1404.94067 781.62830 123.64073 420
374.37463 101.53577 167.59839 315
1284.69360 711.83551 48.10514 426
1271.52515 702.78558 71.46760 484
1280.24707 708.81122 91.24092 486
1420.07300 802.36688 98.48223 410
1407.01355 793.49237 123.23975 419
373.72733 102.41908 167.59052 315
1277.29419 716.01337 48.81079 427
1264.94312 707.86139 71.54205 484
1273.93188 713.91211 91.38198 486
