# .PCD v.7 - Point Cloud Data file format
VERSION .7
FIELDS x y z rgb
SIZE 4 4 4 4
TYPE F F F U
COUNT 1 1 1 1
WIDTH 1368
HEIGHT 1
VIEWPOINT 6347.670898 -1469.066528 144.382919 -0.710262 -0.088226 -0.095864 0.691776
POINTS 1368
DATA ascii
438.42343 -61.33711 164.92270 307
449.44516 -64.48600 166.22523 428
3372.08911 -906.36346 163.37190 411
386.82468 -45.38758 171.67529 316
397.68420 -48.42646 171.75636 313
438.81696 -60.00459 164.89944 307
451.14429 -63.47405 165.93825 427
461.02505 -66.25891 167.88683 297
3417.25220 -898.67609 108.07520 468
3367.82397 -884.22723 163.09335 471
387.08875 -44.38536 171.67616 316
397.91013 -47.40041 171.76070 313
410.22287 -50.78342 171.87698 309
452.82471 -62.45787 165.67148 426
461.32880 -64.82343 167.91557 297
3386.91528 -869.08063 109.27582 355
3365.21826 -862.41754 163.26651 474
387.28470 -43.39202 171.69109 316
398.20328 -46.32876 171.76221 313
410.52927 -49.63895 171.89859 309
454.53946 -61.45634 165.36806 425
461.62643 -63.36710 167.95607 297
3379.58691 -845.58942 109.54819 355
3362.50146 -841.88342 163.16551 462
387.52127 -42.40950 171.66301 316
398.44470 -45.26362 171.78564 313
410.76886 -48.47779 171.90388 309
456.25119 -60.39186 165.07503 424
461.94427 -61.91671 167.94855 297
3369.26758 -822.92505 110.49579 354
3361.69385 -820.87402 163.74312 460
387.77148 -41.43378 171.68832 316
398.64642 -44.22351 171.76498 313
411.05905 -47.33994 171.88486 309
456.77921 -59.04755 164.97287 303
462.25128 -60.40068 167.96059 297
3361.83032 -800.20221 110.94943 416
3360.64331 -799.59979 163.80687 430
387.98752 -40.41541 171.68927 316
398.90198 -43.15861 171.76364 313
411.30786 -46.20587 171.91023 309
457.13403 -57.61436 164.97151 303
462.50882 -58.92739 167.96786 297
3357.79932 -778.99396 111.32941 421
3361.88574 -779.83582 163.83307 435
388.21063 -39.44827 171.65785 316
399.13425 -42.10361 171.78589 313
411.54550 -45.11279 171.90852 309
457.43384 -56.19927 165.00986 303
462.77704 -57.51710 168.01913 297
3353.88623 -757.99194 110.90514 461
3362.19507 -759.93225 164.21246 402
388.38809 -38.41348 171.66190 316
399.33118 -41.01490 171.80243 313
411.74637 -43.96640 171.91011 309
457.77750 -54.79513 165.02728 303
463.07834 -56.00591 167.98778 454
3351.48145 -736.95013 111.85461 462
3362.70483 -739.51868 164.27457 408
388.62021 -37.43578 171.68863 316
399.59271 -39.94553 171.76581 313
412.03000 -42.82929 171.88728 309
458.03818 -53.34137 164.96844 304
464.43317 -54.78489 167.74911 453
3349.42432 -716.29260 111.50906 488
3364.31445 -719.53644 163.90764 413
388.80002 -36.46254 171.67902 316
399.76740 -38.89296 171.77296 313
412.20279 -41.67178 171.93602 309
458.35046 -51.94604 164.99641 304
465.75632 -53.59288 167.59996 452
3348.30664 -695.49200 112.40224 488
3367.16650 -700.10040 163.82503 359
388.98868 -35.42788 171.66501 316
399.99780 -37.82412 171.77727 313
412.47308 -40.49614 171.90579 309
458.64911 -50.50386 165.01091 304
467.09473 -52.31330 167.36403 451
3347.03467 -675.28467 112.34280 489
3370.76904 -680.38806 163.72507 359
389.16202 -34.45979 171.66904 316
400.19208 -36.75521 171.78009 313
412.66113 -39.39013 171.91893 309
458.87466 -49.10826 164.98807 304
468.40036 -51.09454 167.16774 450
3346.38037 -655.16876 112.49417 491
3376.12598 -661.32153 164.43767 259
3484.43628 -683.93610 270.96899 288
389.35034 -33.42199 171.68326 316
400.36060 -35.68018 171.77473 313
412.88177 -38.22274 171.89848 309
459.18564 -47.64486 165.00591 304
469.80576 -49.77902 166.94159 449
3345.63086 -635.47900 112.30332 491
3391.92896 -644.77148 163.82507 489
3431.56079 -653.04913 270.04221 317
389.54022 -32.42556 171.66631 316
400.55865 -34.60381 171.78406 313
413.07367 -37.08680 171.93280 309
427.39951 -39.87220 172.06892 305
471.14380 -48.51587 166.73779 448
3346.04150 -615.59540 112.15064 494
3390.67456 -624.34167 163.73320 490
3468.07617 -639.06384 216.23660 316
3379.49756 -621.66608 269.72070 499
389.67072 -31.43002 171.70360 317
400.72913 -33.55883 171.79958 313
413.26343 -35.93883 171.89458 309
427.57358 -38.63537 172.03880 305
472.55862 -47.22533 166.47540 448
3347.11621 -595.56219 112.78168 495
3389.11255 -603.46112 164.07385 490
3405.40894 -607.07867 216.40448 452
3381.43408 -602.26221 268.84262 499
3493.41479 -623.61920 325.44681 499
389.83868 -30.39796 171.71318 317
400.88181 -32.46594 171.80835 313
413.45294 -34.79972 171.89709 309
427.77365 -37.41448 172.04724 305
473.92230 -45.95420 166.25581 447
3351.56030 -577.15668 112.68720 498
3386.80591 -583.22742 164.51874 490
3385.74219 -582.67615 216.23981 499
3384.91895 -583.40979 269.00409 499
389.97803 -29.40922 171.71342 317
401.07108 -31.39260 171.79585 313
413.59695 -33.60817 171.90756 309
428.00140 -36.19569 172.05212 305
475.36502 -44.62624 166.00905 446
3353.27344 -557.36493 112.71293 498
3390.04395 -563.79852 164.26723 499
3389.92261 -563.50854 217.08067 499
3388.70508 -563.44250 268.86429 499
390.14767 -28.40812 171.69502 317
401.21350 -30.32360 171.79028 313
413.76218 -32.44046 171.89763 309
428.18689 -34.92096 172.08897 305
476.78671 -43.28878 165.79755 445
3351.91724 -537.74536 112.51456 499
3393.56006 -543.95044 164.48320 499
3392.88696 -544.35016 216.35428 499
3392.37720 -544.65973 269.52661 499
390.30402 -27.38754 171.67265 317
401.34912 -29.25222 171.80278 313
413.94443 -31.29436 171.91440 309
428.32227 -33.67925 172.07307 305
478.20956 -41.94524 165.54619 444
488.10614 -43.58947 168.02202 293
3353.33813 -517.55859 113.17297 499
3396.58032 -524.74841 164.42775 499
3397.06519 -524.78052 216.61777 499
3395.82935 -524.96033 269.00519 499
390.41873 -26.38636 171.70589 317
401.53799 -28.16660 171.81818 313
414.13184 -30.14899 171.94342 309
428.52765 -32.47089 172.06409 305
479.64365 -40.57475 165.31268 443
488.26840 -41.97934 168.10471 293
3358.47070 -499.27496 113.11247 499
3393.81250 -504.80676 164.08702 499
3394.00171 -504.45520 216.34515 499
3393.11133 -504.79514 269.10034 499
390.55194 -25.35243 171.68137 317
401.67752 -27.06511 171.78783 313
414.24670 -29.00075 171.92618 309
428.67581 -31.20251 172.07796 305
480.60977 -39.16498 165.17517 300
488.36899 -40.34701 168.06293 294
3361.32300 -479.96893 112.79913 499
3397.93042 -485.14938 164.56458 499
3397.92114 -485.52502 216.86211 499
3397.30615 -485.12039 268.94086 499
390.68066 -24.34352 171.70029 317
401.79608 -26.00952 171.83220 313
414.38443 -27.85025 171.94347 309
428.82074 -29.94294 172.04399 305
480.77615 -37.57805 165.15033 300
488.48645 -38.74893 168.11066 294
3361.18896 -460.39105 112.69097 499
3401.07446 -466.32581 164.03656 499
3402.08984 -465.69330 216.76686 499
3400.80811 -465.67325 269.31183 499
390.77243 -23.33068 171.70897 317
401.91159 -24.90941 171.81229 313
414.51932 -26.69373 171.95215 309
428.99338 -28.69734 172.07681 305
480.96573 -36.01984 165.10555 300
488.60413 -37.11222 168.10260 294
3364.29468 -441.20401 113.17716 499
3404.93237 -446.32886 163.92245 499
3404.77295 -446.50943 216.26337 499
3404.09570 -446.64273 269.24911 499
390.91882 -22.36106 171.67726 317
402.01898 -23.85040 171.81264 313
414.68472 -25.53367 171.90576 309
429.11707 -27.48399 172.05713 305
481.14798 -34.48442 165.12198 300
488.68445 -35.42910 168.12891 294
3369.82227 -421.96716 113.19431 499
3408.22852 -426.91656 164.03053 499
3408.54785 -427.10535 216.73087 499
3408.15186 -427.00558 268.84338 499
391.01233 -21.34533 171.68301 317
402.13083 -22.74010 171.80148 313
414.78714 -24.34852 171.94214 309
429.25623 -26.22574 172.05904 305
445.99332 -28.33239 172.21904 301
488.77664 -33.85147 168.18253 294
3372.99756 -402.92755 112.29025 499
3417.46777 -408.17114 163.66341 499
3416.18115 -408.01218 216.98872 499
3416.93481 -408.34164 269.19363 499
391.11960 -20.31329 171.70833 317
402.28006 -21.66973 171.82249 313
414.88330 -23.21096 171.93091 309
429.40439 -24.99350 172.06136 305
446.09647 -27.00637 172.21364 301
488.84354 -32.21518 168.14566 294
3375.72437 -384.03110 113.13803 468
3420.23438 -389.09280 163.73166 499
3420.45508 -388.66556 216.63310 499
3419.96338 -388.87842 269.49442 499
3590.18140 -409.60269 328.07928 263
391.18204 -19.29301 171.69948 317
402.37851 -20.59344 171.79236 313
414.99683 -22.02318 171.92998 309
429.52301 -23.71534 172.07806 305
446.21762 -25.62658 172.22552 301
488.95242 -30.55566 168.22478 294
3377.31250 -364.06055 113.11148 499
3423.99561 -369.32999 163.48357 499
3424.29980 -369.61218 216.46066 499
3423.10059 -369.96756 269.10059 498
391.28085 -18.28306 171.68175 317
402.43857 -19.52164 171.79733 313
415.13647 -20.88123 171.95906 309
429.58273 -22.48273 172.06068 305
446.37393 -24.30570 172.25447 301
489.69046 -29.03207 168.12328 456
3383.13965 -345.02286 113.03238 499
3427.50903 -350.02649 164.15547 499
3427.32617 -350.54520 216.19507 499
3426.60254 -350.19745 269.17136 498
3507.53442 -358.94635 324.69925 499
391.36993 -17.27619 171.72365 317
402.54672 -18.40311 171.81406 313
415.19797 -19.74404 171.95877 309
429.69766 -21.21447 172.08238 305
446.50250 -22.92858 172.26584 301
490.95261 -27.53287 167.89746 455
3387.29150 -326.47269 112.31933 499
3431.11816 -330.83737 164.04939 499
3430.98804 -330.65244 216.27634 499
3430.30298 -330.95593 269.62558 498
3489.29346 -337.05777 324.49496 499
3535.38281 -341.69330 380.50793 440
391.44287 -16.23607 171.69868 317
402.64008 -17.34036 171.83409 313
415.30582 -18.54176 171.91739 309
429.81970 -19.98847 172.10529 305
446.60422 -21.58088 172.25662 301
492.16953 -26.02257 167.65459 455
3390.51489 -306.51776 112.65781 499
3434.21484 -311.34250 163.80203 499
3433.81030 -310.90155 217.05603 499
3433.90991 -311.03296 269.24774 499
3493.32617 -317.03021 323.70596 499
3533.78442 -320.59064 380.28235 473
391.52216 -15.20564 171.70375 317
402.72357 -16.23077 171.79840 313
415.37732 -17.40907 171.96233 309
429.92383 -18.70615 172.06868 305
446.65753 -20.20580 172.23189 301
493.37115 -24.48031 167.48932 454
3390.90137 -287.83600 112.44617 499
3518.07690 -298.65887 324.66537 498
3551.52832 -302.06256 380.69623 336
391.56375 -14.18679 171.68230 317
402.78131 -15.16454 171.78925 313
415.45883 -16.21643 171.94414 309
429.95334 -17.47221 172.08133 305
446.75085 -18.89364 172.24492 301
494.67831 -22.93260 167.24631 453
3397.17407 -268.79419 112.20332 498
3522.11279 -279.16479 324.84625 499
391.61038 -13.19798 171.71246 317
402.81799 -14.07051 171.79262 313
415.54977 -15.07790 171.91145 309
430.08374 -16.20563 172.05339 305
446.84589 -17.52444 172.26756 301
495.95654 -21.36197 167.06247 452
3400.51172 -249.56557 111.89423 498
3525.45703 -258.85080 325.30066 494
3574.18628 -262.41946 381.92047 479
391.69467 -12.16543 171.71938 317
402.91306 -12.97857 171.81105 313
415.60730 -13.88100 171.92178 309
430.11624 -14.91628 172.05212 305
446.93304 -16.18422 172.25945 301
496.93262 -19.78902 166.90602 483
3403.70703 -229.54984 112.46303 498
3582.57349 -242.29761 381.85721 484
391.74966 -11.15224 171.72069 317
402.95703 -11.86706 171.79486 313
415.67093 -12.73947 171.91942 309
430.20590 -13.68642 172.08159 305
447.00549 -14.78406 172.24583 301
497.66110 -18.11450 166.75580 483
3404.59131 -210.03970 112.17476 498
3566.32104 -221.10336 326.00085 360
391.77682 -10.11966 171.70155 317
402.99170 -10.77622 171.80791 313
415.67288 -11.55758 171.94144 309
430.24808 -12.42989 172.08321 305
447.07700 -13.41377 172.21249 301
498.30170 -16.49326 166.65198 482
3407.60352 -190.60445 112.38612 498
391.78763 -9.10010 171.71297 317
402.99667 -9.70442 171.80209 313
415.74356 -10.38450 171.93626 309
430.26370 -11.17079 172.07811 305
447.13019 -12.08514 172.26491 301
466.75916 -13.14748 172.42473 297
3414.66138 -171.64612 111.97253 497
391.84042 -8.08905 171.69991 317
403.04758 -8.62342 171.82607 313
415.74701 -9.24225 171.93584 309
430.31180 -9.89913 172.05443 305
447.16510 -10.73450 172.25833 301
466.80450 -11.63054 172.43748 297
3417.94971 -152.33321 112.26436 497
391.85547 -7.06100 171.69972 317
403.07278 -7.52621 171.79411 313
415.80121 -8.05405 171.93130 309
430.33533 -8.65457 172.10138 305
447.16455 -9.34272 172.22971 301
466.89392 -10.19694 172.44164 297
3418.34058 -132.71097 111.90428 497
391.84885 -6.04162 171.72595 317
403.10645 -6.46189 171.82613 313
415.81076 -6.90310 171.92134 309
430.39157 -7.40319 172.09984 305
447.19595 -7.97067 172.23749 301
466.89890 -8.66777 172.45853 297
3421.72192 -113.40437 112.04873 497
391.86923 -5.03330 171.72041 317
403.08484 -5.37451 171.83322 313
415.83286 -5.73271 171.92776 309
430.36481 -6.15132 172.09807 305
447.25192 -6.62547 172.22664 301
466.90607 -7.18765 172.45587 297
26826.72461 -778.67603 -4177.15820 1000
3428.25146 -93.77621 111.73045 497
3610.38550 -99.53365 161.37405 286
391.87286 -3.99170 171.68462 317
403.11923 -4.24976 171.79413 313
415.82678 -4.55640 171.94252 309
430.37131 -4.87362 172.10060 305
447.25909 -5.24981 172.24203 301
466.92416 -5.71413 172.46597 297
3431.59741 -74.60783 111.38348 496
3590.60791 -77.90277 161.49091 497
391.85925 -2.97442 171.71274 317
403.10138 -3.18140 171.82021 313
415.82700 -3.39447 171.92328 309
430.40723 -3.65482 172.08270 305
447.26715 -3.92091 172.27113 301
466.95618 -4.24824 172.43532 297
3432.44507 -54.88201 111.77819 496
3741.88013 -59.55470 159.30008 489
391.87317 -1.97958 171.69353 317
403.07471 -2.09776 171.80659 313
415.85068 -2.22825 171.96135 309
430.41064 -2.38196 172.06723 305
447.21252 -2.55532 172.24338 301
451.64597 -2.59220 175.22435 422
3435.34595 -35.39828 111.50002 496
3475.23657 -35.72932 163.75917 492
391.83768 -0.95393 171.68610 317
403.08542 -0.97009 171.82214 313
415.83188 -1.05830 171.93303 309
430.40454 -1.09131 172.09738 305
447.20541 -1.17145 172.23619 301
466.89688 -1.25840 172.41202 297
3441.59668 -15.62896 111.48660 496
3495.46313 -15.30742 162.84454 496
273.20255 -0.07230 203.49402 285
403.08075 0.07724 171.80141 313
415.81134 0.10862 171.95180 309
430.33710 0.13721 172.10063 305
447.23444 0.15663 172.22224 301
466.87866 0.16321 172.43785 297
3445.42358 4.46569 111.16133 495
273.17850 0.22233 203.48839 285
403.05051 1.18047 171.79594 313
415.73737 1.29798 171.92696 309
430.31912 1.42750 172.05353 305
447.19318 1.52058 172.26207 301
451.51651 1.57007 175.24980 426
3445.97534 24.43108 111.32442 495
3503.08838 24.78009 163.14488 495
273.16043 0.51314 203.48230 285
402.96918 2.28975 171.81747 313
415.75003 2.46426 171.92740 309
430.14200 2.48580 172.07310 305
447.13083 2.88168 172.24025 301
466.83011 3.13676 172.45644 297
3449.34668 43.52760 111.40695 495
3557.37891 45.39013 161.95494 497
273.14441 0.81173 203.47679 285
402.96057 3.35943 171.82497 313
415.70749 3.60211 171.94893 309
430.24255 3.93536 172.10164 305
447.07098 4.21905 172.23283 301
466.79959 4.66989 172.40190 297
3457.26123 63.84281 111.12388 440
3553.48657 65.84842 162.16451 497
273.13217 1.10493 203.48322 285
402.88412 4.46019 171.82295 313
415.62366 4.77371 171.94510 309
430.18225 5.20121 172.08952 305
447.02179 5.61096 172.26492 301
466.71448 6.14202 172.40547 297
3561.87378 86.66295 106.93800 454
3550.63574 85.61047 161.71649 497
391.62076 5.20575 171.71466 317
402.82849 5.56957 171.79048 313
415.58066 5.93742 171.92760 309
430.14282 6.41569 172.04625 305
446.98709 6.94317 172.21750 301
466.68283 7.60273 172.44164 297
3562.50439 107.08585 107.34492 418
3547.01025 106.71227 162.41589 497
391.57028 6.19724 171.68790 317
402.77341 6.63904 171.80620 313
415.50745 7.15063 171.91495 309
430.06079 7.70161 172.05107 305
446.88553 8.36004 172.24086 301
466.57336 9.06756 172.44632 297
3554.80933 127.20658 161.78781 476
391.51288 7.25554 171.68968 317
402.71640 7.71166 171.80133 313
415.45764 8.31962 171.92029 309
430.03104 8.91794 172.05305 305
446.84790 9.66908 172.25392 301
466.49231 10.58990 172.42537 297
391.44458 8.27471 171.71555 317
402.63513 8.84546 171.80078 313
415.36700 9.44401 171.91750 309
429.89993 10.23045 172.07861 305
446.74725 11.06965 172.24448 301
466.43829 12.06732 172.43436 297
391.37109 9.27361 171.72014 317
402.58560 9.92584 171.79965 313
415.30295 10.62786 171.95500 309
429.86621 11.42815 172.09634 305
446.65967 12.42993 172.24512 301
466.32666 13.55152 172.41376 297
391.28323 10.28222 171.70638 317
402.49973 11.01988 171.78191 313
415.18994 11.78206 171.94768 309
429.72324 12.73130 172.05898 305
446.58011 13.76153 172.24773 301
497.85901 17.00705 166.64424 482
391.20581 11.30267 171.68184 317
402.42001 12.06912 171.78075 313
415.12280 12.98956 171.94580 309
429.65567 13.95990 172.04282 305
446.45023 15.15314 172.25160 301
497.18216 18.65392 166.73778 483
391.08994 12.32238 171.67741 317
402.30035 13.20563 171.80266 313
414.99307 14.11491 171.90648 309
429.53452 15.23649 172.03860 305
446.36102 16.50215 172.20340 301
496.24567 20.23608 166.88953 452
391.01071 13.35003 171.69313 317
402.18005 14.27315 171.80910 313
414.87897 15.31519 171.92693 309
429.43344 16.47214 172.08379 305
446.22827 17.82879 172.23389 301
495.00330 21.77969 167.09824 453
390.89798 14.36529 171.67426 317
402.06656 15.33281 171.78741 313
414.78137 16.45147 171.90294 309
429.27573 17.74503 172.04457 305
446.05353 19.19113 172.21881 301
493.77823 23.40137 167.31831 453
390.75488 15.39428 171.70319 317
401.98712 16.44151 171.80739 313
414.66211 17.64772 171.90285 309
429.16843 19.00734 172.03490 305
445.96405 20.57554 172.20059 301
492.46509 24.90536 167.51160 454
390.63794 16.39782 171.68193 317
401.83060 17.54539 171.82141 313
414.49219 18.77620 171.90614 309
429.03412 20.23138 172.06487 305
445.80994 21.92032 172.19907 301
491.22296 26.42841 167.70718 455
390.54886 17.41089 171.70210 317
401.68546 18.59293 171.78485 313
414.36276 19.97786 171.94196 309
428.85040 21.49906 172.08405 305
445.60361 23.24482 172.22728 301
489.98175 28.01047 167.91269 456
390.40216 18.47099 171.68513 317
401.54852 19.70070 171.79414 313
414.20697 21.13393 171.91365 309
428.73486 22.75837 172.03088 305
445.44125 24.62267 172.21657 301
488.77380 29.44898 168.02733 457
390.27185 19.44116 171.68182 317
401.44186 20.78384 171.78923 313
414.08255 22.25747 171.92581 309
428.56934 24.01583 172.07892 305
445.26624 25.97453 172.21460 301
488.00681 31.05203 168.14687 294
272.37708 5.81902 203.47746 285
401.28055 21.88328 171.78891 313
413.93680 23.44144 171.89662 309
428.38480 25.25059 172.03741 305
445.10440 27.30716 172.20343 301
487.84381 32.63464 168.18143 294
272.30515 6.11033 203.48647 284
401.11136 22.96005 171.79395 313
413.73288 24.62701 171.89949 309
428.20502 26.50621 172.05653 305
444.90665 28.70030 172.23714 301
487.77182 34.29084 168.11845 294
389.83453 22.51357 171.68266 317
400.96835 24.03398 171.78227 313
413.55865 25.77269 171.91689 309
428.04330 27.76867 172.05063 305
480.03360 34.84240 165.13307 300
487.59677 35.93132 168.10443 294
389.64029 23.52101 171.69276 317
400.80167 25.13860 171.79488 313
413.37936 26.94505 171.90094 309
427.81647 28.99915 172.02530 305
479.78317 36.44062 165.13991 300
487.47232 37.55627 168.08563 294
389.48236 24.55049 171.65627 317
400.61386 26.17612 171.76665 313
413.21768 28.10108 171.89600 309
427.64539 30.21659 172.05016 305
479.55649 37.97062 165.11353 300
487.30536 39.15012 168.10930 294
389.31158 25.54174 171.66711 317
400.41272 27.28175 171.77351 313
413.00427 29.23395 171.88745 309
427.43112 31.46426 172.06042 305
479.36154 39.58415 165.11469 300
487.12430 40.80785 168.06619 293
389.14417 26.54311 171.66464 317
400.23700 28.34421 171.78732 313
412.84515 30.38099 171.90155 309
427.23087 32.73799 172.02971 305
478.47379 41.05424 165.19533 444
486.93634 42.41977 168.02840 293
388.97263 27.57195 171.68839 317
400.06729 29.43834 171.78459 313
412.61313 31.56140 171.91089 309
427.02789 33.96751 172.01448 305
476.97159 42.36742 165.43979 445
486.68317 43.99238 168.03140 293
388.74893 28.57504 171.68065 317
399.83063 30.53594 171.77028 313
412.38333 32.70532 171.91068 309
426.78317 35.23791 172.04918 305
475.54251 43.70510 165.72581 445
388.56726 29.57378 171.66707 317
399.63748 31.56213 171.78920 313
412.18021 33.84801 171.90959 309
426.51758 36.46029 172.03452 305
474.13956 45.05411 165.95747 446
388.37595 30.59324 171.65591 317
399.44373 32.66539 171.78639 313
411.96658 35.01406 171.88176 309
426.32138 37.71790 172.04103 305
472.69342 46.37192 166.18668 447
388.17911 31.60509 171.66249 316
399.21274 33.75740 171.76611 313
411.74515 36.17171 171.89920 309
426.02768 38.94147 172.05008 305
471.29648 47.68521 166.36201 448
387.97083 32.61885 171.63654 316
398.96628 34.83342 171.75551 313
411.51154 37.33155 171.88504 309
425.79904 40.14815 171.99829 305
469.96768 48.98162 166.60912 449
387.71838 33.61500 171.65970 316
398.74283 35.86607 171.76102 313
411.21158 38.46188 171.86365 309
457.48132 48.00057 164.97546 304
468.52515 50.31589 166.83000 450
387.50861 34.61211 171.66034 316
398.51776 36.95181 171.75787 313
410.97601 39.63205 171.86665 309
457.14600 49.46504 164.96501 304
467.21924 51.53934 166.97321 451
387.24725 35.59957 171.64627 316
398.27316 38.01807 171.76440 313
410.71689 40.76982 171.85403 309
456.86627 50.90154 164.96436 304
465.83777 52.81095 167.19231 452
387.01074 36.62970 171.63832 316
397.99847 39.10474 171.73611 313
410.46927 41.92186 171.88792 309
456.53189 52.29284 164.97041 304
464.46143 54.06953 167.44914 452
386.79919 37.59922 171.65752 316
397.74167 40.14731 171.77715 313
410.16022 43.04317 171.87456 309
456.20633 53.70604 164.94833 303
463.14035 55.31614 167.61731 453
386.53668 38.61774 171.64557 316
397.49915 41.21175 171.77313 313
409.90033 44.20350 171.87100 309
455.85709 55.12893 164.96071 303
461.67444 56.51260 167.82199 421
386.27127 39.60995 171.63478 316
397.21204 42.30325 171.73799 313
409.59521 45.32143 171.85519 309
455.46841 56.56902 164.97021 303
460.74115 57.85927 167.93623 298
386.02722 40.62037 171.62263 316
396.96170 43.36491 171.72433 313
409.29968 46.46112 171.86394 309
455.10364 57.98476 164.94836 303
460.47693 59.35218 167.91428 297
385.74524 41.60286 171.63148 316
396.64453 44.41827 171.74731 313
409.02463 47.59730 171.87296 309
454.69287 59.38655 164.95888 303
460.13989 60.78880 167.90616 297
385.48499 42.57220 171.62306 316
396.35602 45.45094 171.72766 313
408.71692 48.71999 171.84561 309
454.34653 60.78180 164.96851 303
459.78824 62.22786 167.89954 297
2241.67188 534.09131 79.84617 292
385.21530 43.57677 171.64337 316
396.07364 46.53853 171.75137 313
408.40753 49.84572 171.85558 309
452.72391 61.86218 165.25694 426
459.43671 63.73111 167.87277 297
2223.25171 542.20117 80.37086 496
2228.10767 543.58948 114.50188 473
2232.75317 544.83636 148.12962 469
384.89270 44.55581 171.60461 316
395.76190 47.55568 171.73880 313
408.06979 50.98276 171.85046 309
450.99115 62.93122 165.52542 427
459.05634 65.20064 167.90744 297
2221.27563 554.84229 80.31937 470
2226.95532 556.07965 114.19084 421
384.61365 45.53746 171.61990 316
395.47916 48.62942 171.73251 312
436.51956 60.31659 164.84868 308
449.31921 63.97299 165.78712 428
458.69412 66.61906 167.88548 297
384.31723 46.54956 171.63982 316
395.14081 49.67187 171.74884 312
436.11487 61.62441 164.89542 308
447.63614 64.92960 166.09212 429
458.31500 68.07072 167.84200 297
384.04120 47.52453 171.62875 316
394.84476 50.74569 171.71132 312
435.72589 62.90681 164.84492 308
445.98138 65.97147 166.35692 430
383.69821 48.53227 171.60728 316
394.50333 51.78207 171.72276 312
435.33240 64.19302 164.88664 308
444.29272 66.93512 166.67638 431
383.41159 49.50128 171.62509 316
394.17789 52.82656 171.70316 312
434.94089 65.50749 164.84441 308
442.64996 67.93627 166.93558 432
383.05627 50.48952 171.58627 316
393.81934 53.90798 171.69035 312
434.48746 66.83232 164.83868 308
441.06516 68.87953 167.19678 433
382.76865 51.43363 171.62430 316
393.44919 54.90733 171.69154 312
434.07968 68.09317 164.82454 308
439.48041 69.83294 167.44820 434
382.43924 52.43170 171.61926 316
393.12277 55.95241 171.68156 312
433.60663 69.41640 164.84375 308
437.68515 70.77680 167.71019 420
382.07874 53.39113 171.61160 316
392.76834 57.03605 171.69774 312
433.11371 70.70152 164.88344 308
436.72449 71.89346 167.87373 301
381.71152 54.38466 171.60124 316
392.41113 58.05133 171.70766 312
432.64139 71.91656 164.86813 308
436.30838 73.23196 167.85628 301
381.39755 55.33522 171.58939 316
392.01047 59.09615 171.71536 312
432.15253 73.20359 164.88954 308
435.85025 74.55016 167.85338 301
381.00836 56.32699 171.58427 316
391.65912 60.13966 171.66893 312
430.74301 74.12928 165.12914 424
435.43155 75.82150 167.84587 301
380.65515 57.29062 171.59317 316
417.15231 70.60629 164.79263 312
429.02686 74.96915 165.37891 425
435.01205 77.16526 167.83586 301
380.28784 58.24651 171.56798 316
416.67191 71.81499 164.78322 312
427.38007 75.80579 165.71120 426
434.54254 78.44716 167.81375 301
379.91702 59.22160 171.55800 316
416.17422 72.96205 164.77576 312
425.69202 76.59209 165.99481 427
434.06311 79.74618 167.76414 301
379.52814 60.18462 171.56953 316
415.70935 74.16772 164.78094 312
424.06760 77.42303 166.24165 428
433.58017 81.10966 167.77220 301
379.13986 61.10949 171.56410 316
415.22040 75.33858 164.80370 312
422.44586 78.16827 166.55171 429
378.79324 62.09517 171.54709 316
414.70370 76.52975 164.76253 312
420.87531 78.98479 166.83710 430
378.37933 63.03282 171.57663 316
414.19592 77.66569 164.81259 312
419.28152 79.72882 167.10320 431
377.98203 63.99556 171.56120 316
413.69586 78.84500 164.79243 312
417.69696 80.52688 167.37679 432
377.56448 64.96883 171.53609 316
413.15308 79.97273 164.80740 312
416.15424 81.23357 167.64281 433
377.16058 65.88354 171.54451 316
412.62741 81.16479 164.79796 312
414.97021 82.12453 167.80391 305
376.73267 66.85288 171.52040 316
412.10852 82.32114 164.80394 312
414.50131 83.31315 167.80103 305
399.63855 78.14982 164.71568 317
411.55914 83.44311 164.78160 312
413.96548 84.50500 167.77031 305
399.16437 79.25047 164.69470 317
410.14001 84.20211 165.03012 436
413.48294 85.69456 167.74731 305
398.63132 80.32866 164.70813 317
408.63834 84.90430 165.30801 437
412.95355 86.90036 167.77448 305
398.08493 81.36764 164.71031 317
407.21927 85.64349 165.56508 438
412.40121 88.04428 167.75441 305
397.57330 82.45577 164.69626 317
405.56955 86.24784 165.87701 420
411.89938 89.23987 167.74286 305
397.04611 83.49332 164.69731 317
403.89395 86.83219 166.13675 421
411.37933 90.39325 167.71460 305
396.44974 84.55679 164.68344 317
402.24692 87.40497 166.47166 422
410.80688 91.58348 167.69571 305
395.92557 85.61754 164.68549 317
400.61691 87.95448 166.76019 423
410.24371 92.74445 167.67654 305
395.31012 86.64742 164.69649 317
399.04172 88.49781 167.04791 424
394.75192 87.68790 164.72107 317
397.41061 89.06534 167.34099 425
394.17642 88.74709 164.72002 317
395.86951 89.64488 167.64366 426
393.60141 89.78481 164.74847 317
394.96973 90.50956 167.71315 311
392.73102 90.70724 164.79150 427
394.39453 91.58484 167.68355 311
391.24268 91.22385 165.06920 428
393.80988 92.63073 167.72021 311
389.73453 91.74561 165.38667 429
393.29205 93.67449 167.66928 309
55492.19531 30473.93945 10633.71191 1000
388.20761 92.25483 165.67119 430
392.70584 94.72743 167.68555 309
386.74646 92.76787 165.89049 431
392.14062 95.83099 167.67065 309
385.30350 93.28139 166.18475 432
391.52362 96.85471 167.65742 309
383.86261 93.79253 166.44710 433
390.96191 97.88757 167.64926 309
382.41824 94.26235 166.70216 434
390.34262 98.93332 167.62373 309
381.03726 94.74754 166.95488 435
389.71820 99.99565 167.64146 309
1428.18982 723.58282 78.10134 375
1420.55969 718.79193 101.80860 298
379.63910 95.27822 167.21878 436
1412.28625 723.57391 79.33891 376
1403.11230 718.17120 103.03854 380
378.24411 95.74903 167.45398 437
1396.66333 724.07080 80.63612 380
1387.74988 718.79736 104.17166 381
1380.55176 714.16174 127.35963 388
377.04324 96.31624 167.65303 315
1381.47083 724.55505 81.78397 379
1367.23816 715.66193 105.67066 366
1365.90234 714.89240 127.87151 394
376.41537 97.25216 167.60666 315
1366.45911 725.36517 82.95223 381
1355.68896 718.31451 106.24602 352
1351.77539 715.91016 128.73297 395
1359.69958 720.91278 150.28920 333
375.83658 98.23412 167.62654 315
1351.74365 725.73956 84.28991 380
1341.43701 718.99365 107.41675 382
1337.91260 716.51361 129.56215 396
1347.41528 722.79333 150.61398 334
375.17905 99.18022 167.60756 315
1337.30957 725.95135 85.28339 382
1327.27722 719.49396 108.45071 383
1324.45007 717.65210 130.35007 398
1336.37219 725.47754 151.26199 284
374.57404 100.09082 167.60393 315
1322.97754 726.27759 86.51944 384
1313.14832 719.95117 109.29184 383
1310.74280 718.36639 130.85379 399
1328.53528 729.89935 151.21078 263
373.96426 101.03776 167.62828 315
1308.97522 726.60480 87.81294 385
1299.13086 720.10022 110.08142 384
1297.42969 718.90375 131.75557 400
1324.78564 737.25195 151.17499 473
373.29327 101.95900 167.61371 315
1295.29822 726.83978 88.87911 384
1285.56921 720.31738 111.17770 385
1284.45142 719.96948 132.43515 401
1323.61951 746.11401 151.09518 427
372.65451 102.89391 167.62100 315
1281.25806 727.29266 89.88361 385
1271.96313 720.92157 111.95907 386
1271.59619 720.63812 132.91324 402
1287.58948 731.48566 152.78268 299
372.02914 103.84566 167.58766 315
1278.23511 734.45575 68.38342 393
1267.82617 727.53699 91.11083 386
1258.77771 720.97974 112.96549 388
1258.98376 721.27283 133.78833 404
1330.48706 770.85773 150.00264 445
371.37796 104.76083 167.57095 315
1265.25403 735.26160 69.73741 394
1254.70093 727.56299 92.00580 387
1245.68762 721.17749 113.67746 389
1246.82397 722.16815 134.14856 405
1330.83911 781.52740 149.71971 444
370.71426 105.66566 167.60254 313
1252.80408 735.61621 70.77171 395
1241.78491 727.89960 93.18343 388
1233.04016 721.66687 114.74255 390
1234.57007 722.74066 134.89207 406
1331.22656 791.91083 149.56673 443
370.03329 106.58186 167.55870 313
1240.51904 736.39801 71.73511 396
1228.95251 728.06927 93.99762 390
1220.39917 721.82642 115.39048 392
1222.52576 723.57465 135.49176 407
1326.76965 799.08136 149.32855 494
369.38071 107.53259 167.59120 313
1228.05383 736.98755 73.09788 397
1216.33618 728.42926 95.15696 391
1205.83752 720.86249 116.44714 351
1210.62781 724.23462 136.09125 408
1326.36487 808.91669 149.25035 422
1216.31238 737.68304 74.02673 398
1203.84631 728.66718 96.06873 383
1193.62451 720.93805 117.37985 342
1199.03174 724.66565 136.71997 410
1348.23523 835.55786 147.52827 442
1204.40247 738.41656 74.97890 399
1192.07324 729.07861 96.97897 384
1181.33313 720.93433 117.92204 410
1187.24231 725.59326 137.41991 411
1348.79297 846.93744 147.36420 438
1192.52209 738.77142 76.20229 400
1180.57385 729.60779 97.88351 385
1169.94495 721.58002 118.83313 411
1175.90540 726.34595 137.77254 412
1186.94067 734.36481 157.01805 423
1181.14294 739.55396 77.13639 401
1168.84119 729.99860 98.76517 386
1158.88940 722.18835 119.33226 412
1164.92285 726.86237 138.43013 413
1350.02820 869.93408 146.57361 436
1169.97449 739.98663 78.00822 402
1157.58887 730.35193 99.71119 387
1148.38147 723.34473 120.15588 377
1153.79285 727.57806 138.96667 413
1350.76172 881.40845 146.24248 435
1158.69031 740.52509 79.19286 404
1146.44128 730.80994 100.25924 388
1137.90271 724.31537 120.58561 414
1143.17188 728.26801 139.62515 414
1345.21802 888.39264 146.13501 414
1147.65674 741.33228 79.85403 405
1135.43750 731.19641 101.22344 389
1130.09473 727.01575 120.95420 417
1132.66052 729.14038 139.88443 415
1332.84082 889.68896 146.58568 452
1136.71399 741.80066 80.83391 388
1124.48364 731.67755 101.87381 390
1119.61340 727.67017 121.69360 418
1121.94507 729.66431 140.42044 416
1329.87878 898.73755 146.31677 415
1125.88318 741.95068 81.76845 389
1113.63977 732.13513 102.88452 391
1109.30347 728.43152 122.39176 419
1111.05640 729.80267 141.04829 417
1337.47083 916.08740 145.67026 433
1115.01538 742.41730 82.91313 390
1103.04529 732.64594 103.46526 385
1098.82104 729.00098 122.95554 420
1100.45081 730.58356 141.65555 417
1338.22681 927.97980 145.31808 432
1104.38965 742.80176 83.80945 391
1092.07556 732.36304 104.32809 386
1088.71667 729.68555 123.42155 421
1090.45227 730.92401 142.13185 421
1338.91284 940.33636 144.90573 431
1093.73474 743.07404 84.71355 384
1081.32544 732.51556 105.32859 387
1078.53711 730.31213 124.08244 422
1080.20825 731.61072 142.61946 422
1335.93896 949.91650 144.35614 496
1082.93347 742.94043 85.73289 385
1070.69531 732.54785 106.06579 388
1068.80933 730.77533 124.67002 423
1070.45850 732.03851 143.00999 423
1075.56091 736.41675 160.91574 425
31979.59766 27760.31055 -10350.99902 1000
1072.47180 742.99408 86.37637 383
1060.36084 732.33063 106.83607 389
1059.03430 731.39868 125.31814 424
1060.70557 732.68109 143.31531 424
1066.62756 738.27570 161.47771 302
1062.09875 743.21649 87.20934 384
1049.74670 732.38080 107.57808 390
1049.31616 731.71478 125.96200 425
1051.15125 733.41187 143.78218 425
1057.07434 738.81219 161.52362 427
1065.22168 755.21393 67.40472 388
1052.30383 743.74207 88.32230 385
1039.61011 732.28467 108.38668 390
1039.74280 732.46643 126.43882 426
1041.40771 734.07428 144.40063 426
1047.60388 739.42731 161.86691 428
1054.99475 755.41357 68.22175 389
1042.22107 743.94641 89.11230 386
1029.48669 732.27588 108.93613 391
1030.28198 732.96082 127.00592 427
1032.26257 734.81207 144.69200 427
1038.23376 740.15881 162.47649 430
1045.20642 755.67969 69.40398 390
1032.46289 743.97034 89.76522 387
1019.58911 732.40619 109.86819 392
1021.02637 733.47900 127.35160 429
1022.87903 735.29181 145.24886 428
1028.91870 740.88165 162.74084 431
1035.61597 756.16046 70.11712 384
1022.89105 744.22479 90.70999 388
1010.21204 732.54840 110.31247 392
1011.63647 734.01532 128.17552 430
1013.78082 735.75647 145.46585 426
1019.77472 741.28967 162.94360 432
1026.10083 756.89410 71.06583 385
1013.15063 744.60815 91.54231 388
1000.99500 732.89783 111.19736 396
1003.06104 734.82086 128.38625 439
1005.08789 736.96692 145.98288 435
1010.38739 742.10419 163.29568 433
1010.57562 742.13727 180.92442 432
1016.93579 757.29218 71.76290 386
1003.89978 744.86682 92.04808 391
991.73743 733.26349 111.76592 389
994.44122 735.70874 128.93265 440
996.70886 737.91589 146.43500 436
1001.51947 742.45898 163.43204 434
1002.44537 743.71613 181.08661 434
1007.77643 758.07428 72.76632 381
994.84222 745.21271 92.94968 397
983.29333 734.44995 112.16790 404
986.32959 737.10547 129.42383 455
988.49927 739.19275 146.64256 453
992.50061 743.12085 163.90921 444
993.48712 743.88336 181.30821 446
998.53412 758.26276 73.46029 387
986.07916 745.87012 93.65813 398
975.26398 735.47791 112.78007 452
978.75891 738.69702 129.63768 456
980.78363 740.91412 147.00348 453
985.03876 744.81763 164.03323 459
985.94678 745.89990 181.52222 459
989.59125 758.66943 74.15223 384
977.58667 746.86890 94.16277 403
967.43713 736.80865 113.18386 375
970.95245 740.35046 130.21309 465
973.34680 742.84198 147.11092 454
977.38812 746.75092 164.32085 463
978.30011 747.48077 181.65080 459
980.94257 759.27930 75.16618 385
969.57001 748.01398 94.73071 412
959.82141 738.03955 113.74811 461
963.74280 742.18604 130.37195 466
966.33551 744.78473 147.40219 463
970.11676 748.34991 164.54919 464
970.88116 749.26434 181.69405 460
972.58044 760.15076 75.84463 394
961.55457 749.33612 95.25859 413
952.31927 740.02203 114.13795 462
956.70123 744.35498 130.81549 468
959.32001 746.79352 147.63002 464
962.67303 750.19415 164.78543 465
963.12366 750.76819 181.92810 492
964.95331 761.65277 76.22757 400
954.18542 750.75195 95.64426 415
945.15448 741.60529 114.39554 467
949.67401 746.31128 131.10851 469
952.25659 748.99585 147.85413 464
955.40167 752.01276 164.95462 493
959.32324 756.13562 181.84091 489
957.30951 763.31647 76.96805 400
946.62494 752.35889 96.35173 415
938.14868 743.54877 114.66402 468
942.83850 748.37122 131.09685 473
945.61176 751.53778 148.10907 481
951.51056 757.43689 164.86452 490
955.25031 761.15332 181.83000 489
949.89795 765.15509 77.24391 405
939.52344 754.26306 96.54368 418
931.40247 745.41589 115.18532 472
936.07928 750.54529 131.57269 477
939.58575 754.27551 148.05748 458
947.39990 762.44458 164.84744 490
951.04779 766.32434 181.73064 489
942.57330 766.85974 77.86919 406
932.42352 755.96851 96.91225 417
924.44257 747.74017 115.46386 420
929.46490 752.86743 131.83211 478
933.79974 757.48950 148.21507 425
942.94635 767.23981 164.83879 490
946.98834 771.24939 181.93921 489
935.45258 768.62793 78.18868 406
925.53729 757.87531 97.54276 421
918.35199 750.07349 115.69534 422
923.07355 755.24860 132.04688 478
928.10284 760.94403 148.43567 390
938.68805 771.97504 164.60780 490
944.81366 778.66132 181.79800 397
928.45880 770.39191 78.67218 415
918.73969 760.04181 97.76928 421
912.06415 752.42877 115.92040 476
916.67322 757.45264 132.05000 479
925.40594 767.29779 148.27975 293
936.84814 779.94110 164.47260 398
945.25824 788.74542 181.33073 396
921.63379 772.54388 79.30102 415
912.12073 761.80298 98.05981 422
905.35425 754.61462 116.25536 477
910.13208 759.96478 132.25122 479
924.75385 775.99695 147.82234 293
937.49200 789.98505 164.21587 397
945.84784 799.12012 181.09723 395
914.86932 774.66656 79.55895 415
905.39960 764.06567 98.43130 422
901.31567 759.44519 115.99636 274
903.67987 762.17761 132.61276 483
924.66412 785.62408 147.35834 290
937.73602 800.45789 163.68692 396
946.16730 809.87469 180.79454 394
908.14996 776.70007 79.83257 416
898.60669 765.85260 98.85748 422
895.16541 762.03375 116.36742 482
897.41693 764.46124 132.81836 483
925.21918 796.15723 146.72780 289
938.19824 810.65387 163.42178 395
946.91272 820.35175 180.52583 393
901.41858 778.69952 80.30252 416
892.38330 768.20532 98.96018 427
889.16559 764.45911 116.41545 483
891.36108 767.21808 132.90041 487
925.85382 806.80682 146.13258 289
938.79956 821.49664 162.77458 394
947.18512 831.16364 180.33301 392
894.96533 781.00275 80.59394 415
885.91443 770.51172 99.47617 427
883.10919 766.92798 116.68910 483
885.30078 769.70251 133.21046 487
923.62128 814.08575 145.84683 282
939.18445 832.31531 162.41199 392
947.84863 842.40399 180.16110 391
888.58478 783.20685 81.07409 415
879.76740 772.78595 99.52762 427
876.96222 769.35730 116.85400 484
879.37115 772.19391 133.22202 487
921.92249 822.24365 145.55286 316
939.52698 843.19946 162.19412 391
948.32434 853.26868 179.80319 390
882.32367 785.65137 81.22208 415
873.49139 774.88391 100.01405 428
870.77582 771.92212 117.10424 487
873.12268 774.63629 133.28874 491
1045.44238 979.61255 132.51947 446
940.03137 854.33276 161.66280 390
949.01312 864.75940 179.46492 388
875.94482 787.99396 81.60442 416
867.34961 777.23688 100.13797 428
864.99292 774.67389 117.37858 486
867.51624 777.50934 133.57663 491
1035.47510 980.15820 132.89742 447
940.40234 865.38440 161.05597 389
949.42725 876.44855 179.14996 387
869.87421 790.08746 81.71247 416
861.20276 779.74384 100.27806 432
859.16229 777.39050 117.37783 486
861.61102 780.29651 133.81032 492
1028.64197 983.74109 132.87158 448
940.98779 876.85657 160.63873 388
949.89252 888.06061 178.85785 386
863.53857 792.37726 82.11640 421
855.21710 782.02869 100.58309 432
853.30835 779.78265 117.69216 486
855.97504 782.95642 133.92488 492
955.39355 906.01514 139.91734 443
941.43170 888.71600 160.30400 387
950.73120 899.86389 178.71065 385
857.40234 795.10529 82.40833 421
849.26959 784.71863 100.75841 432
847.47992 782.54755 117.64439 487
850.02563 785.71490 134.06416 495
946.26923 905.84766 140.39360 444
941.89557 900.46661 159.90747 386
951.20660 911.81641 178.26347 384
851.36121 797.46960 82.54883 421
843.16315 787.14868 100.98605 432
842.18042 785.47180 117.82972 491
844.84729 788.92047 133.97821 496
937.15741 906.05432 140.81601 445
942.49536 912.74091 159.31477 385
951.67908 924.17212 177.99475 383
845.36810 799.92535 82.74820 422
837.74298 789.96948 101.10355 438
836.68018 788.34100 118.03528 491
839.37103 792.10211 134.05716 496
931.88928 910.55524 140.59679 458
942.87994 925.04083 158.68666 383
952.25586 936.72913 177.72823 382
839.64722 802.44940 82.93887 428
832.09393 792.64642 101.37744 438
831.17700 791.45227 117.96968 490
834.01532 795.21558 134.14691 496
929.02411 918.53485 140.38585 457
943.57135 937.21313 158.38332 382
952.97650 949.59442 177.18265 381
833.95038 805.43170 83.30827 429
826.33630 795.52948 101.48936 438
825.63501 794.42133 118.10130 490
828.67908 798.24799 134.17996 495
926.19165 926.54187 140.24239 456
944.09320 950.09113 157.73862 381
953.55963 962.59058 176.93295 380
828.48828 808.34930 83.33829 429
820.85999 798.34125 101.57073 438
820.29840 797.62579 118.22182 491
823.30023 801.64337 134.32697 495
923.29083 935.02130 139.70627 455
944.52771 962.97614 157.42625 380
822.71729 811.08594 83.48556 430
815.32550 801.28711 101.73729 441
815.15192 800.71234 118.35648 491
818.01715 804.88849 134.17673 496
920.78613 943.08875 139.37633 455
817.24677 814.04944 83.64885 433
809.98700 804.11835 101.67454 441
809.73419 803.94055 118.20814 492
812.90887 808.13892 134.37057 496
917.70032 951.49646 139.32573 454
811.67871 817.18939 83.66553 433
804.77148 807.36243 101.85558 441
804.65967 807.07648 118.42654 487
807.61041 811.62909 134.26678 496
914.79474 959.74609 138.78032 453
806.37732 820.03058 83.73967 434
799.31348 810.35815 101.81384 441
799.25720 810.36560 118.36290 487
802.42969 814.79767 134.32980 496
905.23712 958.81256 139.21486 435
800.97839 823.12158 83.72550 434
793.93420 813.22626 101.85455 441
793.96185 813.54462 118.45222 487
797.44159 818.01447 134.41119 496
895.69562 957.83124 139.66052 436
795.36224 826.30341 84.06042 434
788.60144 816.23462 101.96964 442
788.59747 816.51660 118.63188 487
792.05664 821.35742 134.42955 496
886.58569 957.57764 139.88908 265
789.88269 829.39288 83.93922 434
783.18976 819.34302 102.25293 442
783.29065 819.56445 118.45772 487
787.06976 824.95557 134.34085 485
882.32336 963.74677 139.73102 265
784.70282 832.32629 83.97929 434
777.79065 822.16956 102.12248 442
778.23047 822.76721 118.47443 487
781.97253 828.17395 134.36082 485
779.27411 835.20972 84.28883 444
772.52130 825.12360 102.13147 442
772.95801 825.93939 118.66705 487
776.76422 831.66077 134.30847 456
773.78662 838.15381 84.34778 444
767.02802 828.31323 102.37903 442
767.59406 829.09839 118.60088 485
771.64545 835.24207 134.42920 456
768.05664 840.94739 84.18053 444
761.66711 831.14813 102.44709 442
762.39050 832.39380 118.64404 485
766.70142 838.87549 134.52318 456
762.59357 843.71997 84.36016 444
756.56262 834.09131 102.26437 442
757.43781 835.52313 118.61538 484
761.57965 842.27942 134.37444 446
757.00287 846.68292 84.40261 444
751.16455 837.27466 102.45129 444
752.12933 838.68787 118.62865 484
756.81512 846.17657 134.39954 430
751.69116 849.56281 84.47607 446
746.05328 840.46613 102.28758 444
746.93463 842.14917 118.61257 480
751.92188 849.91309 134.22476 430
746.34198 852.63910 84.61244 453
740.86346 843.55249 102.41380 444
741.91937 845.50537 118.63759 480
747.01440 853.76862 134.24947 430
740.79468 855.55927 84.64068 445
735.42175 846.81451 102.30206 446
737.13739 849.02179 118.66194 480
742.02747 857.42102 134.24950 429
735.36102 858.46222 84.62117 453
730.23260 849.92719 102.53046 449
731.91754 852.61774 118.60703 478
737.31549 861.35309 134.13626 429
725.42957 853.50897 102.49131 449
726.86377 855.97357 118.62263 478
732.26947 865.29901 134.15115 456
720.46558 856.90375 102.30771 449
721.83820 859.88477 118.30756 476
727.52039 869.26520 134.08037 456
704.64142 862.54938 102.20362 460
705.87341 865.12610 118.44858 476
711.54388 874.79968 133.82874 456
699.54852 865.75775 102.14355 460
700.92682 868.53766 118.31761 473
706.72137 878.69061 133.70085 455
694.62756 869.22809 102.02473 461
696.11859 872.17249 118.22070 473
702.57605 883.93372 133.63934 309
689.54663 873.10187 102.09605 481
691.12689 875.74524 118.28215 473
684.60559 876.63074 102.07986 481
686.04407 879.34198 118.17332 473
12678.42188 23138.90234 -1506.82983 1000
679.49237 880.01373 101.98561 481
681.77545 883.89758 117.81903 338
676.90210 888.21588 101.07391 309
-305.70938 2526.54102 90.04308 485
-306.05164 2527.16919 131.89839 448
-306.03976 2527.41870 174.24695 448
-306.54156 2528.60059 216.73804 448
-306.58572 2529.13770 258.70590 448
-5258.29297 20626.04492 -4759.42822 1000
-797.81311 2044.90491 66.73803 498
-797.51514 2044.42139 104.37417 499
-797.70294 2044.18298 141.98721 499
-797.26843 2043.83142 179.30553 499
-796.70093 2042.78064 216.33719 499
-796.83807 2042.35962 253.74147 499
-796.49146 2041.92249 291.38113 499
127.51174 148.25356 169.49847 485
126.49605 148.00520 169.43466 441
124.69096 148.84583 168.95366 489
120.64247 149.20468 168.27931 489
118.00697 151.22520 167.43901 316
117.13325 150.60532 167.40581 316
116.25796 149.95963 167.42360 316
115.41676 149.26073 167.40591 316
114.13757 149.19807 167.24719 267
111.38154 151.13425 166.39249 314
110.53004 150.43205 166.37343 314
109.67082 149.75710 166.41357 314
108.79720 149.05922 166.38264 314
107.90158 148.37804 166.36682 314
107.06740 147.66559 166.41496 314
106.18090 146.95702 166.38000 314
105.19431 146.45616 166.33640 423
103.67351 146.57806 166.05298 422
96.30410 155.73582 166.35941 310
102.06565 146.74739 165.74509 421
95.38033 154.98592 166.39841 310
100.49303 146.93282 165.41840 420
94.47152 154.19331 166.36687 310
98.90178 147.08514 165.11801 419
93.60579 153.41951 166.36568 310
97.28477 147.23151 164.74890 418
92.68581 152.67572 166.36334 309
95.66714 147.36311 164.44766 427
91.80546 151.91116 166.35393 309
94.08413 147.41454 164.18269 426
90.87499 151.09038 166.36798 309
92.47575 147.45779 163.88574 425
90.02740 150.29614 166.34135 309
90.87140 147.53902 163.53632 424
89.11122 149.48050 166.33656 309
89.62111 147.15152 163.37077 307
88.26041 148.68286 166.36682 309
88.85577 146.27350 163.42049 307
87.40224 147.88211 166.35995 309
88.05414 145.37006 163.48482 307
85.90212 147.68581 166.10423 422
-42847.80469 46830.50781 15052.45215 1000
87.30637 144.47296 163.50879 307
84.22639 147.79655 165.79956 420
86.57122 143.51549 163.51663 307
82.51892 147.82535 165.50107 419
74.45653 156.43205 166.29353 305
85.82387 142.64325 163.53133 307
80.77857 147.89224 165.15045 418
73.54790 155.51050 166.25427 305
85.06951 141.68053 163.55936 307
78.99055 147.96004 164.87195 417
72.63649 154.59117 166.28720 305
104.96645 119.66533 171.50677 316
77.18401 148.03972 164.53789 416
71.67807 153.66972 166.26910 305
104.28605 118.94400 171.50862 316
75.42334 148.11934 164.17352 415
70.82327 152.78859 166.28758 305
103.62337 118.20102 171.51195 316
73.56763 148.20325 163.85432 414
69.92505 151.86584 166.26112 305
-1317.92957 1537.12659 73.97485 488
-1318.51953 1537.41772 109.59407 488
-1319.69653 1538.24109 145.14473 499
-1319.81458 1538.57910 180.79442 499
-1320.88269 1539.50476 216.48859 499
-1321.68384 1540.40320 252.47275 499
-1322.20215 1540.83374 287.65796 499
102.97234 117.47083 171.55110 316
71.69761 148.27353 163.45432 413
69.00503 150.88950 166.26230 305
102.28477 116.70228 171.53136 316
70.39089 147.79100 163.28644 303
68.11790 149.95935 166.26648 305
101.65038 115.93807 171.52379 316
69.61012 146.73395 163.35077 304
67.25192 149.03319 166.23116 305
100.98931 115.18223 171.53374 316
68.91390 145.68486 163.40317 304
65.95620 148.51535 166.12949 410
100.37894 114.42797 171.57582 316
