# .PCD v.7 - Point Cloud Data file format
VERSION .7
FIELDS x y z rgb
SIZE 4 4 4 4
TYPE F F F U
COUNT 1 1 1 1
WIDTH 1412
HEIGHT 1
VIEWPOINT 6385.598145 -1096.752197 148.583405 -0.662663 -0.091629 -0.100715 0.736436
POINTS 1412
DATA ascii
566.38672 834.83862 67.03414 420
562.44427 825.52972 83.87724 430
561.49634 823.76123 99.03486 472
562.34009 825.30176 113.85596 472
563.47925 828.40149 128.16460 466
565.79694 833.16730 142.76076 473
564.31042 844.25476 50.32987 424
560.19794 834.12122 67.50123 420
556.11725 824.86218 84.35279 430
555.49487 823.20837 99.43436 473
556.14960 824.74115 114.16856 472
557.50769 828.07605 128.39813 466
559.48627 832.98450 142.97839 474
558.15240 843.72736 50.75795 424
554.12445 833.73370 68.15130 421
550.01337 824.06879 84.66969 431
549.54327 822.87152 99.67148 473
550.15216 824.36755 114.46677 473
551.62732 827.56635 128.86101 467
553.59436 832.40210 143.17804 475
551.92676 843.33258 51.31618 425
548.01501 833.32581 68.44407 421
543.81958 823.37976 85.28741 431
543.56171 822.43579 100.01515 474
544.10931 823.97296 114.59412 474
545.59076 827.20599 129.04875 468
547.33752 832.04877 143.42537 475
545.94110 842.87122 51.98691 426
541.84424 832.74744 69.06438 422
537.74286 822.56689 85.60700 432
537.49823 821.97394 100.52191 475
538.23267 823.60785 114.99015 475
539.43646 826.89667 129.33780 468
541.35876 831.86395 143.64394 476
539.78467 842.28064 52.32394 426
535.78992 832.25928 69.43880 422
531.78607 821.96594 85.91641 425
531.70081 821.59473 100.84102 475
532.29669 823.04407 115.18207 475
533.57422 826.55682 129.56601 469
535.60229 831.33655 143.64114 477
533.63501 841.90149 52.82877 414
529.88116 831.77557 69.84525 423
525.93127 821.63300 86.27334 425
525.91632 821.10010 101.09269 476
526.27173 822.75134 115.60870 476
527.62091 826.28088 129.68684 470
529.56281 830.99646 143.90651 477
527.83423 841.59784 53.33170 415
523.76422 831.37433 70.26971 423
520.12933 821.16919 86.67159 427
520.10126 820.94977 101.51917 481
520.59027 822.34155 115.82693 482
522.75604 828.41034 129.69315 264
523.67383 830.68152 144.02885 478
523.80176 831.02771 158.60860 477
521.96753 841.59393 53.77525 415
518.10352 830.74799 70.67241 425
514.36816 820.81146 87.15224 427
514.20349 820.84528 101.59173 482
514.67413 822.30072 115.95568 482
517.02509 828.51562 129.91437 478
517.86725 830.43402 144.38426 478
518.24213 831.82635 158.73862 478
516.18811 841.19513 54.03386 412
512.20978 830.40906 71.15994 425
508.56879 820.39417 87.51417 428
508.46759 820.70624 102.03947 482
509.13361 822.09027 116.32601 483
511.34421 828.32666 130.24373 479
511.97208 830.12354 144.41994 479
512.48199 831.39154 158.93126 479
510.19095 840.89850 54.58825 413
506.26590 830.12762 71.55037 426
502.79605 820.14685 87.86848 435
502.98016 820.39392 102.25272 483
503.39908 822.02130 116.53843 483
505.63763 827.99152 130.36603 482
506.28888 829.71674 144.55983 482
506.54471 831.01898 158.98045 482
504.26242 840.45959 54.97189 415
500.65613 829.85907 71.90224 429
497.38629 820.24817 88.12046 435
497.42395 820.79169 102.52635 490
498.05820 822.29407 116.76489 491
499.97952 828.15265 130.58246 491
500.30219 829.34705 144.87186 489
500.99564 831.10553 159.22784 489
498.56165 840.36523 55.28512 413
494.95981 829.77252 72.17746 430
491.73859 820.22131 88.22310 436
492.04767 821.08240 102.51427 491
492.66095 822.70007 116.74425 492
494.62781 828.45490 130.69266 494
495.17056 830.41559 144.89240 492
495.58179 831.78082 159.28149 492
492.67599 840.08136 55.55032 413
489.36908 829.67352 72.34482 433
486.21750 820.31604 88.41167 436
486.56766 821.62341 102.75335 492
487.11301 823.15533 116.96371 492
489.13327 829.09937 130.65182 494
489.75845 830.75684 144.94208 493
490.02124 832.22321 159.32843 493
487.03015 839.94952 55.99857 414
483.66278 829.74731 72.57780 434
480.78528 820.63031 88.84903 440
481.05869 822.05365 103.03571 494
481.68570 823.73529 117.08146 496
483.78769 829.93524 130.91908 495
484.13516 831.39270 145.23917 495
484.76959 832.63062 159.48337 493
481.41916 840.00647 56.34806 416
478.26031 829.92133 72.96303 438
475.37692 821.04645 88.99857 441
475.86636 822.62634 103.02275 495
476.60150 824.46478 117.23006 496
478.42303 830.39252 130.88870 495
478.96274 832.00696 145.30783 495
479.14810 833.05817 159.58376 493
475.96237 840.57898 56.45886 420
472.77707 830.31042 73.21632 438
470.07135 821.47498 89.10381 441
470.56137 823.28009 103.24833 496
471.22992 825.41644 117.36534 496
473.06726 831.12518 131.00677 495
473.56128 832.78796 145.17557 495
473.76501 833.44958 159.51381 495
470.51443 841.07648 56.65624 420
467.61673 831.03125 73.25194 437
464.69617 821.90448 89.25791 441
465.43832 823.99841 103.46057 496
466.01135 826.15729 117.30906 496
467.63400 831.64862 131.26292 496
468.12231 832.93182 145.31685 495
469.26801 836.83008 159.47374 465
465.13861 841.64642 56.82562 420
462.07114 831.62177 73.52507 437
459.35092 822.27527 89.34672 440
460.11136 824.62427 103.49983 496
460.81754 826.97522 117.40926 496
462.30255 832.37598 131.22827 496
463.42950 835.91998 145.37872 465
464.87711 841.06232 159.27951 464
459.96436 842.29199 56.93439 422
456.83859 832.27368 73.61308 437
454.02881 822.78735 89.63001 440
454.91101 825.28827 103.67929 497
455.47577 827.74518 117.49233 498
457.49612 834.44623 131.06183 470
459.17810 840.08984 144.94568 465
460.73795 845.07404 159.01326 464
454.56070 843.34717 57.04027 422
451.56741 832.83752 73.64504 436
448.95865 823.51178 89.62527 440
449.78204 826.26978 103.65768 498
450.39099 828.88696 117.58997 498
453.07980 838.20270 131.05154 469
454.68057 843.90662 144.80049 470
456.21048 849.28107 159.00197 463
449.36475 844.16833 57.22126 422
446.37930 833.83832 73.84779 436
443.69550 824.11469 89.92947 438
444.44516 827.11786 103.61509 498
445.38849 829.76678 117.63125 498
448.59766 841.72162 130.68677 473
450.29367 847.58209 144.74484 469
451.67932 852.72021 158.80714 465
444.09769 845.07269 57.25330 422
441.28336 834.57202 73.80902 436
438.58997 824.84167 89.85622 439
439.46866 828.26837 103.78671 498
440.17923 830.96283 117.66215 498
444.03082 845.46790 130.51620 473
445.65744 851.29443 144.46483 469
449.77020 866.11133 158.01523 328
438.84918 845.80487 57.48591 425
435.97284 835.29858 73.92995 436
433.31015 825.70123 90.02668 440
434.21219 829.28656 103.79959 498
435.10583 832.13269 117.68937 498
439.64282 849.22406 130.33046 472
443.19046 862.27307 143.68385 328
448.39667 882.21887 157.10475 326
433.46008 846.83221 57.52668 428
430.84921 836.52283 74.04356 436
428.23956 826.73920 89.96647 411
429.23071 830.52289 103.88040 498
429.99625 833.18152 117.75314 498
436.00937 856.78461 129.51875 328
441.53922 877.99805 142.52119 327
446.99683 898.70941 155.86298 325
428.32333 847.84973 57.53119 428
425.75540 837.48657 74.21688 437
423.17157 827.60175 90.23510 411
424.27869 831.52582 103.70903 498
424.97037 834.35724 117.79568 498
434.51035 872.33746 128.27571 326
440.19339 894.58502 141.17084 325
445.39389 915.52216 154.83226 487
423.16449 848.94543 57.62497 428
420.58429 838.55060 74.06172 435
418.07602 828.58325 90.13645 411
419.09393 832.67780 103.81072 498
419.79138 835.35278 117.82029 498
433.84241 892.56787 126.32693 272
438.56461 911.45709 139.82584 324
444.13443 933.81177 153.68117 322
417.97415 850.03992 57.65901 428
415.33862 839.57141 74.30185 435
412.92416 829.51544 90.30099 411
413.95129 833.91083 103.87665 498
414.60367 836.60004 117.89558 498
430.81711 903.83502 125.12128 282
436.96039 928.97900 138.41451 323
442.70319 952.33582 152.55000 321
412.82724 851.16553 57.72879 428
410.30118 840.65448 74.26962 435
407.90552 830.59863 90.25618 411
408.94684 834.94238 103.80283 496
409.52591 837.67456 117.84171 498
425.45456 905.07916 125.34665 279
435.31998 947.49713 137.01320 321
441.06448 971.69708 151.36145 320
407.50122 852.51538 57.62749 422
405.15701 841.93396 74.18904 435
402.78769 831.55188 90.14991 417
403.93427 836.09106 103.89818 496
404.38052 838.61365 117.79291 498
437.73254 984.60138 117.44512 483
433.62973 966.32574 135.55356 320
439.35550 991.48627 150.25156 318
402.57202 853.84515 57.70037 422
400.00156 842.99713 74.17644 436
397.92175 832.98535 90.19836 417
398.77289 837.48804 103.84548 496
399.44223 840.13287 117.86449 498
431.25583 983.48242 117.67344 484
431.44119 984.57208 134.12093 319
437.61636 1012.06830 148.83240 317
397.51727 855.23663 57.52650 422
394.90573 844.45886 74.22955 436
392.83423 834.18488 90.25318 417
393.88522 838.69745 103.71119 495
394.33032 841.38257 117.82448 498
424.65527 982.79340 117.78571 484
429.88037 1006.53345 132.52428 317
435.77551 1033.52161 147.39444 316
392.37540 856.62701 57.41787 422
390.04196 845.68317 74.12207 436
387.86334 835.44080 90.22856 397
388.68045 840.11969 103.85961 495
389.24524 842.72809 117.73092 496
420.09854 989.38049 117.36499 403
427.81830 1027.79675 130.78912 316
387.18344 858.26990 57.40144 422
384.91595 847.14893 74.00717 436
382.70819 836.79028 90.20139 397
383.62347 841.26953 103.63303 495
384.38593 844.32605 117.71098 496
415.55930 998.46332 116.53257 401
425.48343 1048.12463 129.22174 310
381.88635 859.61340 57.37452 422
379.86090 848.46484 73.94903 436
377.79269 838.04968 90.11711 397
378.58441 842.84082 103.62321 494
379.24384 845.90955 117.68852 494
410.88705 1007.77307 115.50745 400
376.86111 860.88147 57.38035 423
374.63974 849.84265 74.01612 435
372.83820 839.47528 89.97057 405
373.55731 844.22632 103.56088 494
374.20190 847.38068 117.61956 494
406.34061 1017.13153 114.94373 399
371.77756 862.36237 57.15600 423
369.81277 851.19061 73.94217 436
367.80811 841.21838 89.83263 405
368.76492 845.66003 103.47074 494
369.31427 848.93628 117.45678 491
401.89716 1026.52100 113.98048 398
366.61896 863.84790 57.14198 424
364.57513 852.80408 73.69971 436
362.86038 842.77625 89.67754 405
363.59320 847.33459 103.37798 494
364.13422 850.71234 117.49656 491
396.64346 1033.52722 113.44476 478
8791.32422 48463.86719 12548.34570 1000
361.47913 865.64465 56.96378 423
359.63495 854.34253 73.72279 435
357.81830 844.26227 89.67223 405
358.60593 848.87115 103.43432 493
359.16086 852.26190 117.26400 490
389.81375 1031.60645 113.73693 479
356.38873 867.19537 56.74663 423
354.50412 856.07422 73.43200 435
352.90234 845.64941 89.67521 381
353.54871 850.28961 103.27045 490
354.13541 854.25427 117.14265 485
383.23187 1030.04932 113.90790 479
351.28806 869.00201 56.75046 424
349.51904 857.70947 73.43587 435
347.82047 847.32385 89.58695 398
348.53427 852.22345 103.16389 489
349.24417 856.26874 116.95470 480
376.50769 1028.52673 114.09621 480
346.10812 870.54022 56.61880 424
344.29193 859.56702 73.16869 435
342.89984 849.37085 89.26751 382
343.61249 854.01794 102.89864 487
344.14584 858.12219 116.98106 479
369.89792 1026.69946 114.43424 472
340.91299 872.56476 56.31481 424
339.43106 861.41541 73.01922 434
337.95950 851.30371 89.20238 381
338.49683 855.96155 102.78449 486
339.14240 860.20532 116.68056 479
363.17084 1024.59436 114.89357 472
335.91382 874.66064 56.10041 424
334.37311 863.53131 72.65751 434
332.89740 853.41718 88.92841 381
333.56995 857.75085 102.78513 486
334.03848 862.19031 116.63020 479
356.39362 1022.15051 115.15331 473
330.79221 876.79120 55.85795 426
329.32471 865.64301 72.63297 434
327.92523 855.54205 88.75063 436
328.58667 859.71069 102.45132 483
329.17569 864.53625 116.31703 475
349.71649 1020.06195 115.26911 474
325.53970 878.64838 55.60392 425
324.26447 867.53455 72.27927 433
322.83994 857.49524 88.43948 435
323.45737 861.97882 102.43360 483
324.06128 866.73267 116.09868 475
343.03989 1016.71136 115.78651 453
320.37003 880.98724 55.24869 424
319.12387 869.91406 72.00311 432
317.88040 859.89447 88.30167 435
318.44064 864.05768 102.15317 482
319.10925 869.14935 116.06416 484
336.83237 1016.46289 115.97910 263
315.29938 883.26825 54.84278 424
314.11047 871.96423 71.86825 432
312.90369 861.93256 88.09010 435
313.42395 866.16888 101.87124 482
313.85175 871.29272 115.92908 484
330.75879 1018.11359 115.76624 263
310.09055 885.73749 54.48457 424
308.86951 874.49445 71.59428 426
307.76434 864.34583 87.71556 434
308.29022 868.37024 101.76827 481
308.93134 873.67657 115.62926 483
305.05521 887.89148 54.26477 436
303.74826 876.72363 71.30895 426
302.79355 866.62244 87.54128 434
303.28198 870.57581 101.52227 481
303.64828 875.94086 115.47530 483
299.73318 890.12476 53.86756 435
298.77188 879.13293 70.96986 426
297.69666 868.70776 87.18407 434
297.90381 872.71497 101.20792 477
298.67548 878.46844 115.13734 482
294.62097 892.24786 53.67897 423
293.45987 881.55121 70.48973 425
292.65140 871.06464 86.96740 433
292.89487 874.67401 101.16716 477
293.45270 880.74097 114.87782 478
289.12454 894.51587 53.23762 423
288.40833 883.75677 70.26751 425
287.49710 873.42743 86.75081 433
287.69986 876.62714 100.83742 477
288.21652 882.94086 114.82056 468
284.00113 896.94263 53.06267 434
283.06863 886.32422 69.98730 425
282.23865 875.75073 86.38441 432
282.49173 878.73248 100.64570 476
283.15552 885.44055 114.58213 468
277.94122 888.64264 69.66978 424
277.09109 877.99097 86.10200 432
277.37512 880.87671 100.47563 476
277.85498 888.14325 114.25831 467
272.70123 890.99573 69.17131 424
271.84705 880.34711 85.91673 432
272.16425 882.92194 100.32054 475
272.46860 890.69440 114.05233 467
267.24826 893.48254 68.93053 436
266.71262 882.60059 85.61227 431
266.96347 885.15082 99.89133 469
267.28516 893.04852 113.83881 466
262.00830 895.53839 68.68135 435
261.53802 885.08429 85.30801 430
261.60114 887.63641 99.58944 469
262.03708 895.68317 113.49264 464
256.66144 897.85260 68.27463 435
256.10742 887.44476 84.87453 430
256.32996 889.83038 99.40870 468
256.74384 898.18817 113.27613 448
251.29501 899.87018 67.88712 432
250.95459 889.85559 84.53511 429
251.04047 892.11902 99.03069 468
251.43684 901.30469 112.93153 447
245.91982 902.53595 67.58510 432
245.68314 892.68036 84.21832 428
245.55751 894.28650 98.74096 458
245.87720 904.23376 112.65267 446
240.58745 905.05389 67.30492 441
240.30225 895.17914 83.79214 428
240.29805 897.11517 98.60838 458
240.51399 907.04016 112.14977 441
235.10512 907.14496 66.85297 440
234.90257 897.97760 83.45528 430
234.95615 899.70605 98.23605 457
235.12408 909.73181 111.97446 440
229.66339 909.70294 66.42871 440
229.42281 900.48505 82.96470 429
229.50749 902.24493 97.92605 456
229.74818 912.74097 111.68469 429
224.08800 903.51971 82.58124 426
223.95497 904.97498 97.53397 456
224.23625 915.83551 111.30938 428
218.53604 906.69604 82.05481 439
218.49396 907.54156 97.21435 449
218.72720 919.06659 110.94886 421
213.12631 909.42798 81.72282 438
213.08777 910.44073 96.72243 448
213.00600 922.02509 110.64990 421
207.58437 912.41211 81.35056 437
207.56592 913.30963 96.48944 448
207.56422 924.67633 110.29134 420
202.07678 915.48315 80.93494 442
201.99875 916.22809 96.02605 447
201.66037 927.63855 109.92207 420
196.48308 918.64777 80.27348 441
196.24562 918.98065 95.68678 446
190.65521 922.03320 79.81483 431
190.76709 921.62848 95.28143 446
185.06931 924.66675 94.94634 445
-4354.25195 55622.98438 -8999.78223 1000
-1878.84998 16692.17383 -2561.74878 1000
-10812.76758 31251.84375 -3599.46899 1000
-993.21436 2436.59253 37.55901 471
-993.35791 2436.80884 82.64043 471
-993.66534 2437.38428 126.92582 496
-994.25293 2438.85132 171.44980 497
-995.01929 2439.81543 216.23331 497
127.55006 148.32875 169.56929 485
126.56017 147.97099 169.50050 441
124.70919 148.87550 169.01144 489
123.26439 149.27020 168.68123 278
120.74149 149.26541 168.29617 489
119.19321 149.64430 167.98036 273
117.16420 150.75865 167.40016 316
116.31489 150.12064 167.40956 316
-37833.34375 54575.91016 -11898.77344 1000
-33816.23828 48811.28516 208.63739 1000
115.45063 149.42639 167.44438 316
114.60480 148.79866 167.41446 316
111.48103 151.28635 166.37318 314
110.59883 150.56696 166.40649 314
109.75298 149.88362 166.38754 314
108.90582 149.19804 166.38872 314
108.06557 148.54440 166.36769 314
107.17769 147.80054 166.41191 314
106.34164 147.11745 166.40842 314
105.49073 146.38487 166.40446 423
103.94888 146.54121 166.11000 422
96.47900 155.84901 166.37540 310
102.41930 146.70151 165.78500 421
95.58540 155.09013 166.35326 310
100.85109 146.90468 165.47212 420
94.73405 154.32733 166.36774 310
99.27236 147.03860 165.15543 419
93.84109 153.55327 166.37691 310
97.65025 147.20950 164.82930 418
92.92236 152.77174 166.34521 310
96.04549 147.31700 164.52203 427
92.06960 152.01964 166.37131 310
94.47075 147.37811 164.19800 426
91.19450 151.23335 166.38022 310
-1426.57556 1905.74341 215.87761 265
-1424.66199 1904.10083 257.14413 342
92.87408 147.41557 163.94017 425
90.28636 150.39851 166.33119 310
91.30047 147.52097 163.59760 424
89.41846 149.58794 166.36871 310
89.92340 147.29300 163.42159 307
88.57130 148.79398 166.36455 310
89.14529 146.37303 163.44072 307
87.69106 147.98209 166.34123 310
88.39647 145.50111 163.43561 307
86.39096 147.71056 166.13594 422
87.66122 144.59222 163.47633 307
84.67114 147.77863 165.87563 420
-1379.62854 1720.03699 486.66635 1000
86.89877 143.68506 163.52486 307
82.97785 147.79909 165.55052 419
74.80289 156.49716 166.27960 305
86.16692 142.75854 163.55885 307
81.23499 147.87503 165.21753 418
73.87612 155.60600 166.26430 305
85.43121 141.81891 163.56358 307
79.50186 147.95135 164.90121 417
73.00117 154.70218 166.28835 305
84.71181 140.87607 163.61693 307
77.71830 148.01215 164.53827 416
72.12748 153.77850 166.27283 305
104.69952 119.06818 171.49747 316
75.94295 148.09029 164.21591 415
71.21367 152.81081 166.28308 305
104.01009 118.32944 171.53432 316
74.13035 148.19293 163.84303 414
70.35773 151.93529 166.28014 305
103.40113 117.59093 171.53008 316
72.23667 148.25452 163.51086 413
69.47542 151.01836 166.25400 305
102.74171 116.83286 171.53528 316
70.86678 147.85530 163.32458 304
68.59845 150.08044 166.26640 305
102.09189 116.05853 171.55173 316
70.12709 146.82852 163.33357 304
67.72984 149.09419 166.23465 305
101.46973 115.30262 171.52913 316
69.35848 145.75606 163.37267 304
66.58472 148.48714 166.13229 410
100.81620 114.55801 171.53734 316
68.63811 144.71480 163.43459 304
64.63683 148.53168 165.79222 409
100.19817 113.77772 171.56221 316
67.96387 143.68106 163.45709 304
62.60664 148.61223 165.40648 408
99.60724 112.99975 171.54118 316
91.19200 120.72327 171.63718 312
60.62903 148.70612 165.03917 407
51.44301 157.12010 166.17374 301
98.97311 112.21676 171.54968 316
90.53921 119.88378 171.64003 312
58.56775 148.79921 164.66545 406
50.55404 156.04759 166.17026 301
98.35332 111.46249 171.56960 316
89.88788 119.05849 171.64041 312
56.47546 148.86668 164.30333 405
49.64330 154.99466 166.18521 301
97.75002 110.66411 171.58815 316
89.24435 118.21542 171.63329 312
54.42611 148.95851 163.88336 403
48.77879 153.94788 166.18710 301
97.19397 109.88313 171.55849 316
88.58791 117.37738 171.65654 312
52.26699 149.03279 163.49098 402
47.90964 152.84293 166.19707 301
96.58376 109.08102 171.58824 316
87.91850 116.53364 171.64264 312
50.42712 148.76852 163.21597 300
46.98137 151.78009 166.15500 301
96.00705 108.27635 171.60707 316
87.32183 115.70158 171.63838 312
49.73661 147.63098 163.24911 300
46.13173 150.70451 166.12733 301
95.40228 107.50800 171.60342 316
86.65660 114.79816 171.65436 312
49.02641 146.41058 163.27155 300
45.27689 149.62862 166.13777 301
94.82660 106.71584 171.61287 316
86.05309 113.94205 171.68172 312
48.31911 145.25063 163.35960 300
43.34274 149.36858 165.83644 398
94.24324 105.91050 171.59799 316
85.45504 113.09759 171.67223 312
75.42982 121.27066 171.74077 308
41.07421 149.47000 165.42950 397
93.68272 105.07124 171.60013 316
84.83998 112.25537 171.68231 312
74.79536 120.37774 171.74615 308
38.66556 149.52783 165.03334 396
93.10645 104.28697 171.61542 316
84.22441 111.37070 171.70091 312
74.10876 119.42999 171.78844 308
36.31157 149.64105 164.58224 395
25.83520 157.99336 166.06815 297
92.56704 103.44769 171.63835 316
83.60568 110.50015 171.70479 312
73.47211 118.49162 171.78177 308
33.87389 149.73813 164.16811 393
24.90574 156.77937 166.04761 297
91.97859 102.61827 171.62842 316
83.04563 109.61050 171.71017 312
72.80724 117.56580 171.76915 308
31.40387 149.85834 163.70584 392
24.06181 155.54314 166.03775 297
91.46753 101.80582 171.61169 316
82.41703 108.73540 171.71092 312
72.18785 116.58708 171.78789 308
28.84697 149.92725 163.27974 391
23.16499 154.32484 166.04958 297
90.87808 100.99364 171.65024 316
81.82307 107.82982 171.69173 312
71.56737 115.62959 171.77185 308
27.52528 149.06927 163.17073 296
22.30018 153.08769 166.07248 297
90.37617 100.15355 171.61984 316
81.24516 106.97871 171.73680 312
70.96024 114.69720 171.81354 308
26.87053 147.72888 163.18117 296
21.38884 151.79530 166.01553 297
89.84349 99.29204 171.62561 316
80.70370 106.04695 171.73750 312
70.34361 113.75433 171.82857 308
58.42208 122.52577 171.89848 304
20.52485 150.55588 166.02069 295
89.29734 98.48539 171.65227 316
80.12959 105.18994 171.72752 312
69.72866 112.77692 171.82333 308
57.78158 121.49779 171.88544 304
18.37890 150.31404 165.72617 389
88.76606 97.61231 171.63901 316
79.57344 104.27817 171.71443 312
69.08856 111.78962 171.84052 308
57.12524 120.47475 171.91411 304
15.66531 150.38782 165.27982 388
88.23307 96.76032 171.67029 316
79.01202 103.39350 171.72414 312
68.47369 110.83421 171.83337 308
56.45527 119.43962 171.91087 304
12.93097 150.44798 164.79082 387
87.75822 95.94147 171.67447 316
78.43915 102.48093 171.73647 312
67.90508 109.84727 171.80612 308
55.80524 118.34441 171.95436 304
10.08056 150.51247 164.32890 386
87.21150 95.08430 171.68094 316
77.88921 101.54702 171.76917 312
67.28876 108.88065 171.85341 308
55.17422 117.31261 171.90689 304
7.25434 150.53767 163.82434 384
-4.78428 158.94382 165.69243 290
86.74028 94.23624 171.69513 316
77.38004 100.64259 171.74361 312
66.71212 107.89730 171.81824 308
54.55157 116.24190 171.92036 304
4.33533 150.66537 163.34665 383
-5.67743 157.51823 165.68433 290
86.21893 93.36330 171.67764 316
76.80872 99.73322 171.74051 312
66.17665 106.92644 171.82152 308
53.91893 115.22495 171.93414 304
1.35547 150.72963 162.85805 382
-6.60211 156.13219 165.62938 291
85.74467 92.48914 171.68964 316
76.31534 98.80391 171.76239 312
65.56632 105.97076 171.83952 308
53.29750 114.10449 171.94978 304
39.06342 123.62598 172.07184 300
-7.50083 154.73051 165.65346 291
85.23096 91.63271 171.67033 316
75.78048 97.89941 171.78210 312
65.03555 104.96886 171.86349 308
52.70630 113.08880 171.92821 304
38.43467 122.47770 172.06229 300
-8.44841 153.27272 165.62289 291
84.78016 90.75691 171.67636 316
75.25731 96.97212 171.78476 312
64.46654 103.97849 171.87862 308
52.07133 112.01749 171.98544 304
37.74872 121.26488 172.09605 300
-9.32117 151.89447 165.66156 291
84.27802 89.91728 171.69347 316
74.75251 96.03679 171.75948 312
63.88247 102.96514 171.83739 308
51.45237 110.92997 171.95107 304
37.10003 120.13455 172.06145 300
-11.14301 151.06380 165.46985 377
83.80416 89.02147 171.68419 316
74.20473 95.09119 171.77559 312
63.35736 101.97977 171.85876 308
50.86904 109.83347 171.95795 304
36.46003 118.96973 172.10660 300
-14.45314 151.13779 164.94916 376
-1877.57166 1328.90613 94.04418 349
-1876.04956 1327.83191 134.87616 415
-1875.33850 1327.28052 175.23169 415
-1875.49170 1327.21326 216.10164 465
-1875.16174 1327.24695 256.65659 465
-1875.13745 1326.91821 297.77219 419
83.33427 88.13137 171.70845 316
73.70573 94.15105 171.76949 312
62.82933 100.97964 171.85963 308
50.32381 108.76171 171.97983 304
35.82078 117.80023 172.09113 300
-17.73350 151.21361 164.33858 374
82.87467 87.25396 171.69919 316
73.20843 93.21889 171.76337 312
62.25697 99.94521 171.88179 308
49.74074 107.68795 172.00182 304
35.19981 116.58333 172.12848 300
-21.20858 151.23779 163.80376 373
82.42445 86.41462 171.70122 316
72.75835 92.27785 171.77623 312
61.72487 98.90987 171.90865 308
49.13085 106.59892 171.98814 304
34.56713 115.41605 172.08235 300
-24.72251 151.37030 163.28082 372
81.95141 85.52619 171.73067 316
72.26026 91.34017 171.79945 312
61.21941 97.89950 171.90344 308
48.59836 105.46742 171.98061 304
33.95917 114.24103 172.13864 300
16.78688 124.52470 172.25569 296
-41.42032 159.33311 165.16675 286
81.50759 84.61317 171.74271 316
71.77530 90.37500 171.81602 312
60.69230 96.91713 171.88876 308
48.00058 104.35847 172.02295 304
33.34691 113.01553 172.09393 300
16.11013 123.21767 172.28319 296
-42.28198 157.65712 165.18578 286
81.06756 83.70152 171.72353 316
71.29651 89.40620 171.79280 312
60.17017 95.86811 171.87946 308
47.49094 103.27005 171.99161 304
32.75041 111.82034 172.12068 300
15.45117 121.86968 172.28706 296
-43.14550 156.01201 165.18570 286
80.64621 82.83218 171.70638 316
70.84251 88.45258 171.80096 312
59.70881 94.86275 171.91304 308
46.93982 102.18945 172.01773 304
32.15174 110.65003 172.10179 300
14.78607 120.59549 172.26782 296
-44.03070 154.33771 165.16719 286
80.22430 81.94570 171.71120 316
70.38199 87.49885 171.80612 312
59.17950 93.82777 171.91075 308
46.40687 101.08363 172.03577 304
31.53421 109.45129 172.12144 300
14.19218 119.24671 172.24590 296
-44.91093 152.70515 165.18596 286
79.77921 81.01395 171.74451 316
69.91760 86.55882 171.83826 312
58.70784 92.78197 171.90320 308
45.83465 99.94273 172.00842 304
31.00279 108.21590 172.15482 300
13.51204 117.94736 172.30624 296
-47.36757 151.95958 164.82944 364
79.36981 80.11649 171.73186 316
69.45612 85.59858 171.83031 312
58.18979 91.74863 171.90503 308
45.34723 98.81659 172.02657 304
34.04511 105.01356 172.96100 272
14.46090 115.80027 172.61284 270
-51.16300 151.85764 164.31099 373
78.93920 79.22028 171.73515 316
69.03087 84.58691 171.80682 312
57.72154 90.71399 171.92317 308
44.77162 97.69922 172.00870 304
38.72580 100.99148 174.16200 320
26.13623 107.85011 175.12968 271
-55.07750 151.80185 163.76315 371
78.53983 78.30534 171.75375 316
68.58611 83.62711 171.82431 312
57.27077 89.69974 171.94081 308
47.09485 95.08656 172.71574 322
41.28198 98.17506 174.88173 321
35.38888 101.36585 177.16193 319
19.06718 110.06567 177.74992 273
78.11890 77.40015 171.76035 316
68.12584 82.67078 171.83932 312
56.78445 88.61401 171.94438 308
49.41336 92.49738 173.39651 323
43.80981 95.46719 175.53238 322
38.03317 98.47810 177.85629 320
29.53717 102.91600 179.84279 274
8.95424 113.78751 180.12976 288
77.72796 76.49030 171.73358 316
67.72330 81.69422 171.83231 312
56.89557 87.28726 172.04630 327
51.67212 89.97015 174.09215 325
46.19488 92.84123 176.22598 324
40.63901 95.72193 178.50926 322
29.53517 101.47760 179.96158 292
8.37736 112.39723 180.11349 288
77.34513 75.56355 171.76126 316
67.30325 80.72469 171.84727 312
58.92014 84.97894 172.72075 328
53.89117 87.55485 174.75694 326
48.56600 90.27522 176.83076 325
43.12904 92.99976 179.11674 323
29.03150 100.24835 179.97775 292
7.79253 111.01930 180.12424 288
76.97672 74.64767 171.73976 316
66.86396 79.71349 171.84738 312
60.69054 82.83956 173.29521 385
56.01254 85.19360 175.34395 327
50.83741 87.76063 177.43889 325
45.53358 90.45694 179.70061 324
28.49028 99.02855 179.95427 292
7.19854 109.68035 180.09688 288
76.57428 73.75492 171.74481 316
66.47137 78.74387 171.82817 312
61.40492 81.26522 173.60802 386
58.10422 82.88687 175.95831 328
53.06973 85.35734 178.03828 326
45.62091 89.08424 179.83310 296
27.94136 97.76472 179.94682 292
1.41231 110.89832 179.27318 290
-19.62430 121.31908 180.31377 284
76.22521 72.79786 171.75977 316
66.07198 77.76945 171.85724 312
62.13850 79.67679 173.91997 388
59.12571 81.13797 176.32086 386
55.18057 83.02467 178.60385 328
45.11347 87.96497 179.83701 296
-7.62930 113.68628 173.52043 289
-7.72134 113.70941 177.88873 289
-20.30111 119.84732 180.34348 284
75.84794 71.86819 171.78378 316
66.27836 76.43797 172.01514 378
62.81948 78.13962 174.20207 389
59.83833 79.54821 176.62325 387
56.81418 80.99465 179.10799 385
44.66404 86.84061 179.83304 296
9.39342 103.71173 176.73199 285
-15.07801 115.50389 176.73199 345
-20.89964 118.31980 180.37859 284
75.46476 70.93588 171.77110 316
66.99920 74.93714 172.35455 379
63.53276 76.60281 174.48001 390
60.57306 77.97038 176.86913 388
57.59721 79.43378 179.34416 386
44.22142 85.70142 179.84808 296
15.96526 99.05428 178.06010 286
-0.83323 106.94403 179.17102 266
-21.54656 116.74773 180.33098 284
75.14051 70.01024 171.75934 316
67.69263 73.47434 172.63028 380
64.25091 75.08942 174.78830 391
61.34418 76.41138 177.14915 389
58.34048 77.82140 179.61879 387
43.81584 84.55180 179.81273 296
21.39851 95.00561 179.11774 315
8.01990 101.21553 180.75208 285
-23.75320 115.94209 180.14241 342
74.78650 69.08504 171.75827 316
68.41226 71.99255 172.92735 381
64.91138 73.57842 175.03482 392
62.01553 74.90702 177.39806 390
58.40285 76.56128 179.70314 300
30.59066 89.28487 177.26544 334
24.27745 92.16068 179.74646 316
14.60837 96.58745 181.89047 286
-2.12823 104.28365 183.36266 267
74.39615 68.15279 171.79456 316
69.10258 70.52830 173.21698 382
65.61708 72.12988 175.30873 379
62.76615 73.39833 177.69257 391
58.01633 75.51557 179.69038 300
32.57089 86.99255 177.75006 335
26.42940 89.71667 180.21645 333
18.97867 93.09334 182.67552 315
6.67297 98.59013 184.73674 285
74.09562 67.20442 171.78644 316
69.77693 69.09715 173.51901 383
66.33032 70.65921 175.63321 380
63.42569 71.91104 177.91405 392
57.62228 74.50339 179.70401 300
34.47653 84.71564 178.22427 337
28.51303 87.38725 180.72424 334
21.90742 90.28093 183.24011 316
13.34478 94.09578 185.73265 286
-3.30237 101.47747 187.50417 267
73.74683 66.26740 171.77263 316
70.45018 67.69789 173.80539 383
67.03523 69.18238 175.89984 381
64.15096 70.44239 178.19383 393
57.25327 73.47062 179.73898 300
36.40005 82.53539 178.67728 338
30.51461 85.05805 181.11647 335
24.33813 87.80148 183.74132 333
16.59620 91.13408 186.31171 315
5.43862 96.00812 188.68036 285
74.34718 64.93491 172.04996 387
71.09833 66.28784 174.07443 384
67.77036 67.73444 176.17146 382
64.83783 69.00336 178.42688 394
56.89575 72.39752 179.70157 300
38.25037 80.36803 179.16835 339
32.46641 82.82181 181.59186 336
26.46195 85.44572 184.14470 334
19.60924 88.34730 186.76622 316
11.02993 92.00003 189.44333 314
-4.31796 98.55614 191.68994 267
74.96249 63.58670 172.34178 388
71.79697 64.95291 174.35214 385
68.44601 66.32014 176.43953 383
65.53074 67.57273 178.68846 395
56.53354 71.37651 179.71149 300
40.00521 78.28528 179.60336 340
34.40032 80.67510 182.00323 337
28.49769 83.16177 184.54062 335
22.25040 85.80527 187.25931 333
14.21047 89.16064 189.90779 315
4.26830 93.29511 192.65192 285
75.58657 62.26810 172.62469 389
72.44357 63.58466 174.62801 386
69.13096 64.95740 176.69916 384
66.19780 66.16108 178.92943 396
56.16426 70.29061 179.74475 300
41.27726 76.43588 179.91916 373
36.25964 78.53304 182.40323 339
30.52086 80.94627 184.95670 336
24.36159 83.46500 187.58469 334
17.27896 86.35379 190.38231 316
8.64080 89.95670 193.21220 313
-5.15545 95.66280 195.85507 267
76.19749 60.96488 172.87584 389
73.06596 62.21110 174.86758 387
69.83382 63.55471 176.94313 385
66.82935 64.75539 179.14131 397
55.84468 69.22465 179.73048 300
42.24083 74.75352 180.18782 374
37.92052 76.52054 182.78189 372
32.46428 78.75408 185.35034 337
26.44714 81.18265 187.96886 335
20.13873 83.74168 190.76364 332
11.88345 87.10903 193.55789 314
2.80755 90.76823 196.64328 312
-23.00339 101.30138 198.77292 266
76.65392 59.72858 173.11761 419
73.73355 60.90354 175.12167 388
70.51399 62.17881 177.19545 386
67.50143 63.40914 179.36780 397
46.92643 71.58059 177.88632 388
43.17729 73.10001 180.43306 375
38.91464 74.78218 183.03540 373
34.37665 76.63332 185.69342 338
28.50005 78.93217 188.33591 336
22.30959 81.40353 191.08534 334
14.98226 84.36693 193.98941 316
6.21433 87.85091 196.92419 313
-5.96007 92.72398 199.97192 267
76.90752 58.58469 173.24986 420
74.27299 59.61548 175.38797 418
71.17823 60.83242 177.44023 387
68.13142 62.02065 179.59033 398
47.64574 70.09143 178.15256 389
43.94481 71.51829 180.69354 387
39.90517 73.10375 183.26775 373
35.51120 74.83481 185.94894 371
30.53946 76.77619 188.66220 337
24.46741 79.14700 191.42891 335
17.96578 81.71391 194.34613 317
9.51984 85.05087 197.26813 314
0.32971 88.60826 200.46510 312
-4965.63477 2035.41431 123.95284 456
77.19114 57.43941 173.42377 421
74.58048 58.44732 175.53961 419
71.83839 59.53178 177.65717 388
67.92844 61.03012 179.61617 304
48.34190 68.57634 178.33543 390
44.68905 69.95109 180.88458 388
40.85713 71.44933 183.52773 374
36.54434 73.11722 186.14716 372
32.02319 74.84563 188.95349 369
26.53948 76.94122 191.69885 336
20.29443 79.38696 194.62949 333
12.68701 82.31580 197.58476 315
3.78932 85.71860 200.78401 313
-6.61285 89.69899 204.10139 267
77.49461 56.30733 173.59344 422
74.91650 57.28186 175.71407 419
72.21615 58.30698 177.86009 417
67.63349 60.03887 179.64842 304
49.08561 67.04916 178.60332 391
45.44307 68.41499 181.13707 388
41.70786 69.84556 183.74054 386
37.51000 71.42186 186.39198 373
33.08573 73.10632 189.11719 370
28.46564 74.86122 192.01434 368
22.43913 77.13802 194.88618 334
15.73971 79.63813 197.89302 316
7.10578 82.90048 201.01187 314
-2.17239 86.43710 204.35866 311
77.76292 55.16472 173.75439 422
75.18657 56.14534 175.83394 420
72.52245 57.11683 177.99306 418
67.36655 59.03463 179.61322 304
49.75907 65.59644 178.81540 392
46.15882 66.87950 181.32845 389
42.48643 68.26640 183.94560 387
38.47970 69.76778 186.60173 374
34.08992 71.37939 189.31625 371
29.56100 73.04907 192.17757 369
24.57990 74.89121 195.18845 335
18.27864 77.24478 198.15308 333
10.37306 80.17664 201.27637 315
1.33599 83.56046 204.60316 312
78.06615 54.04472 173.90297 423
75.49014 55.01889 175.98926 421
72.83202 55.94095 178.15533 419
67.07585 58.08543 179.65926 304
50.42875 64.11703 179.02905 393
46.89030 65.40507 181.54283 390
43.24969 66.71142 184.10184 388
39.48495 68.10516 186.82120 375
35.13465 69.70116 189.52228 372
30.63718 71.32831 192.35066 370
25.92713 73.02142 195.35060 367
20.44451 75.01900 198.38779 334
13.54688 77.57240 201.50894 316
4.75544 80.75456 204.82707 314
78.37666 52.93576 174.08145 424
75.80843 53.88513 176.14827 422
73.15134 54.78047 178.30382 419
66.79957 57.06206 179.64563 304
51.12362 62.67161 179.22952 393
47.65578 63.91323 181.74777 391
43.99292 65.20893 184.32631 389
40.24886 66.58279 187.00284 386
36.12464 68.01890 189.73354 373
31.68737 69.62078 192.51941 371
27.05336 71.27010 195.51698 368
22.19392 72.97680 198.58214 365
16.23854 75.13973 201.76215 333
8.04794 78.03950 204.97476 315
78.64784 51.83143 174.22829 424
76.10101 52.73093 176.31213 422
73.47715 53.64829 178.41754 420
66.51636 56.09065 179.66028 304
51.81506 61.24955 179.44096 394
48.34437 62.45183 181.90956 392
44.78231 63.72493 184.50906 390
41.04080 65.01070 187.15829 387
37.13759 66.40979 189.91823 374
32.71407 67.92225 192.73006 371
28.15744 69.51471 195.66292 369
23.38842 71.18501 198.74336 366
18.36729 72.95507 201.93410 364
11.28243 75.41303 205.21526 316
78.93181 50.74770 174.38530 425
76.39791 51.64111 176.44994 423
73.77032 52.52566 178.55933 421
66.24384 55.09917 179.63368 304
52.50999 59.83299 179.67905 395
49.07279 61.03331 182.14532 393
45.48587 62.21997 184.71426 390
41.81112 63.48845 187.33002 388
38.02627 64.79463 190.04985 386
33.77921 66.27077 192.86990 372
29.24958 67.83056 195.80261 370
24.51922 69.40142 198.87288 367
19.59089 71.13619 202.00909 364
14.20026 73.00945 205.37929 332
79.19966 49.65707 174.54791 427
76.67381 50.50863 176.59564 424
74.07538 51.39452 178.71254 421
66.00972 54.10919 179.64841 304
53.17459 58.39983 179.85065 396
49.75590 59.56546 182.30312 394
46.24318 60.76556 184.88971 391
42.57960 61.97005 187.50958 389
38.81054 63.26933 190.24551 386
34.80115 64.63040 193.06471 373
30.33772 66.09377 195.92192 371
25.68525 67.69753 198.95042 368
20.79456 69.30637 202.14394 365
15.67958 71.02167 205.42464 363
-4455.68896 1575.69861 134.58842 433
79.49133 48.57749 174.66083 428
76.99072 49.42616 176.75798 424
74.41301 50.24155 178.84830 422
65.73023 53.10936 179.63644 304
53.81711 57.01667 180.05272 397
50.44299 58.17139 182.49809 395
46.96056 59.28323 185.05203 392
43.36848 60.50941 187.67590 390
39.63116 61.73453 190.36491 387
35.72832 62.99706 193.22536 385
31.40512 64.44920 196.08461 372
26.79769 65.97485 199.12921 369
21.98341 67.53271 202.24455 366
16.91540 69.21263 205.51189 364
79.77301 47.52293 174.82867 429
77.28248 48.29153 176.87483 425
74.69982 49.12316 178.97223 423
65.46928 52.11006 179.66316 304
54.49557 55.64724 180.28473 398
51.12179 56.76281 182.72502 395
47.69095 57.84624 185.23817 393
44.13534 59.03476 187.82310 391
40.42872 60.20407 190.55673 388
36.57245 61.44285 193.37120 386
32.40293 62.81288 196.22894 372
27.90385 64.25971 199.25056 370
23.14335 65.78663 202.35329 367
18.15923 67.37900 205.63728 365
80.01672 46.42794 174.96530 430
77.56832 47.19929 177.01137 426
75.02369 48.01520 179.12021 423
58.00977 53.42706 178.01642 413
54.97784 54.38557 180.43987 411
51.83791 55.35417 182.90146 396
48.39125 56.42463 185.38911 394
44.85995 57.53779 188.00606 391
41.20374 58.72059 190.69127 389
37.40009 59.91564 193.49890 386
33.46910 61.14646 196.36102 373
28.95588 62.57876 199.36205 371
24.25086 64.09449 202.46051 368
19.40309 65.60872 205.70514 365
80.31414 45.37285 175.10844 430
77.86138 46.12787 177.13713 426
75.32082 46.91109 179.25528 424
58.48962 52.12579 178.15535 414
55.46686 53.08932 180.55167 412
52.35578 54.06311 183.01614 409
49.12373 55.02968 185.57321 395
45.61570 56.10793 188.16484 392
41.97812 57.26031 190.83765 390
38.20517 58.40498 193.63873 387
34.31455 59.60467 196.46700 385
30.06989 60.91354 199.44179 372
25.39828 62.37155 202.57097 369
20.59915 63.87407 205.79527 366
80.59370 44.34843 175.24666 431
78.15018 45.04792 177.31059 427
75.65959 45.84815 179.39038 425
58.88556 50.93369 178.33441 422
55.93191 51.79379 180.72525 412
52.83836 52.71249 183.19781 410
49.64038 53.71841 185.71263 408
46.33963 54.72277 188.31351 393
42.75942 55.77517 191.00932 391
39.04322 56.91347 193.75459 388
35.19203 58.07618 196.58960 386
31.12562 59.30088 199.55673 373
26.52390 60.72335 202.66264 370
21.75214 62.17030 205.85330 367
80.84548 43.29440 175.38310 432
78.45393 44.00771 177.42520 428
75.93927 44.73528 179.50201 425
59.27166 49.68225 178.47427 422
56.36055 50.53651 180.87099 413
53.29705 51.42727 183.33960 411
50.16977 52.36129 185.82104 408
46.91101 53.35074 188.44432 406
43.49200 54.33462 191.14447 392
39.80879 55.43880 193.89857 389
36.02795 56.54654 196.74702 386
32.03373 57.75216 199.68593 384
27.64666 59.02923 202.75168 371
22.93389 60.42800 205.93971 368
81.16058 42.22704 175.52986 432
78.73887 42.93405 177.56622 428
75.98866 43.73201 179.55511 308
59.64891 48.45891 178.59877 423
56.84786 49.27744 181.03793 421
53.80811 50.16445 183.47105 412
50.67809 51.06023 185.97688 409
47.43862 51.97621 188.54962 407
44.11277 52.95611 191.26736 404
40.61993 53.94941 193.98422 390
36.84143 55.06015 196.86809 387
32.91402 56.22741 199.75648 385
28.73813 57.40657 202.86285 372
24.09579 58.75999 205.99008 369
81.40935 41.20153 175.64412 433
79.03233 41.86598 177.67958 429
75.79623 42.81086 179.55830 308
60.02021 47.26225 178.73564 424
57.20083 48.04560 181.14966 422
54.27287 48.86414 183.60512 412
51.19544 49.74334 186.10939 410
47.95607 50.66206 188.70648 407
44.65138 51.58972 191.34154 405
41.22408 52.56564 194.11841 402
37.64718 53.59632 196.94923 388
33.79313 54.66906 199.85521 386
29.76166 55.84797 202.93037 383
25.21095 57.13134 206.08791 370
-3852.65991 1153.96753 146.60551 491
81.71350 40.19034 175.78574 433
79.33502 40.85161 177.78906 430
75.59655 41.88025 179.56085 308
60.38556 46.05683 178.88000 424
57.59027 46.85847 181.27930 422
54.75597 47.60859 183.74931 420
51.69067 48.46371 186.24655 411
48.51210 49.38556 188.81137 408
45.17893 50.26099 191.45293 406
41.81157 51.22702 194.19092 403
38.29695 52.15519 197.06454 401
34.64521 53.21313 199.96880 386
30.65802 54.29673 202.97522 384
26.32919 55.46162 206.14818 371
-187.09541 114.47498 202.28172 495
81.95480 39.17527 175.90332 434
79.63369 39.79841 177.90471 430
75.42670 40.95431 179.55617 308
60.76442 44.90165 178.99370 425
58.01355 45.60970 181.39030 423
55.15378 46.37388 183.84682 421
52.17467 47.19977 186.35194 411
48.99348 48.05029 188.90361 409
45.72777 48.93573 191.55624 406
42.39985 49.84665 194.28600 404
38.89894 50.79829 197.13165 401
35.27633 51.72901 200.04245 399
31.51222 52.74821 203.09105 385
27.42249 53.87512 206.19881 382
21.86590 55.38393 209.42398 263
82.22408 38.15637 176.01721 435
79.88291 38.75569 178.02983 431
75.22259 39.97227 179.59737 308
61.12865 43.68388 179.14038 426
58.38693 44.40867 181.50549 424
55.60624 45.17355 183.94476 421
52.64661 45.94179 186.47275 412
49.55681 46.75073 189.04652 410
46.27938 47.60828 191.65895 407
42.94992 48.51288 194.42271 405
39.49359 49.37737 197.21771 402
35.93841 50.33445 200.14888 399
32.18333 51.28914 203.13878 397
28.31922 52.32891 206.25821 383
23.51396 53.62613 209.48990 340
82.50200 37.14425 176.14941 435
80.17722 37.72966 178.17769 432
75.06828 39.07065 179.58015 308
61.52906 42.52878 179.27509 427
58.81614 43.22910 181.63013 424
55.97071 43.96112 184.08972 422
53.10519 44.67620 186.58710 420
50.04305 45.47562 189.12230 410
46.84748 46.27869 191.77444 408
43.51241 47.15879 194.46884 405
40.07949 48.05315 197.31076 403
36.54326 48.96090 200.19933 400
32.82846 49.88212 203.21161 397
29.01691 50.86964 206.29774 395
24.73964 51.97121 209.55768 341
82.78176 36.12581 176.26436 436
80.49780 36.70368 178.26471 432
74.89279 38.12008 179.57292 308
61.91727 41.36625 179.41002 427
59.18446 42.03669 181.74313 425
56.39413 42.73203 184.20822 423
53.54003 43.43039 186.68546 420
50.57107 44.21200 189.24097 411
47.36225 45.00964 191.86391 409
44.08492 45.81862 194.60934 406
40.64740 46.67186 197.37434 403
37.11520 47.54696 200.27072 401
33.50816 48.46544 203.26726 398
29.70204 49.42670 206.37808 395
25.60821 50.45043 209.59612 356
-187.10655 103.61568 209.44650 295
83.08360 35.14323 176.37714 437
80.77737 35.69109 178.38091 433
74.75058 37.16854 179.58508 308
62.27327 40.18546 179.53441 428
59.55627 40.87240 181.88586 426
56.79026 41.55368 184.28607 423
53.95216 42.22568 186.79190 421
51.01834 42.95313 189.37239 419
47.88789 43.70295 191.98459 409
44.59183 44.51063 194.66788 407
41.21539 45.31933 197.47031 404
37.71791 46.20174 200.34584 402
34.11413 47.08444 203.29758 399
30.34704 47.96270 206.38843 396
26.34403 48.97017 209.64030 356
-186.79947 100.92232 209.38184 485
83.35680 34.13770 176.48573 437
81.05687 34.70454 178.49991 435
74.58253 36.24374 179.58176 308
62.65620 39.04333 179.66489 429
59.97652 39.67965 181.98718 426
57.21133 40.34325 184.43964 424
54.38327 41.00985 186.92223 422
51.48442 41.68465 189.44179 419
48.40653 42.42961 192.09570 410
45.14737 43.20137 194.76866 407
41.83151 44.00003 197.51323 405
38.32817 44.81995 200.42166 402
34.76441 45.65789 203.36824 400
30.99410 46.58087 206.47017 397
27.08141 47.51746 209.66664 357
-187.31265 98.37455 209.36899 485
83.61007 33.16608 176.60222 438
81.35989 33.68430 178.60284 436
74.44015 35.29434 179.58266 308
63.00859 37.92508 179.78212 429
60.33569 38.52494 182.13809 427
57.58640 39.17955 184.53223 425
54.81473 39.81461 186.99748 422
51.88668 40.46852 189.57028 420
48.94167 41.15506 192.17712 417
45.71846 41.92572 194.85777 408
42.39059 42.64951 197.59741 406
38.91151 43.45705 200.45813 403
35.39274 44.29455 203.42195 400
31.65314 45.16200 206.50006 398
27.77525 46.03810 209.68877 360
-187.73758 95.80596 209.36780 485
-196.61816 97.75861 216.36690 294
83.90696 32.16959 176.72504 438
81.60614 32.70624 178.73708 436
74.30035 34.31829 179.58405 308
63.35309 36.79609 179.86375 430
60.72707 37.36936 182.21194 428
58.01132 37.98115 184.64885 425
55.22037 38.60474 187.08339 423
52.36014 39.26585 189.63899 421
49.38684 39.91598 192.25439 418
46.23061 40.64529 194.94638 409
42.92555 41.34721 197.69716 406
39.50513 42.13419 200.54662 404
35.97684 42.92630 203.46161 401
32.34491 43.75640 206.52463 398
28.48995 44.60689 209.70082 396
-188.21359 93.20980 209.38986 485
-189.55621 93.48337 216.45587 296
84.13357 31.22798 176.84479 458
81.89019 31.70111 178.85420 437
74.15482 33.37640 179.57578 308
63.76482 35.66901 179.97987 430
61.10605 36.23782 182.34055 428
58.39459 36.79756 184.74142 426
55.61353 37.40153 187.18507 424
52.77193 38.05299 189.74146 421
49.82053 38.66221 192.31972 419
46.78534 39.33695 195.00510 409
43.53772 40.04845 197.76067 407
40.12236 40.80444 200.62929 404
36.59964 41.58840 203.51720 402
32.94444 42.35559 206.56528 399
29.20648 43.17030 209.70667 396
-182.83208 89.40615 216.34245 297
84.19999 30.28442 176.86198 458
82.10177 30.71222 178.93843 456
74.00120 32.45120 179.57773 308
64.09211 34.55892 180.13174 431
61.47851 35.08624 182.44963 429
58.79092 35.67203 184.84859 427
56.05293 36.23978 187.32312 424
53.17059 36.82846 189.80295 422
50.26581 37.43753 192.43565 419
47.25559 38.09132 195.09546 417
44.05258 38.76170 197.83986 408
40.68836 39.47546 200.66641 405
37.19151 40.23090 203.58260 402
33.61056 40.96614 206.60121 400
29.86110 41.78359 209.78464 397
-182.99524 86.79487 216.39508 439
84.24160 29.35897 176.93103 458
82.14743 29.81485 178.97290 456
67.01217 32.90501 177.95219 434
64.46738 33.43066 180.22194 432
61.87505 33.95379 182.55246 429
59.20918 34.49124 184.95993 427
56.45503 35.04772 187.40237 425
53.60766 35.65673 189.90895 422
50.73602 36.22736 192.52014 420
47.73180 36.84638 195.19151 418
44.60430 37.51308 197.93719 408
41.27219 38.18029 200.72911 406
37.79161 38.91027 203.67007 403
34.23801 39.59971 206.64755 400
30.51106 40.41072 209.79779 398
-183.07896 84.13483 216.44820 439
84.29691 28.43335 176.96361 459
82.22895 28.86107 179.03203 457
67.37679 31.80232 178.05298 435
64.83405 32.32896 180.35797 432
62.27097 32.81308 182.67574 430
59.57743 33.35604 185.06340 428
56.85136 33.91444 187.47711 425
54.02671 34.45213 189.99753 423
51.17484 35.03140 192.58330 421
48.17202 35.62518 195.22824 418
45.10777 36.21858 197.99278 416
41.84690 36.89668 200.77467 406
38.40985 37.58802 203.69576 404
34.86641 38.29914 206.69229 401
31.15868 39.03032 209.80826 398
-183.04802 81.59425 216.37201 424
84.36955 27.52097 177.03879 459
82.30492 27.92138 179.07704 457
67.73460 30.75154 178.18129 435
65.22362 31.22248 180.42680 433
62.60877 31.69584 182.75146 431
59.97913 32.22328 185.15968 428
57.27256 32.72429 187.59679 426
54.49300 33.26157 190.08519 424
51.60753 33.85424 192.66838 421
48.66213 34.41365 195.28833 419
45.59400 34.97222 198.04053 416
42.40146 35.61629 200.84230 407
39.00684 36.26454 203.74783 404
35.45430 36.91424 206.74606 402
31.78756 37.62363 209.86378 399
-183.13457 78.92885 216.41644 424
-190.10080 80.29619 223.34410 322
84.42284 26.63132 177.06372 459
82.36388 27.02613 179.11052 457
68.09210 29.63805 178.31204 436
65.56473 30.10287 180.55664 434
62.98672 30.58889 182.85989 431
60.34509 31.09051 185.24385 429
57.68440 31.60413 187.67430 427
54.89452 32.11646 190.15121 424
52.01141 32.65505 192.71776 422
49.08346 33.16661 195.37091 419
