# .PCD v.7 - Point Cloud Data file format
VERSION .7
FIELDS x y z rgb
SIZE 4 4 4 4
TYPE F F F U
COUNT 1 1 1 1
WIDTH 1386
HEIGHT 1
VIEWPOINT 6460.588379 -647.709778 145.295349 -0.631163 -0.099199 -0.086173 0.764439
POINTS 1386
DATA ascii
396.28183 43.89252 171.72441 313
408.61731 47.06450 171.86116 309
454.18954 58.80005 164.93246 303
459.51639 60.16700 167.92349 297
2538.91260 595.57220 98.23842 492
2554.15503 599.53229 137.06279 397
385.14008 42.10537 171.64487 317
395.99103 44.96079 171.75739 313
408.30142 48.21206 171.84654 309
453.80725 60.20303 164.96382 303
459.16821 61.64347 167.90889 297
2538.18921 610.13867 98.09632 491
2552.75781 614.63129 137.20523 397
2577.58081 621.08203 176.12350 375
384.87003 43.09755 171.64484 317
395.69394 46.01207 171.72905 313
408.01865 49.31192 171.86424 309
453.25269 61.57813 164.99940 426
458.82391 63.10869 167.90659 297
2537.48413 625.35852 98.11969 491
2551.90479 629.36401 137.05753 396
384.60364 44.07434 171.61748 317
395.40378 47.06298 171.74551 313
407.67368 50.46971 171.85631 309
451.49496 62.60730 165.31703 427
458.48837 64.57430 167.87984 297
2536.72534 640.36536 98.08811 491
2551.18628 644.20990 136.82678 396
384.30643 45.07078 171.62917 316
395.10959 48.13389 171.74171 313
407.36594 51.58830 171.85420 309
449.79105 63.65331 165.60483 428
458.13071 65.97302 167.86716 297
2535.29297 655.17432 98.12583 490
2550.30859 659.40601 136.59398 396
2740.74951 713.68286 173.03000 445
384.04752 46.03274 171.62050 316
394.80429 49.18662 171.72179 313
435.74554 61.05003 164.83749 308
448.13177 64.69199 165.84969 429
457.72296 67.46770 167.89807 297
2534.99072 670.43445 97.65172 490
2549.33081 674.50684 136.49831 395
2658.90918 706.96307 174.15594 324
383.74310 47.05487 171.61542 316
394.47864 50.24524 171.71547 313
435.35721 62.39164 164.86206 308
446.46597 65.66306 166.15067 430
44811.78125 13244.58008 -8258.33691 1000
2533.49292 685.65497 97.46323 490
2548.47632 690.29529 136.35034 395
2640.82593 717.84656 174.38252 498
383.40533 48.01421 171.60728 316
394.17767 51.28044 171.69333 313
434.96600 63.66375 164.88596 308
444.75879 66.67950 166.44109 431
2533.10547 700.83197 97.25147 489
2547.42993 705.23566 136.06583 395
2573.06030 713.32782 175.95668 360
383.11343 48.98790 171.60579 316
393.82047 52.31634 171.69136 313
434.51535 64.97198 164.82982 308
443.11890 67.65810 166.68767 432
2537.22241 717.47150 97.00182 432
2627.42603 745.76135 133.55093 499
2673.53979 760.30890 174.40955 498
382.81039 50.01041 171.59920 316
393.51318 53.36833 171.71323 313
434.12308 66.28893 164.86258 308
441.56705 68.60295 166.97508 433
2639.51050 765.84271 91.05016 450
2621.29834 759.99976 133.27290 498
2623.37744 760.73590 174.80013 498
382.47665 50.94751 171.59563 316
393.14822 54.41025 171.70471 313
433.66391 67.57642 164.86485 308
439.91324 69.56324 167.23936 434
2638.03833 781.33466 91.15856 429
2581.05029 763.27789 134.87857 491
2617.26514 775.08075 174.59572 499
382.15445 51.93019 171.61890 316
392.81561 55.49421 171.69853 313
433.26242 68.85258 164.87866 308
438.19873 70.50253 167.52538 420
2614.93921 790.39667 133.50266 470
2616.58252 790.76776 174.94606 475
381.78574 52.93639 171.61841 316
392.45883 56.50516 171.71667 313
432.77698 70.12012 164.84427 308
436.43051 71.35703 167.80937 421
2618.26831 807.96393 133.24216 463
2579.94043 795.04205 175.09483 418
381.47440 53.89862 171.59653 316
392.10745 57.54515 171.70789 313
432.31873 71.41976 164.87711 308
435.86560 72.63590 167.86444 301
381.13855 54.88155 171.58038 316
391.74673 58.58512 171.66699 312
431.80591 72.65440 164.83064 308
435.47217 73.95269 167.79958 301
2614.97559 839.28870 257.16113 449
380.75385 55.83348 171.58772 316
391.37177 59.62952 171.67760 312
431.24844 73.90623 164.86568 424
434.99820 75.23550 167.83461 301
380.39661 56.79118 171.57736 316
416.88907 70.12289 164.75909 312
429.48657 74.75494 165.19334 425
434.55850 76.55995 167.82381 301
380.04880 57.78859 171.58667 316
416.39621 71.31477 164.75047 312
427.83307 75.58285 165.49333 426
434.11066 77.90245 167.78964 301
379.66370 58.73248 171.57436 316
415.91150 72.45487 164.78101 312
426.20663 76.36192 165.77696 427
433.66922 79.17585 167.75917 301
379.29730 59.71954 171.56525 316
415.42038 73.64539 164.75835 312
424.56680 77.17409 166.05605 428
433.23157 80.48671 167.77933 301
378.92789 60.67093 171.57730 316
414.93604 74.80213 164.77634 312
422.89224 77.94971 166.32785 429
432.69916 81.82541 167.76221 301
378.54041 61.61063 171.56879 316
414.42953 75.98509 164.78799 312
421.30188 78.73417 166.63400 430
378.13220 62.57386 171.57127 316
413.97260 77.16328 164.79277 312
419.74121 79.53260 166.91231 431
377.73972 63.53560 171.54372 316
413.46066 78.32687 164.79880 312
418.15451 80.31525 167.17667 432
377.34390 64.48645 171.56331 316
412.93893 79.47215 164.77611 312
416.62650 81.05756 167.45035 433
376.92514 65.44965 171.53934 316
412.39862 80.63496 164.81053 312
415.04672 81.80388 167.70348 434
376.52637 66.37082 171.53447 316
411.90033 81.79592 164.78758 312
414.14615 82.82035 167.79922 305
376.09839 67.34122 171.54805 316
411.31372 82.94940 164.77963 312
413.69281 83.98530 167.74236 305
398.93597 78.78123 164.70119 317
410.55948 84.02474 164.87361 436
413.16794 85.18365 167.75525 305
398.39453 79.83699 164.66560 317
409.04694 84.74286 165.13759 437
412.63583 86.36565 167.77939 305
397.90939 80.92509 164.71785 317
407.61053 85.42374 165.36810 438
412.10913 87.55370 167.71329 305
397.39948 81.97475 164.68294 317
406.04037 86.06952 165.65771 420
411.61282 88.74509 167.73787 305
396.83279 83.06860 164.67027 317
404.33066 86.67676 165.96397 421
411.04190 89.91451 167.73459 305
396.27567 84.10635 164.67146 317
402.70749 87.23770 166.27168 422
410.52597 91.10078 167.72911 305
395.71619 85.18196 164.69556 317
401.07190 87.79440 166.55984 423
410.00922 92.27940 167.68900 305
395.17114 86.25081 164.67986 317
399.41965 88.35879 166.85291 424
394.60486 87.27262 164.70810 317
397.82214 88.94981 167.14151 425
393.98972 88.32384 164.70161 317
396.24789 89.47807 167.43340 426
393.42166 89.36382 164.72002 317
394.79657 90.08731 167.69698 311
392.83292 90.41747 164.71213 317
394.23834 91.14568 167.72459 311
54240.78906 28891.25977 15549.81543 1000
391.61185 91.06911 164.94432 428
393.65582 92.18022 167.69684 311
390.08990 91.62312 165.19939 429
393.06473 93.25534 167.70276 311
388.62415 92.12866 165.47090 430
392.50800 94.32568 167.69328 309
387.14276 92.65540 165.76112 431
391.89688 95.36023 167.66911 309
385.64529 93.13928 166.02112 432
391.35919 96.44379 167.66167 309
384.19855 93.64865 166.29691 433
390.76474 97.45872 167.65233 309
382.79504 94.14838 166.57454 434
390.15833 98.54923 167.66452 309
381.36160 94.64276 166.78613 435
389.54715 99.56860 167.61748 309
379.94724 95.14846 167.06406 436
388.98691 100.61135 167.64558 309
378.53412 95.63390 167.30669 437
377.16409 96.09839 167.52043 438
376.30005 96.89571 167.60231 315
375.71381 97.82310 167.59485 315
375.08173 98.77879 167.61739 315
374.43320 99.73799 167.61977 315
373.83380 100.65346 167.60271 315
373.18951 101.61719 167.62616 315
372.56161 102.54214 167.59935 315
371.90228 103.48231 167.61443 315
371.27258 104.37251 167.60518 315
370.60919 105.30297 167.59357 315
369.94632 106.25967 167.57225 313
369.30505 107.17184 167.55255 313
368.62421 108.05850 167.56564 313
1243.90686 914.56476 81.37400 412
1246.89490 917.26880 103.69997 411
1250.21021 920.22968 126.01386 412
1235.12646 918.04193 81.48346 492
1237.58337 920.43610 104.10992 492
1239.76038 922.52020 126.46922 489
1242.12000 924.36755 148.65376 496
1229.98169 924.70758 81.75626 480
1232.60962 927.16760 103.72162 480
1236.04443 930.27832 126.10035 437
1240.95020 935.19537 148.48157 307
1228.56567 935.13281 80.93527 379
2531.39478 2580.30249 216.28717 1000
416.57553 904.13336 78.41271 453
410.48471 902.52448 78.84293 471
404.47794 901.41205 79.13263 472
405.58444 906.57666 93.95588 335
398.56381 900.57056 79.49322 473
398.51288 900.49774 94.91652 465
392.69568 899.54437 80.02702 466
392.64691 898.81714 95.19086 467
386.74506 898.46082 80.15234 366
386.74490 897.87903 95.60201 468
386.29834 896.07788 110.86125 433
381.61035 900.54547 80.12552 451
380.77020 897.06885 95.79969 468
380.23514 893.27808 111.44550 468
375.69312 899.90515 80.34898 462
375.05154 896.06439 96.08112 469
374.24078 891.76862 111.69517 470
369.79245 898.78381 80.55894 462
369.15997 894.96387 96.49398 469
368.43973 890.86243 112.04675 471
368.62570 890.86005 126.97179 429
364.18219 898.03821 80.94307 463
363.56174 894.15833 96.70004 470
362.89465 890.08466 112.22312 471
362.49539 888.69196 127.22741 478
358.34854 897.05084 81.24599 463
357.17801 890.09222 97.34581 407
357.17041 888.91931 112.37296 472
356.78833 887.41101 127.47161 488
353.27701 900.94733 65.53587 464
352.62067 896.03558 81.48885 464
351.28989 887.77466 97.81523 472
351.51736 888.07458 112.49973 472
351.27350 886.78748 127.64227 488
351.79413 890.06824 142.28989 444
347.71570 900.11523 65.61880 465
347.05200 895.13239 81.86085 464
345.74771 887.55780 97.93335 468
345.81979 887.22400 112.84649 473
345.65143 885.81702 127.77741 489
345.96112 887.95782 142.41792 451
342.02307 899.03143 65.96526 465
341.23721 894.30029 82.02168 465
340.38345 889.09015 97.74503 456
340.12274 886.34357 112.98186 473
340.06686 885.00195 127.98962 489
340.28339 887.13989 142.49805 457
336.13098 897.99194 66.28487 466
335.69125 893.20844 82.18742 465
334.85532 888.12964 97.95309 467
334.57358 885.25183 113.28575 473
334.42050 884.02563 128.13191 489
334.72964 886.29114 142.65913 458
330.60889 897.13702 66.60163 466
329.99881 892.19708 82.41591 466
329.25644 887.35968 98.30395 467
328.91959 884.47205 113.39069 474
328.79700 883.24402 128.28670 490
329.17627 885.70551 142.74568 458
324.85455 896.21851 66.84782 466
324.26511 891.42352 82.85231 466
323.73309 886.46552 98.51773 468
323.37421 883.39258 113.58838 474
323.25565 882.53680 128.50040 490
323.55841 884.78992 143.00734 458
331.02914 945.40509 153.55608 260
319.30621 895.20184 67.18529 467
318.60928 890.30109 83.05512 466
318.23709 885.40094 98.61415 468
317.24942 878.41785 114.34991 479
317.65750 881.55768 128.56938 491
317.98203 884.01019 143.07008 459
324.80716 943.15936 153.69229 270
313.50421 894.19318 67.43604 467
313.14749 889.48682 83.36137 467
312.59448 884.41211 98.84844 469
311.60562 877.09821 114.48161 413
312.17212 880.82196 128.77164 491
312.44080 883.51617 143.27672 459
314.32407 900.99231 156.51215 469
308.10349 893.36530 67.63226 468
307.59207 888.62347 83.60058 468
307.00800 883.67725 98.93820 469
306.30588 876.83301 114.50581 319
306.63425 879.98669 128.83846 491
307.00797 882.78394 143.15094 459
308.88101 901.31128 156.56703 429
302.35944 892.30817 67.87725 468
302.00482 887.52527 83.59689 468
301.46231 882.66156 99.26725 470
300.91510 875.61096 114.82100 490
301.11984 879.03058 128.99213 492
301.44186 882.02136 143.43977 459
304.61285 915.29816 155.72775 298
296.78329 891.29730 68.27533 469
296.45999 886.61737 84.02377 468
296.11682 881.84497 99.32147 470
295.30176 874.71857 115.02638 491
295.59900 878.29108 129.27126 492
295.94974 881.08624 143.36613 460
300.93088 935.63928 154.47020 310
291.41174 890.56763 68.43278 469
291.00073 885.67932 84.05989 469
290.59125 880.91559 99.54222 469
289.97336 873.87329 115.18536 491
290.29968 877.47552 129.36707 492
290.48883 880.46967 143.68405 460
296.89142 956.12982 153.06642 493
285.73230 889.67358 68.56166 469
285.42114 884.82709 84.24011 469
285.02063 879.88550 99.86597 469
284.46820 872.86005 115.24743 395
284.73947 876.56787 129.34297 493
284.97580 879.68414 143.59436 460
292.31281 970.86279 152.08578 303
280.34457 888.68329 68.92109 469
279.92230 883.93188 84.56367 468
279.67737 878.99243 99.91071 470
279.09055 871.84790 115.42743 395
279.36508 875.85809 129.53505 493
279.58691 878.96820 143.90996 461
292.18866 1051.19873 147.05167 493
274.90485 887.87976 69.12486 469
274.57062 882.92419 84.74238 468
274.26157 878.10645 100.19525 470
273.64407 870.75903 115.55822 395
273.88440 874.94659 129.63837 494
274.11346 878.29065 143.98543 461
285.56464 1050.29724 146.88045 496
269.22604 887.23212 69.29561 470
268.93344 882.10297 84.82684 469
268.69193 877.19843 100.27426 470
268.44623 869.83521 115.74479 492
268.60666 874.21832 129.81732 494
268.91586 877.63062 143.96231 461
279.12976 1049.95349 146.93576 497
263.80252 886.30029 69.35601 471
263.53290 881.02808 85.05474 469
263.30170 876.31537 100.50465 471
263.04556 868.91174 115.90650 493
263.18112 873.43549 129.95770 494
263.38669 876.68762 144.03159 461
273.64725 1063.13135 146.21996 359
258.43539 885.60608 69.54509 471
258.18320 880.25281 85.28808 469
258.00510 875.19153 100.75374 471
257.54184 868.19031 116.15117 493
257.84265 872.56433 129.97624 494
258.01144 876.17694 144.21169 462
269.17178 1107.94226 143.35706 466
253.04723 884.82111 69.70036 471
252.87923 879.16559 85.59419 470
252.56387 874.47327 100.92661 471
252.34450 867.44012 116.09667 493
252.51973 871.81561 130.23833 495
252.73860 875.35461 144.26796 462
252.94029 881.73322 158.29448 455
247.59119 884.15997 70.04621 471
247.37100 878.38684 85.62875 470
247.30034 873.49365 100.91179 472
246.99269 866.62177 116.31392 494
247.26793 870.94537 130.18623 495
247.29327 874.74487 144.35828 462
247.56540 880.51398 158.38203 460
242.22141 883.46088 70.12087 472
242.02341 877.47699 85.78911 470
241.89012 872.51788 101.12531 472
241.71158 865.81256 116.39715 494
241.73012 870.02081 130.31593 495
241.92151 874.01349 144.42682 386
242.24513 879.66064 158.30540 493
236.90836 882.68427 70.34207 472
236.76660 876.51416 85.91517 470
236.65504 871.63287 101.32690 472
236.47476 864.87250 116.49355 494
236.61850 869.16486 130.50980 496
236.61713 873.40546 144.39873 386
236.72746 878.93695 158.56522 462
231.50374 882.05640 70.39747 472
231.32437 875.44647 86.06654 471
231.27417 870.71545 101.46431 473
231.25984 864.02930 116.62993 495
231.13286 868.31757 130.49615 496
231.20016 872.80804 144.47139 387
231.40419 878.23035 158.48030 462
226.20586 881.23560 70.40290 472
225.92116 874.70685 86.25826 471
225.85695 869.73962 101.62829 473
225.87639 863.38757 116.74479 495
225.85092 867.53723 130.65771 496
225.90044 872.07123 144.54608 387
226.03070 877.44330 158.53099 462
220.73997 880.53345 70.58638 472
220.74840 873.78815 86.45257 450
220.63322 868.79413 101.74087 473
220.71777 862.41077 116.81783 495
220.77065 866.89984 130.78210 496
220.66982 871.41083 144.59041 387
220.74106 876.68506 158.66876 462
215.34744 880.03326 70.82932 473
215.33119 873.11389 86.62055 450
215.43542 867.95435 101.88125 473
215.46338 861.77899 117.03179 495
215.50089 866.00879 130.74596 497
215.34514 870.89587 144.76010 387
215.38499 875.96429 158.60652 463
210.05779 879.08185 70.95752 473
210.16484 872.26337 86.71523 450
210.15874 867.08795 101.94880 473
210.22873 860.83838 117.17065 495
210.18019 865.22461 130.94533 497
210.02271 870.20544 144.84059 387
210.03815 875.09692 158.83141 463
204.56154 878.57355 71.04069 473
204.68257 871.49420 86.84245 450
204.92793 866.31763 102.11657 474
205.01801 860.16089 117.05294 496
204.84657 864.29736 130.96210 497
204.94659 869.59698 144.70665 387
204.88805 874.31573 158.87668 463
199.28775 877.65234 71.14143 473
199.42931 871.01044 86.78773 450
199.57219 865.29541 102.11398 474
199.81873 859.17407 117.14422 496
199.65549 863.59747 131.06540 497
199.59798 869.00836 144.84583 387
199.42047 873.58209 158.78065 399
193.95792 877.06366 71.23215 473
194.25443 870.13037 86.96783 450
194.29202 864.41852 102.26707 474
194.58813 858.48242 117.35643 496
194.41736 862.83392 131.04948 497
194.41864 868.29254 144.95741 387
194.20482 873.11029 158.93768 399
188.81351 876.30341 71.32803 473
188.82814 869.51764 86.96955 450
189.11346 863.47546 102.43506 474
189.45367 857.57721 117.31080 496
189.10364 862.02673 131.08943 498
188.99333 867.81390 144.96373 388
188.79280 872.45349 159.04752 399
183.30199 875.73566 71.51997 474
183.78915 868.74567 87.13158 451
183.83626 862.60010 102.43058 474
184.16582 856.95532 117.44452 496
183.98509 861.22772 131.31984 498
183.83344 867.02966 144.98264 388
183.71198 871.73541 159.05496 399
178.22986 874.98749 71.54742 474
178.40991 868.17999 87.26241 451
178.57669 861.89819 102.58008 475
179.04132 856.01538 117.51411 497
179.26276 851.13458 132.89041 498
178.60078 866.53644 145.02113 388
178.33745 871.40216 158.87851 313
172.82100 874.42462 71.62836 474
173.23871 867.58337 87.17007 451
173.59886 861.03448 102.67868 475
173.72978 855.28192 117.71921 437
173.63045 859.71838 131.42375 498
173.22723 865.75140 145.11613 388
161.06201 1109.40271 143.34207 498
167.43889 873.72986 71.74049 474
167.94353 866.83624 87.42014 451
168.33287 860.08069 102.80257 475
168.70845 854.58136 117.72461 437
168.29950 858.89142 131.38609 498
168.12256 865.04205 145.20573 388
154.25537 1108.39783 143.34145 498
162.21916 872.91559 71.60431 474
162.66234 865.98077 87.44126 451
163.01283 859.25238 102.73112 475
163.32889 853.86096 117.78731 438
163.10493 858.03510 131.44960 498
162.69841 864.49091 145.14973 388
147.56242 1107.59729 143.38301 498
157.03259 872.30267 71.84676 474
157.33971 865.50269 87.47106 451
157.87625 858.35431 102.85453 475
158.36174 853.33087 117.76617 438
157.90974 857.13751 131.59108 499
157.63298 863.86047 145.08150 388
140.94165 1106.43201 143.40712 498
151.73151 871.49750 71.87149 474
152.12689 864.76257 87.36134 451
152.74448 857.46692 102.86681 475
153.15726 852.48462 117.80056 438
152.71648 856.52771 131.45821 499
152.27785 863.11719 145.11453 388
134.28453 1105.57727 143.29782 498
146.39204 870.98102 71.75579 474
147.03123 863.97461 87.49059 451
147.63547 856.65045 103.04055 476
147.84659 851.74164 117.75135 438
147.58118 855.71564 131.64267 499
147.12726 862.52100 145.23901 302
127.57124 1104.43604 143.58823 498
141.10674 870.30359 71.84199 474
141.75977 863.53998 87.60823 451
142.37366 855.83002 103.09543 476
142.82173 851.14008 117.86360 438
142.50859 854.75452 131.72713 499
141.80676 861.74982 145.15097 498
120.76105 1103.28735 143.36906 499
135.97888 869.51434 71.96716 474
136.44356 862.68317 87.54256 451
137.14763 854.76318 103.21758 476
137.65627 850.36487 117.98576 438
137.45052 853.97241 131.65324 499
136.77904 861.02234 145.33968 498
113.96764 1103.52136 143.55235 264
130.56537 868.90057 71.84222 474
131.17334 862.10693 87.67432 451
132.05127 854.05743 103.03719 476
132.41779 849.70410 117.88081 498
132.22174 853.27026 131.79185 499
131.57416 860.24561 145.24301 498
107.34864 1104.09827 143.43645 264
-3489.42798 37351.23047 2051.62646 1000
125.29816 868.24243 72.05518 474
126.14895 861.37988 87.61045 451
126.86967 853.26678 103.10197 454
127.35432 848.97522 117.99088 498
127.03724 852.41760 131.78600 499
126.32248 859.47601 145.26076 499
100.69492 1101.82092 143.47896 499
120.01838 867.61395 71.99147 474
120.84822 860.81848 87.55801 451
121.65667 852.66510 103.26849 454
122.32449 848.13324 118.02879 498
121.80395 851.69373 131.72505 499
121.16752 858.62463 145.26025 499
93.94827 1100.63037 143.63853 499
114.80742 866.90759 72.01224 474
115.63199 860.04669 87.70277 451
116.41623 852.13403 103.18103 454
117.00964 847.27179 117.89952 498
116.59494 850.99475 131.74960 499
115.51120 859.96216 145.27013 302
87.29102 1099.58813 143.62390 499
109.44662 866.22070 71.91333 441
110.26156 859.48419 87.77486 451
111.29609 851.37793 103.17123 454
111.92773 846.63885 118.02863 498
111.66178 850.13098 131.87602 499
110.29149 859.37750 145.19844 302
104.09571 865.90729 71.95677 441
105.03650 858.79016 87.67132 451
106.25372 850.88818 103.31699 454
106.82481 845.83704 118.14090 498
106.44558 849.31262 131.71991 499
105.19386 859.07166 145.17714 302
98.93144 865.65656 71.81959 441
99.79434 858.26776 87.69725 451
101.14814 850.08545 103.29458 454
101.79037 844.84021 118.08924 498
101.25861 848.50067 131.77214 499
99.87358 858.43378 145.03885 302
93.56232 865.30457 71.88070 441
94.68493 857.57751 87.54908 451
95.82101 849.57568 103.12839 454
96.71125 844.26093 117.97443 498
95.98092 847.75122 131.85770 499
95.63387 850.86035 145.65578 478
60.66931 1096.32092 143.71248 499
88.21617 864.88147 71.69483 441
89.42780 856.88580 87.71738 451
90.61918 848.85266 103.08856 454
91.46149 843.70374 118.15504 282
90.99035 847.02649 131.82225 499
90.85500 848.49976 145.74721 493
53.80466 1095.71985 143.48022 499
82.96091 864.46875 71.62937 440
84.21842 856.15527 87.50735 451
85.55925 848.20325 103.17041 454
86.23872 843.10913 118.07433 282
85.79384 846.14935 131.79372 499
85.60068 847.81116 145.84549 493
47.07226 1094.54358 143.48453 499
77.65388 864.11237 71.66507 440
79.13181 855.55756 87.59852 451
80.44386 847.40961 103.19527 452
81.18821 842.80847 118.08698 282
80.60777 845.21802 131.88390 499
80.32573 846.90167 145.83078 493
53.33848 1014.60541 148.73001 256
72.18610 863.83856 71.53998 441
73.77261 854.87067 87.56264 450
75.09723 846.59027 103.16203 452
75.77321 842.33148 117.90041 282
75.51094 844.35846 131.73389 499
75.37881 846.19916 145.88513 493
47.69926 1010.32416 149.00356 499
67.07430 863.27795 71.40474 441
68.56357 853.99359 87.65688 450
70.03391 845.58325 103.18320 452
70.71993 841.75024 117.85450 282
70.34086 843.75500 131.91272 499
70.01481 845.39960 145.89539 493
59.13771 908.17285 155.76128 263
61.67896 862.64923 71.57005 441
63.37685 852.97070 87.67638 450
64.93349 844.77740 103.13576 452
65.41140 841.37433 117.94466 279
65.23644 842.83923 131.88757 499
65.02937 844.67078 145.71941 493
53.63132 906.82983 155.81804 262
56.37671 861.81116 71.41788 441
58.24590 852.14459 87.46213 450
59.80071 844.06018 103.24361 452
60.38444 840.89227 117.74142 279
60.18864 842.02502 131.91541 499
59.66963 843.82794 145.70609 493
48.54173 904.67554 155.87025 263
51.03527 861.39758 71.38177 441
53.02962 851.47601 87.62759 450
54.60523 843.19739 103.04817 452
54.99459 840.42975 117.79342 499
55.05236 841.32935 131.76382 499
54.68620 842.99164 145.72202 493
53.91897 846.76117 159.63553 499
5.49405 1096.54248 161.32069 498
45.72206 860.72418 71.23747 440
47.72213 850.76068 87.58241 436
49.44873 842.20349 103.20106 452
50.07080 839.47290 117.68407 499
49.85054 840.48511 131.89787 499
49.44035 842.21655 145.81116 493
48.50641 846.53210 159.65871 499
-1.06443 1095.51782 161.39728 499
40.48512 860.15265 71.25092 440
42.47367 850.23035 87.36812 436
44.18167 841.50629 102.98302 452
44.93094 838.75043 117.66485 499
44.69219 839.73615 131.75790 499
44.26633 841.41827 145.70624 493
43.21542 846.22699 159.60950 499
-7.78061 1094.87207 161.26634 498
35.03942 859.45679 71.22131 440
37.28642 849.59949 87.38283 436
39.02536 840.67877 103.06954 452
39.76208 838.00537 117.65347 499
39.59459 838.81183 131.67255 499
38.96879 840.81488 145.78868 493
37.99277 845.44635 159.69536 499
-14.73409 1093.91028 161.27119 498
29.78557 858.94989 70.96787 440
31.82920 848.96442 87.32228 436
33.93246 839.82208 103.03847 452
34.63283 837.20294 117.64277 499
34.32530 838.09869 131.76712 499
33.97853 839.98737 145.71562 492
32.98939 844.66577 159.48102 499
-21.35683 1092.77173 161.33658 498
24.42823 858.19232 70.99595 440
26.77124 848.24957 87.23203 436
28.80556 838.87952 102.87088 452
29.43807 836.31287 117.56612 499
29.06241 837.34027 131.57184 499
28.80504 839.17725 145.79486 492
27.66098 843.98431 159.49165 499
-28.28063 1091.64136 161.13144 498
18.95241 857.58582 70.72552 440
21.32388 847.63525 87.23148 435
23.69878 838.15320 102.83467 452
24.29120 835.60352 117.47812 498
24.02382 836.37225 131.62143 499
23.50056 838.35797 145.69838 492
22.39030 843.16278 159.58394 499
-34.99191 1090.45068 161.07600 498
13.70499 857.07446 70.72232 440
16.18156 847.16241 86.92368 435
18.43882 837.23773 102.80682 452
18.93647 834.67804 117.49111 498
18.80493 835.65594 131.59885 499
18.35030 837.61627 145.70721 492
17.11189 842.35535 159.36472 498
-41.71396 1089.35303 161.16292 498
8.16944 856.69470 70.55974 420
10.64644 846.50592 86.92092 435
13.13625 836.40582 102.86610 452
13.90433 834.00299 117.52735 498
13.72256 834.80481 131.54672 498
13.23107 836.83411 145.54247 492
11.94076 841.76587 159.45749 498
11.92376 841.61768 173.71347 498
2.85028 856.34808 70.28395 420
5.44994 846.00140 86.81972 435
8.07105 835.78442 102.64205 438
8.76642 833.16101 117.27907 498
8.46912 834.08240 131.46317 498
7.98995 835.95593 145.49770 492
6.69610 840.85303 159.51067 498
6.66152 841.37726 173.61026 498
-54.92540 1085.78662 179.58362 498
-2.68799 856.12140 70.12624 420
0.07091 845.50806 86.80749 435
2.70254 835.33173 102.73434 438
3.58726 832.28009 117.28754 498
3.22227 833.23639 131.58282 498
2.89791 835.14954 145.57568 492
1.56657 840.23010 159.50478 498
1.16602 840.99823 173.48805 498
-61.64331 1084.58936 179.57292 499
-8.12186 855.97406 69.98141 419
-5.18980 844.89154 86.47847 435
-2.62171 834.72449 102.45945 437
-1.80388 831.65875 117.35882 498
-1.98386 832.45074 131.52565 498
-2.42956 834.40308 145.60359 492
-3.90956 839.57825 159.25311 498
-4.01435 840.29645 173.65053 498
-68.40878 1083.43933 179.50488 498
-13.66476 855.63959 69.87756 421
-10.63793 844.40369 86.50649 434
-7.86630 834.04376 102.52071 437
-6.90532 830.71295 117.12824 496
-7.25338 831.77667 131.26959 496
-7.63050 833.72681 145.31480 490
-9.07691 838.71002 159.29788 498
-9.27689 839.51343 173.54291 498
-74.72747 1081.04932 179.49356 498
-19.04943 855.35291 69.67858 420
-15.90067 843.84167 86.34079 434
-13.13401 833.61475 102.41854 437
-12.22119 830.19745 117.10747 496
-12.51303 831.03522 131.34085 496
-13.02221 833.08582 145.34102 489
-14.33586 837.90179 159.27930 497
-14.43467 838.71869 173.45839 497
-81.26534 1078.94702 179.43817 499
-24.82334 855.01099 69.58246 414
-21.32355 843.34070 86.05920 434
-18.48560 833.16687 102.09663 437
-17.58551 829.58954 117.13026 496
-17.77874 830.61243 131.09660 496
-18.22398 832.46503 145.35805 489
-19.62539 837.22614 159.12814 497
-19.82647 838.09454 173.48572 497
-87.56081 1076.96826 179.57623 499
-30.27463 854.96552 69.13216 415
-26.64777 842.76526 85.92137 433
-23.75681 832.64532 102.06519 435
-22.65032 828.77759 116.90533 277
-23.07640 829.95428 131.17047 495
-23.53576 831.91339 145.16508 489
-24.87407 836.21362 159.11931 495
-25.12274 837.07648 173.44302 494
-93.72897 1072.92810 179.67761 430
-35.97028 854.63416 69.01807 415
-32.27467 842.70081 85.82024 432
-29.15864 832.39423 101.81598 436
-27.77465 827.90405 116.97264 277
-28.48033 829.55396 130.90968 490
-28.97834 831.84985 145.00049 483
-30.42925 836.35712 158.98779 489
-30.70588 837.42651 173.43230 488
-98.61114 1065.43726 179.86537 431
-41.38712 854.40228 68.70686 408
-37.91117 842.37512 85.57256 432
-34.65180 832.21429 101.80984 436
-33.13233 826.66473 116.87803 277
-33.80210 829.57544 130.80101 489
-34.58018 831.78790 144.91313 482
-36.03461 836.42316 158.90276 488
-36.25304 837.41394 173.17546 488
-103.46660 1057.94116 180.08064 432
-47.31641 854.63538 68.53481 408
-43.41736 842.05688 85.35480 433
-40.25757 832.10535 101.50340 435
-38.29280 825.72571 116.88647 489
-39.37697 829.72498 130.57706 488
-40.01636 831.86908 144.79643 482
-41.64721 836.68378 158.74591 485
-41.75203 837.45276 173.23215 487
-106.18664 1044.67761 180.46310 280
-52.99077 855.11633 68.13443 405
-48.89358 842.03497 85.23760 429
-45.60757 831.90411 101.36987 435
-43.83276 825.58344 116.64367 488
-45.07731 829.56299 130.59514 488
-45.64525 831.85376 144.72136 481
-47.33656 836.87781 158.76003 485
-47.46689 837.46149 173.07048 485
-98.50919 998.50244 181.86012 281
-59.03942 855.65125 67.65939 406
-54.69526 842.60046 84.78195 423
-51.37892 832.08118 101.11724 431
-49.23738 825.68817 116.42776 484
-50.56381 829.91632 130.39603 483
-51.26357 831.98822 144.48735 476
-53.04384 836.95978 158.56651 484
-53.13902 837.82910 173.08008 484
-91.99305 957.40277 183.33694 272
-64.85733 856.25488 67.22870 405
-60.52094 843.01361 84.62089 423
-57.12214 832.38501 100.72489 431
-54.96177 825.89240 116.22528 484
-56.20879 829.96936 130.19958 483
-57.12307 832.46118 144.41957 475
-58.62031 837.34949 158.40141 484
-58.76087 837.49963 172.96640 485
-70.95521 857.01068 66.82374 402
-66.37464 843.66595 84.27273 422
-62.76373 832.86267 100.60688 425
-60.43940 825.91437 116.00124 428
-61.93868 830.41589 130.01746 481
-62.88057 832.68988 144.27458 475
-64.35261 837.07922 158.30641 484
-66.34825 843.41290 172.53131 379
-77.10499 858.01349 66.32617 402
-72.39618 844.31232 83.76019 416
-68.76870 833.29224 100.31270 424
-66.08704 825.81042 115.84570 427
-67.73993 830.80664 129.65454 480
-68.62448 833.15533 144.02954 474
-71.59689 841.83521 157.90759 379
-74.32349 849.61005 172.09540 378
-78.36059 845.01880 83.26828 415
-74.47295 833.59631 100.02995 424
-71.72559 825.93097 115.59061 425
-73.53739 831.19196 129.43178 477
-74.59552 833.89972 143.72957 456
-79.20797 847.27740 157.43715 392
-81.69320 854.37146 171.77704 385
-84.58310 846.04407 82.85309 415
-80.41233 834.44879 99.56847 418
-77.46953 826.04425 115.28386 424
-79.51110 831.59558 129.18863 474
-80.50510 834.32794 143.51909 455
-86.77927 852.40619 156.93105 390
-90.67347 846.91010 82.53648 414
-86.36420 835.14020 99.32154 418
-83.23674 826.24225 115.12598 422
-85.55666 832.43286 129.05348 472
-86.41823 835.08136 143.29192 449
-96.97749 847.97162 82.04076 404
-92.43179 835.95435 98.82764 417
-88.95950 826.74884 114.75746 474
-91.49359 833.20508 128.76959 471
-92.48391 835.99048 143.18633 466
-103.27824 849.17596 81.57160 403
-98.62593 836.95306 98.51990 413
-95.07749 827.30609 114.53558 471
-97.46230 833.79956 128.41444 470
-98.55561 836.82806 142.92754 468
-109.76201 850.62146 80.98913 403
-104.93817 837.91016 98.00916 412
-100.97762 827.95392 114.08195 470
-103.59650 834.64679 128.28259 467
-104.96304 837.82361 142.60596 438
-116.40685 851.85181 80.41905 402
-111.21296 839.17169 97.63208 411
-107.08292 828.45721 113.82887 469
-109.83727 835.44812 127.93502 466
-111.23759 838.99854 142.42023 437
-122.82401 853.17554 79.82664 401
-117.72282 840.20612 97.10841 408
-113.24246 829.34894 113.43674 469
-116.14808 836.54272 127.57306 465
-117.35482 839.92004 142.08481 437
-129.63786 854.78711 79.34188 391
-124.12714 841.34729 96.57082 407
-119.28141 830.03564 113.11311 468
-122.34279 837.37201 127.11032 464
-123.78827 840.86182 141.78535 436
-136.26311 856.67694 78.66656 390
-130.76440 842.85107 96.05643 403
-125.59568 830.71570 112.84910 459
-128.93127 838.37042 126.82276 460
-130.22752 842.03589 141.64156 434
-143.12576 858.38904 77.93909 390
-137.34200 844.45264 95.70893 403
-132.03226 831.97430 112.33568 459
-135.39934 839.58899 126.54340 459
-136.66078 843.13531 141.21115 427
-150.26021 860.21039 77.35519 389
-144.13734 845.86688 95.04338 402
-138.61729 832.97772 112.10519 458
-141.72490 840.68671 126.10887 458
-143.42761 844.18756 140.98993 426
-157.04419 861.88306 76.86540 391
-150.97336 847.51959 94.47829 401
-144.93057 834.15747 111.59283 457
-148.31866 841.85919 125.95007 455
-149.99083 845.74585 140.67519 419
-164.40144 863.83972 75.98430 386
-157.65855 849.17078 93.94378 397
-151.76326 835.58514 111.22266 371
-155.14760 843.24463 125.48278 449
-156.96049 847.19269 140.40501 411
-171.74223 866.19861 75.22903 385
-164.99840 851.30139 93.22236 396
-158.66539 837.62634 110.55733 450
-161.79300 844.70300 125.07437 448
-163.57076 848.59137 140.06497 410
-178.90561 868.22638 74.54008 387
-171.94548 853.15649 92.73893 395
-165.45535 839.06433 110.10512 449
-168.83853 846.03491 124.65256 447
-170.61264 849.85291 139.63924 410
-186.42189 870.43500 73.82977 378
-179.38010 855.09503 92.07603 395
-172.50928 840.98132 109.60434 352
-175.61478 847.32037 124.34624 436
-177.86971 852.13062 139.24207 426
-194.45151 873.54950 73.04230 381
-186.79150 857.43707 91.48799 387
-179.84152 843.12720 109.01589 359
-183.03177 849.50671 123.75446 431
-185.22852 854.33844 138.84908 425
-202.15158 876.17328 72.10948 380
-194.62901 860.34204 90.55956 386
-187.66653 845.81323 108.28579 345
-190.17725 851.54541 123.26763 430
-192.78136 856.83716 138.48441 423
-210.22742 879.04871 71.15491 379
-202.45207 863.12299 89.95187 385
-195.37334 848.89716 107.66981 387
-197.74719 853.49493 122.67374 430
-200.45747 859.25153 137.99551 415
-218.61728 882.50964 70.19621 375
-210.46898 866.21277 89.00214 375
-203.12788 851.56268 106.90565 387
-205.31673 855.92126 122.18752 422
-208.22026 862.08301 137.52286 414
-226.91777 885.86407 69.25021 374
-330.18008 654.96423 -96.60708 375
-211.06479 854.50043 106.24383 382
-213.04869 858.31989 121.53812 421
-216.12697 864.72156 136.83630 413
-227.21866 872.97015 87.13974 374
-219.44620 857.69672 105.56556 381
-221.03813 860.97882 121.20873 420
-224.23019 867.53174 136.48064 412
-7004.48340 13902.37500 -3437.66675 1000
-235.85643 876.67896 86.39340 373
-227.65047 861.00323 104.65366 380
-228.74794 863.49396 120.37511 419
-232.53741 870.41656 136.04265 411
-244.46474 880.14520 85.18002 372
-236.03912 864.45557 104.02991 379
-236.63995 865.70251 119.98004 418
-240.74571 873.28986 135.34940 416
-253.18269 883.65643 84.27857 384
-244.47719 867.58685 103.21436 378
-244.69672 868.12366 119.49994 417
-249.21414 876.34076 134.97656 403
-261.68021 886.60437 83.56517 383
-253.12839 871.09332 102.40112 377
-252.97523 870.59772 118.90736 416
-257.91141 879.74835 134.15012 401
-270.60107 889.83435 82.50510 382
-261.96063 874.62830 101.48240 376
-261.05350 873.02802 118.14060 415
-266.61746 882.94232 133.67862 400
-13535.64453 24961.06445 1615.39307 1000
-279.27573 893.03003 81.57537 382
-270.90570 878.23010 100.58221 375
-269.56705 875.76929 117.52038 405
-275.56705 886.09991 133.11687 381
-280.20227 881.69580 99.71841 374
-278.28970 878.46515 116.96345 406
-285.08771 890.30585 132.57013 380
-289.46063 885.77612 98.74413 372
-286.87811 881.23053 116.08585 405
-294.41354 894.40851 131.73763 381
-298.96786 889.70868 97.96043 374
-296.02356 884.72681 115.55727 393
-303.78351 897.99182 131.01985 380
-308.67520 893.55255 96.81693 377
-305.34872 887.85388 114.59593 392
-314.08270 902.46820 130.41620 366
-318.52145 897.64832 96.03814 376
-314.73108 891.50165 114.05374 382
-323.75009 906.31232 129.80873 365
-328.57538 901.69281 94.96593 375
-324.56992 895.18604 113.05309 383
-333.59015 910.32758 128.90800 364
-332.11761 895.55896 112.63787 390
127.59479 148.31760 169.40065 485
-352.48160 903.72339 110.84636 388
124.73314 148.93222 168.85243 489
123.28938 149.23698 168.54547 278
120.70091 149.25308 168.17197 489
118.30296 150.92859 167.40302 316
117.40642 150.31046 167.41147 316
116.56129 149.62906 167.41556 316
115.71912 149.00075 167.41766 316
114.86591 148.35745 167.44165 316
111.72379 150.82777 166.39604 314
110.84203 150.15898 166.38792 314
109.96142 149.49292 166.38614 314
109.10471 148.81711 166.39914 314
108.22269 148.09308 166.40668 314
107.34784 147.42430 166.41556 314
106.50320 146.71335 166.39403 314
105.33327 146.42772 166.23331 423
103.74593 146.57265 165.94820 422
96.63147 155.50970 166.39958 310
102.22008 146.75587 165.63475 421
95.73405 154.75500 166.37004 310
-1658.68347 2316.80811 119.21716 318
-1657.69250 2316.79077 167.36890 389
-1658.03552 2316.05298 216.91315 446
-1658.13684 2316.43896 264.98199 446
100.64221 146.89153 165.34708 420
94.82092 153.94809 166.37505 310
99.02622 147.05821 165.03413 419
93.92635 153.20808 166.34833 309
-24720.66992 29985.51953 -3624.40137 1000
97.40096 147.23830 164.70496 418
92.98161 152.41560 166.36256 309
95.76972 147.34604 164.39502 427
92.08443 151.65176 166.37431 309
94.20437 147.39349 164.08540 426
91.22959 150.86179 166.36044 309
92.63998 147.47011 163.81395 425
90.32293 150.05670 166.33875 309
91.01486 147.52609 163.46440 424
89.45521 149.25504 166.34892 309
89.91776 146.94904 163.37750 307
88.56996 148.45750 166.36224 309
89.17760 146.07269 163.40863 307
87.71851 147.66069 166.32997 309
88.39371 145.15855 163.49187 307
86.05462 147.74091 166.05911 422
87.63353 144.27083 163.49722 307
84.30953 147.78891 165.71469 421
75.65604 157.08464 166.30283 305
86.84706 143.32085 163.51112 307
82.61914 147.82661 165.42906 420
74.76413 156.24030 166.25595 305
86.13914 142.40115 163.56122 307
80.89828 147.89705 165.09105 418
73.80624 155.30267 166.26451 305
85.39356 141.50224 163.56786 307
79.13516 147.96936 164.80617 417
72.90328 154.39157 166.30411 305
105.19408 119.47887 171.52080 316
77.33815 148.03734 164.43066 416
72.03426 153.52219 166.25232 305
104.55467 118.75922 171.53871 316
75.48605 148.14081 164.12059 415
71.12227 152.61092 166.26398 305
103.87754 118.00913 171.53578 316
73.67670 148.17863 163.77342 414
70.21860 151.63895 166.26688 305
103.18839 117.29365 171.54578 316
71.83065 148.23706 163.41992 413
69.32683 150.75589 166.27356 305
102.53293 116.54353 171.53430 316
70.69630 147.58086 163.29524 303
68.41036 149.78366 166.24057 305
101.90446 115.76549 171.53813 316
69.91997 146.53323 163.35783 304
67.53376 148.84973 166.25720 305
101.26923 115.01409 171.54787 316
69.17921 145.54373 163.39888 304
66.07950 148.46991 166.08202 410
100.61530 114.25153 171.54414 316
68.46445 144.46936 163.45953 304
64.13996 148.57231 165.69936 409
99.98332 113.51295 171.55478 316
67.71054 143.45010 163.45894 304
62.12340 148.65884 165.36209 408
52.07968 157.95839 166.13260 301
99.32946 112.75168 171.55711 316
90.91871 120.43302 171.63840 312
60.10518 148.69774 165.01120 407
51.16005 156.90930 166.16304 301
98.68873 111.94607 171.55794 316
90.25571 119.61399 171.61362 312
58.06642 148.78276 164.60902 406
50.24115 155.85092 166.13988 301
98.07468 111.17080 171.56853 316
89.55369 118.79534 171.66238 312
55.97096 148.89961 164.21686 405
49.34101 154.80634 166.13403 301
97.47532 110.43009 171.59306 316
88.91747 117.94532 171.64841 312
53.84753 148.98233 163.86082 404
48.44154 153.74510 166.13240 301
96.82802 109.61256 171.58095 316
88.26534 117.14919 171.66611 312
51.65388 149.06262 163.44138 402
47.56966 152.63802 166.17372 301
96.25880 108.82035 171.56946 316
87.61251 116.26865 171.67419 312
50.09583 148.60204 163.21915 300
46.66355 151.59940 166.15422 301
95.64601 108.04942 171.61703 316
86.93414 115.41417 171.66391 312
49.39460 147.38777 163.26328 300
45.74960 150.50166 166.15735 301
95.01324 107.25098 171.61938 316
86.32224 114.57288 171.68121 312
48.68325 146.23912 163.28381 300
44.89767 149.40659 166.12370 301
94.41711 106.46638 171.62341 316
85.66370 113.73921 171.68657 312
75.68587 122.00900 171.74370 308
42.74821 149.42012 165.76605 398
93.85826 105.66527 171.59767 316
85.03227 112.84785 171.67615 312
75.03167 121.08179 171.74944 308
40.41994 149.49722 165.41585 397
93.25124 104.82121 171.60739 316
84.40068 112.03133 171.67964 312
74.37553 120.15960 171.78873 308
38.01973 149.57410 164.95247 396
92.67641 104.03955 171.59920 316
83.78265 111.16563 171.68533 312
73.66006 119.21365 171.77699 308
35.62624 149.66972 164.51842 395
25.37241 157.90356 166.00252 297
92.11678 103.21335 171.61996 316
83.17390 110.29185 171.71922 312
73.02350 118.29642 171.80254 308
33.16254 149.72578 164.11580 393
24.42577 156.63559 166.06116 297
91.52677 102.40303 171.61572 316
82.53389 109.38982 171.71921 312
72.37135 117.32486 171.79785 308
30.66239 149.83374 163.63965 392
23.48050 155.46637 166.05324 297
90.94299 101.58874 171.65625 316
81.95304 108.51122 171.69232 312
71.68139 116.40108 171.76753 308
28.16907 149.92761 163.22101 391
22.58729 154.24149 166.05583 297
90.39819 100.76223 171.62837 316
81.35992 107.63730 171.74017 312
71.04175 115.44023 171.82001 308
27.00617 148.97000 163.10829 296
21.74339 153.00589 166.05502 297
89.84864 99.90627 171.66377 316
80.74664 106.76591 171.72842 312
70.44721 114.50054 171.79500 308
58.58582 123.38803 171.90456 304
20.86547 151.72514 166.02638 297
89.31335 99.09097 171.63004 316
80.13585 105.87394 171.73526 312
69.76956 113.54790 171.82483 308
57.89445 122.39712 171.88986 304
19.90648 150.51071 166.05292 295
88.73324 98.24509 171.63846 316
79.56770 104.96031 171.75624 312
69.16332 112.62029 171.78857 308
57.20955 121.32839 171.91068 304
17.60746 150.28703 165.70377 389
88.22182 97.41453 171.67520 316
78.97179 104.06693 171.71970 312
68.53701 111.61456 171.80318 308
56.55211 120.28206 171.91212 304
14.88684 150.41170 165.25912 388
87.69640 96.56216 171.66106 316
78.41841 103.15953 171.72217 312
67.88510 110.68570 171.81641 308
55.85824 119.22964 171.94061 304
12.07315 150.45702 164.78459 387
87.13197 95.70424 171.66832 316
77.87604 102.26685 171.75046 312
67.30991 109.70144 171.82825 308
55.20114 118.19247 171.94551 304
9.26568 150.49725 164.32552 386
86.61272 94.87646 171.69125 316
77.27496 101.35593 171.77409 312
66.71197 108.72546 171.83435 308
54.55454 117.14943 171.94098 304
6.39743 150.60725 163.82764 384
-5.56583 158.91124 165.67883 290
86.09933 94.00785 171.70213 316
76.75322 100.44754 171.76088 312
66.09540 107.73430 171.86993 308
53.90215 116.07794 171.94348 304
3.48293 150.66269 163.34758 383
-6.47772 157.47017 165.67966 290
85.57458 93.15266 171.66507 316
76.17115 99.55602 171.73891 312
65.48838 106.74080 171.82880 308
53.26653 115.02355 171.94211 304
0.46187 150.74895 162.79228 382
-7.41946 156.07578 165.67816 291
85.08195 92.30630 171.70955 316
75.61466 98.61193 171.74269 312
64.91520 105.79128 171.85226 308
52.63135 113.99232 171.92693 304
38.39318 123.50327 172.06219 300
-8.36958 154.66389 165.62862 291
84.59085 91.44101 171.69176 316
75.06123 97.70489 171.76274 312
64.33672 104.81082 171.86597 308
52.00354 112.92496 171.97862 304
37.72323 122.35708 172.07495 300
-9.23243 153.26547 165.60208 291
84.06084 90.57002 171.67735 316
74.57413 96.75676 171.77124 312
63.74338 103.76639 171.86775 308
51.37702 111.82103 171.99016 304
37.03760 121.19987 172.07942 300
-10.16666 151.88582 165.59869 291
83.58654 89.73382 171.71901 316
74.02944 95.86405 171.79774 312
63.19592 102.78238 171.85854 308
50.75600 110.76597 171.96646 304
36.36845 120.03206 172.11240 300
-12.08661 151.01816 165.45209 377
-55390.95703 35676.16406 8919.74512 1000
83.06549 88.83221 171.72421 316
73.49901 94.91337 171.77037 312
62.59637 101.81737 171.89368 308
50.13589 109.66779 171.98866 304
35.70416 118.86517 172.06323 300
-15.33686 151.16298 164.88951 376
82.58864 87.94874 171.69240 316
72.97576 93.95019 171.79834 312
62.02236 100.80893 171.87788 308
49.51107 108.59563 171.97839 304
35.04839 117.67789 172.09814 300
-18.74119 151.19112 164.32123 375
82.11415 87.10796 171.72479 316
72.46404 93.03229 171.79741 312
61.49582 99.76492 171.86079 308
48.91361 107.52340 171.99548 304
34.35215 116.50607 172.10904 300
-22.19172 151.25937 163.81883 373
81.64813 86.20843 171.70338 316
71.95758 92.10272 171.80824 312
60.97602 98.77845 171.87411 308
48.34617 106.43397 171.99757 304
33.75582 115.30357 172.10052 300
-25.70463 151.37033 163.23978 372
81.18397 85.30134 171.71581 316
71.48074 91.13950 171.81174 312
60.40163 97.76719 171.90460 308
47.73724 105.34084 171.97639 304
33.07135 114.14267 172.09099 300
15.90178 124.40804 172.26578 296
-42.49091 159.36845 165.16457 286
80.73295 84.45925 171.71625 316
70.95965 90.18033 171.78906 312
59.90419 96.73244 171.92342 308
47.19625 104.24168 171.98679 304
32.49471 112.95358 172.10336 300
15.20418 123.10690 172.23784 296
-43.37780 157.72957 165.15892 286
80.26801 83.54563 171.72079 316
70.48096 89.26575 171.82286 312
59.35754 95.71239 171.92252 308
46.62633 103.12365 172.01149 304
31.84364 111.73135 172.15787 300
14.52991 121.79067 172.26082 296
-44.27997 156.08308 165.12723 286
79.83247 82.62937 171.75368 316
70.00478 88.29534 171.81882 312
58.83006 94.68924 171.92976 308
46.04930 102.06520 172.01711 304
31.24809 110.57255 172.12930 300
13.89412 120.48023 172.25763 296
-45.19526 154.41429 165.10913 286
79.36626 81.75904 171.72972 316
69.50274 87.33942 171.83136 312
58.32325 93.65147 171.90947 308
45.45679 100.94669 172.03371 304
30.65408 109.35795 172.11897 300
13.21176 119.19543 172.30255 296
-46.06823 152.74356 165.18051 286
78.90127 80.85774 171.72676 316
69.03651 86.35674 171.79871 312
57.78465 92.61183 171.93137 308
44.91879 99.84129 171.99548 304
30.00742 108.12608 172.16190 300
12.54008 117.88641 172.26414 296
-48.45090 151.87492 164.87210 374
78.46795 79.92769 171.72346 316
68.57146 85.43208 171.81995 312
57.28662 91.59474 171.90845 308
44.39896 98.72327 172.02684 304
36.91096 102.81523 173.83203 319
18.31937 113.07381 173.61583 270
-52.20762 151.80865 164.27788 373
78.06990 79.06199 171.75706 316
68.12031 84.41882 171.81427 312
56.82731 90.55994 171.91634 308
45.51016 96.69711 172.44890 321
39.62810 99.86662 174.56195 320
29.82298 105.19379 176.16093 271
11.15355 115.28726 176.40871 271
77.64946 78.13615 171.75266 316
67.62849 83.45533 171.83588 312
56.33033 89.50855 171.95232 308
47.89897 94.01744 173.13243 322
42.19542 97.07623 175.26512 321
36.28313 100.24149 177.59895 319
22.76437 107.46352 178.65088 273
77.19898 77.24515 171.77861 316
67.19233 82.51382 171.85561 312
55.81816 88.48341 171.94307 308
50.18681 91.45142 173.84489 323
44.68483 94.34470 175.99260 322
38.90979 97.38419 178.27106 320
29.03839 102.61605 179.94948 292
7.86697 113.73254 180.09779 288
76.81747 76.32983 171.77165 316
66.75761 81.52817 171.83235 312
57.60823 86.25809 172.51216 327
52.45634 88.93642 174.49800 325
47.07449 91.71104 176.64920 324
41.53055 94.60040 178.89861 322
28.42293 101.39538 179.95752 292
7.26543 112.33663 180.10625 288
76.38313 75.39494 171.78539 316
66.32341 80.52126 171.86638 312
59.67027 83.95298 173.22276 328
54.66508 86.49997 175.17480 326
49.42381 89.17017 177.27365 325
44.00098 91.90767 179.50281 323
27.89524 100.15819 179.98096 292
6.63023 111.03927 180.16586 288
75.98071 74.45290 171.76018 316
65.87022 79.56834 171.85985 312
60.89373 82.05764 173.60852 385
56.80431 84.16078 175.82275 327
51.65452 86.74001 177.87502 325
44.97643 90.07576 179.82104 296
27.39548 98.93469 179.95682 292
6.03381 109.67240 180.13638 288
75.60213 73.55611 171.78969 316
65.47430 78.56693 171.86049 312
61.58559 80.46671 173.96049 386
58.58177 82.01154 176.33704 384
53.87008 84.30930 178.47701 326
44.48276 88.94341 179.83862 296
-1.81227 111.89494 174.70949 290
-1.83410 111.94762 178.91145 290
-20.94023 121.37077 180.36418 284
75.18493 72.61747 171.79326 316
65.71806 77.25648 172.06268 377
62.29130 78.89082 174.21745 387
59.30162 80.36965 176.64731 385
55.97865 81.96950 179.03101 327
44.01775 87.82107 179.81201 296
4.41844 107.16035 175.95862 283
-11.08345 114.74221 177.54752 289
-21.56132 119.86408 180.39827 284
74.80065 71.72295 171.76442 316
66.43633 75.74564 172.38327 378
63.00254 77.34946 174.52164 388
60.08123 78.78714 176.90536 386
57.00448 80.22965 179.36566 384
43.56916 86.70846 179.82060 296
11.37079 102.17614 177.36781 285
-16.52508 115.58143 176.69884 345
-22.22112 118.30133 180.40155 284
74.43212 70.76778 171.76236 316
67.12959 74.24334 172.69745 379
63.71277 75.85143 174.81093 389
60.78815 77.23605 177.21231 387
57.77938 78.65879 179.63753 385
43.11187 85.57458 179.81250 296
17.93016 97.48821 178.62939 286
