# .PCD v.7 - Point Cloud Data file format
VERSION .7
FIELDS x y z rgb
SIZE 4 4 4 4
TYPE F F F U
COUNT 1 1 1 1
WIDTH 1381
HEIGHT 1
VIEWPOINT 6363.269531 -1277.515869 146.175064 -0.685096 -0.088838 -0.099595 0.716123
POINTS 1381
DATA ascii
414.97559 -15.79935 171.94026 309
429.34357 -16.97632 172.07516 305
445.98727 -18.42318 172.23288 301
495.00220 -22.53167 167.01337 453
3207.36523 -251.20589 67.98089 382
3194.75903 -249.72630 117.67397 498
3236.29004 -253.60605 165.76915 499
3237.58984 -253.67627 214.69650 499
3237.75903 -253.34827 264.43893 499
391.32129 -12.80942 171.69012 317
402.43417 -13.66551 171.83611 313
415.04199 -14.64484 171.93088 309
429.39990 -15.73531 172.07085 305
446.07321 -17.07539 172.23756 301
496.25003 -21.00454 166.78897 452
3207.85010 -232.85034 67.79053 382
3196.86523 -231.40324 117.60286 498
3238.58618 -235.07895 165.77571 499
3239.35571 -235.44310 215.13240 499
3239.00854 -234.72313 264.73816 499
391.41440 -11.78529 171.69357 317
402.49774 -12.59119 171.80605 313
415.07928 -13.50335 171.90865 309
429.46039 -14.49651 172.07776 305
446.11258 -15.72177 172.21631 301
497.12857 -19.35074 166.68492 483
3208.70703 -214.33652 67.76823 382
3197.89966 -213.24962 117.06201 497
3240.42017 -216.55125 165.68591 499
3241.35889 -216.60780 214.68291 499
3240.34888 -216.30606 264.67880 499
391.43634 -10.79027 171.71249 317
402.54926 -11.49559 171.81746 313
415.13126 -12.34252 171.94125 309
429.53464 -13.27102 172.04721 305
446.17825 -14.36452 172.21213 301
497.82715 -17.76452 166.53961 483
3209.70801 -195.72290 67.71826 382
3199.98169 -195.85413 117.42588 498
3242.16064 -198.51424 165.50087 499
3242.28003 -197.93227 215.08658 499
3242.58594 -198.08620 264.52948 499
391.46152 -9.76604 171.72601 317
402.60904 -10.40701 171.78629 313
415.20630 -11.16482 171.92525 309
429.58292 -12.01206 172.06595 305
446.27371 -12.99919 172.21339 301
465.74695 -14.16358 172.41275 297
3210.81055 -177.84589 67.88024 382
3202.16919 -177.64998 117.61016 474
3249.01123 -179.89340 165.41026 499
3249.60376 -180.01517 214.66653 499
3244.74268 -179.53706 264.02719 499
391.53110 -8.76379 171.72441 317
402.62564 -9.33419 171.83459 313
415.24319 -9.98934 171.95537 309
429.67749 -10.75768 172.05324 305
446.29077 -11.64819 172.24675 301
465.83420 -12.70805 172.44649 297
3212.82959 -159.68401 68.09974 382
3204.47656 -159.11270 116.99675 474
3251.47729 -161.66055 165.27747 499
3252.28271 -161.80276 214.68475 499
3246.46460 -160.86287 264.71786 499
391.54080 -7.71754 171.69176 317
402.64014 -8.26876 171.83336 313
415.25848 -8.86290 171.92384 309
429.66785 -9.51684 172.07907 305
446.38635 -10.31297 172.26648 301
465.84256 -11.26974 172.41716 297
3214.16284 -141.29875 67.85879 388
3205.91821 -140.58923 117.13566 474
3253.41187 -142.86415 165.65416 499
3254.47754 -143.34119 214.58711 499
3248.39917 -142.90884 264.84692 499
3396.69580 -149.50311 319.20898 495
391.54355 -6.74377 171.70406 317
402.69571 -7.16337 171.80025 313
415.29474 -7.71724 171.91838 309
429.70291 -8.30939 172.08063 305
446.38245 -8.96366 172.23500 301
465.90414 -9.81414 172.43300 297
3215.35376 -122.68835 68.26785 388
3208.07324 -122.65272 117.09951 474
3255.44458 -124.30904 165.48714 499
3255.68677 -124.51168 214.67647 499
3249.86865 -124.17898 264.47672 499
391.56161 -5.71461 171.68550 317
402.71143 -6.09223 171.80817 313
415.31668 -6.54149 171.92972 309
429.77954 -7.03133 172.07765 305
446.42514 -7.63142 172.23094 301
465.96298 -8.33293 172.41867 297
3216.29834 -105.12129 67.92417 388
3210.49292 -104.81541 117.00949 474
3257.41284 -105.69190 164.99120 499
3258.32593 -106.48775 215.03728 499
3258.02954 -106.54124 264.60446 499
3339.93018 -108.88734 316.73798 499
3373.09082 -109.96857 369.25092 398
391.60040 -4.70887 171.71385 317
402.72946 -5.01518 171.83653 313
415.35440 -5.39707 171.94588 309
429.78662 -5.81583 172.06387 305
446.43399 -6.25882 172.20998 301
465.93414 -6.86100 172.45552 297
3218.33594 -86.56120 67.43329 444
3212.02490 -86.52652 117.30498 474
3258.82080 -87.49474 165.23619 499
3260.02319 -87.14192 214.65695 499
3260.10620 -87.63271 264.35712 499
3319.81567 -89.60549 316.43109 499
3363.20996 -90.41959 369.46100 476
391.57895 -3.70003 171.72061 317
402.72336 -3.95111 171.81680 313
415.36389 -4.22242 171.95596 309
429.79633 -4.56440 172.08211 305
446.46533 -4.94754 172.23546 301
465.98773 -5.39666 172.45337 297
3220.21631 -68.14377 67.82593 444
3214.37500 -68.37685 117.00577 474
3261.22168 -68.74107 165.47375 499
3261.28735 -68.76830 214.83240 499
3261.87793 -69.25576 264.27274 499
3343.30933 -70.57754 317.12778 498
3370.27393 -71.16570 369.07709 414
391.56265 -2.64837 171.69090 317
402.74240 -2.86592 171.83333 313
415.37067 -3.08679 171.91898 309
429.78522 -3.28798 172.06360 305
446.46658 -3.58451 172.24207 301
465.98782 -3.89935 172.44104 297
3221.39380 -49.94437 67.40902 444
3216.77246 -49.92701 117.26659 473
3351.30469 -51.96677 317.00989 283
273.19171 -0.39926 203.48828 285
402.70013 -1.78155 171.80255 313
415.35809 -1.88425 171.90852 309
429.79349 -2.05714 172.06506 305
446.47171 -2.23002 172.22054 301
451.67230 -2.29576 175.06120 426
3223.27148 -31.41245 67.91393 444
3218.19531 -31.52229 116.56480 473
3347.49219 -32.49982 317.08286 499
273.10770 -0.11580 203.50044 285
402.69843 -0.69996 171.79659 313
415.31015 -0.76613 171.95456 309
429.76251 -0.81051 172.09354 305
446.47202 -0.87204 172.22113 301
466.00558 -0.94856 172.41121 297
3224.59302 -13.47583 67.69565 444
3220.21143 -13.11389 116.50501 473
3351.43579 -13.33953 317.05359 489
3402.97461 -14.09191 370.58139 489
273.08224 0.17773 203.49612 285
402.66559 0.38347 171.80930 313
415.32306 0.40991 171.95593 309
429.73163 0.41842 172.04942 305
446.43567 0.48212 172.21323 301
465.99622 0.49275 172.40369 297
3226.21191 5.20807 67.18423 444
3222.23584 5.41289 116.44846 473
3410.54712 5.67122 318.70563 422
3399.78613 5.57154 370.48367 442
273.06989 0.46481 203.49927 285
402.64932 1.48095 171.80447 313
415.27164 1.56011 171.95645 309
429.74374 1.69210 172.05865 305
446.41797 1.78559 172.20828 301
451.72906 1.87228 175.03444 423
3228.28198 23.98209 67.35355 443
3224.50708 23.56715 116.78638 473
3367.26489 24.61515 317.89230 333
273.05960 0.74920 203.49425 285
402.60083 2.54548 171.83269 313
415.25262 2.73651 171.94209 309
429.71460 2.92913 172.07852 305
446.37454 3.14787 172.26422 301
465.90878 3.41625 172.41107 297
3229.86060 42.21735 67.34100 443
3226.45142 42.37531 116.99599 473
273.04327 1.04073 203.49219 285
402.59808 3.64655 171.80049 313
415.18909 3.87176 171.92133 309
429.63724 4.16086 172.06589 305
446.33151 4.54722 172.25784 301
465.89706 4.94279 172.40616 297
3231.78882 60.13575 67.44325 443
3524.58105 66.85078 106.67926 498
273.02737 1.32705 203.49019 285
402.56158 4.72781 171.81490 313
415.17123 5.07012 171.92961 309
429.62613 5.42563 172.05087 305
446.31189 5.88994 172.24745 301
465.79205 6.37547 172.40344 297
3233.42676 78.65889 66.82169 443
3526.88843 86.28086 106.39873 497
272.99435 1.61288 203.48158 285
402.49820 5.79147 171.82915 313
415.09821 6.18469 171.95100 309
429.53671 6.69544 172.07007 305
446.25931 7.18745 172.20767 301
465.75491 7.88313 172.41109 297
3234.63623 97.65402 67.07909 443
3528.70996 107.34454 106.59200 497
272.98138 1.90354 203.47983 285
402.42700 6.88296 171.81560 313
415.07404 7.35651 171.92427 309
429.49875 7.91388 172.05255 305
446.17401 8.54331 172.20581 301
465.67172 9.29868 172.39587 297
3236.83276 115.64622 67.29216 443
3530.27466 126.90104 106.41315 497
3415.49951 122.81985 215.10873 285
272.94537 2.19012 203.47623 285
402.35663 7.94081 171.79704 313
414.98587 8.53907 171.95023 309
429.44858 9.20049 172.03932 305
446.13351 9.88901 172.25601 301
465.60574 10.82302 172.44505 297
3238.24023 134.50764 67.03088 443
3236.50391 134.25209 115.97156 476
3400.67700 141.47339 215.23946 497
272.92087 2.48749 203.48215 285
402.28845 9.07233 171.82195 313
414.92679 9.70815 171.90765 309
429.32574 10.40956 172.07689 305
446.00058 11.27277 172.23488 301
465.54858 12.22812 172.43417 297
3240.18652 152.97438 66.77555 442
3238.89160 152.79770 115.81209 475
391.08182 9.48383 171.69907 317
402.20218 10.13254 171.81424 313
414.81137 10.82576 171.94594 309
429.25699 11.65063 172.03934 305
445.95270 12.63057 172.23637 301
465.44025 13.71885 172.44020 297
3241.34839 172.16333 66.88129 438
3240.81665 171.62112 116.16460 475
390.99582 10.49202 171.71228 317
402.11771 11.23397 171.79575 313
414.74030 11.99179 171.91130 309
429.14697 12.90376 172.07272 305
445.86902 13.97502 172.20274 301
497.76227 17.26912 166.47528 482
3243.07275 189.99147 66.55576 438
3242.44214 190.64935 116.33887 475
390.92291 11.51943 171.70816 317
402.03946 12.26825 171.79163 313
414.66800 13.16306 171.89626 309
429.07144 14.17117 172.08473 305
445.73041 15.30014 172.24313 301
497.07086 18.85806 166.56142 483
3245.09253 208.77371 66.07985 437
3245.14062 209.18890 116.19548 475
3552.15356 230.66341 160.70050 422
390.81836 12.53066 171.70143 317
401.96652 13.38085 171.80515 313
414.57037 14.30909 171.90341 309
428.97260 15.41100 172.03191 305
445.61926 16.64452 172.24055 301
496.12231 20.48727 166.77103 452
3246.96997 228.04231 66.31988 437
3246.55762 228.23010 115.77106 437
3552.45117 251.31929 159.78638 489
390.72607 13.55194 171.67297 317
401.86908 14.43400 171.80901 313
414.43527 15.46919 171.94560 309
428.87955 16.64733 172.05331 305
445.49280 18.00616 172.24161 301
494.86340 22.01575 166.98273 453
3248.62305 247.00107 65.92728 437
3249.32471 246.68745 115.97188 437
3452.22681 262.86023 161.95093 496
390.64481 14.55740 171.70538 317
401.74805 15.51906 171.77797 313
414.35156 16.64985 171.89543 309
428.70911 17.92425 172.08141 305
445.38763 19.35097 172.20302 301
493.55725 23.54895 167.15729 453
3250.71924 265.61444 65.44584 473
3251.12476 265.53558 115.62353 437
3289.62402 269.10437 164.58488 399
272.60565 4.50268 203.47470 285
401.63458 16.61482 171.80820 313
414.18396 17.79101 171.93178 309
428.60373 19.13755 172.04999 305
445.22983 20.70253 172.22536 301
492.31741 25.14137 167.35095 454
3255.22461 284.73154 65.76289 371
3255.35669 284.26431 115.01315 372
3353.81494 294.23404 163.26727 497
272.54382 4.79228 203.48315 285
401.52258 17.66636 171.80009 313
414.07214 18.92310 171.89160 309
428.48636 20.41532 172.04964 305
445.09451 22.03955 172.19145 301
491.07437 26.62953 167.54221 455
3369.73901 314.29803 59.51685 471
3346.16797 312.18683 112.14693 497
3350.14868 312.84665 163.83896 497
272.48526 5.08002 203.48163 285
401.36816 18.74546 171.77908 313
413.92773 20.12835 171.93906 309
428.31332 21.64554 172.02959 305
444.93567 23.40297 172.22566 301
489.86652 28.17153 167.71671 456
3371.38452 334.58746 59.38808 470
3305.38647 327.20953 113.42754 427
3345.43652 331.29636 163.87856 497
272.41513 5.36745 203.48204 285
401.23965 19.82616 171.80116 313
413.81741 21.26198 171.93484 309
428.19278 22.85625 172.05890 305
444.78662 24.71714 172.23392 301
488.60300 29.66366 167.93678 457
3344.40405 350.61823 112.47713 465
3345.89990 351.07312 163.70805 479
3548.68652 373.91418 215.35907 452
272.35828 5.64995 203.48996 285
401.10696 20.90928 171.80342 313
413.66235 22.42546 171.89456 309
428.03677 24.11101 172.05336 305
444.59567 26.08545 172.22221 301
487.44263 31.16182 168.09843 458
3351.33130 371.19998 112.05360 456
3351.87134 371.17120 163.39862 475
272.28024 5.92954 203.48230 285
400.95929 22.01927 171.78122 313
413.51495 23.57726 171.92514 309
427.83414 25.37569 172.07277 305
444.44952 27.42775 172.19423 301
486.95364 32.73793 168.13493 294
272.21945 6.22239 203.49370 286
400.77347 23.06870 171.79083 313
413.31277 24.73359 171.92262 309
427.67902 26.62851 172.06621 305
444.27979 28.76618 172.23157 301
486.78009 34.34637 168.14995 294
389.58850 22.64660 171.66394 317
400.60956 24.12485 171.76746 313
413.15790 25.89926 171.92699 309
427.50485 27.82292 172.04199 305
479.32770 34.98866 165.12469 300
486.66931 35.95334 168.14400 294
389.42105 23.64909 171.68617 317
400.45551 25.21345 171.76747 313
412.97894 27.04275 171.90381 309
427.29526 29.06308 172.03868 305
479.09747 36.49146 165.14902 300
486.54749 37.61406 168.12036 294
389.24530 24.63989 171.65694 317
400.28723 26.27814 171.77505 313
412.79520 28.17621 171.88495 309
427.11963 30.34876 172.02617 305
478.81973 38.05912 165.08212 300
486.39288 39.23274 168.06900 294
389.10327 25.63244 171.68820 317
400.09491 27.35771 171.78136 313
412.60223 29.30991 171.88054 309
426.90067 31.56531 172.01422 305
478.61307 39.60547 165.12088 300
486.24210 40.84553 168.05898 293
388.92712 26.63379 171.65860 317
399.91757 28.45075 171.77888 313
412.40472 30.49757 171.88994 309
426.72900 32.78933 172.05652 305
478.29202 41.18710 165.11295 444
486.05643 42.40910 168.05995 293
388.70148 27.68171 171.66592 317
399.75861 29.49393 171.74973 313
412.20712 31.62810 171.90672 309
426.48218 34.05315 172.00919 305
476.88718 42.54923 165.33557 445
485.83417 44.00550 168.02792 293
388.51547 28.65203 171.67703 317
399.54819 30.59192 171.77122 313
411.99030 32.79466 171.88712 309
426.28619 35.23914 172.02849 305
475.44345 43.84959 165.57596 445
485.60794 45.61288 168.02719 293
388.34265 29.67136 171.66679 317
399.32443 31.66449 171.78796 313
411.77637 33.92880 171.88852 309
426.05573 36.49523 172.05475 305
473.97290 45.20797 165.80620 446
388.15027 30.66969 171.64717 317
399.11368 32.73985 171.77382 313
411.55658 35.08239 171.89432 309
425.82617 37.73726 171.99849 305
472.57736 46.48023 166.05370 447
387.92123 31.68663 171.64531 317
398.88983 33.81771 171.76607 313
411.32822 36.18808 171.87018 309
425.59647 38.99589 172.03430 305
471.21484 47.84068 166.26823 448
387.72018 32.65385 171.63863 317
398.65970 34.84138 171.77505 313
411.10263 37.36625 171.86273 309
425.33142 40.17761 172.04601 305
469.82297 49.08234 166.45694 449
387.48657 33.68523 171.66948 317
398.44260 35.94910 171.76416 313
410.87381 38.51054 171.86496 309
425.06335 41.45129 172.02075 305
468.45023 50.38504 166.70415 450
387.27417 34.67120 171.65019 317
398.20163 36.99218 171.77107 313
410.61465 39.62155 171.85194 309
456.64499 49.44652 164.96997 304
467.11380 51.64034 166.90039 451
387.07092 35.67107 171.66281 317
397.98959 38.04877 171.76765 313
410.36755 40.79733 171.87575 309
456.33664 50.86299 164.96382 304
465.73444 52.93455 167.06429 452
386.84274 36.66568 171.64256 317
397.70645 39.13153 171.74200 313
410.09845 41.89027 171.87909 309
455.96985 52.30643 164.95734 304
464.40530 54.17380 167.28647 452
386.58603 37.66140 171.64989 317
397.44577 40.18633 171.73570 313
409.80704 43.05764 171.86015 309
455.69208 53.68088 164.95001 304
463.07999 55.44888 167.50766 453
386.34662 38.64832 171.63550 317
397.19025 41.23339 171.73152 313
409.51642 44.16927 171.89008 309
455.33932 55.15135 164.97429 304
461.55908 56.62067 167.72986 421
386.08124 39.62976 171.62161 317
396.92770 42.29223 171.72633 313
409.24078 45.31263 171.87854 309
454.97891 56.55307 164.97574 304
460.13589 57.80254 167.92586 298
385.81732 40.63897 171.61420 317
396.68896 43.37751 171.71860 313
408.95111 46.46983 171.84058 309
454.57635 57.97246 164.96744 304
459.81744 59.28252 167.94675 297
385.55713 41.59863 171.64325 317
396.37311 44.41395 171.75433 313
408.67032 47.55637 171.87651 309
454.19550 59.35741 164.96620 304
459.46619 60.74868 167.94714 297
385.26691 42.58989 171.61293 317
396.09369 45.44876 171.75526 313
408.38943 48.72377 171.83208 309
453.81567 60.74998 164.96323 304
459.13788 62.16750 167.93132 297
385.01309 43.59628 171.62918 317
395.79428 46.53741 171.75226 313
408.07156 49.86028 171.85274 309
452.64139 61.92889 165.11183 426
458.79340 63.64558 167.90520 297
384.72495 44.54840 171.62875 317
395.51312 47.55415 171.74088 313
407.71710 50.94415 171.83356 309
450.89810 62.98251 165.43793 427
458.47873 65.09522 167.88948 297
384.42642 45.56717 171.62799 317
395.19815 48.61221 171.71916 313
407.42551 52.07860 171.84190 309
449.23709 63.98188 165.71199 428
458.07190 66.49345 167.86940 297
384.14511 46.51784 171.60556 317
394.88809 49.68382 171.70686 313
435.73016 61.57197 164.87988 308
447.56982 65.02544 165.98407 429
457.70294 67.95467 167.82841 297
383.82095 47.50582 171.59984 317
394.56985 50.70505 171.73975 313
435.38733 62.86213 164.84169 308
445.90207 66.03155 166.26045 430
383.51901 48.47802 171.60599 317
394.26016 51.74803 171.73788 313
434.97357 64.18457 164.84364 308
444.26285 66.99382 166.57660 431
383.22333 49.46934 171.61024 317
393.93253 52.77986 171.70540 313
434.54636 65.44266 164.84274 308
442.59808 67.95677 166.84026 432
382.90796 50.43760 171.62843 317
393.59702 53.86475 171.72313 313
434.12943 66.72200 164.85034 308
441.03448 68.95916 167.08217 433
382.57690 51.41290 171.58444 316
393.22015 54.90249 171.71999 313
433.70178 68.04754 164.83784 308
439.42596 69.87090 167.37456 434
382.22720 52.37222 171.59599 316
392.90170 55.93323 171.72148 313
433.23209 69.30847 164.85236 308
437.64706 70.78604 167.66652 421
381.90503 53.36211 171.60513 316
392.54208 56.94437 171.71921 313
432.80203 70.58100 164.87109 308
436.33109 71.79199 167.85889 301
381.57965 54.30942 171.58563 316
392.19830 58.01456 171.69817 313
432.29425 71.84104 164.85663 308
435.87222 73.08356 167.84137 301
381.21857 55.29281 171.60808 316
391.81107 59.02007 171.68159 313
431.83231 73.11034 164.89131 308
435.47955 74.42346 167.82834 301
380.88965 56.25626 171.56801 316
391.44705 60.04866 171.66277 313
430.71417 74.16907 165.03268 424
435.04269 75.71677 167.83702 301
380.52167 57.21857 171.59921 316
416.93677 70.58022 164.76146 312
429.01895 74.99622 165.34900 425
434.58136 77.00831 167.83032 301
380.14087 58.20288 171.58331 316
416.43060 71.74402 164.76585 312
427.34387 75.80676 165.62032 426
434.13980 78.31495 167.81381 301
379.78818 59.12949 171.55504 316
415.94946 72.88905 164.80807 312
425.70905 76.59705 165.88803 427
433.64490 79.64874 167.75786 301
379.38843 60.12354 171.55646 316
415.50897 74.06853 164.78854 312
424.05823 77.42653 166.16740 428
433.24072 80.94640 167.79179 301
1994.81128 685.05737 59.82647 471
2000.61499 687.66022 90.95947 471
2007.67407 690.03601 121.57052 359
379.00006 61.06080 171.57065 316
414.96436 75.22401 164.76474 312
422.48752 78.17575 166.45068 429
1989.86658 696.13733 59.87386 495
1994.78479 698.08746 90.84107 471
1999.81702 700.13013 121.91267 470
378.65616 62.03800 171.55257 316
414.47018 76.41503 164.79652 312
420.88165 78.97737 166.75182 430
1996.30725 711.11578 59.17318 364
378.26443 62.95788 171.56557 316
413.97495 77.57664 164.80753 312
419.31076 79.72549 167.04749 431
377.82803 63.91230 171.57761 316
413.49661 78.70297 164.77234 312
417.75000 80.48779 167.29782 432
377.44485 64.88078 171.56862 316
412.97513 79.88658 164.80409 312
416.17841 81.27299 167.51396 433
377.02322 65.79276 171.55492 316
412.45959 81.05514 164.79095 312
414.73160 82.00456 167.78125 305
376.60172 66.73423 171.52309 316
411.88342 82.20955 164.81764 312
414.23526 83.18366 167.76660 305
399.51608 78.07869 164.66696 317
411.36411 83.32249 164.79005 312
413.70441 84.38781 167.75191 305
398.98712 79.12560 164.71419 317
410.16177 84.18640 164.97952 436
413.18265 85.58439 167.74863 305
398.47604 80.22935 164.67267 317
408.70169 84.89689 165.25203 437
412.70132 86.70791 167.74364 305
397.94540 81.30180 164.68382 317
407.25558 85.58372 165.46713 438
412.19128 87.93257 167.74789 305
397.41525 82.33409 164.66699 317
405.62576 86.21634 165.77293 420
411.65723 89.10534 167.71713 305
396.90768 83.41016 164.72034 317
403.95740 86.82996 166.09727 421
411.12802 90.27678 167.73589 305
396.31775 84.44871 164.70493 317
402.32153 87.36083 166.40648 422
410.55005 91.41288 167.71077 305
395.77939 85.49564 164.72318 317
400.69043 87.92736 166.70934 423
410.00403 92.58701 167.66927 305
395.23508 86.52633 164.73108 317
399.05469 88.52706 167.01146 424
394.67010 87.58066 164.68875 317
397.50110 89.06255 167.26073 425
394.04150 88.63241 164.69907 317
395.90985 89.57095 167.57642 426
393.47632 89.67630 164.69566 317
394.82736 90.39359 167.72487 311
392.79062 90.67413 164.75703 427
394.27292 91.41279 167.69194 311
391.28214 91.18163 165.02364 428
393.69449 92.49577 167.67731 311
389.79092 91.74352 165.33234 429
393.13501 93.53629 167.70679 309
388.28970 92.22952 165.60796 430
392.53403 94.57811 167.65976 309
386.83514 92.72878 165.87016 431
391.95517 95.65926 167.68515 309
385.40622 93.25576 166.11928 432
391.38840 96.72399 167.65590 309
383.93958 93.73902 166.37711 433
390.78317 97.76942 167.65210 309
382.49326 94.26299 166.63191 434
390.23981 98.79633 167.66252 309
381.09293 94.75787 166.88829 435
389.60782 99.86703 167.62910 309
379.71872 95.24448 167.14790 436
378.34625 95.70286 167.38593 437
376.98367 96.16843 167.60840 315
376.33548 97.11378 167.61736 315
375.74951 98.07880 167.60425 315
375.14517 99.00331 167.60942 315
374.49414 99.94540 167.61137 315
373.87509 100.89613 167.60818 315
373.26303 101.84285 167.59795 315
372.59848 102.74068 167.62437 315
371.98239 103.68036 167.59706 315
371.30283 104.58127 167.60236 315
370.63861 105.50551 167.57146 313
370.03293 106.42722 167.59448 313
369.35974 107.39294 167.57867 313
1177.03394 804.05963 51.70592 390
1169.97144 798.24866 73.77818 394
1164.57300 803.42999 53.21210 393
1157.68982 797.66174 74.80718 395
1151.71277 792.48132 95.74494 387
1152.36523 802.92963 54.33532 394
1145.60022 797.42401 75.92805 396
1139.43506 791.71796 97.00985 404
1140.47546 802.57166 55.53252 393
1130.37976 793.72241 77.44695 313
1127.87939 791.55658 97.63207 406
1129.37244 793.09198 117.37418 396
1128.57166 801.99805 56.97292 394
1117.85425 792.59204 78.67944 388
1116.19983 791.17700 98.66037 399
1117.90674 792.58850 118.01255 413
1116.94019 801.71075 57.89904 394
1109.06567 794.74695 79.13362 397
1104.65369 790.72498 99.60635 414
1107.10620 792.58490 118.67075 414
1105.26746 801.10834 59.23925 395
1097.80029 794.25024 80.37077 397
1093.85718 790.56958 100.27201 416
1096.06091 792.68866 119.66230 415
1093.96228 800.38318 60.48592 396
1086.53357 793.81110 81.20191 400
1083.01892 790.68671 101.03549 417
1085.26721 792.64166 120.05519 416
1082.81067 800.05573 61.58002 399
1075.60217 793.43842 82.34546 400
1072.34949 790.39740 101.76113 418
1075.06348 793.04419 120.66932 400
1071.79907 799.51117 62.54308 400
1064.53650 792.99323 83.19144 399
1062.03076 790.26324 102.55685 419
1065.06812 793.31598 121.43777 401
1060.82104 799.14673 63.81544 401
1053.65186 792.35577 84.19030 400
1051.66455 790.29944 103.29457 420
1054.80554 793.67169 121.80525 401
1093.54797 830.26678 137.38287 386
1049.90344 798.48584 64.85929 399
1043.09155 791.65552 84.92470 401
1041.38916 790.29523 104.25683 421
1045.13794 793.88184 122.50346 402
1091.83643 838.70184 137.01320 282
1039.36633 797.85596 65.98817 400
1032.55688 791.20093 85.79534 402
1031.36145 790.21777 105.01589 422
1035.19897 794.15668 123.10600 353
1090.11438 847.72571 136.57845 333
1028.70911 797.43097 66.83582 402
1022.02631 790.78979 86.83620 403
1021.39813 790.13831 105.72453 423
1026.18225 794.77319 123.60870 353
1089.09448 857.28345 136.35355 357
1018.45807 796.98529 67.99868 403
1011.76691 790.27521 87.70283 404
1011.39435 789.77502 106.29431 424
1017.28058 795.81073 124.19932 354
1088.10950 866.68536 136.12454 413
1008.20294 796.39587 68.86224 404
1001.78772 789.67285 88.57027 405
1001.55804 789.96375 107.09610 425
1008.34290 796.51923 124.36839 355
1088.10754 877.59473 135.61139 355
998.05695 795.77991 69.80986 405
991.55438 789.37036 89.48968 406
992.22491 789.75464 107.61281 426
1000.20758 798.26495 124.85440 296
1106.31543 907.02490 133.36761 268
987.87970 795.44971 71.01974 406
981.62628 788.90436 90.41051 407
982.43939 789.56219 108.32283 428
992.88672 800.22455 125.17719 296
1100.81409 912.33600 133.28331 286
986.76428 804.05249 51.66932 412
978.19867 794.82288 71.94387 407
971.93097 788.21948 91.03410 291
973.15436 789.61816 109.01560 429
987.65076 804.62732 125.22654 271
1098.36926 921.21497 133.10812 351
977.46381 803.63971 52.68380 413
968.32715 794.24432 72.73698 408
961.13196 786.55225 92.03990 361
963.95148 789.56476 109.45859 430
1055.72302 887.26080 116.60565 430
1097.59680 931.99609 132.56410 408
967.87653 803.62817 53.73264 414
958.93353 793.91040 73.73889 409
951.66144 785.90137 93.02870 429
954.82819 789.42108 110.21322 431
1045.45020 887.05414 116.99997 431
1097.38367 942.78632 132.07207 407
958.51654 803.37976 54.51594 415
949.35693 793.24451 74.51414 410
941.93268 785.21527 93.85614 430
945.76929 789.27264 110.71725 432
1035.58997 887.35577 117.44272 420
1097.17773 954.50031 131.53087 421
949.44739 803.21637 55.64704 416
940.00189 793.03607 75.49273 398
932.82343 784.85913 94.53148 431
936.63153 789.30615 111.51813 433
1026.70386 888.79852 118.00616 339
1093.46326 962.61365 131.33458 433
940.37805 803.12000 56.32783 417
931.04297 792.60663 76.38296 399
924.00848 784.96252 95.15345 432
927.77673 789.11865 111.97937 434
936.04883 798.04047 128.58073 409
1083.64514 963.38403 131.43774 465
931.51495 803.04816 57.20843 398
922.05194 792.49255 77.08411 400
161.22729 182.46240 -28.03386 433
919.29657 788.99011 112.61256 435
1028.58630 912.89026 116.38194 491
1080.47791 971.78204 131.15233 378
922.25214 802.59821 58.25362 399
913.21930 792.32397 77.83256 401
906.85040 784.78473 96.51402 397
910.38458 789.03339 113.08681 436
1027.36572 922.94543 116.01302 271
1083.05090 986.59528 130.54457 416
913.37128 802.33490 59.16196 399
904.46771 791.88660 78.68862 402
898.82312 785.10980 96.92124 435
902.00006 788.86920 113.87286 437
1021.73608 927.91290 115.95870 271
1082.85242 998.66815 129.83144 415
904.69318 802.11237 59.98779 400
895.90289 791.81946 79.54541 403
890.96997 786.06647 97.39804 284
893.61963 788.84308 114.39290 438
1017.83679 934.76227 115.70496 317
1082.47644 1010.87769 129.47490 414
895.97131 801.59094 60.91446 401
887.19189 791.56567 80.30877 403
883.94727 787.66785 97.91256 439
884.99799 788.74591 114.90316 439
1017.29034 946.16803 114.88820 403
1080.15735 1020.73145 128.85239 473
887.29785 801.43134 61.75040 402
878.74792 791.18585 80.77770 404
875.81635 787.39752 98.44007 440
876.92395 788.67743 115.30348 438
1075.00769 1027.56738 106.84760 494
1077.28650 1030.02063 128.64555 395
878.71356 801.05054 62.63021 403
870.49060 790.89154 81.72550 405
867.53906 787.38281 99.20199 441
868.63416 788.74286 115.89586 439
1069.69690 1033.89844 106.58184 488
870.19659 800.72864 63.44934 404
862.17755 790.85687 82.27968 406
859.51733 787.52283 99.74577 442
860.25458 788.41296 116.26588 440
1063.87769 1039.48889 106.72186 441
861.86102 800.53125 64.23489 404
853.64520 790.20227 83.23322 400
851.33008 787.20123 100.40395 442
852.32104 788.19824 116.99587 443
1053.07727 1039.44470 107.10843 442
853.83026 800.19720 65.05051 398
845.34509 789.71735 83.79077 401
843.47186 787.13428 100.84181 443
844.23602 788.35217 117.48355 444
847.59033 792.56860 133.47165 445
1046.56445 1044.33228 129.26003 371
845.39697 799.58380 65.86559 399
836.99207 788.94647 84.60859 402
835.69647 787.01501 101.35934 444
836.30463 788.07220 117.80841 445
840.13684 792.95245 133.78400 447
836.93005 798.82367 66.70450 400
828.69519 788.38641 85.34273 402
827.84979 787.03497 101.93957 445
828.56488 788.06885 118.35359 446
832.79803 793.56445 134.11794 447
828.69727 798.29303 67.52838 401
820.81219 787.87115 85.89695 403
820.08484 786.92010 102.52774 446
820.70117 788.14465 118.96722 447
825.02893 793.45740 134.55600 448
820.65265 797.88727 68.40176 396
812.62030 787.30597 86.73048 404
812.39954 786.75861 103.04208 447
813.14294 787.97870 119.39708 448
817.21411 793.35553 134.98468 449
812.74725 797.65417 69.12694 397
804.57574 786.88116 87.52437 405
804.63495 786.90149 103.67549 448
805.43530 787.84131 119.69438 449
809.58038 793.39606 135.25159 450
804.90497 797.27014 69.63908 397
796.98047 786.13666 88.19691 406
797.20020 786.71521 104.17393 449
797.91821 787.78204 120.28000 449
802.15662 793.50079 135.82599 451
797.14325 797.02472 70.37609 398
789.16559 785.80334 88.72998 406
789.78082 786.62494 104.65647 450
790.57275 787.82678 120.69494 450
794.78235 793.54846 136.18832 452
798.12366 808.66315 52.29360 402
789.67010 796.61200 71.30673 399
781.34821 785.15643 89.41389 407
782.44098 786.56641 105.18143 451
783.30389 787.77802 121.10825 451
787.34149 793.47375 136.49945 453
787.40845 793.66913 152.59935 453
790.56445 808.48010 52.98165 403
781.93890 796.22223 71.76915 400
773.69312 784.56110 90.10918 403
775.05310 786.40607 105.78240 452
775.91913 787.74878 121.54740 452
779.97266 793.58734 136.80867 454
780.35651 794.13733 152.83287 454
782.90851 808.13483 53.81445 404
774.56226 795.95941 72.66339 400
766.35907 784.04675 90.72774 409
767.79498 786.51782 106.27180 459
768.63342 787.61389 121.97464 453
772.66058 793.59790 137.18454 455
773.13721 794.25696 152.97508 455
775.36035 807.77612 54.55940 395
767.02710 795.81439 73.18227 401
758.97314 783.92798 91.13272 403
760.84839 786.64996 106.63523 460
761.75848 787.93787 122.20823 461
765.44879 793.66040 137.55246 455
765.93073 794.14764 153.18507 456
768.08087 808.05804 55.15611 395
759.65393 795.57727 73.72022 403
751.78748 783.90344 91.83627 458
753.84912 786.83368 106.96154 461
754.84882 788.40186 122.67947 462
758.30371 793.43762 137.88043 456
758.82043 794.10834 153.46130 456
760.83453 807.99622 55.94603 391
752.52069 795.48932 74.34351 404
744.98706 784.17706 92.17791 375
746.98328 787.29150 107.59428 473
748.12274 788.60461 123.01312 463
751.46088 793.57520 138.02734 467
751.60028 793.88684 153.72734 466
753.45447 807.61902 56.61407 392
745.38983 795.55463 75.15520 409
738.41852 784.47858 92.55141 375
740.77478 788.18420 107.70220 474
741.72040 789.49176 123.17500 475
744.71643 794.12366 138.38647 476
745.15552 795.01813 154.05052 476
746.36383 807.48596 57.40011 393
738.67554 795.49994 75.54205 414
731.75739 784.89386 93.09664 471
734.40802 788.95404 108.21272 475
735.43359 790.59808 123.47598 476
738.34448 795.19495 138.56148 477
738.68286 795.96515 154.31223 477
739.36652 807.48724 57.88764 394
731.88080 795.91205 76.21066 414
725.42426 785.69342 93.36321 477
728.07196 789.73224 108.37441 477
729.05737 791.59064 123.74072 477
732.21649 796.12830 138.75548 480
732.45691 796.88617 154.24141 478
732.33209 807.74432 58.50975 394
725.31909 796.40295 76.54034 421
719.20880 786.69946 93.69796 477
721.90094 791.04230 108.71388 482
723.04822 792.84851 124.07754 483
725.84723 797.39526 138.98022 481
726.36151 797.77832 154.46625 481
725.67963 808.02515 59.17473 405
718.87299 797.09711 76.87474 422
713.13068 787.73871 94.09135 478
715.95190 792.12769 108.90008 483
717.12036 794.14862 124.32659 481
719.82147 798.47363 139.17122 481
720.07434 798.85223 154.79507 482
719.45642 809.06799 59.49406 405
712.80176 798.06201 77.38740 422
707.00208 788.93726 94.43463 479
709.80908 793.39661 109.15068 485
711.12714 795.52594 124.45113 481
713.78119 799.68634 139.28889 482
714.69861 801.39246 154.76332 485
713.13818 810.03058 59.90981 405
706.60101 799.10004 77.79765 422
700.92523 789.89410 94.65368 482
703.82819 794.73505 109.33329 487
705.13446 796.91479 124.65899 482
707.87555 801.42548 139.52060 485
710.54834 805.83923 154.59714 484
706.92334 810.94128 60.26232 409
700.45404 800.13971 78.13031 422
695.20886 790.98175 94.90276 483
698.09735 795.96985 109.66681 488
699.43634 798.39557 124.63570 472
704.02838 806.11322 139.34894 485
706.44012 810.29620 154.50433 484
701.08514 812.17505 60.60202 409
694.38770 801.09576 78.38022 424
689.27637 792.45331 95.18268 486
692.17078 797.45892 109.86744 490
693.76593 800.03900 124.94090 473
699.73059 810.22046 139.39854 487
702.40509 814.60767 154.48816 486
694.91119 813.49725 60.97251 410
688.50555 802.48468 78.74006 423
683.45667 793.61316 95.36317 435
686.51819 798.98450 110.08630 491
688.03870 801.87073 125.01939 473
695.44110 814.16022 139.11649 487
697.91132 818.62585 154.28233 486
676.40491 816.95831 60.05994 411
670.08777 805.92633 77.74168 424
665.26080 797.15979 94.45509 488
668.47852 802.72601 108.99366 492
669.93756 805.63239 123.84303 473
678.58380 820.57208 137.75237 486
682.66760 828.03564 152.76381 371
670.55084 818.16174 60.37848 418
664.26996 807.07617 77.90276 426
659.50092 798.57562 94.72218 436
662.94061 804.35333 109.07279 492
664.87720 807.81030 123.96037 435
675.51221 826.94617 137.54118 372
682.19836 838.98096 152.20390 370
664.70892 819.69171 60.55317 419
658.84308 808.46179 78.11957 427
654.12708 800.23572 94.79372 437
657.29248 805.82141 109.19434 492
659.41632 809.75580 124.16953 435
674.88666 837.87640 136.76259 371
681.86829 850.12848 151.62050 369
659.22156 820.97375 60.89000 419
653.07587 809.91809 78.25111 427
648.69159 801.78528 95.02646 437
651.73163 807.38373 109.39173 494
653.93402 811.62415 124.30628 436
674.30298 848.91132 135.95090 369
681.34351 861.66327 150.72934 368
653.54102 822.49451 60.97124 419
647.54712 811.22430 78.70991 426
643.25177 803.40930 95.20657 437
646.42371 809.06946 109.61482 494
648.66888 813.44751 124.23196 436
673.77740 860.25452 135.01460 368
680.78473 873.23120 150.16069 367
647.79297 823.82990 61.20354 419
641.90552 812.64380 78.93254 426
637.86334 804.98242 95.44717 493
640.92139 810.71002 109.57760 494
646.11182 820.43048 123.66670 283
673.20898 871.93567 134.34503 367
680.22882 884.96387 149.68655 468
642.27649 825.31537 61.49637 420
636.31189 814.09760 78.97669 429
632.31500 806.62433 95.57812 494
635.43811 812.55109 109.80886 496
645.13910 830.98309 122.96066 278
672.66010 883.75720 133.33955 366
679.88251 897.35596 148.93452 364
636.68958 827.04657 61.82648 416
631.00531 815.80548 79.16260 429
627.15021 808.37579 95.71250 494
630.21271 814.36511 109.93036 497
640.20844 834.13501 122.91817 274
672.10687 895.60468 132.49454 365
679.22314 909.56372 148.06262 363
686.25610 923.08905 164.21872 361
631.05640 828.63940 61.79181 416
625.50360 817.41522 79.39913 430
621.95074 810.45868 95.56861 282
624.65912 815.89618 110.05171 497
696.30658 957.28247 109.45668 462
671.32837 907.88654 131.62479 363
678.63995 922.25348 147.26729 362
685.74261 936.20850 163.75038 360
625.68677 830.42871 62.10056 416
620.20148 819.03516 79.53437 430
617.09100 813.10645 95.65514 282
619.48102 817.66418 110.17047 497
688.87854 956.48535 109.94014 463
670.63672 920.61877 130.80270 362
678.03723 935.17084 146.53767 360
685.25964 949.41107 163.06358 359
620.20093 832.05176 62.13527 416
614.79645 820.75415 79.71937 430
612.30969 815.70764 95.59905 282
614.14471 819.48431 110.14809 498
681.27728 955.94800 110.12701 464
669.75049 932.52808 130.13243 361
677.62372 948.28094 145.81427 359
684.57202 962.95435 162.33795 357
614.93335 833.75739 62.22361 417
609.42450 822.52997 79.87166 430
607.31445 818.25946 95.50265 282
608.99121 821.43506 110.28216 499
673.79626 955.34863 110.58516 465
668.95172 945.46790 128.96985 360
676.81091 961.83698 144.98698 358
684.55444 977.61804 161.71326 356
609.47827 835.32098 62.49981 417
604.00470 824.40033 79.86781 432
602.12201 820.28595 95.59450 495
603.85406 823.59729 110.49702 498
666.21515 954.78424 111.14163 465
668.28149 958.98773 127.99346 358
676.19342 975.78479 144.41277 357
684.01172 991.81891 161.08919 355
604.12939 837.35187 62.53091 420
598.82318 826.05676 80.03458 432
597.01086 822.15027 95.68138 495
598.58813 825.39142 110.32922 498
659.95398 956.03925 111.08761 450
663.46216 964.24725 127.79176 484
675.61682 989.73602 143.58907 356
683.42682 1006.68909 160.53848 354
598.80499 839.10724 62.82734 420
593.65723 827.98254 79.97483 432
591.75909 823.99457 95.90814 495
593.26733 827.44202 110.42338 498
656.42712 964.10840 110.66579 433
662.21661 976.67175 127.00835 292
675.04022 1004.33264 142.69740 354
593.54999 841.07025 62.72653 420
588.50079 829.84265 80.22103 432
586.69281 825.96942 95.81941 496
588.24841 829.55280 110.54775 499
653.01392 972.04602 110.08931 433
659.63123 986.52734 126.44530 291
674.04913 1018.08777 141.85124 358
588.09528 843.09668 62.85597 420
583.13202 831.85052 80.14469 432
581.64441 828.16394 95.83009 496
583.40387 832.01862 110.62089 499
649.96173 981.20105 109.29572 431
656.69476 996.52551 125.80822 291
582.99530 844.97577 62.98804 421
578.14136 833.98120 80.32094 435
576.53656 830.17938 96.06472 496
578.29132 834.28210 110.43861 498
646.12830 988.55933 108.78895 430
653.91479 1006.94476 125.00301 291
577.90143 847.07727 63.04556 425
573.13531 836.25201 80.31853 435
571.34631 832.56262 95.85497 496
573.29260 836.68451 110.44714 498
642.40216 997.12225 108.23419 426
650.42456 1015.45508 124.36637 302
572.69214 849.65570 62.99477 425
568.04413 838.67389 80.15126 435
566.46582 834.83575 95.97747 496
568.31732 838.87286 110.42302 498
639.56989 1006.62427 107.50056 457
646.24127 1022.19940 124.06630 288
567.56049 851.77551 62.84005 425
562.90552 840.80609 80.13536 435
561.48700 837.18011 96.06377 490
563.25690 841.43835 110.33849 496
629.48010 1000.06110 108.46614 452
562.47876 854.19745 62.85044 426
557.91931 843.11029 80.29324 436
556.34973 839.45514 95.78645 490
558.41431 844.02448 110.52940 496
621.73010 998.51746 108.76314 455
557.31055 856.63495 62.88160 428
553.11975 845.60309 80.05790 436
551.38525 841.80524 95.94630 490
553.34857 846.68030 110.24955 492
613.76361 996.55835 109.36631 433
552.43500 859.11639 62.70510 427
548.18054 848.26758 79.98166 436
546.52063 844.21588 95.87904 490
548.58240 849.10699 110.36150 492
605.81073 994.02100 110.01743 449
547.23688 861.62384 62.74292 427
543.21838 850.58087 80.03387 436
541.51660 846.60760 95.85155 490
543.61511 851.65411 110.27139 492
598.17200 991.91370 110.56261 444
542.31702 864.19922 62.75924 427
538.09119 853.07867 79.89035 435
536.45923 849.00354 95.84260 490
538.52087 854.21796 110.19447 492
589.97815 989.11847 111.11156 420
537.16400 866.91632 62.42255 427
533.02765 855.77869 79.72150 435
531.42157 851.30878 95.60931 490
533.39606 856.61926 110.08043 492
581.72974 984.86639 111.66470 421
532.36584 869.47583 62.40304 427
528.09918 858.32245 79.87701 435
526.57483 853.75464 95.70040 489
528.56494 859.18640 110.02254 491
573.49548 981.05170 112.43546 422
527.26410 872.11658 62.38604 438
523.11566 860.83203 79.54263 435
521.42072 856.05212 95.68281 489
523.58990 861.58014 110.15315 491
565.10522 976.27325 113.17299 413
522.05334 874.42242 62.26695 438
518.25940 863.18121 79.49122 435
516.48151 858.54822 95.62405 489
518.60651 864.14252 109.83840 491
557.04608 972.75946 113.54697 387
516.98749 876.71143 62.16601 438
513.08795 865.71869 79.51938 435
511.54636 861.02179 95.46917 489
513.61621 866.93988 109.88322 484
548.58685 967.52563 114.42351 389
511.87585 879.24542 62.00987 438
508.19556 868.38727 79.42780 434
506.38223 863.23682 95.30045 489
508.70346 869.52289 109.82713 481
540.40790 962.73938 115.06979 413
506.72549 881.60168 61.92427 438
503.06360 870.99139 79.29308 434
501.33423 865.72571 95.20473 484
503.64206 872.09735 109.75912 480
532.38184 958.32880 115.91553 415
501.57367 883.92261 61.83083 426
498.19040 873.55121 79.01228 434
496.29138 868.16046 95.09652 282
498.47195 874.72675 109.53698 480
524.41321 953.66449 116.44096 409
496.39352 886.33655 61.74685 437
493.04361 876.03540 78.88628 434
491.20206 870.05334 95.15310 282
493.53436 877.44061 109.37075 480
516.38934 948.39807 117.44492 395
491.22186 888.62720 61.73016 437
488.18158 878.69281 78.95599 434
485.92172 871.79913 95.28823 282
488.50287 880.13940 109.40298 461
510.52109 950.17816 117.38633 410
482.97787 881.40607 78.75616 440
480.66043 873.75818 95.26995 282
483.69891 882.95898 109.32672 461
502.20721 943.91241 118.09960 393
478.00363 884.25085 78.56470 440
475.60822 875.72546 95.08710 491
478.46658 885.82379 108.99086 460
484.65836 906.10437 122.27671 277
473.02551 886.89606 78.44367 439
470.54694 878.61688 95.01837 490
473.73227 888.72699 108.85174 475
479.38614 908.27808 122.25412 277
467.89505 889.64703 78.14568 447
465.71808 881.54425 94.75887 490
468.66406 891.84351 108.79341 475
473.89368 910.49542 122.22494 279
462.79861 892.15985 78.05748 447
460.53372 884.42889 94.66726 489
463.45560 894.82141 108.59180 470
468.51334 912.88312 122.06532 279
457.83856 894.93158 77.75024 446
455.71664 887.07977 94.44724 437
458.51822 897.76105 108.52258 470
463.58145 915.91150 121.87932 294
452.70432 897.87549 77.54292 446
450.63422 890.12518 94.28387 435
453.64896 900.98468 108.10496 469
447.63339 900.71185 77.49093 446
445.66504 892.85742 94.02568 435
448.42365 904.07855 107.91244 469
451.90372 916.42358 122.08958 491
442.44519 903.44458 77.30753 456
440.61960 895.64423 93.73898 434
443.52036 907.20184 107.95912 468
435.63629 898.71454 93.68194 486
438.32812 910.11401 107.78444 466
430.42459 901.88879 93.46561 485
433.10773 913.10986 107.54124 466
425.32007 904.89819 93.27135 485
420.47113 908.09784 92.83583 484
416.04379 914.24774 92.32268 307
267.77103 592.27344 225.66699 1000
-893.87512 24327.16602 -4640.16504 1000
-5102.01025 35265.94141 -5088.24512 1000
-662.76422 2494.77295 42.54331 348
-662.21130 2494.44067 85.66571 414
-662.20459 2494.12842 129.40643 414
-662.59735 2494.67163 172.31549 464
-662.72394 2495.22339 215.43172 464
-662.25714 2495.41406 259.41217 493
127.62807 148.37210 169.42850 485
124.80642 148.96800 168.86288 489
123.67612 148.79196 168.74422 278
120.77582 149.31773 168.13898 489
119.66348 149.11932 168.02574 273
-1125.46021 1981.41187 59.01292 397
-1125.00940 1981.41187 98.62860 397
-1125.07031 1981.41663 138.13197 397
-1125.23828 1981.37903 176.98882 453
-1125.09583 1981.52954 216.55095 453
-1125.32581 1981.58154 255.33066 453
117.49688 150.39668 167.39389 316
116.63048 149.76355 167.41032 316
115.80492 149.10364 167.45152 316
114.90847 148.45061 167.42548 316
111.80607 150.93544 166.41817 314
110.94402 150.24316 166.37520 314
110.06893 149.55997 166.37593 314
-13547.04688 18505.31055 216.09915 1000
109.19041 148.87042 166.36925 314
108.35033 148.22334 166.41542 314
107.48460 147.49629 166.39130 314
106.63859 146.81088 166.37672 314
105.57463 146.38889 166.30040 423
104.04792 146.56935 166.00230 422
96.77515 155.58876 166.40446 310
102.45285 146.70462 165.67845 421
95.86047 154.82977 166.37749 310
100.91314 146.89110 165.36115 420
94.96191 154.07513 166.34818 310
99.33217 147.02547 165.07404 419
94.07006 153.27708 166.35115 309
97.68222 147.21519 164.76114 418
93.17863 152.53630 166.36464 309
96.06286 147.32985 164.45982 427
92.32028 151.75191 166.38033 309
-23509.09570 27779.10547 6249.23877 1000
94.54410 147.39737 164.16997 426
91.40694 150.94531 166.37926 309
92.90842 147.44933 163.84546 425
90.53979 150.15923 166.34785 309
91.32047 147.49237 163.55606 424
89.68293 149.36659 166.37927 309
90.12309 147.07716 163.40222 307
88.78116 148.61406 166.36879 309
89.37412 146.21327 163.45129 307
87.90199 147.80522 166.33566 309
88.59864 145.27391 163.43839 307
86.39838 147.68288 166.07825 421
87.87112 144.40886 163.49887 307
84.72952 147.73825 165.80052 420
87.12997 143.44878 163.55138 307
83.00217 147.84373 165.45488 419
75.01856 156.30931 166.28529 305
86.35712 142.56505 163.56778 307
81.29349 147.91174 165.14003 418
74.11875 155.42162 166.26131 305
85.64293 141.64870 163.57426 307
79.50719 147.97757 164.83128 417
73.17541 154.48080 166.25549 305
105.51599 119.64849 171.50041 316
77.75187 148.00424 164.50604 416
72.32365 153.57866 166.26610 305
104.84948 118.94019 171.50366 316
75.96027 148.09157 164.13361 415
71.37143 152.66751 166.25415 305
104.20155 118.17922 171.54482 316
74.12057 148.18085 163.80760 414
70.49245 151.77930 166.24765 305
103.54082 117.44559 171.50864 316
72.27567 148.23546 163.47516 413
69.64459 150.84239 166.24864 305
102.85885 116.69464 171.54240 316
70.97943 147.74945 163.34480 303
68.71248 149.93912 166.24269 305
102.23029 115.97831 171.51566 316
70.24083 146.71434 163.34662 304
67.84025 149.00072 166.26416 305
101.58442 115.20575 171.56506 316
69.48698 145.66443 163.38023 304
66.54844 148.49086 166.10884 410
100.96002 114.45345 171.54279 316
68.74501 144.62131 163.41927 304
64.59212 148.55794 165.78108 409
100.31645 113.68110 171.57906 316
68.03084 143.60783 163.43239 304
62.64498 148.64215 165.41051 408
99.69458 112.93794 171.54918 316
91.28644 120.60622 171.65529 312
60.62781 148.70688 165.03493 407
51.49360 156.99365 166.15332 301
99.08814 112.13380 171.57149 316
90.59381 119.82191 171.62529 312
58.54090 148.77591 164.67747 406
50.63157 155.93629 166.15218 301
98.47911 111.36694 171.59215 316
89.94366 118.96642 171.65379 312
56.50047 148.84531 164.26447 405
49.72403 154.89085 166.16959 301
97.86177 110.58575 171.59763 316
89.30216 118.14330 171.63597 312
54.40894 148.91368 163.89803 403
48.81295 153.82341 166.16634 301
97.25587 109.79532 171.59764 316
88.65077 117.29382 171.64020 312
52.23701 149.02919 163.48997 402
47.92224 152.79440 166.19765 301
96.65009 109.01083 171.57600 316
87.99365 116.45086 171.68060 312
50.46742 148.72375 163.19237 300
47.01266 151.72713 166.14902 301
96.05083 108.26204 171.61249 316
87.37218 115.61923 171.64172 312
49.75625 147.60168 163.23341 300
46.14319 150.61118 166.15509 301
95.43230 107.46442 171.61060 316
86.72636 114.74857 171.68300 312
49.07755 146.41708 163.28706 300
45.28696 149.59508 166.17953 301
94.85227 106.64432 171.60979 316
86.09422 113.92629 171.68320 312
76.13342 122.18321 171.74582 308
43.35956 149.38048 165.82794 398
94.26955 105.83179 171.60674 316
85.48319 113.07507 171.70114 312
75.45200 121.23659 171.76025 308
41.04034 149.48056 165.42368 397
-1142.71558 1118.74512 303.36172 1000
93.71429 105.07161 171.62273 316
84.84573 112.22105 171.67358 312
74.78793 120.32641 171.78429 308
38.65694 149.52145 165.02565 396
93.13278 104.23129 171.64172 316
84.24075 111.35353 171.69951 312
74.11664 119.42006 171.78514 308
36.22929 149.66714 164.59781 394
25.80496 158.01303 166.06984 297
92.57430 103.40430 171.64494 316
83.62959 110.49211 171.70699 312
73.47787 118.47878 171.76126 308
33.83778 149.71132 164.18088 393
24.86523 156.77599 166.05806 297
91.99631 102.59200 171.60657 316
82.99352 109.62120 171.68620 312
72.82217 117.54131 171.76607 308
31.33167 149.84795 163.73347 392
23.98017 155.56532 166.06737 297
-1611.94849 1429.45862 64.17576 482
-1612.74231 1430.32629 102.21581 482
-1614.00403 1430.68286 140.09291 482
-1614.72168 1431.30847 178.58463 443
-1615.81995 1432.54236 216.68027 443
-1616.83447 1433.27771 255.10143 442
91.42776 101.79645 171.65039 316
82.42994 108.72581 171.70911 312
72.15566 116.60311 171.81650 308
28.79514 149.95520 163.30336 391
23.07383 154.35187 166.06854 297
90.86961 100.96268 171.62259 316
81.80823 107.85186 171.73396 312
71.52534 115.67537 171.79025 308
27.41722 149.10371 163.16608 296
22.17564 153.14030 166.04362 297
90.31759 100.15771 171.65784 316
81.22955 106.97659 171.73444 312
70.88708 114.71368 171.78555 308
26.75979 147.76796 163.21457 296
21.29269 151.85989 166.03221 297
-18060.07617 13703.28125 -3170.78247 1000
89.77978 99.28773 171.63368 316
80.66643 106.05936 171.74509 312
70.28230 113.78049 171.83076 308
