# .PCD v.7 - Point Cloud Data file format
VERSION .7
FIELDS x y z rgb
SIZE 4 4 4 4
TYPE F F F U
COUNT 1 1 1 1
WIDTH 1356
HEIGHT 1
VIEWPOINT 6627.530273 132.109131 143.914062 -0.624023 -0.099646 -0.082005 0.770676
POINTS 1356
DATA ascii
57.54935 -51.88010 179.26163 414
54.57870 -52.77305 181.61249 411
51.54205 -53.71643 184.01083 409
48.41958 -54.68583 186.44882 407
45.04255 -55.72522 189.00652 392
41.49546 -56.82232 191.61923 390
37.81063 -57.97472 194.33530 387
34.03371 -59.17120 197.11479 385
29.86566 -60.46523 200.01047 371
25.33803 -61.86610 203.02850 369
20.58853 -63.33169 206.15747 366
78.95519 -46.22237 176.20961 428
76.51240 -46.97807 178.19275 426
71.54325 -48.56532 179.61137 308
57.10919 -53.15242 179.05943 413
54.12510 -54.07957 181.39816 411
51.09654 -55.02643 183.82550 408
47.76528 -56.08626 186.31082 394
44.30806 -57.20847 188.84744 391
40.72019 -58.34329 191.42249 389
37.04516 -59.48109 194.13861 386
33.18906 -60.67852 197.00752 384
28.80188 -62.08646 199.86098 370
24.19006 -63.55499 202.93504 368
19.37332 -65.06225 206.09930 365
78.68301 -47.29731 176.01324 427
76.25069 -48.06707 178.03717 425
71.88781 -49.48554 179.61688 308
56.67200 -54.38176 178.89172 412
53.67715 -55.35205 181.26569 410
50.46655 -56.43814 183.62729 395
47.05598 -57.52793 186.11252 393
43.56522 -58.61709 188.64145 390
39.96951 -59.81916 191.28229 388
36.20488 -60.99998 193.99966 385
32.14649 -62.35718 196.81468 372
27.71472 -63.76917 199.77541 369
23.07975 -65.29935 202.78519 367
18.14828 -66.83752 206.01183 364
78.41528 -48.35698 175.85278 426
75.95695 -49.15701 177.85391 424
72.18027 -50.40670 179.60114 308
56.26163 -55.68954 178.70766 412
53.05755 -56.71880 181.03995 397
49.75586 -57.82322 183.44838 394
46.37969 -58.93980 185.91142 392
42.81552 -60.09095 188.47548 390
39.19294 -61.34151 191.11794 387
35.37493 -62.58777 193.86972 385
31.14941 -63.96449 196.70042 371
26.57935 -65.47560 199.63278 369
21.87130 -67.05242 202.68405 366
16.96409 -68.67145 205.92322 363
78.15064 -49.44577 175.68260 426
75.70020 -50.26998 177.72719 424
72.53127 -51.32714 179.63097 308
55.67008 -57.04359 178.50095 398
52.41867 -58.10309 180.83440 396
49.11163 -59.21884 183.22121 394
45.66949 -60.42599 185.69719 391
42.08659 -61.60015 188.30704 389
38.38214 -62.82747 190.95712 386
34.46856 -64.18723 193.69112 373
30.05942 -65.68034 196.52840 370
25.51426 -67.19604 199.50510 368
20.71073 -68.80072 202.55487 365
15.65736 -70.50172 205.80431 362
77.89143 -50.54981 175.52429 425
75.41844 -51.39038 177.56433 423
72.87923 -52.25232 179.59404 421
55.01696 -58.40294 178.26866 397
51.79167 -59.52133 180.60655 395
48.39072 -60.68281 183.03790 393
44.91932 -61.88572 185.52263 390
41.33961 -63.13919 188.08116 388
37.56514 -64.42630 190.76738 385
33.41807 -65.85841 193.51624 372
29.01195 -67.32675 196.40302 369
24.37365 -68.94059 199.36174 367
19.47160 -70.62318 202.44092 364
14.38220 -72.40259 205.72522 361
77.63229 -51.63096 175.34581 424
75.15613 -52.53532 177.36600 422
72.58158 -53.40089 179.45522 420
54.42188 -59.77751 178.03018 397
51.11729 -60.97242 180.36081 394
47.70355 -62.12725 182.79796 392
44.19348 -63.35369 185.32202 389
40.53246 -64.65958 187.91608 387
36.71586 -65.99388 190.61745 374
32.39735 -67.51316 193.35577 371
27.89106 -69.11155 196.22054 368
23.19262 -70.73252 199.22937 366
18.27317 -72.46947 202.37431 363
11.78280 -74.76870 205.54980 315
77.37083 -52.74944 175.17212 424
74.85364 -53.67913 177.18652 421
72.28673 -54.58072 179.29909 419
62.14267 -58.22073 179.68445 304
50.45995 -62.37555 180.17166 393
47.01827 -63.62076 182.59265 391
43.46305 -64.90781 185.10580 389
39.79734 -66.19875 187.72342 386
35.75967 -67.66204 190.41563 373
31.36771 -69.18121 193.16765 370
26.77622 -70.85995 196.07303 368
22.04477 -72.57510 199.07741 365
16.42696 -74.52496 202.21434 332
8.56596 -77.34473 205.39911 314
77.10566 -53.88956 175.01164 423
74.59711 -54.81526 177.05124 421
71.98589 -55.75105 179.11476 419
62.54625 -59.17937 179.69568 304
49.78146 -63.84914 179.92645 392
46.29224 -65.13251 182.36147 390
42.71216 -66.41769 184.90976 388
38.95686 -67.75583 187.52522 385
34.74411 -69.30293 190.17369 372
30.28604 -70.97066 192.95419 369
25.68367 -72.60184 195.88515 367
20.54626 -74.47997 198.91316 334
13.83626 -76.91998 201.95921 316
5.23213 -80.07110 205.15039 313
76.85362 -55.01437 174.81306 422
74.30668 -55.95048 176.87630 420
71.72287 -56.93428 178.97769 418
62.89087 -60.16367 179.70811 304
49.08922 -65.30484 179.67952 392
45.55956 -66.60954 182.13882 389
41.97624 -67.96832 184.69456 387
38.00700 -69.45858 187.29636 373
33.70893 -71.05492 190.00839 371
29.22481 -72.70210 192.77542 368
24.54847 -74.41248 195.72441 366
18.35509 -76.71470 198.63577 333
10.68954 -79.60581 201.73293 314
1.74262 -82.88406 204.95026 312
76.55918 -56.16605 174.64877 422
74.01073 -57.09508 176.68294 419
71.38472 -58.11415 178.77200 417
63.29121 -61.16440 179.68562 304
48.38499 -66.81261 179.41791 391
44.85023 -68.13686 181.88640 388
41.19358 -69.52776 184.47717 386
37.04255 -71.08592 187.04913 372
32.68591 -72.73569 189.78355 370
28.11796 -74.47607 192.57368 367
22.44649 -76.61331 195.45381 334
15.96507 -79.10737 198.41043 316
7.41127 -82.33427 201.42375 313
-1.84393 -85.79523 204.75117 311
76.30540 -57.28875 174.45303 421
73.75682 -58.26050 176.48759 419
71.08795 -59.32344 178.60559 387
63.73030 -62.12507 179.67439 304
47.73036 -68.30724 179.20628 390
44.13244 -69.69509 181.66454 387
40.32748 -71.19816 184.22655 374
36.08887 -72.78878 186.81810 372
31.63663 -74.50667 189.58414 369
26.41742 -76.54082 192.33990 336
20.25461 -78.91854 195.17918 333
12.81439 -81.75567 198.11433 315
4.02976 -85.14560 201.17508 312
-5.52069 -88.83850 204.49292 310
76.03503 -58.43892 174.25429 420
73.46386 -59.46019 176.30827 418
70.43053 -60.64882 178.31972 387
64.11395 -63.13063 179.68027 304
47.03105 -69.82642 178.95708 389
43.37001 -71.29035 181.44807 387
39.37617 -72.86798 184.00261 373
35.06775 -74.55955 186.58571 371
30.28218 -76.39224 189.27119 337
24.31815 -78.72776 191.99817 334
18.00275 -81.23221 194.88681 332
9.60804 -84.53830 197.78101 314
0.48846 -88.13421 200.89464 311
75.77357 -59.62022 174.05379 419
72.95550 -60.77141 176.05779 388
69.76176 -62.00640 178.07800 386
64.53103 -64.12336 179.71214 304
46.29396 -71.38618 178.67831 388
42.59526 -72.89697 181.21870 375
38.43167 -74.56882 183.72993 372
34.02852 -76.32319 186.35631 370
28.27028 -78.57906 188.91617 336
22.21115 -81.00278 191.64563 333
14.95853 -83.91700 194.46220 315
6.27218 -87.39912 197.39433 312
-4.39968 -91.69926 200.46393 284
75.40234 -60.84213 173.81744 389
72.32903 -62.11312 175.78633 387
69.12074 -63.40044 177.79755 385
64.92949 -65.10273 179.69589 304
45.58752 -72.96249 178.45552 387
41.69833 -74.57867 180.90080 374
37.41632 -76.29974 183.43629 371
32.16452 -78.44376 185.96939 337
26.22733 -80.81828 188.60535 335
19.99518 -83.36435 191.35213 332
11.82245 -86.72032 194.10585 314
2.79079 -90.34997 197.03690 311
-21.87470 -100.44453 199.21111 265
74.79275 -62.15917 173.56361 388
71.65678 -63.45381 175.49532 386
68.43762 -64.77877 177.53410 384
65.36478 -66.06188 179.70078 304
44.85157 -74.55566 178.19418 386
40.75618 -76.26219 180.65950 373
35.88729 -78.28999 183.10216 338
30.15309 -80.61986 185.60510 336
24.16285 -83.13185 188.22479 334
17.12537 -86.06921 190.90059 315
8.53553 -89.59909 193.67227 313
-3.99431 -94.81186 196.38493 266
74.19524 -63.52027 173.22174 387
71.05057 -64.83320 175.20389 385
67.74502 -66.22551 177.24811 383
65.06140 -67.36157 179.51855 394
43.94976 -76.24285 177.90297 374
39.54401 -78.07622 180.29971 340
33.99372 -80.44028 182.67523 337
28.15618 -82.91000 185.16064 335
21.96888 -85.51357 187.83122 332
14.02786 -88.86166 190.47342 314
4.54769 -92.83241 193.21001 285
73.58418 -64.88591 172.94481 387
70.40611 -66.23560 174.92088 384
67.07786 -67.67391 176.97437 395
64.39658 -68.81543 179.23412 393
53.30050 -73.54805 179.76506 300
37.74737 -80.24456 179.81430 339
32.12076 -82.66966 182.21371 336
26.11832 -85.19924 184.77151 334
19.29410 -88.12913 187.37006 316
10.84477 -91.75826 189.95067 313
-3.82281 -98.02113 192.19659 266
72.96074 -66.23943 172.62914 386
69.74237 -67.66502 174.59686 383
66.45243 -69.06532 176.66171 394
63.71011 -70.28851 178.97301 392
53.75100 -74.62031 179.76019 300
35.92727 -82.37512 179.39046 337
30.10099 -84.91313 181.77823 335
23.98108 -87.61263 184.28470 333
16.28434 -90.95441 186.83023 314
5.45958 -95.66358 189.19434 285
72.31144 -67.66720 172.32341 385
69.05055 -69.09050 174.29008 382
65.77001 -70.54539 176.38388 393
62.99549 -71.78229 178.71558 391
54.25796 -75.64011 179.77501 300
34.00454 -84.59776 178.87375 336
28.07903 -87.22175 181.32474 334
21.50751 -90.16930 183.83362 316
13.14951 -93.85244 186.31487 313
-3.45560 -101.19341 188.01031 266
71.68470 -69.06040 171.98430 384
68.37276 -70.55394 174.00404 381
65.08891 -72.02890 176.07751 392
62.29043 -73.29310 178.42740 390
54.72110 -76.70708 179.76003 300
32.08992 -86.90914 178.35681 335
26.03476 -89.63480 180.80043 333
18.51383 -93.02678 183.21011 315
6.37710 -98.48766 185.23534 285
71.61500 -70.21529 171.83214 316
67.69253 -72.01732 173.66165 381
64.41936 -73.51903 175.78577 391
61.59668 -74.83257 178.11372 389
55.20255 -77.75053 179.76016 300
30.11209 -89.25417 177.84811 334
23.71488 -92.14144 180.31340 316
14.15910 -96.56342 182.43454 286
-2.88762 -104.36134 183.76361 266
72.08465 -71.18117 171.84108 316
67.01707 -73.51042 173.36810 380
63.75951 -75.05876 175.49734 390
60.90851 -76.39793 177.85643 388
55.71254 -78.80288 179.74309 300
28.06180 -91.63875 177.33366 333
20.80608 -95.00156 179.68690 315
7.40801 -101.24194 181.20773 285
-25.18653 -116.46029 180.47221 284
72.53633 -72.10213 171.81744 316
66.31461 -75.04945 173.01048 379
63.03140 -76.57101 175.18979 389
60.13311 -77.94563 177.52701 387
56.21861 -79.84363 179.76779 300
41.26561 -86.88084 179.87029 296
15.24921 -99.17376 178.54730 286
-2.19661 -107.42331 179.51428 266
-24.44661 -117.99277 180.41360 284
73.01648 -73.04264 171.84471 316
65.64658 -76.59147 172.68454 378
62.34940 -78.16969 174.89767 388
59.40374 -79.59016 177.25018 386
56.38566 -81.00765 179.67957 384
41.83861 -88.04083 179.87321 296
8.56985 -103.97602 177.20952 285
-15.65972 -115.67128 177.20677 345
-23.73817 -119.49253 180.40935 284
73.50632 -73.96799 171.82617 316
64.89351 -78.13859 172.35234 377
61.65565 -79.74102 174.54985 387
58.67347 -81.18547 176.94743 385
54.78749 -83.06860 179.20630 327
42.36648 -89.13873 179.88930 296
-8.88112 -114.14853 173.87952 289
-8.90564 -114.14326 178.16147 289
-23.02170 -121.02280 180.43481 284
73.96552 -74.89943 171.79625 316
64.17168 -79.76327 172.01158 376
60.93361 -81.33946 174.22871 386
57.60621 -82.97945 176.56940 328
52.62963 -85.47797 178.61974 327
42.92480 -90.26885 179.88252 296
25.34489 -98.99238 180.04663 292
0.34098 -111.40080 179.60411 291
74.45153 -75.83984 171.82408 316
64.35152 -80.87524 171.90683 312
60.21165 -82.96152 173.90172 385
55.47779 -85.34863 175.91238 327
50.38208 -87.90604 177.97852 326
43.51796 -91.38229 179.89856 296
25.92351 -100.25462 180.03000 292
4.72902 -110.87128 180.19194 288
74.94340 -76.71328 171.79593 316
64.87602 -81.88555 171.90117 312
58.32376 -85.23740 173.26256 328
53.29908 -87.77116 175.24628 326
48.07600 -90.48082 177.30795 325
42.64782 -93.25256 179.56775 323
26.58135 -101.43812 180.03796 292
5.37827 -112.28814 180.18808 288
75.45383 -77.64974 171.79575 316
65.38425 -82.84431 171.90923 312
56.25575 -87.61451 172.56248 326
51.08878 -90.28668 174.57378 324
45.65713 -93.07494 176.65674 323
40.09093 -95.98803 178.91628 321
27.21445 -102.65368 180.01855 292
6.10016 -113.58857 180.17451 288
75.94254 -78.56994 171.82745 316
65.92448 -83.86237 171.91049 312
54.57169 -89.81177 171.97717 308
48.72565 -92.91742 173.86786 323
43.21034 -95.78321 175.94870 322
37.45686 -98.84557 178.22424 320
27.84496 -103.90737 180.03470 292
6.76711 -114.96642 180.21425 288
76.44481 -79.50904 171.80058 316
66.49916 -84.80559 171.86894 312
55.13814 -90.84375 172.00441 308
46.32113 -95.55658 173.12355 322
40.64380 -98.65170 175.24261 321
34.69838 -101.78503 177.55118 319
17.49922 -110.99782 177.96483 272
76.98875 -80.41243 171.81387 316
67.02743 -85.76908 171.86772 312
55.72223 -91.92800 172.00230 308
43.87680 -98.34548 172.32108 321
37.99028 -101.53625 174.49231 320
24.03728 -109.12210 175.18909 271
-54.86261 -151.91286 164.21442 372
77.47628 -81.32900 171.77846 316
67.60124 -86.75281 171.88284 312
56.31073 -92.97194 171.96719 308
43.44134 -100.04103 172.10207 304
31.72530 -106.45588 172.91235 272
11.83984 -117.43349 172.53961 270
-50.89081 -151.93121 164.79495 373
77.99008 -82.21342 171.80672 316
68.10956 -87.71208 171.87331 312
56.90319 -93.97471 171.96159 308
44.08676 -101.16930 172.07898 304
29.20016 -109.47990 172.19614 300
11.81202 -119.16879 172.34108 296
-47.69257 -152.36357 165.15764 286
78.52619 -83.10008 171.76562 316
68.70984 -88.68209 171.88016 312
57.54597 -95.00632 171.93539 308
44.73785 -102.27603 172.08557 304
29.90292 -110.67645 172.18416 300
12.53566 -120.51148 172.31735 296
-46.73848 -154.05954 165.15987 286
79.06939 -83.99172 171.77924 316
69.25988 -89.64394 171.86302 312
58.10217 -96.04369 171.97485 308
45.34976 -103.36097 172.09264 304
30.58100 -111.88935 172.16469 300
13.31103 -121.78350 172.32495 296
-45.71475 -155.71979 165.19879 286
79.62978 -84.88020 171.78946 316
69.83279 -90.57979 171.86629 312
58.73310 -97.06629 171.94060 308
46.01192 -104.46729 172.06924 304
31.28144 -113.05233 172.16818 300
14.06587 -123.09969 172.34004 296
-44.78310 -157.37000 165.18582 286
80.15109 -85.79577 171.79391 316
70.42632 -91.54556 171.87694 312
59.36327 -98.08173 171.94861 308
46.68065 -105.60999 172.05971 304
32.02845 -114.27357 172.16766 300
14.82251 -124.42177 172.34708 296
-43.71450 -159.05629 165.18993 286
80.71274 -86.67737 171.74927 316
71.00279 -92.48611 171.85678 312
59.96094 -99.10003 171.91574 308
47.34674 -106.66449 172.07634 304
32.69289 -115.43984 172.17401 300
-27.51564 -151.58247 163.13014 371
-42.77589 -160.68768 165.20287 286
81.25572 -87.58351 171.75345 316
71.60604 -93.43652 171.86829 312
60.62954 -100.13026 171.92195 308
47.99575 -107.79842 172.04817 304
33.40919 -116.62589 172.19073 300
-23.86933 -151.43791 163.76166 372
81.81350 -88.46192 171.76019 316
72.19234 -94.40730 171.84999 312
61.24765 -101.13634 171.94775 308
48.71283 -108.89796 172.01282 304
34.18039 -117.81327 172.17052 300
-20.28896 -151.37805 164.32924 374
82.40782 -89.34727 171.76814 316
72.77158 -95.35325 171.83994 312
61.85626 -102.14926 171.95415 308
49.38387 -109.97337 172.03006 304
34.93367 -118.98105 172.17899 300
-16.80309 -151.25481 164.80775 375
82.98383 -90.20880 171.76205 316
73.42162 -96.29615 171.83983 312
62.52514 -103.15146 171.91978 308
50.08318 -111.06064 172.05067 304
35.64780 -120.18662 172.15526 300
-13.35672 -151.21013 165.33667 376
83.54448 -91.11929 171.72978 316
74.02791 -97.22012 171.84492 312
63.20700 -104.18011 171.91740 308
50.77398 -112.10574 172.02301 304
36.40919 -121.35091 172.15944 300
-10.90827 -151.70323 165.70299 291
84.11684 -91.99560 171.72040 316
74.61249 -98.17046 171.81911 312
63.85099 -105.19189 171.92328 308
51.47992 -113.23472 172.04089 304
37.14051 -122.54472 172.10992 300
-9.90757 -153.12386 165.71960 291
84.72208 -92.82317 171.72420 316
75.25933 -99.06150 171.83311 312
64.52292 -106.16879 171.91646 308
52.19364 -114.26554 171.98660 304
37.89775 -123.67250 172.12221 300
-8.87712 -154.56256 165.68275 291
85.31942 -93.68961 171.74628 316
75.90177 -99.98804 171.79027 312
65.18544 -107.15070 171.88264 308
52.90303 -115.36759 171.98524 304
0.10493 -150.61768 162.90172 285
-7.85678 -155.98486 165.67688 291
85.88751 -94.56303 171.71112 316
76.51818 -100.93669 171.80701 312
65.84484 -108.12926 171.89317 308
53.65169 -116.44563 171.99101 304
2.78161 -150.82367 163.34303 382
-6.88095 -157.38274 165.69551 290
86.49661 -95.44142 171.72649 316
77.15209 -101.86696 171.81291 312
66.55849 -109.11791 171.86412 308
54.34330 -117.46945 171.99809 304
5.87141 -150.77405 163.80370 383
-5.86379 -158.80093 165.69286 290
87.11477 -96.29852 171.70506 316
77.79205 -102.79082 171.80417 312
67.24995 -110.13091 171.87263 308
55.11417 -118.50977 171.99365 304
8.83841 -150.66640 164.26949 385
87.75199 -97.14346 171.68855 316
78.46902 -103.65839 171.77531 312
67.90092 -111.08756 171.87971 308
55.85493 -119.58961 171.95619 304
11.82066 -150.57358 164.77412 386
88.35621 -97.98367 171.68317 316
79.10897 -104.56168 171.77629 312
68.61627 -112.06367 171.89738 308
56.62298 -120.65965 171.98058 304
14.67941 -150.53745 165.28676 387
88.97492 -98.85237 171.69511 316
79.78950 -105.51034 171.77835 312
69.34724 -113.04090 171.87956 308
57.32965 -121.68898 171.99768 304
17.49968 -150.51198 165.68291 388
89.62370 -99.67522 171.69539 316
80.43173 -106.41522 171.78697 312
70.02895 -114.01291 171.87622 308
58.13615 -122.72329 171.97591 304
20.07432 -150.56038 166.08192 295
90.22437 -100.50179 171.69331 316
81.12704 -107.30968 171.77002 312
70.77348 -114.96475 171.88261 308
26.55891 -147.71693 163.26590 296
21.09531 -151.78156 166.11134 297
90.89233 -101.35347 171.68727 316
81.78600 -108.15775 171.76768 312
71.47303 -115.94157 171.86145 308
27.32132 -149.11592 163.20021 296
22.03243 -153.07022 166.12669 297
91.52834 -102.17474 171.70186 316
82.49055 -109.07431 171.74586 312
72.22221 -116.89493 171.84712 308
28.57596 -150.10724 163.28764 390
23.02823 -154.29485 166.11012 297
92.17209 -103.03903 171.68340 316
83.16462 -109.97604 171.74040 312
72.96786 -117.85224 171.84219 308
31.18241 -149.98087 163.76591 391
24.00753 -155.55261 166.10005 297
92.82056 -103.85191 171.65961 316
83.89549 -110.85642 171.73216 312
73.66516 -118.77153 171.84918 308
33.78181 -149.90192 164.16327 392
25.01737 -156.75848 166.14142 297
93.49871 -104.68268 171.67635 316
84.56796 -111.71073 171.75879 312
74.42583 -119.74209 171.84212 308
36.36460 -149.83133 164.61700 394
26.03753 -157.97552 166.12428 297
94.15554 -105.50642 171.67366 316
85.26568 -112.58646 171.73468 312
75.18536 -120.69007 171.84276 308
38.85383 -149.69138 165.05357 395
94.82488 -106.31525 171.66234 316
85.97291 -113.46138 171.71817 312
75.94180 -121.61804 171.82246 308
41.38425 -149.61017 165.46571 396
95.50897 -107.11237 171.65289 316
86.73259 -114.31155 171.71477 312
48.88750 -145.35329 163.38361 300
43.78194 -149.51813 165.89713 397
96.20127 -107.91957 171.62639 316
87.43155 -115.19685 171.69862 312
49.71076 -146.54732 163.37662 300
45.91177 -149.71411 166.25476 301
96.88593 -108.71574 171.63226 316
88.15134 -116.03882 171.70792 312
50.52308 -147.71454 163.32021 300
46.84985 -150.77777 166.25444 301
97.54911 -109.53716 171.62930 316
88.91595 -116.88808 171.69221 312
51.29568 -148.91002 163.32341 300
47.86824 -151.88997 166.21136 302
98.25146 -110.32770 171.61946 316
89.64786 -117.76124 171.69275 312
53.18154 -149.20912 163.58902 401
48.85975 -152.93846 166.23808 301
-1730.41577 -1687.36316 89.18555 499
-1734.10388 -1691.15686 131.83498 498
98.95043 -111.11839 171.61543 316
90.36288 -118.62706 171.71802 312
55.45979 -149.09505 163.95520 403
49.81998 -154.04018 166.23563 301
-1727.13647 -1705.63269 89.39170 393
99.68452 -111.90025 171.61928 316
91.14326 -119.41451 171.67043 312
57.69980 -149.03496 164.40848 404
50.79837 -155.10571 166.22502 301
100.38960 -112.66118 171.61209 316
91.89880 -120.30113 171.67554 312
59.89518 -148.94473 164.76256 405
51.83210 -156.15894 166.21552 301
101.07884 -113.43590 171.58968 316
68.69097 -142.85426 163.59467 304
62.02768 -148.82903 165.15871 406
52.81850 -157.24277 166.22240 301
101.80511 -114.25530 171.60913 316
69.44108 -143.88905 163.55440 304
64.20224 -148.77260 165.53180 407
102.51846 -114.99056 171.56929 316
70.26127 -144.95149 163.52234 304
66.24812 -148.65991 165.86708 408
103.25548 -115.79971 171.58681 316
71.12899 -146.00742 163.43991 304
68.35198 -148.61391 166.24759 409
103.97244 -116.53931 171.55687 316
71.93871 -147.02383 163.41641 304
69.55699 -149.27953 166.35139 306
104.70530 -117.29201 171.57635 316
72.78539 -148.05333 163.37434 304
70.55106 -150.23032 166.31177 306
105.48567 -118.05957 171.54607 316
74.41374 -148.36169 163.62682 412
71.49589 -151.19518 166.32362 306
106.22992 -118.80370 171.58273 316
76.33543 -148.29826 163.95404 413
72.48132 -152.12521 166.32652 306
-2894.60278 -3082.07031 145.11314 278
106.95737 -119.54145 171.55440 316
78.31440 -148.22272 164.31166 414
73.51927 -153.06357 166.37277 306
-2815.25635 -3040.91309 75.65139 304
-2922.56885 -3147.90381 143.50540 287
87.11588 -141.19514 163.65179 311
80.17966 -148.17897 164.66548 415
74.46764 -153.95729 166.35948 306
-2708.91650 -2971.37598 79.77786 270
-2943.27222 -3207.69897 143.05457 460
87.91169 -142.13898 163.67401 311
82.08423 -148.07159 165.01607 417
75.45123 -154.90047 166.37692 305
-2636.47876 -2933.18091 81.74627 285
-2762.20630 -3063.03247 146.60805 354
88.78706 -143.04587 163.64252 307
83.95076 -148.00459 165.35622 418
76.45264 -155.80867 166.33272 305
-2576.04419 -2907.02344 84.56660 329
-2711.59277 -3047.17627 147.64597 425
89.57579 -143.95297 163.56235 307
85.79620 -147.93098 165.64052 419
77.44646 -156.72850 166.38872 305
-2521.27612 -2885.39160 86.38803 330
-2655.11963 -3025.87158 148.44646 357
90.47000 -144.89516 163.53377 307
87.63552 -147.88419 165.97711 420
-2467.58472 -2864.74854 87.23847 331
-2538.12451 -2940.45923 150.49187 359
91.31240 -145.76065 163.50620 307
89.38533 -147.80154 166.29134 421
-2415.41211 -2844.12720 88.99320 333
-2507.23901 -2942.49512 150.48471 378
92.16815 -146.66624 163.49632 307
90.98278 -148.22231 166.40134 309
-2363.65820 -2823.66968 91.46282 334
-2501.26782 -2971.68970 150.86893 470
-2584.44263 -3063.23193 215.87155 387
93.00783 -147.62306 163.49739 307
91.67877 -149.04947 166.40770 310
-2314.78638 -2804.12207 92.63343 335
-2490.84814 -2998.40161 149.78539 472
-2430.55054 -2931.59863 216.16615 499
94.64988 -147.63544 163.76588 423
92.66929 -149.85532 166.45172 310
-2266.06616 -2784.68311 94.24080 336
-2480.79932 -3024.17432 150.25879 472
96.39000 -147.55045 164.07181 424
93.60983 -150.67982 166.46210 310
-2228.56030 -2775.52710 95.37263 399
-2471.31348 -3050.28833 149.36838 471
98.17477 -147.40483 164.39157 415
94.57179 -151.48853 166.44273 310
-2200.48340 -2778.74805 96.06174 350
-2460.65698 -3077.23022 149.96201 474
-2400.11597 -3007.58105 282.25491 445
-2058.75171 -2616.55420 444.05640 1000
99.95175 -147.19266 164.72302 416
95.57049 -152.27904 166.43750 310
-2245.55737 -2866.18970 92.91447 467
-2447.42114 -3100.52930 148.96843 371
-2389.72388 -3032.76221 282.04083 444
101.66215 -147.05232 165.08817 417
96.53211 -153.06021 166.46106 310
-2236.54565 -2891.24219 91.73515 466
-2383.30615 -3063.23315 150.53256 370
103.43530 -146.87997 165.41362 418
97.51514 -153.87054 166.45424 310
-2226.58276 -2915.19507 91.16777 465
-2229.88574 -2919.14136 153.87251 371
105.14474 -146.71115 165.71445 419
98.50867 -154.65602 166.48465 310
-2217.25146 -2941.32080 91.56692 463
106.81342 -146.53676 166.05153 420
99.48274 -155.40805 166.45758 310
-2207.75903 -2965.83691 91.16743 463
-2201.67554 -2958.93530 153.90839 495
108.50272 -146.38861 166.34134 421
-2198.20264 -2991.92871 89.86012 462
109.64429 -146.78790 166.43861 314
-2184.28418 -3011.79590 90.20002 365
110.59693 -147.51045 166.46382 314
-2144.82666 -3000.90063 90.79107 420
111.55637 -148.22498 166.44748 314
-2118.94995 -3006.95898 91.87737 352
112.47536 -148.90367 166.45802 314
-16714.53906 -21983.47461 -6255.75928 1000
113.47534 -149.61951 166.46075 314
115.90815 -148.32016 167.12706 438
117.33396 -148.29169 167.35207 439
118.47659 -148.72745 167.43341 316
118.20464 -149.10033 170.51149 439
119.39017 -149.40756 167.41422 316
119.13342 -149.75914 170.51161 312
-10546.87695 -14904.54102 -2820.29810 1000
120.68899 -149.61313 167.61377 490
120.07884 -150.47038 170.50806 312
121.28683 -150.74763 167.40634 316
124.14774 -148.69810 168.31630 489
105.00706 -1071.45300 74.62566 441
104.59329 -1073.50696 92.47790 383
104.53469 -1075.87219 110.05286 383
103.84814 -1079.27063 127.43627 384
103.82523 -1081.90002 145.12886 311
-2080.84692 -19725.22656 3495.84546 1000
111.98611 -1068.04810 75.31886 482
111.84576 -1069.76697 92.78394 482
111.67047 -1071.80591 110.37597 482
111.43499 -1073.58105 128.21974 471
111.28087 -1075.38147 145.81729 482
110.77901 -1077.28430 163.29657 498
118.66811 -1067.17188 75.45521 499
118.56906 -1069.32678 92.92475 499
118.31076 -1071.63452 110.46597 492
117.95179 -1073.93884 128.15462 466
117.88908 -1076.73938 145.75143 461
117.32294 -1080.28137 163.23988 403
125.22865 -1068.88953 75.26143 492
124.92164 -1071.63611 92.89684 461
124.59860 -1074.68250 110.31393 460
124.30717 -1079.03027 127.71880 408
131.34035 -1072.82959 74.81051 460
130.91985 -1077.74927 92.20448 408
-208.17932 -17855.96680 1976.16284 1000
1157.79993 -1923.29956 111.53241 481
1168.48328 -1915.03101 112.16272 462
1178.89417 -1907.19482 111.78930 463
1186.74060 -1922.07849 146.36734 390
1189.56714 -1898.46533 112.39894 452
1196.35791 -1912.57788 146.71489 406
1200.45435 -1890.87244 112.47880 449
1206.63806 -1903.44397 146.37210 421
1211.41113 -1883.30811 112.38075 449
1216.96863 -1894.25122 146.76807 437
1222.29993 -1876.36963 112.39438 448
1227.10120 -1885.67957 147.16782 449
1233.18213 -1869.09106 112.69899 449
1237.65686 -1877.46155 146.79366 464
1243.76550 -1861.81116 112.71491 449
1248.03796 -1869.26208 147.27449 464
1254.98755 -1854.78955 112.90695 449
1258.76208 -1861.53149 147.14738 465
1266.04675 -1847.66541 112.49056 449
1269.12000 -1853.65613 147.25053 465
1276.82056 -1840.69312 112.46746 449
1279.99512 -1845.70923 147.18846 483
1288.20483 -1833.95703 113.00475 448
1290.46313 -1838.38489 146.99190 484
1292.14001 -1828.01318 113.57308 449
1294.52478 -1831.60803 148.14780 490
1303.78931 -1822.11719 113.57804 446
1305.43677 -1824.62805 147.83742 491
1407.74915 -1997.85571 179.29588 346
1315.66321 -1816.26733 113.55886 446
1316.85620 -1818.05872 147.81943 495
1404.42737 -1964.90308 179.92841 348
1327.42542 -1811.16199 113.40397 445
1327.97815 -1811.99829 148.28549 494
1401.45667 -1933.04773 180.71117 349
1339.51965 -1805.74146 113.59869 445
1339.94873 -1806.32495 148.25827 496
1398.58337 -1901.63416 181.29346 350
1351.19202 -1800.46509 113.19092 441
1351.82397 -1800.99890 147.73421 493
1395.04431 -1870.27478 181.62691 474
1363.67163 -1795.52429 112.92648 441
1364.22180 -1796.33496 148.12663 493
1392.45508 -1841.42139 182.04117 353
1376.00879 -1790.81677 112.70192 441
1376.27087 -1791.37402 148.13361 494
1389.23254 -1811.60803 182.19519 350
1389.09875 -1786.44202 112.58891 442
1388.60852 -1785.79773 147.71671 493
1397.69519 -1799.57336 182.66237 475
1401.94434 -1782.67493 112.42155 442
1401.09351 -1781.41492 147.61627 490
1405.78235 -1788.12683 182.58963 476
1415.05798 -1779.39917 112.54877 442
1413.95203 -1776.67505 147.38083 490
1417.94397 -1782.82886 182.18234 489
1429.07239 -1776.00806 112.44132 435
1427.27893 -1772.96350 147.41457 485
1430.97974 -1778.91663 182.51427 486
1443.52478 -1773.36096 112.07592 434
1440.78186 -1769.33728 147.12294 475
1444.47742 -1775.62036 182.30316 474
1457.70593 -1771.38733 111.61182 428
1455.14417 -1767.59766 147.19046 474
1459.70959 -1774.02002 182.42361 470
1472.91162 -1769.92810 110.90497 426
1469.77539 -1765.79431 146.81839 468
1474.43359 -1771.99023 181.99780 469
1487.91467 -1768.35400 110.50380 425
1484.74341 -1763.71887 146.53683 467
1488.89221 -1769.52136 181.76392 468
1503.82458 -1766.93311 110.38538 431
1500.01782 -1762.40430 146.48099 466
1519.29395 -1765.62720 110.15575 430
1515.35278 -1760.49097 146.19836 465
1535.32666 -1764.67664 109.65028 429
1531.15491 -1759.12512 146.01491 465
1550.81226 -1763.76025 109.28391 434
1546.30762 -1757.82092 145.25163 464
1566.80286 -1761.66418 108.96302 434
1562.44946 -1755.68311 145.20375 463
1582.54248 -1759.97852 108.07704 433
1577.99072 -1754.43994 144.81796 462
1598.13574 -1758.03784 107.67651 432
1593.68835 -1752.25024 144.84576 461
1614.14380 -1756.42590 107.75646 432
1609.97583 -1750.61316 144.53203 461
1630.52600 -1754.18262 107.22517 431
1625.80920 -1749.34583 143.94472 460
1646.38062 -1752.38135 106.45615 430
1642.06348 -1747.61804 143.65887 459
1662.79053 -1751.18848 106.48193 442
1658.84741 -1745.71887 143.68825 458
1679.56262 -1749.39551 105.94303 441
1675.05908 -1744.11401 143.20569 457
1697.14075 -1747.76294 105.40240 440
1692.13574 -1742.32776 142.65820 457
1714.06628 -1746.91345 104.92822 440
1708.52087 -1740.46289 142.33844 456
1731.38086 -1745.03906 104.52782 439
1725.80383 -1738.39392 142.06561 455
1748.75061 -1743.62939 103.97858 438
1742.62317 -1736.40979 141.73366 454
1766.58765 -1742.03516 103.47075 439
1759.61438 -1734.82886 141.39001 453
1784.34949 -1740.65332 102.72113 437
1777.39587 -1732.84241 141.14841 452
1802.14099 -1738.64856 102.04262 436
1794.56372 -1731.09802 140.69530 451
1819.73926 -1737.09143 101.56760 436
1812.35632 -1729.25696 141.00964 450
1837.76770 -1735.47717 100.85099 435
1830.13940 -1727.07117 140.11128 450
1853.81116 -1731.21912 100.58720 437
1875.42322 -1732.24805 99.84456 436
33995.34766 -33366.59375 -3659.30933 1000
376.35211 -105.13488 167.65344 313
376.93265 -104.22388 167.65094 313
377.52328 -103.23788 167.66016 313
378.09079 -102.29506 167.66055 313
378.67551 -101.36087 167.67737 315
379.23300 -100.44638 167.69791 315
1058.15857 -542.22656 86.07133 323
379.79974 -99.49378 167.68588 315
1054.67261 -532.70587 87.27808 449
1057.20154 -534.40405 103.18798 449
1059.82568 -535.86127 119.25932 393
1064.20715 -538.83643 135.28014 337
380.40726 -98.48898 167.68587 315
1055.42102 -526.06458 87.63098 486
1057.55579 -527.40765 103.54617 486
1059.76990 -528.88635 119.63720 486
1062.30908 -530.49200 135.79073 483
1064.05554 -531.56146 151.77881 485
1066.21631 -532.81927 167.91464 487
380.97104 -97.54739 167.68265 315
1058.02490 -520.62592 87.81910 499
1060.13660 -522.16919 103.85087 499
1062.33801 -523.35596 119.81886 488
1065.33044 -525.19971 135.84155 489
1067.93274 -526.89105 151.78563 375
1069.54529 -527.78326 168.11595 489
381.51154 -96.58144 167.69820 315
1062.51172 -516.35657 87.42271 488
1064.91504 -517.81470 103.60364 453
1067.88208 -519.58105 119.57151 452
1071.95178 -522.13147 135.36391 392
1077.25769 -525.42932 151.43788 479
382.04428 -95.62859 167.71608 315
1069.55212 -513.41516 87.03033 397
1073.23706 -515.93585 102.93150 397
382.72208 -94.74403 167.66144 435
384.11371 -94.27769 167.39716 434
385.47989 -93.76672 167.15425 433
386.88300 -93.30968 166.86792 432
395.27405 -98.13366 167.70978 309
388.33026 -92.81214 166.58995 431
395.84628 -97.05563 167.69806 309
389.73553 -92.31953 166.31427 430
396.34619 -95.97475 167.70279 309
391.21799 -91.80668 166.06435 429
396.89014 -94.92630 167.71339 309
392.67062 -91.27273 165.74164 428
397.42303 -93.86800 167.76035 309
394.13220 -90.76018 165.46007 427
397.88965 -92.77373 167.76631 309
395.65131 -90.22497 165.15614 426
398.42059 -91.71729 167.77231 309
397.17438 -89.74151 164.89584 425
398.90356 -90.60626 167.76585 311
397.98956 -88.83757 164.78961 317
399.42990 -89.52058 167.74887 311
398.53635 -87.75248 164.76910 317
400.30435 -88.63036 167.66414 423
399.05600 -86.70176 164.75133 317
401.89777 -88.10973 167.38477 422
399.59955 -85.65748 164.76970 317
403.46066 -87.54119 167.05821 421
400.08728 -84.61220 164.75250 317
405.08273 -87.01865 166.73735 420
414.58817 -91.54119 167.75412 305
400.58344 -83.50437 164.77158 316
406.74313 -86.41660 166.45238 419
415.07529 -90.36800 167.75267 305
401.10172 -82.42731 164.77438 316
408.17603 -85.73575 166.20871 438
415.60953 -89.20901 167.75172 305
401.55692 -81.40218 164.78171 316
409.59036 -85.03725 165.95531 437
416.09378 -88.02370 167.80351 305
402.04855 -80.28308 164.73691 316
411.02066 -84.32034 165.69724 436
416.51401 -86.84072 167.80017 305
402.48459 -79.19646 164.76645 316
412.46854 -83.61468 165.41263 435
416.98700 -85.64315 167.77074 305
402.94214 -78.12394 164.74504 316
413.97720 -82.90387 165.16028 434
417.47452 -84.44272 167.82643 305
403.41635 -77.04012 164.74202 316
415.45572 -82.19884 164.87476 433
417.90588 -83.23989 167.84277 305
380.28314 -65.97686 171.61714 316
415.92566 -81.04514 164.82553 312
418.37808 -82.04391 167.79756 305
380.60486 -65.02825 171.62816 316
416.41843 -79.84921 164.87398 312
418.78799 -80.85796 167.85611 305
380.97443 -64.09267 171.62802 316
416.87421 -78.68504 164.81952 312
420.03183 -79.97678 167.66995 431
381.35681 -63.12319 171.60391 316
417.36908 -77.49717 164.85117 312
421.55905 -79.20586 167.38518 430
381.67319 -62.13374 171.60298 316
417.82806 -76.33304 164.83322 312
423.13760 -78.43641 167.10280 429
382.02707 -61.16776 171.62083 316
418.26520 -75.16868 164.82838 312
424.74261 -77.67789 166.78250 428
382.36826 -60.22871 171.64125 316
418.73044 -73.98156 164.81265 312
426.38522 -76.89142 166.50702 427
382.69434 -59.27160 171.61092 316
419.16068 -72.78304 164.83852 312
427.97232 -76.07081 166.22424 426
437.12241 -79.47925 167.84032 301
382.98538 -58.27635 171.60954 316
419.54080 -71.61874 164.83771 312
429.63998 -75.27225 165.90884 425
437.57684 -78.17065 167.82507 301
383.32150 -57.30737 171.61310 316
419.95609 -70.41946 164.81252 312
431.31268 -74.47572 165.60182 424
437.96719 -76.88137 167.84663 301
383.65079 -56.32484 171.63437 316
420.39227 -69.20872 164.79440 312
432.99561 -73.64438 165.29436 423
438.32321 -75.52296 167.82639 301
383.96310 -55.34694 171.63824 316
394.62109 -59.04604 171.73097 312
434.71896 -72.80001 165.00070 422
438.71115 -74.22073 167.86089 301
384.25323 -54.35063 171.65242 316
394.93860 -57.99967 171.75208 312
435.40063 -71.60185 164.89966 308
439.07806 -72.87344 167.84428 301
384.52997 -53.40696 171.63722 316
395.26160 -56.94880 171.77528 312
435.81729 -70.34744 164.91605 308
439.45813 -71.53975 167.88092 301
384.83279 -52.41267 171.65025 316
395.55273 -55.91074 171.73019 312
436.21921 -69.05622 164.93192 308
439.86453 -70.26084 167.85567 434
385.12097 -51.40427 171.66211 316
395.86026 -54.82455 171.74330 312
436.62598 -67.74203 164.92151 308
441.47333 -69.27993 167.61404 433
385.37347 -50.44061 171.64015 316
396.16367 -53.76646 171.74135 312
436.97876 -66.42899 164.87648 308
443.05063 -68.30016 167.33960 432
385.67334 -49.45980 171.63716 316
396.43210 -52.75258 171.76425 312
437.36664 -65.10869 164.92857 308
444.64127 -67.38039 167.06754 431
385.90103 -48.44067 171.65776 316
396.73068 -51.64702 171.73958 312
437.68536 -63.85463 164.89397 308
446.26236 -66.36604 166.81415 430
386.16510 -47.47504 171.64281 316
397.00531 -50.59558 171.76903 312
438.04755 -62.51564 164.89906 308
447.91537 -65.39211 166.47647 429
386.40976 -46.48149 171.64130 316
397.29108 -49.57677 171.77588 312
438.40292 -61.20617 164.92380 307
449.60693 -64.36596 166.24373 428
386.65930 -45.47289 171.68245 316
397.54340 -48.49014 171.76253 312
438.74271 -59.87545 164.91901 307
451.33231 -63.40020 165.90633 427
461.07104 -66.04969 167.92033 297
386.92719 -44.47448 171.67287 316
397.77991 -47.42612 171.74921 312
410.14648 -50.76742 171.90523 309
453.00986 -62.32238 165.62338 426
461.39633 -64.60402 167.93956 297
387.16821 -43.48567 171.68373 316
398.06476 -46.36996 171.75145 312
410.43079 -49.62882 171.87599 309
454.71216 -61.31227 165.30421 425
461.69263 -63.11662 167.93451 297
387.35660 -42.48248 171.69350 316
398.30878 -45.30526 171.78369 312
410.69226 -48.48617 171.91547 309
456.46942 -60.27328 164.97917 303
461.96881 -61.69241 167.97691 297
387.58432 -41.47511 171.69627 316
398.51480 -44.22698 171.76498 312
410.96472 -47.34750 171.92624 309
456.79050 -58.85644 164.99159 303
462.24023 -60.22007 167.93256 297
387.80020 -40.51246 171.68695 316
398.76501 -43.18831 171.78214 312
411.19727 -46.18361 171.91817 309
457.11389 -57.44374 165.00549 303
462.51083 -58.74036 167.98055 297
388.02100 -39.47606 171.69806 316
398.98792 -42.09276 171.78508 313
411.44635 -45.02732 171.92705 309
457.43677 -55.98615 165.01054 303
462.76706 -57.26170 167.97134 297
388.21246 -38.48992 171.67822 316
399.20322 -41.04879 171.76216 313
411.64227 -43.90911 171.93010 309
457.74170 -54.56936 165.00027 303
463.32581 -55.85202 167.93465 453
388.42862 -37.49080 171.66173 316
399.43500 -39.93696 171.78629 313
411.89670 -42.75215 171.91441 309
458.02432 -53.13315 164.96968 304
464.61145 -54.61135 167.73343 452
388.63287 -36.46814 171.66644 316
399.60693 -38.86536 171.78619 313
412.11359 -41.62478 171.92039 309
458.35458 -51.66942 164.98552 304
465.98129 -53.35206 167.55423 451
388.83096 -35.48535 171.69025 316
399.84808 -37.81417 171.78723 313
412.33405 -40.46814 171.89783 309
458.62042 -50.26538 164.96983 304
467.30273 -52.07027 167.28185 450
388.99872 -34.45220 171.69955 316
400.02533 -36.74949 171.79012 313
412.56384 -39.27410 171.91051 309
458.83514 -48.78779 164.98358 304
468.70477 -50.79859 167.08739 450
389.14502 -33.43595 171.69992 316
400.19604 -35.63884 171.80803 313
412.72211 -38.14039 171.92664 309
427.09354 -41.01575 172.03346 305
470.02008 -49.52806 166.89090 449
389.31055 -32.42373 171.69208 316
400.41101 -34.57354 171.78091 313
412.94073 -36.95852 171.91347 309
427.30383 -39.75136 172.03996 305
471.47073 -48.26919 166.63414 448
389.49292 -31.41535 171.66646 316
400.58951 -33.45812 171.78845 313
413.15320 -35.83937 171.91316 309
427.52362 -38.51360 172.03888 305
472.85031 -46.97696 166.42561 447
389.64185 -30.42504 171.69360 316
400.72635 -32.43298 171.77608 313
413.30920 -34.67157 171.91661 309
427.69385 -37.23685 172.05496 305
474.21075 -45.64622 166.15689 446
389.82867 -29.41034 171.71512 316
400.89978 -31.34255 171.80284 313
413.48538 -33.52945 171.90778 309
427.88928 -35.99051 172.03992 305
475.64011 -44.27835 165.92633 445
389.93039 -28.38370 171.67082 316
401.05658 -30.21820 171.80421 313
413.67047 -32.34272 171.94884 309
428.08478 -34.77298 172.08632 305
477.09439 -42.96846 165.69814 444
487.92664 -44.75871 168.03542 293
390.10245 -27.35340 171.69019 316
401.20969 -29.14436 171.78432 313
413.79239 -31.20234 171.90410 309
428.26620 -33.50149 172.06172 305
478.57755 -41.59039 165.49120 443
488.13138 -43.14096 168.04337 293
390.20474 -26.36744 171.70967 316
401.34549 -28.06461 171.80453 313
413.97842 -30.02197 171.92697 309
428.38791 -32.26335 172.09586 305
479.99481 -40.21549 165.19743 442
488.26987 -41.47219 168.09952 294
390.37488 -25.33902 171.67665 316
401.51257 -26.98122 171.79315 313
414.09048 -28.83972 171.91444 309
428.57361 -30.99265 172.08107 305
480.56992 -38.69678 165.16768 300
488.39117 -39.84845 168.11534 294
390.46207 -24.30004 171.70293 316
401.62796 -25.92004 171.80453 313
414.25610 -27.70311 171.90147 309
428.74545 -29.76905 172.05139 305
480.73642 -37.14812 165.10995 300
488.44778 -38.28196 168.10602 294
390.56241 -23.29328 171.71281 316
401.75873 -24.78067 171.82062 313
414.40814 -26.50820 171.95044 309
428.87405 -28.50833 172.06952 305
480.97403 -35.54827 165.17068 300
488.57901 -36.63842 168.16553 294
390.70935 -22.25944 171.71617 316
401.82855 -23.70024 171.82310 313
414.52344 -25.37865 171.90616 309
428.96802 -27.21672 172.08958 305
481.12897 -34.03176 165.15903 300
488.69116 -34.94940 168.11491 294
390.79141 -21.27117 171.68222 316
401.95200 -22.62966 171.82936 313
414.65442 -24.20932 171.94153 309
429.13220 -25.95414 172.09267 305
445.86584 -28.07378 172.21037 301
488.70825 -33.34095 168.18672 294
1935.85876 -211.85486 132.00992 331
1929.53491 -211.30125 160.58313 328
390.90076 -20.21645 171.69540 316
402.07559 -21.54241 171.79543 313
414.75275 -23.04471 171.94031 309
429.25800 -24.72382 172.09869 305
446.03384 -26.67981 172.21523 301
488.79980 -31.71608 168.19025 294
1904.87964 -197.83157 133.64880 375
1902.04077 -197.12015 161.73679 411
1932.83264 -200.85426 188.59093 318
390.97556 -19.21603 171.71002 317
402.15921 -20.42958 171.83025 313
414.83643 -21.85699 171.95189 309
429.38138 -23.47437 172.04562 305
446.13293 -25.33078 172.21306 301
488.86743 -30.04407 168.20116 294
1896.15576 -186.38707 134.25781 454
1894.96924 -186.14558 161.94440 457
1916.96863 -188.62192 189.13680 334
391.06424 -18.16353 171.70442 317
402.27432 -19.35741 171.81960 313
414.95749 -20.68519 171.94719 309
429.46890 -22.21691 172.05380 305
446.26208 -23.99499 172.23914 301
490.07642 -28.52177 167.97632 456
1890.73877 -175.30455 134.59692 457
1888.86145 -175.07874 162.14735 458
1913.11877 -177.52580 189.17119 408
391.13550 -17.14783 171.70343 317
402.33438 -18.25412 171.83247 313
415.02097 -19.50311 171.92937 309
429.57947 -20.97278 172.06067 305
446.40372 -22.62676 172.23450 301
491.33264 -27.00063 167.83897 455
1884.34399 -164.55017 134.79201 445
1883.63733 -164.26740 162.08632 471
1915.13562 -167.30481 189.19214 345
391.21677 -16.14349 171.72067 317
402.41559 -17.15667 171.83580 313
415.14761 -18.33562 171.92520 309
429.67477 -19.68386 172.09076 305
446.45993 -21.23658 172.22778 301
492.57455 -25.53058 167.59933 454
1932.53333 -158.63766 104.53021 417
1880.10706 -153.61827 135.28426 459
1880.38464 -153.89369 162.36967 464
1915.67041 -156.74049 188.79503 379
391.27054 -15.10286 171.68704 317
402.50977 -16.06658 171.78879 313
415.24240 -17.19357 171.91542 309
429.76556 -18.44658 172.04977 305
446.59503 -19.88130 172.22076 301
493.86169 -23.97336 167.38190 453
1929.56445 -147.90552 104.67881 498
1875.29675 -143.19130 135.47035 465
1876.05872 -143.23010 162.70311 457
1928.36792 -147.64342 188.79509 499
391.36868 -14.08759 171.69649 317
402.55927 -15.00405 171.80263 313
415.28400 -16.02685 171.94551 309
429.85403 -17.13810 172.09964 305
446.65170 -18.50068 172.26280 301
495.10361 -22.42006 167.22055 452
1898.53796 -134.47360 106.72906 272
1870.37317 -132.21950 135.79552 466
1872.16443 -132.70329 162.46977 455
1915.40198 -135.98199 188.81804 469
391.38553 -13.06431 171.68726 317
402.64471 -13.86786 171.79237 313
415.36829 -14.83529 171.94000 309
429.92029 -15.87703 172.08589 305
446.73648 -17.16995 172.22298 301
496.37604 -20.78281 166.98628 451
1883.58801 -123.28069 107.84815 338
1865.17041 -121.85542 136.10696 467
1868.70447 -122.03911 163.01440 456
1911.48279 -125.49508 189.19591 442
391.47321 -12.03712 171.72327 317
402.65918 -12.80084 171.83038 313
415.42245 -13.66202 171.91316 309
429.94974 -14.65318 172.10558 305
446.83582 -15.75377 172.21011 301
497.16376 -19.22168 166.83742 483
1874.52905 -112.31390 108.57642 337
1864.80859 -111.92982 136.10974 470
1865.14246 -111.95550 162.72173 457
1939.88623 -116.82758 188.72311 395
391.51440 -11.02925 171.69376 317
402.74130 -11.72351 171.81274 313
415.46533 -12.50258 171.95952 309
430.03412 -13.38335 172.08598 305
446.84799 -14.41024 172.23058 301
497.83826 -17.53179 166.72227 482
1865.75110 -101.57964 109.10403 396
1860.36938 -101.56587 136.36348 471
1861.99365 -101.29321 162.98984 429
2008.39514 -110.30180 187.70261 467
391.54486 -10.00160 171.69453 317
402.74673 -10.58614 171.80020 313
415.48309 -11.32044 171.93381 309
430.08466 -12.12372 172.06812 305
446.92261 -13.06963 172.21820 301
498.56195 -15.91860 166.59592 482
1859.41052 -91.13625 109.46124 401
1855.95959 -90.89457 136.63666 478
1859.32959 -91.10276 163.37321 431
391.55722 -8.96468 171.71817 317
402.82202 -9.51381 171.82712 313
415.53210 -10.14886 171.96362 309
430.13248 -10.83800 172.07700 305
446.95117 -11.69343 172.23177 301
466.67960 -12.63384 172.45857 297
1853.85339 -80.90620 110.01283 407
1852.53406 -80.99863 136.80287 479
1857.03870 -80.89545 163.32068 431
391.56763 -7.93727 171.71088 317
402.84079 -8.43006 171.83292 313
415.56729 -8.97352 171.94652 309
430.12720 -9.61877 172.07762 305
446.99756 -10.30965 172.26379 301
466.74100 -11.13042 172.46272 297
1918.30969 -73.89337 77.61863 406
1848.84509 -70.67811 110.34971 449
1845.37512 -70.73318 136.93387 383
1854.20923 -70.93870 163.43004 436
391.58649 -6.91657 171.72023 317
402.85385 -7.30015 171.79984 313
415.58182 -7.80752 171.91623 309
430.15915 -8.34440 172.09195 305
447.06595 -8.95335 172.26559 301
466.75180 -9.71420 172.41048 297
1912.17334 -63.27012 78.13670 406
1844.47180 -60.58220 110.38729 449
1841.26648 -60.59510 137.27963 480
1852.27283 -60.88189 163.32770 405
391.61066 -5.88191 171.71887 317
402.86407 -6.20230 171.81186 313
415.63278 -6.61547 171.92790 309
430.18167 -7.07395 172.05934 305
447.07285 -7.56970 172.24727 301
466.79895 -8.18371 172.41219 297
1906.32031 -52.67080 78.69583 399
1839.79602 -50.30134 110.64094 451
1837.60632 -50.46722 137.57129 480
1850.03625 -50.52880 163.58980 411
391.63800 -4.83017 171.70534 317
402.87543 -5.12358 171.78851 313
415.59750 -5.44759 171.94368 309
430.21136 -5.82087 172.10237 305
447.08521 -6.18810 172.24368 301
466.83698 -6.68469 172.42761 297
1900.62170 -42.13646 79.29576 400
1835.51733 -40.47446 111.17477 452
1836.14490 -40.38021 137.66302 491
1847.58887 -40.71055 163.47488 411
272.95386 -1.61640 203.48749 285
402.86557 -4.00943 171.80824 313
415.63214 -4.25968 171.91124 309
430.21280 -4.50788 172.07590 305
447.11270 -4.86840 172.25989 301
466.80798 -5.19260 172.43610 297
1894.78540 -31.76841 79.79303 400
1830.97498 -30.62002 111.22437 452
1829.50232 -30.56672 137.68274 483
1845.52393 -30.67780 163.69241 412
272.88666 -1.31813 203.50278 285
402.87518 -2.94754 171.83745 313
415.61215 -3.09158 171.92334 309
430.20215 -3.28723 172.05016 305
447.08942 -3.48094 172.22951 301
466.85071 -3.70766 172.46259 297
1888.53235 -21.27794 80.21506 411
1827.60083 -20.30899 111.57643 482
1826.17151 -20.70988 138.15092 486
1843.35083 -20.62547 163.64789 417
272.86264 -1.02654 203.50874 314
402.84885 -1.82786 171.81386 313
415.59045 -1.91437 171.94418 309
430.22580 -2.01051 172.05171 305
447.06314 -2.08761 172.23268 301
451.82095 -2.14767 175.15343 425
1884.27722 -11.22090 80.57069 418
1824.19495 -10.72321 111.93597 482
1823.05469 -10.58847 138.05084 487
1841.88586 -10.78342 163.91982 365
272.84375 -0.71656 203.50201 314
402.82578 -0.71683 171.81825 313
415.58063 -0.71837 171.95810 309
430.16779 -0.73804 172.09842 305
447.03445 -0.71502 172.24115 301
466.80072 -0.75606 172.41997 297
1879.68787 -0.71009 81.25116 419
1820.71851 -0.84864 112.25016 483
1820.31152 -0.78229 138.52066 487
1840.85815 -0.82493 163.75948 365
272.82028 -0.42648 203.50156 314
402.82544 0.33829 171.79716 313
415.55060 0.42872 171.93211 309
430.15173 0.53471 172.09009 305
447.01620 0.62894 172.26073 301
466.78149 0.76877 172.42319 297
1874.75928 9.42251 81.14901 417
1817.42432 8.96044 112.11922 483
1816.99634 9.05236 138.48808 488
1840.11182 9.26804 163.66264 365
272.80212 -0.12410 203.51021 314
402.77087 1.46468 171.83446 313
415.54807 1.59384 171.94057 309
430.12985 1.80200 172.06937 305
447.01700 1.97479 172.24657 301
451.96237 2.07066 175.14015 422
1859.16162 19.22184 82.52614 487
1814.43579 18.62888 112.55134 484
1814.15076 18.74587 138.80116 488
1838.95105 18.78106 163.76146 365
272.76605 0.17756 203.49965 314
402.75424 2.55719 171.80414 313
415.47708 2.78965 171.93913 309
430.10764 3.06739 172.06046 305
446.98495 3.34565 172.25960 301
