# .PCD v.7 - Point Cloud Data file format
VERSION .7
FIELDS x y z rgb
SIZE 4 4 4 4
TYPE F F F U
COUNT 1 1 1 1
WIDTH 1361
HEIGHT 1
VIEWPOINT 6455.185547 -672.817932 144.726105 -0.632450 -0.098663 -0.085580 0.763511
POINTS 1361
DATA ascii
-186.75529 -100.63152 209.70816 485
81.65348 -35.84660 177.56950 436
79.39494 -36.40026 179.55820 432
63.52654 -40.38746 178.29930 429
60.96205 -41.03925 180.54099 427
58.31565 -41.72369 182.82823 425
55.62767 -42.36454 185.21542 422
52.81536 -43.11494 187.60841 420
49.91375 -43.82589 190.13045 411
46.82578 -44.57984 192.64075 408
43.58403 -45.42818 195.29521 406
40.29919 -46.25789 197.99684 403
36.84480 -47.11881 200.79585 400
33.26515 -47.99258 203.71800 398
29.61700 -48.95639 206.70882 395
25.41278 -50.01398 209.84537 356
-187.82571 -103.58684 209.62289 295
81.40656 -36.82037 177.45692 435
79.11000 -37.43906 179.39757 431
63.20477 -41.52047 178.13443 428
60.60463 -42.21231 180.40251 426
57.94216 -42.87081 182.67255 424
55.20341 -43.58147 185.05905 422
52.44913 -44.32738 187.48276 419
49.43235 -45.09713 189.99419 410
46.30735 -45.88468 192.52420 407
43.06489 -46.71531 195.19307 405
39.69762 -47.58735 197.88069 402
36.24027 -48.47443 200.72313 400
32.64951 -49.40212 203.65215 397
28.94558 -50.38861 206.65047 394
24.16668 -51.61768 209.76517 263
-57279.75781 -14842.39551 8053.64990 1000
81.15358 -37.83952 177.31331 435
78.84698 -38.44460 179.25729 431
62.87611 -42.68993 177.99165 428
60.26136 -43.36131 180.25861 426
57.59523 -44.08481 182.56410 423
54.84898 -44.77596 184.91638 421
52.02443 -45.56830 187.35471 412
48.92907 -46.37475 189.84085 409
45.76990 -47.20230 192.42006 407
42.51023 -48.05672 195.08542 404
39.15421 -48.94865 197.80948 402
35.63598 -49.85984 200.62450 399
32.03782 -50.84667 203.57568 396
28.28862 -51.82498 206.59790 394
-188.39897 -109.19719 202.64667 483
80.88885 -38.85699 177.16641 434
78.56339 -39.48222 179.10600 430
70.03693 -41.78625 179.61880 308
59.90538 -44.53605 180.10909 425
57.20865 -45.27672 182.39844 423
54.47533 -46.02352 184.78447 420
51.50633 -46.80200 187.22929 411
48.42600 -47.66174 189.71440 408
45.26363 -48.52829 192.31773 406
41.95124 -49.43034 194.96585 403
38.56508 -50.31973 197.72910 401
35.03481 -51.27621 200.53961 398
31.37674 -52.31057 203.53810 396
27.40643 -53.33638 206.53871 382
-187.85648 -111.76495 202.60234 495
80.64156 -39.88312 177.00955 433
78.29762 -40.51168 178.97978 429
70.31953 -42.74396 179.63130 308
59.52908 -45.70879 179.94670 424
56.82846 -46.45545 182.27180 422
54.03579 -47.24376 184.66019 413
51.04598 -48.08456 187.11253 410
47.93870 -48.96471 189.59521 408
44.69675 -49.86919 192.19766 405
41.41294 -50.78815 194.84996 403
37.96316 -51.71153 197.64183 400
34.40325 -52.69984 200.47018 397
30.56090 -53.81129 203.43335 383
26.38260 -54.91882 206.49580 370
80.38873 -40.89343 176.84549 433
78.04895 -41.53321 178.80608 429
70.63515 -43.65153 179.61118 308
59.19509 -46.91510 179.76532 424
56.46925 -47.69119 182.10228 421
53.59741 -48.52173 184.48778 412
50.55422 -49.39770 186.93736 409
47.41730 -50.28159 189.44452 407
44.18960 -51.19055 192.08194 404
40.81828 -52.16847 194.73265 402
37.36180 -53.10689 197.51973 399
33.61654 -54.22052 200.37375 385
29.66455 -55.34510 203.31830 383
25.25308 -56.59190 206.43396 369
80.14484 -41.91059 176.68900 432
77.77697 -42.60099 178.66309 428
70.95745 -44.61063 179.63145 308
58.81689 -48.12471 179.62175 423
56.11480 -48.93993 181.97911 421
53.14422 -49.77554 184.34843 411
50.06753 -50.65862 186.79056 409
46.91410 -51.58086 189.34264 406
43.63385 -52.52452 191.95621 404
40.24519 -53.54790 194.63503 401
36.60818 -54.60464 197.40404 387
32.78516 -55.71962 200.25642 384
28.70850 -56.90767 203.25536 371
24.12384 -58.20956 206.34337 368
79.88815 -42.97483 176.54897 430
77.51472 -43.68261 178.50459 428
71.26513 -45.53579 179.64378 308
58.47750 -49.32282 179.46802 422
55.66608 -50.17356 181.80702 413
52.65022 -51.05504 184.18767 410
49.58910 -52.00931 186.65651 408
46.38382 -52.96204 189.21432 405
43.10772 -53.92299 191.78976 403
39.51218 -54.95998 194.48972 389
35.78932 -56.07451 197.28967 386
31.91997 -57.22878 200.15895 384
27.64482 -58.50721 203.16455 370
23.01886 -59.89418 206.25089 367
79.63240 -44.02494 176.36508 429
77.25754 -44.74454 178.37077 427
71.57473 -46.44672 179.63565 308
58.08943 -50.56765 179.32219 421
55.22743 -51.43086 181.64627 412
52.20718 -52.38309 184.05339 410
49.07427 -53.30237 186.49788 407
45.84254 -54.29393 189.03430 405
42.38493 -55.36066 191.66295 390
38.74076 -56.47276 194.35812 388
34.94591 -57.60162 197.16283 385
31.01687 -58.83748 200.04993 372
26.54346 -60.20245 203.04355 369
21.82326 -61.59861 206.18851 367
79.39529 -45.04853 176.20807 428
76.95329 -45.80742 178.21729 426
71.89760 -47.37737 179.60091 308
57.71428 -51.80298 179.11945 414
54.74544 -52.74382 181.47690 411
51.70166 -53.64790 183.86475 409
48.55324 -54.66545 186.36658 406
45.20263 -55.70878 188.90955 392
41.61686 -56.80811 191.52957 389
37.93389 -57.94836 194.21231 387
34.13058 -59.16396 197.05243 384
29.93324 -60.44195 199.92731 371
25.40889 -61.87113 202.93320 368
20.62316 -63.33945 206.09190 366
79.10991 -46.10994 176.05673 428
76.70039 -46.90763 178.03551 425
72.24914 -48.29821 179.61060 308
57.27820 -53.08269 178.94215 413
54.29999 -53.99455 181.27432 411
51.23818 -54.97146 183.72923 408
47.91427 -56.02607 186.15852 394
44.47435 -57.15784 188.69771 391
40.88022 -58.26140 191.33405 389
37.14371 -59.46364 194.09293 386
33.28091 -60.72904 196.87398 384
28.90267 -62.11130 199.80775 370
24.24718 -63.55526 202.85825 367
19.45095 -65.10496 206.02057 365
78.84235 -47.20192 175.90163 427
76.41679 -48.00750 177.89963 425
72.57625 -49.24850 179.60718 308
56.84997 -54.32903 178.79228 412
53.84203 -55.30219 181.10611 410
50.59155 -56.39062 183.54263 395
47.23709 -57.46157 185.99762 393
43.71773 -58.63032 188.51877 390
40.08461 -59.78334 191.19377 388
36.32934 -61.02056 193.89314 385
32.29729 -62.35187 196.76994 372
27.81295 -63.78877 199.66861 369
23.13700 -65.31407 202.74428 367
18.20772 -66.87230 205.89182 364
78.60149 -48.29604 175.72185 426
76.14356 -49.11313 177.71097 424
72.93250 -50.18354 179.62645 308
56.41297 -55.62813 178.60385 411
53.26483 -56.68610 180.92770 397
49.91554 -57.80087 183.32341 394
46.51165 -58.91577 185.78925 392
42.96749 -60.07291 188.36227 389
39.32262 -61.28484 191.03615 387
35.48203 -62.58921 193.77821 384
31.25758 -63.99525 196.61313 371
26.72287 -65.50349 199.55974 368
21.95737 -67.05435 202.61313 366
16.95480 -68.69521 205.81282 363
78.33143 -49.36359 175.54710 426
75.87946 -50.17772 177.56027 423
73.26384 -51.10826 179.59930 308
55.85167 -56.97814 178.34515 398
52.59827 -58.08161 180.71881 396
49.25468 -59.21965 183.11359 393
45.80667 -60.35688 185.61028 391
42.22285 -61.59771 188.14984 389
38.52393 -62.85509 190.84541 386
34.59990 -64.19825 193.59361 373
30.16368 -65.68645 196.46362 370
25.56887 -67.20657 199.40660 367
20.74807 -68.84408 202.52461 365
15.75545 -70.54135 205.74760 362
78.08157 -50.48052 175.37993 425
75.58849 -51.31421 177.38567 423
73.05162 -52.20006 179.47025 420
55.20311 -58.38093 178.14755 397
51.95188 -59.47846 180.49261 395
48.54871 -60.66864 182.88673 392
45.09249 -61.85905 185.41132 390
41.48010 -63.11613 187.97484 388
37.71246 -64.37640 190.64778 385
33.55944 -65.84962 193.40820 372
29.10310 -67.38972 196.26723 369
24.41618 -68.98112 199.28444 367
19.57955 -70.68713 202.38870 364
14.47110 -72.43084 205.65776 361
77.81271 -51.56131 175.22000 424
75.31400 -52.43362 177.24149 422
72.77979 -53.33213 179.31432 420
54.60352 -59.75783 177.90727 396
51.28914 -60.91761 180.27190 394
47.84856 -62.11138 182.69038 392
44.34826 -63.36499 185.17416 389
40.70189 -64.62309 187.77197 387
36.87324 -65.98479 190.47676 373
32.50194 -67.50232 193.23924 371
28.02082 -69.12282 196.13312 368
23.28642 -70.76376 199.12868 366
18.31796 -72.54432 202.23636 363
11.76617 -74.82938 205.46735 315
-70.88023 -25.42768 -20.15623 424
75.06960 -53.60090 177.04260 421
72.48164 -54.51501 179.12775 419
62.87829 -57.93871 179.69803 304
50.62342 -62.34820 180.00975 393
47.16485 -63.60363 182.48363 391
43.57515 -64.89407 184.97504 388
39.89573 -66.21915 187.60385 386
35.88898 -67.66901 190.31424 372
31.48425 -69.21688 193.04930 370
26.89863 -70.87964 195.92990 367
22.11355 -72.58726 198.99290 365
16.46893 -74.65026 202.09309 332
8.55624 -77.49399 205.29381 314
77.28924 -53.81754 174.82106 423
74.75876 -54.73603 176.89285 421
72.19585 -55.68608 178.98694 418
63.29583 -58.92069 179.67674 304
49.94711 -63.84244 179.78072 392
46.45281 -65.08966 182.20988 390
42.86153 -66.40078 184.76054 387
39.11104 -67.77708 187.37946 385
34.87160 -69.32214 190.10864 372
30.40542 -70.99574 192.89021 369
25.74237 -72.69551 195.80191 366
20.64335 -74.57590 198.83044 334
13.87761 -76.99496 201.85516 315
5.15164 -80.22009 205.07401 313
77.05315 -54.94367 174.67081 422
74.49253 -55.88272 176.69160 420
71.89244 -56.86034 178.79045 418
63.69934 -59.93293 179.69093 304
49.27423 -65.31967 179.56001 391
45.73181 -66.63618 182.03391 389
42.07716 -67.95258 184.58051 387
38.13253 -69.42818 187.20578 373
33.81902 -71.05352 189.85849 371
29.33945 -72.74638 192.69087 368
24.60540 -74.50768 195.61739 365
18.41367 -76.82743 198.58012 333
10.67791 -79.71494 201.65337 314
1.72400 -83.06509 204.86388 312
76.78049 -56.06907 174.45171 421
74.20039 -57.06561 176.53085 419
71.59967 -58.07267 178.63115 417
64.06852 -60.89326 179.69183 304
48.58984 -66.76667 179.30861 390
45.02182 -68.13161 181.77644 388
41.33225 -69.56033 184.31760 386
37.15882 -71.12393 186.96358 372
32.82256 -72.77567 189.66798 370
28.26522 -74.54224 192.49243 367
22.52902 -76.72190 195.36234 334
15.98150 -79.17999 198.32030 316
7.40410 -82.46169 201.36644 313
-1.92221 -85.99313 204.68752 311
76.51470 -57.22486 174.27022 421
73.93166 -58.25249 176.32649 418
71.26678 -59.25561 178.46771 416
64.50401 -61.87852 179.70908 304
47.87307 -68.29757 179.04758 390
44.26351 -69.68988 181.55719 387
40.44659 -71.18906 184.12555 374
36.18325 -72.81653 186.73079 371
31.74346 -74.56097 189.43567 369
26.49129 -76.56878 192.20767 335
20.29248 -78.98457 195.04491 333
12.86496 -81.87151 198.00940 315
3.94776 -85.33797 201.08585 312
-5.69938 -89.04913 204.41125 309
76.25224 -58.41834 174.07294 420
73.62780 -59.43010 176.15137 418
70.63341 -60.61070 178.19495 386
64.89292 -62.85821 179.68367 304
47.19021 -69.84931 178.80035 389
43.52052 -71.28109 181.31012 386
39.51682 -72.89359 183.87726 373
35.18134 -74.58586 186.48430 370
30.38409 -76.45795 189.15688 337
24.39793 -78.79181 191.87526 334
18.06455 -81.28789 194.74570 332
9.60093 -84.64249 197.67160 313
0.38571 -88.25415 200.75891 311
75.95321 -59.57713 173.91400 419
73.15240 -60.68646 175.88849 388
69.96455 -61.95948 177.91357 385
65.34727 -63.82011 179.68768 304
46.46515 -71.38926 178.55443 388
42.76031 -72.91363 181.06007 374
38.52967 -74.56731 183.56781 372
34.19581 -76.30846 186.22801 369
28.40102 -78.65252 188.79749 336
22.24783 -81.13628 191.56612 333
14.96914 -84.02129 194.37775 315
6.26476 -87.51652 197.30673 312
-4.87923 -91.97636 200.39026 266
75.64123 -60.78888 173.66277 389
72.52649 -62.05592 175.61732 387
69.32316 -63.35374 177.64079 385
65.74522 -64.80186 179.66089 304
45.75797 -72.95435 178.28532 387
41.81271 -74.56885 180.75777 374
37.54641 -76.34946 183.34731 371
32.25399 -78.48428 185.84515 337
26.29716 -80.90062 188.44969 334
20.03756 -83.45763 191.18793 332
11.84837 -86.84089 193.97272 314
2.76376 -90.49597 196.97237 311
-22.96285 -100.99530 199.02147 265
75.00101 -62.11265 173.36722 388
71.90690 -63.41398 175.35120 386
68.64912 -64.74486 177.35991 384
65.85136 -65.93880 179.59933 395
45.00199 -74.55759 178.02574 386
40.88207 -76.27116 180.49149 373
36.00121 -78.32465 182.96179 338
30.27531 -80.69257 185.46623 336
24.23391 -83.18621 188.07242 333
17.17205 -86.12093 190.80249 315
8.51642 -89.72459 193.58331 313
-4.75276 -95.27591 196.20184 266
74.39751 -63.44962 173.06706 387
71.24749 -64.80618 175.06606 385
67.96217 -66.17085 177.08115 383
65.22235 -67.36040 179.31958 394
53.64986 -72.24532 179.77422 300
39.71581 -78.11277 180.14182 339
34.14833 -80.45872 182.54056 337
28.24191 -82.98952 185.05533 335
22.02099 -85.57893 187.67456 332
14.03277 -89.00391 190.31616 314
4.31466 -93.10245 193.05435 285
73.79948 -64.84067 172.78030 386
70.60776 -66.19986 174.72375 384
67.29652 -67.64454 176.81158 382
64.54508 -68.81467 179.08612 393
54.12465 -73.30367 179.79399 300
37.86829 -80.26704 179.67293 338
32.21000 -82.71320 182.06151 336
26.19934 -85.26752 184.62746 334
19.38904 -88.25334 187.24161 315
10.84475 -91.90047 189.83125 313
-4.51784 -98.49411 192.02101 266
73.17612 -66.19469 172.47607 385
69.93904 -67.62950 174.45532 383
66.59013 -69.07594 176.47205 394
63.84771 -70.28800 178.80118 392
54.62960 -74.31101 179.76727 300
36.00854 -82.42806 179.18767 337
30.22940 -85.00885 181.62547 335
24.03543 -87.69501 184.14900 332
16.31286 -91.05791 186.66208 314
5.24983 -95.90598 189.07245 285
72.57063 -67.62178 172.12560 385
69.26428 -69.08797 174.11720 382
65.94679 -70.54904 176.21149 393
63.13155 -71.79033 178.52003 391
55.12759 -75.36600 179.76686 300
34.13498 -84.66708 178.71498 336
28.18048 -87.32760 181.16672 334
21.54687 -90.25321 183.66838 316
13.05977 -94.09129 186.16080 286
-4.16981 -101.69195 187.77466 266
71.96629 -69.02041 171.82382 316
68.58129 -70.54111 173.79247 381
65.24758 -72.02647 175.89285 392
62.44950 -73.31442 178.21663 390
55.62885 -76.40824 179.79031 300
32.18561 -86.98990 178.19627 335
26.11112 -89.71931 180.67972 333
18.56696 -93.14671 183.05547 314
6.19736 -98.73582 185.02344 284
72.42816 -69.96548 171.82321 316
67.91742 -72.00374 173.51451 380
64.55704 -73.55124 175.59474 391
61.72155 -74.84767 177.93428 389
56.10565 -77.43840 179.76529 300
30.21476 -89.35127 177.71475 334
23.83661 -92.26128 180.15042 316
14.05013 -96.73573 182.23946 286
-3.57184 -104.86427 183.56718 266
72.92228 -70.89536 171.82108 316
67.24446 -73.52016 173.16434 379
63.91079 -75.10236 175.31476 390
61.00000 -76.41643 177.67499 388
56.59646 -78.47295 179.75783 300
41.65237 -85.45003 179.88829 296
20.85110 -95.18156 179.49216 315
7.24885 -101.54152 181.05225 284
-24.30678 -116.25341 180.47229 284
73.37396 -71.79696 171.82329 316
66.52344 -75.08012 172.83588 378
63.20847 -76.61419 175.01945 389
60.27423 -78.00426 177.33675 387
57.11065 -79.52998 179.78027 300
42.21091 -86.59308 179.89270 296
15.18396 -99.43649 178.30386 286
-19.50923 -115.84342 176.52853 344
-23.56584 -117.76881 180.43575 284
73.84039 -72.72484 171.81084 316
65.82879 -76.61308 172.51312 377
62.48247 -78.23187 174.68152 388
59.55415 -79.61844 177.07880 386
56.52805 -81.10996 179.49712 384
42.74615 -87.70587 179.89746 296
8.37581 -104.23362 176.99361 284
-15.33737 -115.59486 177.21291 345
-22.81985 -119.31834 180.41422 284
74.33626 -73.66051 171.81224 316
65.09979 -78.17905 172.17564 377
61.78928 -79.78534 174.35638 387
58.83020 -81.27835 176.76181 385
54.87104 -83.19308 179.03806 327
43.35013 -88.84865 179.86745 296
-7.69462 -113.75925 173.89207 289
-7.70464 -113.82153 178.19022 289
-22.05707 -120.78837 180.40030 284
74.82236 -74.59446 171.80064 316
64.73071 -79.61923 171.90414 312
61.06368 -81.42259 174.04800 386
57.72186 -83.06810 176.35815 328
52.64710 -85.57611 178.40399 327
43.92238 -89.97304 179.84221 296
26.28260 -98.70773 179.99954 292
1.47323 -111.05256 179.62354 291
75.31759 -75.50333 171.78560 316
65.26844 -80.56136 171.91005 312
60.33650 -83.04469 173.68492 385
55.59805 -85.44640 175.69176 327
50.38689 -88.04752 177.75833 326
44.47807 -91.05260 179.87907 296
26.89326 -99.95955 180.01685 292
5.67848 -110.63053 180.16373 288
75.82399 -76.40690 171.78725 316
65.78136 -81.58060 171.86575 312
58.46599 -85.34570 173.06393 327
53.38327 -87.93021 175.00212 325
48.07474 -90.61352 177.12047 324
42.63634 -93.42152 179.37233 322
27.56936 -101.11884 180.00806 292
6.38960 -111.95708 180.18411 288
76.31920 -77.34204 171.82161 316
66.32697 -82.54858 171.86594 312
56.31153 -87.71102 172.36198 326
51.09942 -90.42481 174.32491 324
45.67078 -93.30382 176.44659 323
40.07307 -96.15691 178.68217 321
28.19329 -102.34750 180.00883 292
7.08548 -113.34431 180.14888 288
76.84813 -78.25359 171.77611 316
66.84595 -83.53964 171.88976 312
55.52574 -89.50063 171.95459 308
48.80672 -93.05121 173.59181 323
43.18505 -95.99540 175.72987 322
37.38486 -99.04330 178.03798 320
27.72429 -104.17249 179.80945 274
7.81361 -114.68884 180.18904 288
77.37758 -79.17197 171.77315 316
67.38622 -84.47385 171.86060 312
56.09634 -90.55157 171.94823 308
46.36825 -95.74263 172.89973 322
40.61777 -98.83819 175.00060 321
34.31637 -102.19012 177.24733 272
16.60293 -111.67033 177.59518 272
77.87010 -80.04701 171.76640 316
67.95203 -85.46908 171.89229 312
56.65772 -91.56834 171.97415 308
43.88326 -98.56859 172.09012 321
37.91193 -101.75949 174.24678 319
23.33794 -109.71499 174.82765 271
-54.26654 -151.86172 164.16652 372
78.41055 -80.95959 171.80513 316
68.52223 -86.41440 171.85982 312
57.28244 -92.60490 171.95355 308
44.42425 -99.68526 172.04523 304
31.17839 -107.00572 172.55649 272
12.00562 -117.59368 172.33005 296
-50.30980 -151.92351 164.65601 373
78.92905 -81.86174 171.78935 316
69.07349 -87.37067 171.86433 312
57.89331 -93.62097 171.95210 308
45.04791 -100.82153 172.08493 304
30.21102 -109.16383 172.21593 300
12.76760 -118.89964 172.36021 296
-46.59437 -152.13582 165.20340 287
79.46898 -82.78680 171.77510 316
69.65516 -88.33933 171.85449 312
58.48004 -94.68346 171.95020 308
45.71850 -101.91857 172.04959 304
30.87754 -110.35355 172.21265 300
13.54814 -120.20746 172.34569 296
-45.63499 -153.75385 165.20650 286
80.03419 -83.66763 171.77827 316
70.21887 -89.27792 171.85684 312
59.10724 -95.72167 171.97498 308
46.34157 -103.07718 172.05028 304
31.62086 -111.54481 172.20329 300
14.27835 -121.49700 172.33804 296
-44.60532 -155.45543 165.17589 286
80.58652 -84.57201 171.78017 316
70.80013 -90.25627 171.86322 312
59.72013 -96.73107 171.96419 308
47.03846 -104.12742 172.06644 304
32.32162 -112.73100 172.20142 300
15.07449 -122.81118 172.35738 296
-43.65807 -157.09698 165.16867 286
81.13584 -85.45429 171.74426 316
71.40429 -91.21812 171.82166 312
60.33426 -97.72629 171.92879 308
47.71350 -105.24622 172.02892 304
33.04774 -113.94411 172.15587 300
15.82346 -124.12244 172.28802 296
-42.65145 -158.69208 165.21831 286
81.69491 -86.31228 171.77808 316
72.00659 -92.13852 171.85428 312
60.99820 -98.75245 171.91151 308
48.35479 -106.32268 172.03244 304
33.76905 -115.14222 172.17366 300
-26.84933 -151.55489 163.05388 371
-41.59408 -160.40196 165.18137 286
82.25853 -87.22437 171.77545 316
72.56457 -93.08753 171.81923 312
61.62382 -99.77125 171.90282 308
49.04543 -107.41210 172.00661 304
34.51646 -116.31976 172.13358 300
-23.24578 -151.43654 163.63951 372
82.84039 -88.07719 171.75879 316
73.17873 -94.05145 171.82317 312
62.27029 -100.79431 171.94099 308
49.74798 -108.52602 172.04750 304
35.23094 -117.49383 172.16524 300
-19.66629 -151.36530 164.20009 374
83.38725 -88.99259 171.74518 316
73.82870 -94.99139 171.82422 312
62.90164 -101.77235 171.93124 308
50.45623 -109.62233 172.04910 304
35.99337 -118.65809 172.14243 300
-16.14890 -151.28206 164.73952 375
83.98213 -89.83996 171.76277 316
74.40582 -95.88990 171.84320 312
63.56715 -102.77853 171.91310 308
51.11032 -110.68271 172.01082 304
36.70530 -119.79945 172.16922 300
-12.68888 -151.20547 165.30690 376
84.54717 -90.71398 171.75003 316
75.03570 -96.82292 171.80186 312
64.24087 -103.77083 171.90675 308
51.81290 -111.79372 171.98390 304
37.45869 -120.98442 172.14896 300
-9.79041 -151.33797 165.71233 291
85.13667 -91.59219 171.73900 316
75.68880 -97.75208 171.83501 312
64.90292 -104.79315 171.91803 308
52.56807 -112.83842 171.98851 304
38.27334 -122.16111 172.14923 300
-8.70973 -152.77222 165.73288 291
85.75416 -92.44321 171.73755 316
76.31934 -98.69801 171.78264 312
65.57350 -105.79538 171.88016 308
53.29029 -113.89130 171.98888 304
39.02347 -123.34079 172.09949 300
-7.72158 -154.13824 165.71512 291
86.33995 -93.29785 171.73544 316
76.91373 -99.60783 171.82062 312
66.22012 -106.75037 171.88968 308
54.00056 -114.99268 171.98657 304
1.46253 -150.13921 162.90919 285
-6.64423 -155.60606 165.69698 291
86.95813 -94.19682 171.70892 316
77.55614 -100.51994 171.81918 312
66.91562 -107.75592 171.86081 308
54.74921 -116.00449 171.96484 304
3.42483 -150.83461 163.18379 382
-5.62555 -156.96452 165.74626 290
87.55588 -95.04309 171.72340 316
78.21204 -101.45825 171.78949 312
67.61308 -108.75522 171.88080 308
55.47853 -117.06157 171.98134 304
6.53639 -150.76363 163.69946 384
-4.56816 -158.36661 165.76077 290
88.21422 -95.90028 171.70512 316
78.88457 -102.35116 171.78448 312
68.34940 -109.73423 171.88651 308
56.19790 -118.15528 171.96957 304
9.53810 -150.65459 164.14919 385
-3.58497 -159.75813 165.74799 290
88.79626 -96.72416 171.71335 316
79.55890 -103.28038 171.79393 312
69.03205 -110.69703 171.85809 308
56.97759 -119.19715 171.99927 304
12.45822 -150.63368 164.63850 386
89.42420 -97.55465 171.71771 316
80.23423 -104.18074 171.76410 312
69.74265 -111.65705 171.86221 308
57.71907 -120.27097 171.95135 304
15.33133 -150.50162 165.11365 387
90.09621 -98.42412 171.69112 316
80.85835 -105.06860 171.74792 312
70.42795 -112.64460 171.87248 308
58.51117 -121.28134 171.95006 304
18.21600 -150.45210 165.59460 389
90.71758 -99.25663 171.67963 316
81.53409 -105.95388 171.74483 312
71.17043 -113.58144 171.84686 308
59.24044 -122.31901 171.93843 304
20.98017 -150.41795 166.01039 387
91.34252 -100.08347 171.68109 316
82.23844 -106.86600 171.76476 312
71.87088 -114.53474 171.82217 308
60.06176 -123.33176 171.91771 304
22.29076 -151.36089 166.14439 297
91.98310 -100.92426 171.69392 316
82.91223 -107.73670 171.75424 312
72.61804 -115.50888 171.83377 308
28.57069 -148.63295 163.26411 296
23.27242 -152.63980 166.13277 297
92.64398 -101.75088 171.67715 316
83.61084 -108.61479 171.74998 312
73.36730 -116.45763 171.86069 308
29.38181 -149.99336 163.20296 296
24.26390 -153.88452 166.11787 297
93.32933 -102.58285 171.65604 316
84.32198 -109.49965 171.75391 312
74.10304 -117.39324 171.82666 308
31.85643 -149.96585 163.58940 391
25.27885 -155.09068 166.15755 297
93.96175 -103.41066 171.63913 316
85.02264 -110.40875 171.75066 312
74.85285 -118.33487 171.83800 308
34.50875 -149.90228 164.08224 393
26.27442 -156.33490 166.15005 297
94.65685 -104.23112 171.66380 316
85.73763 -111.27015 171.73114 312
75.63784 -119.27020 171.80923 308
37.10125 -149.78426 164.52789 394
27.26027 -157.53490 166.11174 297
-41991.05078 -33417.89844 1103.26099 1000
95.31355 -105.05356 171.64529 316
86.45840 -112.16380 171.70811 312
76.37558 -120.23260 171.79628 308
39.58028 -149.70352 164.92723 395
28.31316 -158.72737 166.10399 297
96.01049 -105.86269 171.64204 316
87.16286 -112.99561 171.71167 312
77.15385 -121.13028 171.80029 308
42.07406 -149.58061 165.34042 396
96.66837 -106.63776 171.62158 316
87.91830 -113.86525 171.73656 312
77.89291 -122.07547 171.79709 308
44.53649 -149.52325 165.74869 397
97.37250 -107.46058 171.63312 316
88.64532 -114.74117 171.69804 312
51.01488 -146.00603 163.37096 300
46.95078 -149.41924 166.16899 399
98.07655 -108.23897 171.62851 316
89.38029 -115.59945 171.71532 312
51.80180 -147.24017 163.37122 300
48.15480 -150.25966 166.22054 301
98.74018 -109.04908 171.60747 316
90.12109 -116.43911 171.70830 312
52.65937 -148.36420 163.32629 300
49.13152 -151.36423 166.22301 301
99.44539 -109.84174 171.63170 316
90.84393 -117.28811 171.67183 312
53.92089 -149.13623 163.44882 402
50.14034 -152.45415 166.24623 301
100.14874 -110.61657 171.62621 316
91.57272 -118.10973 171.70224 312
56.21059 -149.05647 163.84790 403
51.12594 -153.47360 166.27696 301
100.87190 -111.42461 171.61723 316
92.35202 -118.96140 171.69849 312
58.42287 -148.97696 164.23900 404
52.16141 -154.54593 166.28223 301
101.59228 -112.19574 171.61890 316
93.11124 -119.81638 171.66847 312
60.61914 -148.89207 164.58304 405
53.14127 -155.63799 166.27856 301
102.32468 -112.97750 171.61092 316
93.85520 -120.62253 171.67303 312
62.81005 -148.84552 164.96980 406
54.16260 -156.70445 166.26286 301
103.01884 -113.74989 171.57040 316
70.84623 -143.33813 163.55789 304
64.96452 -148.76112 165.35551 407
55.18154 -157.72974 166.24449 301
103.76086 -114.53550 171.57549 316
71.66695 -144.37317 163.52904 304
67.03876 -148.64571 165.71162 408
104.52199 -115.26455 171.55611 316
72.49719 -145.40340 163.46013 304
69.15231 -148.56602 166.09393 410
105.25986 -116.03030 171.55826 316
73.29880 -146.44827 163.45749 304
70.91928 -148.77719 166.33321 306
105.98778 -116.78080 171.54909 316
74.15208 -147.51747 163.42537 304
71.86600 -149.70021 166.36534 306
106.71364 -117.54148 171.53171 316
75.22157 -148.32129 163.45175 412
72.86613 -150.62927 166.33521 306
107.48389 -118.29327 171.56871 316
77.17384 -148.27829 163.80339 413
73.89585 -151.57791 166.32730 306
108.24410 -119.02939 171.56247 316
79.15365 -148.20448 164.17584 415
74.84000 -152.47760 166.35484 306
88.40717 -140.67233 163.66550 311
81.04285 -148.10588 164.47313 416
75.84388 -153.40894 166.34213 306
89.29353 -141.56596 163.67017 311
82.94585 -148.02740 164.83406 417
76.84093 -154.30838 166.34952 306
90.11829 -142.45546 163.63252 311
84.79249 -147.98935 165.12938 418
77.84746 -155.21945 166.35333 305
90.98397 -143.35733 163.60405 311
86.63537 -147.91852 165.48140 419
78.89044 -156.08012 166.36198 305
91.83308 -144.28192 163.55893 311
88.49034 -147.85867 165.82396 420
79.90104 -156.97893 166.34955 305
92.71495 -145.16963 163.56053 307
90.27839 -147.77159 166.12117 421
93.57245 -146.05159 163.55489 307
92.05867 -147.74080 166.40714 422
94.43204 -146.96817 163.49231 307
93.07658 -148.45494 166.44829 310
95.59095 -147.57155 163.56863 423
94.02991 -149.26579 166.43011 310
97.33569 -147.45108 163.87520 414
95.03230 -150.07489 166.44785 310
99.14015 -147.32054 164.26553 415
96.02288 -150.84279 166.44989 310
100.93175 -147.09343 164.59787 416
97.01394 -151.68286 166.43616 310
102.66949 -146.92001 164.92165 417
97.97592 -152.45279 166.47638 310
104.42565 -146.79323 165.21327 418
98.93748 -153.24774 166.45743 310
-10534.88184 -12809.04785 2698.58545 1000
106.09890 -146.60583 165.55846 419
99.93260 -154.01404 166.43015 310
107.79875 -146.45543 165.86189 420
100.95356 -154.78288 166.43883 310
109.48972 -146.24692 166.17224 421
101.94549 -155.57088 166.46452 310
111.06882 -146.16542 166.44269 314
112.01446 -146.90228 166.44826 314
-2157.45386 -3022.99707 153.55417 312
112.97900 -147.60393 166.46097 314
-2156.40771 -3058.44922 89.75471 283
-2104.72778 -2992.91553 154.67162 314
113.94362 -148.30367 166.47090 314
-2081.84351 -3001.59790 92.10473 330
-2060.10254 -2973.68457 155.04860 322
115.41094 -148.30009 166.70407 428
-2028.02917 -2968.70288 94.04343 340
-2164.10498 -3149.11182 151.53271 438
116.97134 -148.18752 166.97144 429
-1969.85132 -2928.87085 96.95754 277
-2137.74780 -3153.84863 152.04126 468
118.48253 -148.13441 167.21744 439
117.81022 -149.02194 170.12338 431
-1916.12805 -2895.75708 98.99186 282
-1997.08899 -3003.88916 155.29762 390
119.88200 -148.12105 167.44505 316
119.29897 -148.95430 170.36900 439
-980.66650 -1653.23413 82.15381 351
-1878.42346 -2880.07520 99.72606 354
-1958.73389 -2990.85767 156.17818 391
120.86998 -148.81039 167.40486 316
120.61960 -149.16449 170.51602 312
-963.97321 -1651.16040 83.15623 494
-965.91058 -1654.37378 116.23655 493
-968.63531 -1658.35071 149.69136 498
-1939.22620 -3002.73560 156.37177 454
121.80644 -149.47441 167.39917 316
121.56869 -149.82213 170.51994 312
-954.40253 -1659.25342 82.90983 478
-957.06512 -1663.87830 116.02539 435
-1805.18994 -2854.09888 101.88824 356
-1888.10815 -2969.93481 156.63394 394
123.13708 -149.59041 167.57962 270
-1770.06689 -2840.39893 103.11111 357
-1848.50940 -2952.69751 156.96034 453
124.77181 -149.29466 167.91389 489
-1735.30969 -2827.96021 103.35994 358
-1778.16370 -2891.11548 158.39165 396
-1700.53455 -2815.28735 104.73066 359
-1749.16504 -2885.88306 159.15082 447
-1830.74316 -3004.65015 216.05827 497
-1821.26855 -2991.48315 275.59454 345
-1666.50305 -2803.12817 105.91454 360
-1731.29211 -2897.65112 159.23697 320
-1634.21838 -2790.83105 107.03362 361
-1731.74158 -2938.23633 158.90894 449
-1783.12097 -3014.54395 275.87958 498
-1601.33044 -2778.66455 107.57993 362
-1723.68506 -2963.61475 158.39769 448
-1669.25244 -2882.46655 216.71245 401
-1667.96436 -2880.39282 272.41516 401
-1569.07373 -2767.50635 108.65337 363
-1711.91711 -2986.90259 158.40086 365
-1657.74097 -2904.40332 272.89038 447
-1537.49048 -2755.13916 109.33114 364
-1702.29285 -3011.51562 158.15462 445
-1649.56641 -2929.46289 273.53851 357
-1506.94495 -2744.66650 110.33320 365
-1692.63000 -3038.36133 157.28517 444
-1639.71838 -2954.31543 274.02005 357
-1476.74780 -2733.05566 111.35493 418
-1630.45105 -2979.80908 273.64206 356
-1453.46533 -2733.90210 111.32637 419
-1432.12244 -2736.38062 111.31847 353
-1472.80615 -2843.74097 107.65284 438
-1464.56458 -2868.50732 107.44384 437
-1455.47510 -2894.53540 107.16206 435
-1447.27332 -2920.21118 106.01669 434
-1437.93335 -2946.33765 105.10983 433
-1429.26367 -2972.96436 104.71294 432
-1405.49036 -2973.34912 105.72527 304
-1381.26538 -2973.51685 105.85873 354
-2677.38086 -33915.94922 -900.57812 1000
3193.15479 -53305.55469 -3286.73755 1000
894.93207 -1108.93616 88.75653 271
893.58557 -1091.63403 90.16418 463
896.29535 -1096.22217 111.10842 413
900.09784 -1102.08557 131.73705 346
898.92578 -1085.17981 90.79494 492
901.05060 -1088.56152 111.36593 492
903.24139 -1092.23633 131.97484 491
906.28888 -1097.15308 153.05220 480
908.22357 -1100.28882 173.83015 430
905.98047 -1081.50940 90.41725 477
908.01709 -1085.04163 111.22609 477
910.26123 -1088.87585 132.04796 476
912.41687 -1092.15247 153.09328 476
914.98065 -1096.07715 174.07042 421
915.26636 -1081.58032 90.16648 436
918.16492 -1086.74268 110.57689 374
1929.49011 -1968.17249 130.57564 463
1942.08398 -1958.76978 130.54771 469
1954.41223 -1948.80542 130.36850 469
1967.60974 -1939.29236 130.94254 469
2031.89404 -1986.35864 83.89529 278
1980.11450 -1929.88513 130.80597 474
2028.02161 -1958.24780 85.21051 278
1993.73486 -1920.87024 130.80484 473
2024.59521 -1930.85754 86.46716 279
2007.29956 -1912.10779 130.51062 477
2036.72632 -1920.29236 86.06642 444
2021.47803 -1903.53638 130.67848 477
2051.09253 -1912.00122 86.02895 445
2035.12183 -1894.76550 130.43723 476
2180.96948 -2048.18359 169.43593 393
2065.88062 -1903.85730 86.27790 440
2046.66260 -1883.64526 129.90742 493
2179.26685 -2020.24585 169.98746 394
2081.03784 -1896.23633 85.71366 432
2061.18628 -1875.17957 129.99680 418
2175.84302 -1993.30945 170.68672 391
2096.82495 -1888.80994 85.03662 432
2074.90137 -1866.61133 130.16269 490
2174.12427 -1966.89160 170.97951 396
2113.22656 -1882.75745 85.25943 427
2090.15283 -1859.51892 130.02406 484
2172.41406 -1941.32385 171.27260 397
2129.79565 -1875.81836 84.68152 427
2105.82910 -1852.27197 129.59433 481
2170.06177 -1915.32239 171.15672 398
2146.21924 -1869.13611 84.41393 426
2121.91382 -1845.15344 129.37769 480
2168.00073 -1889.64209 171.68158 399
2163.82739 -1862.63452 83.87438 426
2139.23438 -1838.77771 128.80533 398
2166.02612 -1864.67346 172.04341 400
2181.88940 -1857.65967 83.44536 418
2156.56250 -1833.53979 128.41454 470
2173.72803 -1849.46509 171.74698 487
2201.02881 -1852.17639 82.60406 408
2174.61035 -1827.78333 128.63956 425
2184.28784 -1836.74622 171.79413 461
2193.83423 -1823.61194 128.02481 422
2203.25562 -1832.68958 171.50787 462
2213.46851 -1819.25854 127.46652 402
2222.37622 -1826.90405 171.61502 451
2235.17139 -1816.52856 127.18858 404
2244.30396 -1825.14465 171.46986 433
2258.49585 -1814.74927 126.46513 404
2266.96484 -1823.09290 170.99709 432
2281.70850 -1813.33337 125.87296 403
2290.46436 -1820.88501 170.52879 431
2306.02783 -1812.09021 125.74480 402
2313.01807 -1818.56531 170.73796 430
2330.97852 -1811.08191 125.09248 401
2576.52271 -2022.70190 164.97630 438
2354.63501 -1809.12354 124.10412 407
2575.63135 -1996.47302 165.43758 424
2378.76855 -1807.43787 123.53200 413
2568.58789 -1966.91174 166.13016 460
2403.98657 -1805.86328 123.24277 412
2585.73730 -1956.97314 165.63760 429
2429.75806 -1803.99817 122.41216 411
2584.33936 -1930.62244 166.06230 430
2455.71240 -1802.30786 121.89193 410
2582.29907 -1905.30994 166.55266 431
2481.27881 -1801.40552 121.61655 409
2565.42676 -1867.59900 167.24054 429
2508.18311 -1799.16772 120.52539 408
2562.94702 -1842.50537 167.07990 430
2534.78247 -1797.94434 120.36053 407
2556.03564 -1813.55029 167.27109 477
2561.83594 -1796.50085 119.42751 408
2568.72754 -1801.46667 167.88225 275
2589.29761 -1794.71191 118.82143 407
2593.42188 -1796.78040 167.13756 334
2618.70874 -1793.15552 117.62519 407
2647.21802 -1791.73877 117.49757 390
375.32129 -105.84004 167.62234 313
375.92044 -104.90839 167.66168 313
376.48172 -103.98759 167.65230 313
377.07913 -103.05766 167.67819 313
377.66122 -102.12162 167.67152 315
378.23322 -101.19307 167.65543 315
9877.40527 -6436.67578 -928.54126 1000
378.81244 -100.22562 167.69014 315
379.39417 -99.30888 167.67236 315
379.95029 -98.36898 167.68672 315
380.56058 -97.42002 167.69496 315
381.07498 -96.45157 167.68504 315
381.66782 -95.51807 167.66789 315
382.57004 -94.76801 167.59631 435
383.94382 -94.29641 167.31136 434
385.29639 -93.83318 167.08264 434
394.21063 -99.06760 167.68861 309
386.70764 -93.36975 166.83397 433
394.75034 -98.06335 167.72670 309
388.11469 -92.83966 166.55708 432
395.31976 -96.98975 167.72838 309
389.54202 -92.36892 166.29866 431
395.82748 -95.97593 167.71075 309
390.94290 -91.87302 165.99399 430
396.38593 -94.88329 167.72885 309
392.41962 -91.36047 165.72462 429
396.86575 -93.82700 167.71689 309
393.89386 -90.85783 165.44783 428
397.38220 -92.76413 167.74634 309
395.35297 -90.35561 165.11751 427
397.89246 -91.70655 167.75134 309
396.88431 -89.85705 164.82262 426
398.41052 -90.63991 167.75485 311
397.55884 -88.91981 164.77710 317
398.91104 -89.57873 167.77553 311
398.10138 -87.84570 164.79204 317
399.92664 -88.77180 167.60477 424
398.65698 -86.82965 164.79549 317
401.50336 -88.25000 167.34496 423
399.13907 -85.77258 164.78551 317
403.08969 -87.66504 167.02969 422
399.69443 -84.70740 164.73619 317
404.65891 -87.11929 166.74904 421
414.00726 -91.66719 167.75075 305
400.18710 -83.63604 164.75551 317
406.29358 -86.59581 166.40182 420
414.49838 -90.48065 167.78410 305
400.68973 -82.59219 164.76390 317
407.75476 -85.95908 166.14308 439
414.99170 -89.33839 167.79703 305
401.15720 -81.53253 164.74118 317
409.17648 -85.25317 165.89261 438
415.44232 -88.17889 167.76443 305
401.62564 -80.46994 164.77802 317
410.61774 -84.55589 165.65001 437
415.93582 -86.97242 167.78357 305
402.09146 -79.38111 164.75273 317
412.02466 -83.86768 165.36105 436
416.39316 -85.83118 167.77634 305
402.53357 -78.29632 164.74655 317
413.47534 -83.16315 165.14929 435
416.83789 -84.61487 167.82336 305
403.00702 -77.21130 164.75648 317
414.97543 -82.39233 164.84598 312
417.30344 -83.43625 167.84224 305
379.98700 -66.10441 171.61784 316
415.47433 -81.29526 164.83614 312
417.77454 -82.26263 167.82817 305
380.34860 -65.13974 171.62866 316
415.90640 -80.13264 164.83514 312
418.21054 -81.06119 167.82423 305
380.69315 -64.19795 171.60829 316
416.37143 -78.96026 164.82942 312
419.45865 -80.25410 167.63306 432
381.01859 -63.23074 171.61778 316
416.85559 -77.78603 164.82782 312
421.00818 -79.47437 167.38493 431
381.39319 -62.31564 171.63692 316
417.35425 -76.65834 164.82114 312
422.56207 -78.70888 167.07497 430
381.75113 -61.31917 171.60458 316
417.75104 -75.48512 164.83757 312
424.13495 -77.96451 166.77628 429
382.05734 -60.39955 171.60666 316
418.24289 -74.28810 164.81541 312
425.73706 -77.15774 166.51620 428
436.01373 -81.16985 167.83150 301
382.39108 -59.40382 171.61583 316
418.64081 -73.11027 164.83577 312
427.36771 -76.38081 166.20619 427
436.42551 -79.83501 167.85265 301
382.70898 -58.46149 171.63120 316
419.07153 -71.93649 164.83186 312
428.96930 -75.61421 165.93161 426
436.84152 -78.53505 167.85719 301
383.03366 -57.49175 171.62845 316
419.50888 -70.76717 164.83684 312
430.62045 -74.80380 165.62953 425
437.26468 -77.22191 167.81906 301
383.38354 -56.51360 171.62895 316
419.96118 -69.55752 164.84276 312
432.29086 -74.01781 165.33430 424
437.70078 -75.90409 167.87877 301
383.67270 -55.57120 171.62563 316
394.26288 -59.29934 171.75769 313
433.96585 -73.19929 164.98958 423
438.09323 -74.62929 167.83434 301
1868.93579 -575.48096 102.01001 475
1872.74268 -576.89026 130.52240 470
1875.90173 -577.91888 158.90279 427
383.97580 -54.59342 171.61813 316
394.60736 -58.26004 171.76044 313
434.83911 -72.03009 164.87576 308
438.46674 -73.28441 167.84793 301
1871.43823 -565.10504 102.15585 495
1875.41040 -566.34265 130.61626 472
1879.28259 -567.92065 158.98528 422
384.26761 -53.63046 171.65590 316
394.92523 -57.19814 171.74312 313
435.26968 -70.76855 164.89323 308
438.81110 -71.97585 167.88217 301
1883.45361 -557.84497 101.60960 357
384.56805 -52.67250 171.65370 316
395.23682 -56.16624 171.73546 313
435.68695 -69.48321 164.89845 308
439.21719 -70.64846 167.87167 301
384.87018 -51.66055 171.66347 317
395.53427 -55.11997 171.75522 313
436.06570 -68.18319 164.90318 308
440.73514 -69.72337 167.65762 434
385.11005 -50.71535 171.63617 317
395.81131 -54.08470 171.77821 313
436.43848 -66.92564 164.89722 308
442.29752 -68.75631 167.33536 433
385.40765 -49.74513 171.63138 317
396.10074 -53.06374 171.76967 313
436.82074 -65.61246 164.91127 308
443.87778 -67.84997 167.07010 432
385.67505 -48.72838 171.63818 317
396.41113 -51.97473 171.75464 313
437.20493 -64.32482 164.87962 308
445.50867 -66.87869 166.80487 431
385.91592 -47.77211 171.66507 317
396.68890 -50.93324 171.75238 313
437.52316 -63.04817 164.91411 308
447.14456 -65.83751 166.55371 430
386.20578 -46.75591 171.66995 317
396.95239 -49.87822 171.75804 313
437.91879 -61.70528 164.91905 308
448.77258 -64.91759 166.27217 429
14848.27344 -4229.54492 1210.87708 1000
386.41489 -45.77703 171.67360 317
397.20474 -48.83141 171.78850 313
438.21732 -60.43806 164.89572 308
450.45053 -63.85538 165.97888 428
460.33728 -66.66587 167.92813 297
386.68524 -44.78799 171.68781 317
397.50034 -47.80516 171.78040 313
409.74640 -51.15030 171.87053 309
452.15857 -62.88687 165.66335 427
460.63315 -65.18730 167.89362 297
386.91068 -43.83714 171.67587 317
397.75241 -46.74741 171.75249 313
410.02374 -50.04773 171.88194 309
453.84039 -61.87893 165.33882 425
460.94138 -63.77413 167.94658 297
387.14984 -42.81715 171.68057 317
398.01382 -45.69765 171.77373 313
410.27960 -48.92636 171.87718 309
455.59412 -60.79833 165.07616 424
461.26245 -62.32301 167.94876 297
387.36914 -41.83839 171.67418 317
398.22318 -44.63439 171.79802 313
410.54672 -47.75197 171.87878 309
456.18411 -59.44866 165.01189 303
461.56082 -60.82906 167.95903 297
387.62534 -40.85855 171.67412 317
398.48520 -43.54438 171.78738 313
410.80026 -46.65977 171.89973 309
456.53613 -58.09049 165.00856 303
461.82217 -59.38591 167.94759 297
387.79865 -39.83176 171.68668 317
398.70190 -42.49135 171.76784 313
411.03064 -45.48103 171.92838 309
456.83820 -56.61218 164.99983 303
462.10510 -57.90814 167.95757 297
388.02496 -38.87694 171.65714 317
398.94019 -41.41700 171.77971 313
411.27975 -44.36889 171.89095 309
457.18942 -55.25699 164.97797 303
462.59308 -56.48223 167.96753 454
388.25677 -37.86062 171.68924 317
399.14374 -40.37371 171.78949 313
411.55325 -43.23640 171.88080 309
457.45895 -53.79869 164.97153 304
463.91574 -55.29782 167.77122 453
388.45096 -36.86212 171.67435 317
399.38904 -39.30394 171.81099 313
411.77209 -42.05599 171.89410 309
457.75449 -52.37284 165.00302 304
465.25653 -54.06653 167.56900 452
388.62933 -35.87743 171.68680 317
399.58582 -38.22363 171.81311 313
411.98581 -40.94286 171.92426 309
458.01797 -50.93905 165.01064 304
466.56216 -52.82867 167.30240 451
388.82071 -34.88368 171.68263 317
399.78513 -37.16949 171.80649 313
412.19061 -39.77898 171.91882 309
458.31131 -49.53773 165.01404 304
467.90268 -51.56247 167.10358 450
389.00604 -33.85468 171.67773 317
399.97351 -36.12497 171.77495 313
412.42282 -38.63763 171.92598 309
458.59665 -48.13197 164.98000 304
469.27759 -50.26574 166.91237 449
389.17422 -32.85948 171.68678 317
400.17188 -35.05525 171.79622 313
412.62027 -37.50719 171.88857 309
426.86557 -40.34369 172.04779 305
470.61728 -49.02691 166.64680 449
389.32236 -31.87831 171.69473 317
400.35132 -33.98566 171.77538 313
412.79688 -36.38395 171.93497 309
427.06165 -39.09214 172.05870 305
472.04056 -47.72546 166.46104 448
389.48285 -30.86589 171.71286 317
400.50894 -32.89362 171.79701 313
412.99091 -35.22499 171.91287 309
427.28571 -37.83511 172.04645 305
473.38162 -46.39078 166.22011 447
389.63885 -29.85996 171.68205 317
400.66876 -31.81499 171.78157 313
413.15942 -34.07682 171.91005 309
427.49985 -36.64408 172.04237 305
474.81232 -45.11425 166.01627 446
389.81625 -28.85513 171.69740 317
400.85327 -30.73081 171.80092 313
413.36261 -32.90213 171.91844 309
427.65570 -35.35266 172.08499 305
476.23660 -43.80102 165.78304 445
389.92151 -27.83517 171.67046 317
400.99780 -29.66967 171.81642 313
413.48804 -31.76148 171.89691 309
427.84039 -34.12991 172.08888 305
477.62955 -42.42879 165.53371 444
487.39813 -44.07954 168.05110 293
390.09048 -26.83990 171.70197 317
401.15326 -28.61252 171.81769 313
413.68958 -30.62232 171.91702 309
427.99878 -32.90972 172.06119 305
479.10352 -41.09056 165.28485 443
487.50610 -42.47200 168.05392 293
390.20062 -25.80435 171.67744 317
401.30084 -27.49048 171.78450 313
413.83932 -29.43417 171.91820 309
428.16232 -31.65542 172.05826 305
480.00424 -39.59048 165.13348 300
487.64642 -40.80640 168.09482 294
390.32828 -24.77897 171.69737 317
401.43179 -26.43598 171.80618 313
413.95300 -28.26852 171.92099 309
428.33414 -30.40528 172.06810 305
480.19604 -38.04728 165.14476 300
487.77240 -39.16954 168.12469 294
35357.76953 -5188.73145 5477.05078 1000
390.45428 -23.79792 171.69867 317
401.53171 -25.34005 171.79262 313
414.10825 -27.14496 171.92917 309
428.51404 -29.16707 172.04247 305
480.37170 -36.50541 165.15984 300
487.88504 -37.54870 168.11140 294
390.57983 -22.75307 171.68240 317
401.67236 -24.26007 171.81305 313
414.22824 -25.95521 171.93686 309
428.66617 -27.92699 172.04651 305
480.59943 -34.96757 165.13237 300
488.01535 -35.95601 168.14195 294
390.70914 -21.77391 171.71805 317
401.78342 -23.20902 171.78708 313
414.35962 -24.80434 171.90984 309
428.75626 -26.69952 172.05655 305
445.43784 -28.84420 172.25858 301
488.13422 -34.34092 168.17827 294
390.76422 -20.75417 171.69164 317
401.87985 -22.09300 171.82182 313
414.47302 -23.66436 171.92125 309
428.90045 -25.41191 172.06348 305
445.58252 -27.46324 172.22589 301
488.20935 -32.68829 168.20026 294
390.90048 -19.75157 171.71243 317
402.01752 -21.03023 171.82857 313
414.63361 -22.50970 171.95149 309
429.02322 -24.20383 172.06621 305
445.72861 -26.13583 172.25877 301
488.26266 -31.10325 168.18869 294
390.95334 -18.70549 171.68459 317
402.12491 -19.95390 171.80116 313
414.70929 -21.34218 171.91904 309
429.15936 -22.93644 172.05453 305
445.83517 -24.79468 172.26349 301
489.27286 -29.55591 168.01094 456
2743.87109 -278.03033 132.76044 341
2749.85767 -278.96515 174.30496 342
391.07071 -17.70239 171.72162 317
402.16727 -18.83875 171.79396 313
414.79352 -20.17129 171.93927 309
429.24805 -21.68995 172.06740 305
445.92593 -23.38987 172.20392 301
490.51886 -28.05721 167.81142 456
2707.96973 -259.09579 134.04921 413
2715.69897 -259.91904 174.89143 342
391.13525 -16.69157 171.70544 317
402.28391 -17.79642 171.82327 313
414.92386 -19.00543 171.95540 309
429.38031 -20.42690 172.04491 305
446.06461 -22.03608 172.20879 301
491.71472 -26.56513 167.61668 455
2698.07080 -242.40565 134.61404 465
2706.72485 -243.05055 175.44194 417
391.18497 -15.67031 171.69513 317
402.37122 -16.67628 171.81764 313
414.96732 -17.84270 171.93796 309
429.46463 -19.15446 172.09814 305
446.14722 -20.73256 172.23344 301
492.95660 -24.97591 167.46365 454
2689.76050 -226.71242 134.83005 451
2703.61157 -227.56062 175.14073 404
391.28342 -14.66998 171.71436 317
402.42563 -15.61701 171.78931 313
415.07153 -16.68821 171.92809 309
429.54279 -17.92400 172.08321 305
446.27957 -19.37197 172.23648 301
494.20392 -23.46592 167.20168 453
2766.57617 -217.59427 90.97488 368
2684.23950 -210.62462 135.00620 466
2701.30835 -212.13075 175.28412 389
391.32098 -13.62781 171.69295 317
402.50092 -14.50186 171.81512 313
415.13712 -15.54390 171.94640 309
429.62500 -16.67105 172.04788 305
446.34396 -18.02424 172.22038 301
495.48557 -21.88918 167.04694 452
2750.87158 -200.45912 91.60036 395
2677.74951 -194.84442 135.62744 472
2697.61865 -196.62489 175.35860 397
391.37589 -12.59994 171.70322 317
402.56799 -13.40723 171.83604 313
415.22122 -14.37009 171.92332 309
429.70444 -15.43448 172.09882 305
446.43735 -16.62450 172.24358 301
496.71375 -20.34324 166.85379 483
2738.10010 -184.27747 92.05058 417
2672.29419 -179.43044 135.92613 475
2696.75269 -181.65411 175.15552 341
391.40860 -11.58317 171.68529 317
402.60019 -12.32229 171.79616 313
415.23651 -13.17882 171.91986 309
429.75684 -14.16867 172.06717 305
446.50070 -15.25950 172.21260 301
497.37653 -18.69227 166.67586 483
2727.50513 -168.06223 93.06567 423
2669.53564 -164.29773 135.47755 475
2696.85669 -166.29597 175.38556 346
391.46729 -10.56464 171.68498 317
402.62698 -11.24774 171.79916 313
415.31613 -12.01686 171.91089 309
429.80255 -12.90635 172.09079 305
446.54440 -13.91468 172.23883 301
498.04944 -17.05103 166.59212 482
2691.95776 -150.27019 94.62415 287
2663.96899 -148.93501 135.83612 482
2716.28662 -151.96085 175.30777 261
391.52606 -9.55845 171.71910 317
402.67191 -10.14261 171.79073 313
415.38718 -10.85617 171.96176 309
429.84357 -11.67267 172.06790 305
446.61163 -12.54615 172.24492 301
466.19873 -13.66446 172.43555 297
2674.30322 -134.78011 95.79317 354
2659.29346 -133.36818 135.87619 483
2845.15576 -143.64610 173.19763 495
391.53278 -8.52663 171.71661 317
402.70447 -9.07097 171.83405 313
415.38339 -9.71349 171.91414 309
429.89087 -10.38933 172.10472 305
446.69470 -11.20488 172.24892 301
466.25769 -12.16789 172.39919 297
2665.04077 -119.21780 96.01251 354
2650.54224 -118.37091 136.61781 483
391.56058 -7.52177 171.71985 317
402.74326 -8.00996 171.78749 313
415.45300 -8.50962 171.91020 309
429.93890 -9.16101 172.08179 305
446.71802 -9.87462 172.26947 301
466.32376 -10.70866 172.39952 297
2656.16846 -103.79140 96.33105 360
2645.52393 -103.32393 136.49196 484
391.58792 -6.47341 171.70282 317
402.78732 -6.89500 171.82213 313
415.46585 -7.36917 171.95074 309
429.97940 -7.86418 172.07991 305
446.74362 -8.49168 172.21869 301
466.37610 -9.16791 172.39850 297
2648.28979 -88.42486 96.58866 417
2640.34961 -87.92288 136.95784 484
391.59433 -5.44963 171.69624 317
402.77234 -5.80214 171.78937 313
415.50079 -6.20332 171.91663 309
430.00986 -6.62513 172.07164 305
446.78879 -7.13489 172.26230 301
