# .PCD v.7 - Point Cloud Data file format
VERSION .7
FIELDS x y z rgb
SIZE 4 4 4 4
TYPE F F F U
COUNT 1 1 1 1
WIDTH 1375
HEIGHT 1
VIEWPOINT 6346.716797 -1494.122559 144.489151 -0.713197 -0.088014 -0.095958 0.688764
POINTS 1375
DATA ascii
427.42560 -36.17786 172.07249 305
475.24127 -44.74102 165.86986 446
3370.94019 -560.67358 111.65965 497
3413.15576 -568.51776 162.63318 499
3413.41772 -568.66376 215.98982 499
3411.43335 -568.68738 268.78650 499
389.72931 -28.44949 171.69411 317
400.76187 -30.33913 171.78827 313
413.28754 -32.49870 171.94090 309
427.61627 -34.98494 172.05157 305
476.64526 -43.41000 165.65645 445
487.15756 -45.23680 168.03044 293
3373.32544 -541.65100 111.89597 497
3417.00977 -549.26703 162.76636 499
3416.16748 -549.02594 215.96960 499
3415.83740 -548.50885 268.66397 499
389.87234 -27.43590 171.69334 317
400.92633 -29.25920 171.79182 313
413.42557 -31.33772 171.92445 309
427.76620 -33.69353 172.05188 305
478.06107 -42.07123 165.43869 444
487.35199 -43.58376 168.06175 293
3379.34009 -522.84314 111.51066 499
3413.98755 -528.12909 163.33844 499
3414.51587 -528.46326 215.88748 499
3413.43872 -528.25873 269.37869 499
390.02502 -26.42656 171.71544 317
401.04440 -28.17852 171.80254 313
413.62238 -30.16767 171.89801 309
427.99146 -32.48227 172.09024 305
479.52356 -40.72315 165.20233 443
487.49326 -41.96339 168.07629 293
3381.52319 -503.03027 111.47363 499
3417.88477 -508.86566 163.06636 499
3419.32642 -509.43201 216.20561 499
3417.83765 -508.93271 269.15128 499
390.13303 -25.43397 171.70792 317
401.20474 -27.09730 171.79753 313
413.77670 -29.03397 171.93147 309
428.15274 -31.23035 172.04149 305
479.95016 -39.20364 165.12132 300
487.64987 -40.37023 168.10580 294
3382.84082 -483.88321 111.89117 499
3421.75244 -489.52731 163.56668 499
3422.59741 -489.53226 216.32910 499
3421.34912 -489.25885 268.64767 499
390.26111 -24.39267 171.68726 317
401.35458 -26.02811 171.80472 313
413.89676 -27.86632 171.94888 309
428.28326 -29.99829 172.09438 305
480.19528 -37.61652 165.11981 300
487.75388 -38.73144 168.14624 294
3385.70874 -464.00946 111.94122 499
3425.44556 -470.40451 163.05769 499
3425.66333 -469.97278 215.60608 499
3424.49097 -470.04401 269.00620 499
390.35809 -23.40439 171.67738 317
401.48434 -24.97237 171.79964 313
414.06143 -26.75008 171.90129 309
428.43759 -28.76246 172.08109 305
480.39102 -36.03040 165.12016 300
487.84906 -37.08950 168.15721 294
3391.65625 -444.85233 111.70831 499
3429.20947 -450.60165 162.75830 499
3428.92627 -451.01007 215.94952 499
3428.74048 -450.31647 268.64322 499
390.51178 -22.37923 171.68950 317
401.61493 -23.85735 171.79282 313
414.16519 -25.55075 171.95250 309
428.58557 -27.49190 172.04564 305
480.51114 -34.48660 165.11891 300
487.98550 -35.46897 168.17177 294
3395.09180 -426.04825 110.97007 499
3432.02979 -431.42346 163.08275 499
3438.81641 -431.67691 216.02502 499
3436.82935 -431.48309 268.92392 499
390.62256 -21.35591 171.67470 317
401.73026 -22.80457 171.79010 313
414.30963 -24.43661 171.92407 309
428.74249 -26.27078 172.05022 305
445.41605 -28.38674 172.25908 301
488.06052 -33.83968 168.17743 294
3395.86646 -406.39804 111.43520 499
3435.73779 -411.20093 163.54605 499
3441.98022 -412.31876 215.77278 499
3441.33325 -411.92636 268.71506 499
3569.03345 -428.73917 326.73691 345
390.70947 -20.38878 171.71515 317
401.82004 -21.74272 171.81091 313
414.41379 -23.25428 171.94672 309
428.87500 -25.00741 172.08879 305
445.51788 -27.06699 172.22273 301
488.14670 -32.22331 168.17941 294
3399.24658 -386.75507 111.26854 499
3440.06958 -391.65076 162.86478 255
3445.63892 -392.43109 215.63550 499
3444.76758 -392.18002 269.49805 498
390.81906 -19.37735 171.68274 317
401.92291 -20.62746 171.80838 313
414.56760 -22.08589 171.90453 309
428.97433 -23.76278 172.05147 305
445.66315 -25.69582 172.21892 301
488.40475 -30.60971 168.14854 457
3406.04272 -367.72263 111.12145 499
3449.78345 -372.86011 162.70862 499
3449.52661 -373.12872 216.33342 499
3448.34204 -373.15985 269.38321 498
3528.62061 -382.68295 324.95709 499
390.90079 -18.34427 171.68091 317
402.02182 -19.55579 171.81909 313
414.64600 -20.96640 171.93324 309
429.07452 -22.53203 172.06744 305
445.77341 -24.32606 172.21204 301
489.56802 -29.15130 168.01402 456
3409.16016 -348.78555 111.24618 499
3452.87476 -353.43842 163.21832 499
3453.11182 -353.82635 215.62112 499
3451.53540 -353.22760 269.22589 498
3510.51831 -359.40158 324.55862 499
3553.03442 -364.69681 380.74179 467
390.95798 -17.32452 171.68459 317
402.09387 -18.49924 171.78511 313
414.75098 -19.79820 171.92795 309
429.23215 -21.27037 172.05435 305
445.89594 -22.97552 172.22105 301
490.86108 -27.60129 167.76091 455
3411.70142 -328.78076 111.61881 471
3457.23828 -334.12506 162.86658 499
3456.74243 -333.76721 216.18817 499
3456.18335 -333.53061 269.07254 499
3466.99072 -335.02414 322.72772 485
3467.78198 -334.57108 376.63452 495
391.07452 -16.32591 171.68236 317
402.22101 -17.41362 171.80374 313
414.86258 -18.59448 171.93742 309
429.29950 -20.02127 172.09644 305
445.99506 -21.67300 172.21161 301
492.05707 -26.10161 167.55360 455
3413.75049 -310.03430 111.06188 498
3466.72046 -314.70517 215.76587 471
3589.73267 -327.24356 327.15787 301
391.10965 -15.28476 171.70505 317
402.25922 -16.30785 171.82376 313
414.94684 -17.47640 171.95636 309
429.42752 -18.74843 172.08037 305
446.09622 -20.32110 172.25085 301
493.32620 -24.61572 167.41211 454
3420.65552 -290.30063 110.72457 498
3544.27539 -301.57343 325.41754 499
391.17087 -14.27454 171.72322 317
402.37753 -15.23501 171.80173 313
414.98901 -16.27815 171.93016 309
429.46130 -17.53624 172.08116 305
446.21478 -18.92851 172.21588 301
494.54129 -23.02245 167.18230 453
3423.99561 -270.79257 111.23293 498
3548.32495 -282.02338 325.52728 494
3599.24487 -286.00009 382.06860 453
391.27341 -13.27995 171.71428 317
402.43942 -14.14305 171.82483 313
415.07950 -15.15361 171.95912 309
429.56732 -16.28970 172.05457 305
446.32086 -17.56154 172.21748 301
495.80621 -21.49803 166.94858 452
3427.09985 -252.03928 110.91026 498
3602.74219 -265.74249 382.10309 437
391.30832 -12.23281 171.71368 317
402.45425 -13.06833 171.82402 313
415.11896 -13.99474 171.92546 309
429.60651 -15.02069 172.10086 305
446.38058 -16.25807 172.25011 301
496.94238 -19.86935 166.74846 483
3428.86938 -231.65129 111.20737 498
3579.84180 -242.87756 326.58502 347
391.35880 -11.24783 171.68425 317
402.52829 -11.95578 171.79932 313
415.18942 -12.82124 171.92979 309
429.69836 -13.75306 172.05753 305
446.45425 -14.84734 172.22227 301
497.58096 -18.23210 166.66707 483
3434.50195 -212.51816 110.41418 498
391.40628 -10.20885 171.71326 317
402.55341 -10.85833 171.82745 313
415.25830 -11.66186 171.92734 309
429.73825 -12.51304 172.06609 305
446.53168 -13.51478 172.20715 301
498.29846 -16.66284 166.53528 482
3438.53882 -193.24673 110.54137 497
391.44092 -9.18591 171.68596 317
402.63141 -9.78904 171.82510 313
415.31638 -10.47274 171.91130 309
429.81580 -11.25397 172.05490 305
446.54770 -12.17353 172.24463 301
466.18726 -13.20173 172.42900 297
3441.94141 -173.21776 110.91151 497
391.48065 -8.18636 171.69859 317
402.65753 -8.70341 171.82176 313
415.32797 -9.29294 171.92743 309
429.85901 -10.03336 172.07054 305
446.59497 -10.78553 172.26369 301
466.25665 -11.72039 172.44745 297
3443.33545 -153.63474 111.03747 497
391.46674 -7.15599 171.69627 317
402.68890 -7.62755 171.82935 313
415.34351 -8.15070 171.92725 309
429.86334 -8.77493 172.09915 305
446.66031 -9.43001 172.23036 301
466.29755 -10.27617 172.45126 297
3449.14062 -134.12558 110.73020 441
3729.19336 -146.49561 158.97017 285
391.49228 -6.15075 171.70778 317
402.72195 -6.51643 171.83321 313
415.38525 -6.98821 171.92755 309
429.91943 -7.50026 172.07681 305
446.67465 -8.09754 172.25639 301
466.33459 -8.80728 172.43782 297
3452.63892 -114.84428 110.44513 497
3611.38428 -120.72545 161.06781 497
273.00693 -1.63837 203.48341 285
402.72736 -5.44741 171.83655 313
415.40399 -5.79095 171.91583 309
429.92538 -6.23476 172.04860 305
446.71533 -6.75647 172.21269 301
466.37320 -7.34264 172.45984 297
3456.62280 -95.40747 110.55042 496
3615.25024 -99.63015 160.88190 496
272.95099 -1.33637 203.49973 285
402.70023 -4.33638 171.81897 313
415.41351 -4.64374 171.94597 309
429.96957 -4.95994 172.07559 305
446.73251 -5.35365 172.24046 301
466.34943 -5.85665 172.45801 297
3457.96094 -75.38844 110.38216 496
272.90015 -1.05151 203.50920 314
402.71124 -3.28683 171.82945 313
415.39484 -3.46011 171.95317 309
429.97040 -3.72762 172.07796 305
446.76047 -3.98785 172.22206 301
466.35840 -4.35705 172.40302 297
3463.42090 -55.51902 109.96516 496
3499.63672 -56.61231 162.79202 496
272.88763 -0.75794 203.50258 314
402.71899 -2.17396 171.81424 313
415.41562 -2.31297 171.90794 309
429.96844 -2.45973 172.08929 305
446.77054 -2.65694 172.26323 301
451.73563 -2.70571 175.10016 422
3467.06274 -36.08364 110.42000 496
3503.57788 -36.55320 162.02725 482
63730.26172 -696.51849 3329.98999 1000
272.86032 -0.46481 203.50189 314
402.71796 -1.10531 171.79404 313
415.40738 -1.16799 171.92126 309
429.94885 -1.18923 172.10321 305
446.75714 -1.26836 172.26183 301
466.38596 -1.40538 172.42224 297
3471.54785 -15.91399 109.44192 481
3508.02563 -16.54337 162.59567 496
272.84543 -0.16653 203.49821 314
402.69589 0.02281 171.81499 313
415.38388 0.02307 171.93327 309
429.93195 0.03485 172.09698 305
446.72308 0.04625 172.26277 301
466.39529 0.09061 172.42125 297
3472.54443 3.94874 109.87338 495
3528.57251 4.38368 162.16942 495
272.82138 0.13186 203.50285 314
402.64029 1.09353 171.79646 313
415.33533 1.20418 171.93690 309
429.91299 1.26975 172.09946 305
446.71442 1.44490 172.22232 301
451.63208 1.48615 175.10753 426
3478.83960 23.90574 110.01730 495
3580.70801 24.59916 161.10959 497
272.79437 0.41648 203.49857 314
402.63419 2.19905 171.81587 313
415.34192 2.34236 171.93547 309
429.85199 2.57113 172.08878 305
446.64517 2.74683 172.20627 301
466.33466 3.01485 172.44612 297
3534.45508 44.45266 107.55536 494
3577.59082 45.26607 160.95586 497
3696.58960 46.40078 216.20462 299
272.76831 0.71357 203.49901 314
402.60849 3.26673 171.78354 313
415.26956 3.51258 171.92113 309
429.82016 3.78135 172.07974 305
446.64932 4.15961 172.25923 301
466.27246 4.49634 172.44157 297
3589.83203 65.98592 105.61053 431
3574.56689 65.98715 161.70312 497
3606.48169 66.18800 215.72247 267
272.73376 1.01154 203.49957 314
402.52969 4.34862 171.79272 313
415.22836 4.69788 171.93388 309
429.78839 5.04249 172.05644 305
446.58902 5.49997 172.23248 301
466.19366 6.03156 172.39565 297
3595.17847 86.40823 105.58582 414
3538.06689 85.43524 161.75388 494
3592.47998 87.04061 215.70316 267
272.71075 1.30338 203.50034 314
402.48950 5.44514 171.80511 313
415.21725 5.87697 171.92325 309
429.71915 6.34349 172.04581 305
446.53064 6.83726 172.23163 301
466.14301 7.51013 172.40598 297
3583.96118 106.69794 160.88049 476
272.67172 1.59828 203.50339 314
402.46231 6.51297 171.78589 313
415.16275 6.99944 171.95541 309
429.63535 7.57452 172.09488 305
446.44339 8.21701 172.20912 301
466.05948 8.94575 172.41534 297
272.63303 1.89137 203.50215 314
402.37244 7.62257 171.81320 313
415.07220 8.16323 171.91611 309
429.58844 8.82173 172.06441 305
446.39960 9.54743 172.20074 301
465.99167 10.43849 172.44427 297
272.59756 2.17928 203.50861 314
402.31314 8.68855 171.79068 313
414.97891 9.34363 171.94762 309
429.54074 10.05934 172.06232 305
446.32898 10.93345 172.21799 301
465.95621 11.90762 172.41843 297
272.56049 2.47198 203.50270 314
402.25626 9.81206 171.80515 313
414.93402 10.50362 171.90872 309
429.44302 11.32947 172.05597 305
446.22974 12.27900 172.21107 301
465.82358 13.42688 172.40627 297
272.52151 2.76318 203.50252 314
402.15399 10.91207 171.82623 313
414.85107 11.66997 171.90007 309
429.35294 12.57757 172.06525 305
446.08694 13.66728 172.25777 301
497.86133 16.84977 166.52660 482
272.48495 3.05383 203.50948 314
402.04504 11.96001 171.79565 313
414.75140 12.83419 171.91902 309
429.26434 13.87177 172.05545 305
446.01184 14.99752 172.20212 301
497.19150 18.51001 166.66315 483
272.44501 3.35121 203.49809 314
401.97522 13.04364 171.79022 313
414.63928 14.02568 171.93414 309
429.14044 15.07338 172.06255 305
445.89285 16.37053 172.21344 301
496.33231 20.18040 166.78833 452
272.39545 3.64042 203.50705 314
401.84073 14.14196 171.80711 313
414.53284 15.18736 171.92674 309
428.99722 16.37842 172.08154 305
445.77975 17.71760 172.23727 301
495.06296 21.73924 166.96336 453
272.34601 3.93682 203.50635 314
401.74542 15.23665 171.81651 313
414.40903 16.31694 171.89702 309
428.87640 17.58804 172.06242 305
445.63824 19.09343 172.24333 301
493.84238 23.26238 167.17271 453
272.30032 4.22209 203.50401 314
401.65128 16.33028 171.78044 313
414.29541 17.51122 171.92668 309
428.76892 18.87534 172.05573 305
445.52576 20.44030 172.24606 301
492.55560 24.83276 167.38477 454
272.24219 4.52586 203.50597 314
401.50937 17.42955 171.80826 313
414.15845 18.66261 171.93903 309
428.62698 20.12656 172.04582 305
445.37814 21.75776 172.22905 301
491.32916 26.37412 167.60706 455
272.19296 4.81089 203.50258 314
401.41608 18.47372 171.77086 313
414.04709 19.80610 171.91763 309
428.52393 21.38235 172.07808 305
445.22122 23.13206 172.22737 301
490.04913 27.88977 167.81117 456
272.13348 5.10087 203.49855 314
401.24991 19.56709 171.78928 313
413.86984 21.00415 171.92674 309
428.34213 22.60489 172.07916 305
445.04416 24.45786 172.18359 301
488.82928 29.42422 167.94290 457
272.08710 5.39730 203.50127 314
401.12363 20.63410 171.77516 313
413.75671 22.12671 171.92741 309
428.17038 23.83991 172.05983 305
444.91602 25.85671 172.19171 301
487.67596 30.91247 168.17809 458
272.02936 5.69171 203.51015 314
400.95505 21.74449 171.79320 313
413.61578 23.30760 171.93523 309
428.05527 25.09651 172.03809 305
444.70490 27.19527 172.22113 301
487.39825 32.52321 168.11920 294
271.96326 5.98092 203.50833 314
400.81473 22.84566 171.80780 313
413.42743 24.45205 171.88318 309
427.82843 26.35032 172.03395 305
444.52762 28.53678 172.19453 301
487.26044 34.13144 168.16917 294
271.90237 6.27582 203.50902 314
400.66632 23.91113 171.79315 313
413.25958 25.65798 171.91331 309
427.66434 27.63178 172.06664 305
479.61459 34.70494 165.11716 300
487.12488 35.75771 168.09712 294
271.84286 6.56059 203.50761 314
400.47400 24.98568 171.80251 313
413.05942 26.79808 171.88692 309
427.47165 28.87040 172.01532 305
479.38052 36.27981 165.14543 300
486.96655 37.37055 168.08960 294
271.79242 6.85759 203.49850 286
400.33334 26.04995 171.77350 313
412.89798 27.95823 171.92564 309
427.28802 30.07584 172.01405 305
479.15784 37.86323 165.14226 300
486.81146 39.01373 168.04724 294
271.77087 7.14604 203.47951 286
400.15979 27.12990 171.79468 313
412.73105 29.12319 171.89793 309
427.10718 31.33106 172.06808 305
478.92474 39.45150 165.09114 300
486.67413 40.64191 168.03867 293
388.89429 26.41449 171.66277 317
399.96469 28.22185 171.79204 313
412.49408 30.26219 171.89154 309
426.91129 32.57976 172.03851 305
478.56818 40.99316 165.15112 444
486.49084 42.24149 168.04408 293
388.71085 27.43725 171.66202 317
399.74942 29.30399 171.79050 313
412.31546 31.43240 171.90781 309
426.67709 33.84220 172.02486 305
477.09570 42.33537 165.34265 444
486.22556 43.84526 168.04865 293
388.51746 28.43187 171.64413 317
399.54480 30.39516 171.75581 313
412.12741 32.56427 171.89287 309
426.44943 35.04745 172.05110 305
475.63800 43.68253 165.62166 445
486.05356 45.45223 167.99948 293
388.29691 29.44347 171.67717 317
399.34079 31.45426 171.75581 313
411.90161 33.73581 171.88950 309
426.19437 36.30729 172.04526 305
474.21979 45.02899 165.86621 446
388.12723 30.45533 171.64067 317
399.13092 32.52017 171.76270 313
411.68762 34.89292 171.87283 309
425.99240 37.53963 172.02200 305
472.78467 46.34890 166.07028 447
387.90265 31.45605 171.64246 317
398.91904 33.61251 171.77682 313
411.42819 36.03308 171.88336 309
425.73526 38.76674 172.01021 305
471.36801 47.62740 166.30618 448
387.96783 32.39171 171.68347 316
398.71896 34.68272 171.76688 313
411.21390 37.17019 171.88358 309
425.47516 40.00329 172.01341 305
469.99576 48.94971 166.49117 449
387.48395 33.47639 171.66475 317
398.46497 35.72698 171.73633 313
410.95312 38.31853 171.86067 309
425.23816 41.25058 172.04529 305
468.63095 50.22589 166.71193 450
387.24969 34.48240 171.67145 316
398.24170 36.83892 171.76465 313
410.69699 39.47541 171.86836 309
456.86960 49.26875 164.96779 304
467.24506 51.46882 166.91583 451
387.04648 35.48491 171.66457 316
398.02084 37.87903 171.77591 313
410.45239 40.59138 171.87158 309
456.53259 50.71524 164.96809 304
465.93570 52.79963 167.11697 452
386.81149 36.48115 171.64253 316
397.76944 38.96667 171.76180 313
410.18567 41.76918 171.87656 309
456.24136 52.11386 164.96478 304
464.55951 54.02075 167.32278 452
386.56848 37.49436 171.63516 316
397.49615 40.01900 171.76982 313
409.92468 42.87043 171.86024 309
455.90005 53.55872 164.95409 303
463.22131 55.28386 167.49522 453
386.28369 38.48681 171.64180 316
397.21356 41.06282 171.74188 313
409.60626 44.04565 171.84485 309
455.50095 55.00653 164.92952 303
461.74454 56.45105 167.75275 421
386.07092 39.46419 171.65866 316
396.95312 42.13416 171.76100 313
409.32562 45.16008 171.88782 309
455.14789 56.39730 164.98262 303
460.39624 57.67797 167.91905 298
43985.62109 10723.36816 -7985.07520 1000
385.78284 40.44745 171.64923 316
396.69336 43.20350 171.75790 313
409.03897 46.32188 171.87846 309
454.76660 57.85026 164.96072 303
460.10208 59.15692 167.94321 297
385.51920 41.46828 171.65558 316
396.42361 44.27665 171.75195 313
408.76382 47.46972 171.86440 309
454.44162 59.23381 164.93684 303
459.74802 60.62157 167.91539 297
2253.95142 523.46167 78.74374 473
2259.10156 525.12726 113.12959 473
2263.84839 526.37292 147.56154 469
385.24091 42.42842 171.61938 316
396.12881 45.33179 171.72791 313
408.47333 48.57374 171.84842 309
454.02939 60.68075 164.95656 303
459.41824 62.10343 167.94086 297
2250.71631 535.95056 78.99500 470
2256.31982 537.46301 113.12673 469
2263.49707 539.39764 147.50478 359
384.99255 43.44665 171.63617 316
395.81332 46.37784 171.74295 313
408.16690 49.72993 171.85576 309
452.78677 61.85080 165.10817 426
459.10281 63.50753 167.92067 297
384.67551 44.43168 171.64658 316
395.50790 47.43443 171.74399 313
407.81934 50.85839 171.84526 309
451.09418 62.90545 165.46516 427
458.73969 65.03438 167.91916 297
384.39307 45.40072 171.63495 316
395.22165 48.49767 171.74292 313
407.47858 51.97806 171.82887 309
449.41409 63.86784 165.70656 428
458.38199 66.42794 167.85927 297
384.13443 46.39542 171.60672 316
394.93768 49.55259 171.72890 313
435.91223 61.48790 164.89346 308
447.72076 64.87923 166.02242 429
458.01178 67.88776 167.85660 297
48263.95703 13980.78516 -4714.58740 1000
383.80032 47.39639 171.61043 316
394.60620 50.58129 171.71935 312
435.47333 62.78914 164.84134 308
446.06149 65.90900 166.31396 430
383.49811 48.35408 171.63112 316
394.24738 51.64735 171.73953 312
435.07892 64.09076 164.84163 308
444.37039 66.93082 166.53670 431
383.18726 49.36930 171.61089 316
393.96506 52.69530 171.71788 312
434.67761 65.36692 164.85947 308
442.72849 67.87421 166.83513 432
382.86957 50.31860 171.58742 316
393.62955 53.73549 171.71133 312
434.26773 66.65175 164.85132 308
441.16006 68.85999 167.10962 433
382.55371 51.30020 171.59755 316
393.24146 54.79802 171.69194 312
433.84396 67.95930 164.87874 308
439.52130 69.83283 167.36871 434
382.22833 52.28801 171.60577 316
392.90662 55.84667 171.69379 312
433.39328 69.25157 164.86266 308
437.80447 70.70206 167.63638 420
381.88870 53.28282 171.58475 316
392.56705 56.87107 171.71930 312
432.90720 70.51836 164.83095 308
436.45255 71.75356 167.86348 301
381.54337 54.21964 171.61395 316
392.21274 57.91439 171.70279 312
432.41095 71.78612 164.87404 308
436.05807 73.06978 167.86644 301
381.18088 55.23312 171.61165 316
391.81384 58.92518 171.66919 312
431.98029 73.07113 164.87621 308
435.65695 74.34052 167.85384 301
380.85550 56.17537 171.59978 316
391.43542 59.97240 171.67091 312
430.80032 74.12644 165.01747 424
435.16486 75.69154 167.83987 301
380.51089 57.12347 171.60460 316
416.95648 70.48177 164.78102 312
429.14682 74.90086 165.32909 425
434.74881 76.98866 167.82620 301
380.13306 58.08781 171.59131 316
416.50217 71.68730 164.77844 312
427.43195 75.75699 165.62276 426
434.31305 78.31878 167.81288 301
379.73865 59.09897 171.59497 316
415.99936 72.86441 164.76707 312
425.82394 76.52899 165.93028 427
433.84149 79.59229 167.77130 301
379.39792 60.05111 171.55217 316
415.54349 74.04793 164.81169 312
424.18945 77.32676 166.21419 428
433.36203 80.92079 167.74432 301
378.97485 60.97739 171.54291 316
415.01215 75.16985 164.80891 312
422.55264 78.12891 166.45250 429
378.62164 61.95314 171.57077 316
414.57324 76.37141 164.81297 312
420.96579 78.94780 166.76437 430
378.20880 62.92561 171.54681 316
414.02106 77.51364 164.77783 312
419.37930 79.69788 166.99501 431
377.79239 63.87537 171.55878 316
413.51035 78.68275 164.81877 312
417.77100 80.47868 167.29419 432
377.43381 64.79440 171.57120 316
412.99637 79.87107 164.77675 312
416.26352 81.19738 167.53046 433
376.98184 65.76244 171.56137 316
412.47855 80.98374 164.81267 312
414.79193 82.00469 167.75954 305
376.59540 66.70399 171.52817 316
411.95239 82.13611 164.82452 312
414.30579 83.21379 167.78928 305
399.51187 78.03294 164.67525 317
411.41653 83.33428 164.78867 312
413.77524 84.39532 167.76830 305
399.00888 79.10221 164.69843 317
410.20407 84.15505 164.97664 436
413.29358 85.58009 167.73077 305
398.46051 80.16280 164.70265 317
408.74652 84.88014 165.21770 437
412.76575 86.72467 167.73264 305
397.96680 81.26250 164.67021 317
407.27835 85.61852 165.47488 438
412.24380 87.89977 167.75891 305
397.43860 82.30818 164.71672 317
405.65009 86.19852 165.80132 420
411.73331 89.06842 167.73302 305
396.87787 83.35731 164.69550 317
403.97162 86.80646 166.12286 421
411.16714 90.24986 167.70203 305
396.31604 84.40948 164.69592 317
402.31387 87.39183 166.41432 422
410.64948 91.42703 167.68414 305
40359.88281 19625.64062 6842.00439 1000
395.76767 85.50924 164.72371 317
400.69324 87.93247 166.71291 423
410.06949 92.59512 167.69157 305
395.21454 86.51322 164.70978 317
399.08908 88.47124 167.02216 424
394.66183 87.55690 164.70139 317
397.47903 89.04237 167.27089 425
394.04575 88.64748 164.71329 317
395.91888 89.58905 167.56294 426
393.46484 89.65417 164.74161 317
394.83206 90.38950 167.71709 311
392.79816 90.64291 164.74481 427
394.29706 91.46564 167.68924 311
391.31100 91.22223 165.00858 428
393.67972 92.50569 167.68364 311
389.77036 91.72314 165.32417 429
393.15198 93.58032 167.68642 309
388.30154 92.23594 165.59433 430
392.54031 94.60660 167.66638 309
386.82257 92.74702 165.84230 431
392.00418 95.68323 167.65271 309
385.34497 93.27757 166.12045 432
391.39865 96.73321 167.66948 309
1463.58374 713.85681 75.29034 343
1453.79846 707.97192 100.09484 360
383.91327 93.75440 166.37192 433
390.84332 97.77533 167.67392 309
1446.25256 713.94519 76.71467 374
1436.50488 708.29456 101.22814 378
1430.46130 704.64984 124.77569 298
382.50531 94.24256 166.67184 434
390.20740 98.82829 167.66684 309
1430.09558 714.36920 78.18734 377
1420.70776 708.89282 102.18593 379
1412.36194 703.71179 125.97822 386
381.09442 94.75410 166.89589 435
389.61801 99.86543 167.65562 309
1414.49683 714.94519 79.56435 379
1399.71313 706.27740 103.68882 365
1397.15698 704.58997 126.45040 387
1402.48340 707.93744 148.89024 332
379.65710 95.25500 167.16714 436
1399.03003 715.41785 80.62757 380
1388.25769 709.12042 104.72631 380
1381.98022 705.33057 127.45049 393
1387.03345 708.34485 149.47456 375
378.30200 95.69234 167.39256 437
1383.64087 716.11725 82.20482 380
1372.99976 709.69043 105.50233 380
1367.78894 706.01172 128.34427 394
1373.38892 709.67542 150.11136 376
376.94363 96.18182 167.65288 315
1368.83911 716.48859 83.47143 380
1358.55322 710.26434 106.73591 381
1353.45569 707.19147 128.97572 395
1359.93225 711.16895 150.34767 377
376.31863 97.15620 167.64473 315
1353.96240 717.17029 84.38715 382
1343.80298 710.52515 107.50237 381
1339.77100 708.15027 129.71695 397
1347.86133 713.18768 150.87769 334
375.72394 98.10180 167.62405 315
1339.33411 717.70355 85.69766 383
1329.53015 711.25067 108.71072 382
1325.96252 708.87909 130.43536 398
1335.61353 715.03333 151.38239 335
375.11740 99.05157 167.60938 315
1325.15112 718.04095 86.64732 382
1315.31555 711.53375 109.36144 383
1312.80493 709.88220 131.00301 399
1325.21301 717.88763 151.68642 284
374.48373 100.01086 167.59100 315
1311.03259 718.36829 87.84820 383
1301.45178 711.76038 110.46198 384
1299.60779 710.70209 131.97482 400
1318.10205 723.00031 151.82510 264
373.84863 100.93694 167.62514 315
1297.07666 718.84888 89.17105 384
1287.87695 712.43951 111.26501 386
1286.66504 711.46332 132.49144 402
1361.32227 761.70715 149.15509 447
373.23203 101.86311 167.60449 315
1283.49121 718.97180 90.23310 385
1274.29541 712.73663 112.33246 387
1273.93030 712.27063 133.11903 403
1361.71619 772.24908 148.86287 446
372.57401 102.78149 167.60806 315
1281.76453 727.15405 68.49323 393
1270.13977 719.47028 91.36265 378
1261.22351 712.98944 113.04488 388
1261.48254 713.43152 133.83969 404
1362.67908 782.78070 148.45560 487
371.91736 103.73672 167.59534 315
1268.96399 727.97345 69.90221 394
1257.53503 720.13837 92.38813 379
1247.97046 713.40344 114.02124 389
1249.13586 714.03833 134.35072 405
1357.86438 789.77466 148.29755 495
371.27237 104.63211 167.57106 315
1256.47864 728.80505 70.83355 395
1244.69238 720.44165 93.38983 380
1235.10120 713.66943 114.77348 390
1236.74109 714.82263 135.14972 406
1356.61182 799.17993 148.11322 423
370.59930 105.57765 167.59622 313
1244.10571 729.32684 72.03847 396
1232.27075 720.99084 94.30288 381
1222.52917 714.10895 115.69875 392
1224.71619 715.69592 135.76276 408
1380.72339 827.33936 146.65021 412
369.95737 106.48957 167.56902 313
1231.67139 730.12402 73.11139 397
1220.24597 721.67682 95.02025 383
1209.09229 713.61304 116.65603 352
1212.93835 716.60022 136.37279 409
1368.87024 829.35510 147.10922 256
369.31985 107.41988 167.56050 313
1219.74719 730.76300 74.13821 399
1207.97046 722.36328 95.90184 384
1196.35352 713.86395 117.26350 409
1201.41406 717.45264 136.79866 410
1212.92773 725.91614 156.22566 424
1208.12134 731.57886 75.12440 400
1196.34399 722.90778 97.06102 385
1183.96460 713.56824 118.08519 410
1189.86560 717.96710 137.60129 411
1360.67932 844.71765 146.89474 266
1196.56079 732.26746 76.03274 401
1184.60437 723.12201 97.85880 386
1172.67603 714.37762 118.82938 411
1178.54370 718.77698 137.95483 412
1359.04187 854.45831 146.73618 266
1185.00720 732.85303 77.16160 402
1173.20459 723.75635 98.89423 387
1161.45288 715.14117 119.61673 413
1167.48022 719.50604 138.46327 413
1362.12402 867.71112 145.95842 252
1173.65857 733.66016 78.20882 403
1161.62146 724.45544 99.62663 388
1150.77112 715.81482 120.42418 377
1156.44080 720.19861 139.05446 415
1362.90991 879.44861 145.54594 442
1162.74304 734.13043 79.11357 404
1150.38269 724.83820 100.45933 389
1140.80725 717.15875 120.93909 415
1145.66809 720.97723 139.51654 414
1362.85925 890.44092 145.17136 335
1151.58801 735.10016 80.16702 405
1139.40796 725.31946 101.09691 390
1132.94788 720.24304 121.35878 417
1134.65686 721.77161 140.20424 415
1369.91711 907.65082 144.66556 436
1140.75732 735.63300 80.90791 406
1128.46460 725.80188 102.09328 383
1122.45215 720.73553 121.84797 418
1124.12231 722.18121 140.85306 418
1370.66626 919.55756 144.06319 435
1129.93188 736.15851 81.90294 389
1117.07910 725.75903 102.77311 384
1111.89600 721.66980 122.33022 419
1113.71240 723.11829 141.06586 419
1371.14905 931.70441 143.58501 434
1118.99426 736.48993 82.99892 380
1105.93811 725.68713 103.81453 385
1101.88379 722.29602 123.12885 420
1103.55029 723.56506 141.71814 420
1109.64270 728.54053 160.07666 422
1108.26514 736.73315 83.71474 381
1095.21069 725.61737 104.56049 386
1091.62769 722.89343 123.59436 421
1093.27820 724.49347 142.20018 421
1099.98987 729.90887 160.42902 423
1097.79297 736.92285 84.61628 382
1084.20850 725.83276 105.45158 387
1081.63245 723.50531 124.42153 422
1083.45154 724.86285 142.63153 422
1090.03040 730.52649 160.82205 425
1087.30676 737.33807 85.70404 383
1073.66833 725.93610 106.13337 388
1071.72461 724.28577 124.76468 424
1073.48474 725.66418 143.24857 423
1080.05603 731.32324 161.10010 426
1076.83521 737.76172 86.35552 384
1063.37390 726.06342 106.83113 389
1062.09167 724.91333 125.34531 425
1063.64148 726.30042 143.57848 424
1070.32349 732.13562 161.24547 427
1066.78418 737.90076 87.32143 384
1052.92871 726.03143 107.88489 387
1052.42065 725.47430 126.11207 426
1054.29224 727.20807 143.93607 425
1060.88110 732.67529 161.72392 428
1056.64685 738.20288 88.10363 385
1043.25830 726.40869 108.29466 388
1042.99292 726.14697 126.71648 427
1044.78735 727.91254 144.43802 426
1051.17419 733.53052 161.93225 429
1060.61328 751.00769 68.15285 383
1046.67871 738.53442 88.96898 386
1033.55322 726.92896 109.07796 390
1034.03760 727.11682 127.17257 436
1035.61243 728.67596 144.78680 436
1041.83215 734.39508 162.47977 430
1042.66943 734.83313 180.55458 429
1051.01196 751.71838 69.04016 384
1036.85205 738.97278 89.87360 389
1024.21082 727.57013 109.71606 401
1025.12451 728.02094 127.51711 437
1026.91614 729.93616 145.17915 437
1032.64868 735.03125 162.73921 431
1033.62854 736.11682 180.45653 431
1041.71667 752.42609 69.93286 384
1027.56409 739.34497 90.74769 389
1015.49860 728.52942 110.42862 402
1016.88824 729.54254 127.81725 453
1018.76611 731.42145 145.41066 454
1023.28076 735.51477 162.99844 441
1024.25562 736.64203 180.85129 443
1031.86755 752.82062 70.95467 386
1018.39246 740.19586 91.19414 396
1007.09192 729.42920 110.93117 403
1008.80298 731.30548 128.36324 454
1010.92438 733.22406 145.85159 451
1015.58038 737.40741 163.27206 456
1016.63519 738.58344 180.94426 456
1023.00299 753.59460 71.57487 383
1009.69775 741.07861 92.01017 401
1001.21191 733.23267 111.32034 471
1001.07788 732.93195 128.57327 463
1003.15723 734.94720 146.19022 452
1007.78735 739.25909 163.32265 461
1008.95776 740.37366 181.04793 457
1013.69830 754.21613 72.32925 383
1001.04395 742.17627 92.50843 410
990.86237 732.20148 111.78298 411
993.67328 734.99231 129.15582 464
996.02460 737.28577 146.36891 461
1000.39093 741.19696 163.56021 462
1000.99133 742.01056 181.36806 458
1004.96967 755.09540 73.26322 392
993.10657 743.72070 93.25481 413
982.95282 733.85272 112.22023 410
986.36957 737.16089 129.42903 464
988.86743 739.51245 146.58017 462
992.93365 743.20374 163.76431 463
993.41870 743.81268 181.49275 492
997.09045 756.64923 73.88422 398
985.39020 745.32397 93.75970 413
975.43402 735.47687 112.78070 465
979.25427 739.14899 129.65826 470
981.85211 741.66797 146.73668 463
985.47656 745.28009 164.03195 491
989.52655 749.43243 181.25363 490
989.15240 758.43622 74.32011 399
977.73358 747.00897 94.07760 413
967.80951 737.15485 113.14458 378
972.25153 741.48132 129.82742 471
975.33179 744.48047 146.97516 455
981.68610 750.81219 164.01030 491
985.48828 754.51685 181.30521 490
981.74005 760.21002 75.06229 404
970.52142 749.05688 94.68900 416
960.70392 739.02332 113.61823 470
965.31592 743.89368 130.26352 475
968.67499 746.99762 147.33200 457
977.61609 755.77716 163.84239 490
981.39893 759.81958 181.18507 489
17422.58398 17424.39062 -5072.00537 1000
974.27112 761.84863 75.40234 404
963.27490 751.01154 95.11811 416
953.59216 741.06305 113.72178 473
958.78900 746.40198 130.29836 476
962.51123 749.93750 147.27829 424
972.98822 760.90698 163.86461 490
976.99896 764.82428 181.26079 489
966.92285 763.68036 76.06955 403
956.03467 752.99542 95.30590 420
947.01569 743.51941 114.16663 474
952.10730 748.62646 130.79411 477
956.67883 753.45959 147.44377 427
968.37463 765.19165 163.93137 489
975.66968 772.82465 181.24362 400
959.50806 765.69080 76.38272 413
949.26770 754.97437 95.65508 420
940.26953 745.83588 114.53516 475
945.51941 751.23456 130.85869 477
950.78290 756.51764 147.54247 421
967.84949 774.17212 163.77992 401
976.11884 782.90875 180.95454 399
952.41150 767.94202 76.74052 414
942.24042 756.99854 96.13848 420
933.55573 747.88495 114.77076 475
939.12982 753.57312 131.06464 480
949.58997 764.58533 147.29187 293
968.35297 784.40173 163.13240 400
976.77478 793.23669 180.61055 398
945.49463 769.85925 77.13713 414
935.54102 759.22101 96.58768 421
927.12317 750.10114 114.90424 482
932.59479 756.08545 131.40022 481
949.95020 774.58301 146.75845 298
968.86017 794.68616 162.99751 399
977.37579 803.68713 180.23288 397
938.85840 772.20306 77.70583 415
928.86658 761.24048 96.80282 421
920.84790 752.75409 115.19599 426
926.27972 758.62494 131.42920 485
950.68079 784.83075 146.28679 290
969.43079 805.22455 162.61646 398
978.06702 814.53876 179.96579 396
932.02252 774.30621 77.93993 413
922.20868 763.75909 97.12398 426
915.03369 755.82300 115.32423 427
919.92285 761.40930 131.63367 485
951.35266 795.42981 145.82449 290
969.95538 815.74915 162.13901 396
978.51556 825.28967 179.83430 395
925.63141 776.84320 78.39308 414
915.86621 765.93805 97.39313 426
909.00800 758.48206 115.65827 483
913.86072 764.09790 132.01512 485
947.87378 801.58063 145.44685 305
970.41815 826.30151 161.73053 395
979.33905 836.23401 179.42575 394
918.92883 779.32611 78.83446 414
909.51117 768.37103 97.70453 426
902.59961 760.99957 115.77135 484
907.61481 766.41235 132.09784 485
956.11676 820.56091 144.22014 320
970.96893 837.39410 161.18773 394
980.08783 847.31561 179.30830 393
912.56152 781.69885 79.01170 415
903.03308 770.91034 97.95778 427
898.99756 766.35858 115.74335 484
901.69824 769.35321 132.18333 490
1080.28979 971.64941 131.30499 444
971.39917 848.23035 160.98013 393
980.68213 858.56927 178.90779 391
906.02380 784.01270 79.40447 415
896.61975 773.28778 98.37994 430
893.01050 769.09564 115.77377 485
895.70868 772.15948 132.44762 490
1070.07483 971.94794 131.69963 445
972.16754 859.69733 160.46129 392
981.23102 870.14343 178.77518 390
899.67249 786.05865 79.71452 416
890.58771 775.84247 98.64079 431
887.17328 771.74615 116.16938 485
889.95850 775.10205 132.44644 489
1059.96240 972.30725 132.25157 446
972.66962 870.87695 160.11848 391
981.96686 881.58295 178.45528 389
893.35529 788.68176 80.08474 420
884.42944 778.20166 98.72370 431
881.13672 774.51416 116.26478 485
883.89008 777.83325 132.63216 490
987.08472 898.69299 139.02394 440
973.24109 882.72235 159.61137 390
982.46094 893.49512 178.08702 388
887.07373 791.25134 80.15293 420
878.42072 780.74615 98.97540 431
875.54150 777.28491 116.23212 489
878.48090 780.75769 132.69041 495
977.45477 898.88776 139.52620 441
973.95782 894.29028 158.97348 389
983.28320 905.33478 177.73770 387
881.01385 793.88464 80.39481 421
872.36279 783.38751 99.32410 437
869.88208 780.35101 116.55543 490
873.01599 784.11658 132.77827 495
968.19928 898.88660 139.91534 442
974.34918 906.43896 158.59396 388
983.96069 917.77289 177.26425 386
874.74164 796.25024 80.71269 428
866.59064 786.41266 99.33160 437
864.33026 783.62469 116.67786 490
867.39990 787.39868 132.95702 495
963.62714 904.57178 139.77184 460
975.12750 918.45312 158.20737 386
984.43744 929.99811 177.21999 385
869.24286 799.42047 81.01722 428
861.06256 789.32013 99.54615 438
858.93835 786.57446 116.74234 489
861.99341 790.44647 133.07649 493
961.03735 912.78870 139.58195 459
975.75269 930.91791 157.66940 385
985.13843 942.67676 176.63249 384
863.47614 802.18927 81.13356 428
855.33319 792.19604 99.82917 438
853.54919 789.81818 116.80119 491
856.66241 793.85559 133.07034 495
958.22339 920.94507 139.23434 459
976.24481 943.40741 157.14740 384
985.85730 955.52258 176.43500 383
857.57031 805.09131 81.28748 429
849.60913 795.00708 99.71294 440
848.12836 793.20325 116.82954 491
851.26404 797.34149 133.12761 495
955.67700 929.36963 138.77797 458
976.98615 956.13892 156.65707 383
851.76459 807.97760 81.53763 433
844.06195 798.07208 100.06541 441
842.88031 796.48035 116.99956 486
846.17218 800.72784 133.22305 495
952.77216 937.69202 138.38913 457
846.43311 811.18488 81.46578 433
838.73792 801.26617 100.00452 441
837.37329 799.68011 116.90769 486
840.84283 804.08783 133.15688 495
950.05585 945.92981 138.07657 456
840.89252 814.15411 81.82547 433
833.19708 804.22186 100.09344 441
832.20782 802.83173 117.14307 486
835.66003 807.36591 133.27708 496
946.29950 952.88837 137.89886 432
835.26617 817.41455 81.95156 433
827.64288 807.51868 100.30790 441
826.65369 806.16266 116.99768 486
830.28894 810.77502 133.39275 496
936.13519 952.07336 138.45668 433
829.79010 820.52710 81.80995 433
822.36584 810.35284 100.38878 441
821.40649 809.26141 117.17307 487
825.16937 814.34338 133.40012 490
926.40411 950.97882 138.80399 434
824.28918 823.61450 82.05051 434
816.75171 813.56891 100.35104 441
816.09143 812.61609 117.26297 487
819.87506 817.55334 133.32193 485
916.21490 949.62207 139.25302 420
818.82605 826.69250 82.19451 434
811.35547 816.56970 100.52382 441
810.60803 815.65210 117.21813 487
814.60150 821.21948 133.48364 485
906.15442 947.67761 139.77943 421
813.23370 829.79279 82.23180 443
805.87494 819.74048 100.69003 441
805.47772 818.99841 117.40259 487
809.42645 824.56952 133.27313 485
901.74127 953.77460 139.59305 265
807.45874 832.55737 82.47544 444
800.48291 822.81403 100.77882 442
800.24194 822.12445 117.52162 485
804.40558 828.30334 133.44954 485
801.93054 835.49670 82.59452 444
795.18140 825.75299 100.82104 442
795.07465 825.49323 117.34896 485
799.37030 831.68103 133.48207 485
796.37579 838.42908 82.41962 444
789.84778 828.96106 100.79485 442
789.63739 828.76923 117.50307 484
794.11621 835.22266 133.36719 480
790.83020 841.23798 82.64444 444
784.54980 832.06396 100.75617 444
784.40875 832.27283 117.49802 484
789.38342 839.17242 133.40094 472
785.18335 844.32794 82.60829 446
779.21600 835.15985 100.81474 444
779.32520 835.55963 117.34337 484
784.34174 843.07574 133.20226 472
779.66925 847.37482 82.69264 445
773.84918 838.39636 100.96656 444
774.28339 838.96637 117.34971 481
779.59186 846.81305 133.38997 472
774.15503 850.40326 82.80092 452
768.69525 841.66840 100.82785 446
769.16058 842.72229 117.37167 479
774.42957 850.72107 133.32605 472
763.25293 844.90930 100.90072 446
764.30127 846.27649 117.35713 479
769.56110 854.80829 133.16681 461
758.09924 848.31165 100.93580 449
758.98804 849.76239 117.48342 479
764.64246 858.74713 133.09827 456
753.35193 852.04486 100.87047 449
754.05688 853.37927 117.45782 476
760.02618 862.77307 133.01958 456
748.04645 855.60760 100.82106 460
749.14954 857.34430 117.14334 476
755.11206 866.86578 132.83130 456
742.78711 858.89844 100.73885 460
744.21851 861.15411 117.27264 473
750.15942 871.05078 132.86746 456
737.85986 862.54102 100.68754 462
739.24841 864.83307 117.18065 473
745.20776 874.88708 132.89262 443
732.76642 866.13477 100.53506 482
734.07520 868.46069 117.01770 473
727.80731 869.81964 100.60871 482
729.12848 872.14819 116.89362 473
712.23523 875.37823 100.17587 459
713.53613 877.68909 116.55919 341
710.58398 885.22461 99.42903 313
10842.99316 36974.04688 7211.46240 1000
12409.31250 60081.36719 9303.69824 1000
-1072.21643 8959.63672 512.59503 1000
-258.16858 2529.37793 89.70603 486
-258.11972 2529.41333 132.24814 486
-257.75037 2530.65039 174.31960 486
-258.45935 2531.26929 216.67429 486
-258.01559 2531.60083 258.63028 449
-754.39465 2052.32690 67.92230 480
-754.58984 2051.48340 104.90968 481
-754.20209 2051.33105 141.90952 481
-753.63202 2050.89917 179.09811 481
-753.58331 2050.21118 216.74083 481
-753.44055 2049.39331 253.68643 481
-753.15558 2049.17822 290.51822 481
127.54169 148.28418 169.50471 485
126.52778 147.97522 169.40517 441
124.70005 148.85915 168.92300 489
120.66774 149.21980 168.25313 489
118.06734 151.20477 167.41821 316
117.19917 150.52980 167.43555 316
116.30530 149.90900 167.40065 316
115.45543 149.22462 167.41554 316
114.36690 148.92000 167.31517 275
111.44386 151.03938 166.38507 314
110.59858 150.37643 166.37210 314
109.70029 149.71246 166.36769 314
108.84826 149.00293 166.40619 314
107.99321 148.35938 166.40907 314
107.10477 147.61771 166.37364 314
106.26095 146.90979 166.36923 314
105.24340 146.44646 166.30861 423
103.64887 146.61801 166.03288 422
96.34636 155.73608 166.39609 310
102.09482 146.77254 165.73456 421
95.43852 154.95821 166.39891 310
100.52831 146.92592 165.37938 420
94.55165 154.16750 166.40128 309
98.92931 147.05345 165.10358 419
93.64612 153.44058 166.37964 309
97.26936 147.24429 164.77263 418
92.71249 152.64291 166.36876 309
95.70660 147.31075 164.45200 427
91.82990 151.86192 166.37756 309
94.08153 147.41776 164.14651 426
90.91138 151.08551 166.36134 309
92.53114 147.44539 163.84454 425
90.04938 150.29413 166.34245 309
90.87082 147.54349 163.53497 424
89.13951 149.46539 166.32330 309
89.63004 147.17680 163.40448 307
88.25710 148.64647 166.33101 309
88.85641 146.26828 163.43654 307
87.40835 147.83167 166.35715 309
88.08338 145.35233 163.44611 307
85.93237 147.73509 166.08653 422
87.32812 144.44356 163.48354 307
84.23092 147.78651 165.80315 420
86.59439 143.51976 163.49910 307
82.48488 147.84877 165.50850 419
74.47379 156.42621 166.27884 305
85.81377 142.58385 163.53128 307
80.75901 147.90598 165.15126 418
73.55250 155.46075 166.25304 305
85.07863 141.66338 163.61107 307
78.98432 147.96291 164.82147 417
72.65257 154.58521 166.24953 305
-1279.81531 1554.68640 75.12720 326
-1280.29468 1555.01904 110.19884 326
-1280.13464 1555.66602 145.75946 326
-1280.80542 1555.95605 180.90498 326
-1281.19714 1556.05823 216.91817 396
-1281.56689 1556.71045 252.28177 396
-1282.08899 1557.38684 287.74026 395
104.95540 119.67992 171.53439 316
77.18047 148.05009 164.52596 416
71.71902 153.67366 166.29745 305
104.28100 118.96021 171.51543 316
75.39781 148.11794 164.16701 415
70.83588 152.73021 166.28432 305
103.60439 118.18639 171.54980 316
73.54887 148.17171 163.84752 414
69.93683 151.84685 166.27895 305
102.95760 117.47046 171.53452 316
71.72524 148.25340 163.46451 413
69.04747 150.93199 166.27496 305
102.27521 116.72293 171.53769 316
70.38893 147.78172 163.30536 303
68.11720 150.00056 166.27104 305
101.63162 115.94922 171.52255 316
69.63676 146.72534 163.36490 304
67.26099 149.04744 166.22591 305
100.97190 115.20901 171.57033 316
68.90682 145.69473 163.37286 304
65.97459 148.50034 166.09332 410
100.34211 114.40705 171.56615 316
68.13579 144.65034 163.41309 304
63.97083 148.57140 165.78157 409
99.70306 113.67692 171.54488 316
67.42988 143.62817 163.46735 304
61.97178 148.65305 165.41571 408
99.07954 112.88486 171.56857 316
90.63724 120.60709 171.63843 312
59.93591 148.69135 165.05084 407
50.82833 157.04965 166.19154 301
98.46999 112.09561 171.57051 316
89.99392 119.77716 171.64484 312
57.91452 148.78616 164.68286 406
49.92731 155.98575 166.17516 301
97.79931 111.33018 171.58899 316
89.31962 118.96514 171.64822 312
55.79208 148.89413 164.30701 405
49.02939 154.96585 166.13301 301
97.20818 110.55848 171.58051 316
88.62653 118.11304 171.63600 312
53.65969 148.98386 163.85611 403
48.10135 153.84808 166.18350 301
96.56779 109.78411 171.59557 316
87.98574 117.27362 171.66417 312
51.56660 149.05417 163.48524 402
47.22599 152.77446 166.15266 301
95.96568 109.00262 171.60396 316
87.34246 116.42161 171.68646 312
49.80978 148.72290 163.24988 300
46.31852 151.71120 166.13780 301
95.37364 108.17000 171.61412 316
86.65868 115.57689 171.67368 312
49.08033 147.58961 163.23456 300
45.43117 150.67523 166.13225 301
94.76785 107.39535 171.60756 316
86.06379 114.73075 171.67372 312
48.35544 146.35207 163.32805 300
44.53369 149.56076 166.18256 301
94.14970 106.58011 171.62552 316
85.41431 113.89358 171.66496 312
75.41428 122.15343 171.75568 308
42.60246 149.41353 165.82333 398
93.59232 105.80353 171.59393 316
84.75767 113.02514 171.67441 312
74.75111 121.21908 171.77295 308
40.21494 149.47542 165.43604 397
92.99855 104.96507 171.63193 316
84.15788 112.14714 171.70245 312
74.09660 120.27201 171.78029 308
37.85182 149.58868 164.98773 396
92.41655 104.18023 171.60712 316
83.53064 111.27339 171.71672 312
73.38565 119.36156 171.78653 308
35.43503 149.68945 164.56914 395
25.00009 157.99048 166.03870 297
91.83350 103.36297 171.60706 316
82.91310 110.42238 171.68645 312
72.75999 118.40704 171.78679 308
33.01180 149.75612 164.13467 393
24.07660 156.76569 166.03534 297
91.26838 102.52613 171.63721 316
82.26680 109.51449 171.68701 312
72.06985 117.49353 171.77745 308
30.50472 149.87202 163.69426 392
23.15969 155.56384 166.01118 297
90.71755 101.71919 171.63115 316
81.66402 108.64604 171.69852 312
71.44175 116.51224 171.81932 308
27.95737 149.95299 163.23599 391
22.28248 154.32257 166.01465 297
90.13644 100.89554 171.64668 316
81.08530 107.76839 171.72351 312
70.76512 115.59100 171.82426 308
26.65446 149.08980 163.11349 296
21.42423 153.06230 166.00743 297
89.56450 100.06154 171.65576 316
80.45776 106.88740 171.72337 312
70.15464 114.64349 171.81508 308
25.99240 147.77972 163.15479 296
20.53172 151.82069 166.05405 295
89.03018 99.23452 171.66975 316
79.86287 105.98353 171.72159 312
69.50169 113.65426 171.80174 308
57.59472 122.46346 171.93709 304
19.57454 150.60609 166.02304 295
88.50456 98.38770 171.64165 316
79.31984 105.08962 171.70749 312
68.87497 112.69107 171.81763 308
56.93591 121.46078 171.89253 304
17.45664 150.32750 165.70572 389
87.94514 97.55663 171.63979 316
78.70584 104.20428 171.75427 312
68.23335 111.72581 171.80865 308
56.26283 120.41131 171.91779 304
14.67478 150.42467 165.27016 388
87.42075 96.70700 171.66145 316
78.17027 103.27129 171.74863 312
67.65713 110.79844 171.80255 308
55.60663 119.34245 171.94838 304
11.91212 150.46246 164.79543 387
86.86292 95.85438 171.65155 316
77.59108 102.39697 171.75830 312
67.02705 109.83451 171.82449 308
54.88791 118.34757 171.92378 304
9.09383 150.50986 164.35399 386
86.37002 95.01588 171.68311 316
76.99265 101.49873 171.76082 312
66.40594 108.82500 171.86713 308
54.24767 117.25585 171.91231 304
6.26315 150.62590 163.84639 384
-5.89459 158.99223 165.67740 290
85.84806 94.12588 171.66092 316
76.43241 100.58980 171.77647 312
65.81201 107.83007 171.83914 308
53.58671 116.24030 171.95116 304
3.28672 150.68649 163.36777 383
-6.85329 157.57423 165.67281 290
85.32668 93.27940 171.69852 316
75.90665 99.66325 171.74915 312
65.22994 106.85786 171.86124 308
52.95115 115.14979 171.97903 304
0.31799 150.77174 162.85294 382
-7.72317 156.16637 165.66110 291
84.78717 92.42654 171.69160 316
75.36240 98.70427 171.74527 312
64.60701 105.91143 171.83334 308
52.33356 114.10316 171.94580 304
38.07278 123.57713 172.04184 300
-8.66864 154.76837 165.66301 291
84.30420 91.56092 171.69592 316
74.79050 97.82439 171.76465 312
64.03059 104.89950 171.84550 308
51.67833 112.99982 171.98103 304
37.42583 122.45528 172.06035 300
-9.61445 153.34805 165.66191 291
83.81407 90.70980 171.71178 316
74.26048 96.88828 171.75343 312
63.48712 103.90524 171.85510 308
51.06334 111.96333 171.98985 304
36.72976 121.24780 172.07536 300
-10.53271 151.92578 165.62105 291
83.28952 89.83086 171.70361 316
73.72278 95.92377 171.78281 312
62.88921 102.88355 171.87405 308
