# .PCD v.7 - Point Cloud Data file format
VERSION .7
FIELDS x y z rgb
SIZE 4 4 4 4
TYPE F F F U
COUNT 1 1 1 1
WIDTH 1366
HEIGHT 1
VIEWPOINT 6377.701660 -1890.788086 147.775192 -0.754914 -0.068417 -0.117104 0.641646
POINTS 1366
DATA ascii
60.44971 -21.76904 186.84404 450
58.06275 -22.11664 189.17958 448
55.61097 -22.47125 191.59755 445
53.10135 -22.82578 194.03130 443
50.53842 -23.16850 196.58440 440
47.87708 -23.57176 199.17593 438
45.19622 -23.95947 201.87817 435
42.39472 -24.36834 204.58759 432
39.50075 -24.76604 207.44020 430
36.54704 -25.19156 210.37737 427
-179.49734 -55.81219 223.16331 383
83.38132 -19.42026 178.94429 461
76.21249 -20.44986 179.59483 312
67.26103 -21.81059 180.01820 456
65.02732 -22.11558 182.20592 454
62.73566 -22.44977 184.49541 452
60.39010 -22.79830 186.77802 450
57.99957 -23.15552 189.12051 447
55.52950 -23.51090 191.55740 445
53.01847 -23.88223 194.02101 442
50.46518 -24.29010 196.56216 440
47.81925 -24.67232 199.13393 437
45.07183 -25.08879 201.80548 435
42.27543 -25.50788 204.58322 432
39.40158 -25.90825 207.40158 429
36.42324 -26.36055 210.36646 427
-179.58911 -58.34477 223.17506 383
83.35460 -20.27081 178.89723 461
76.40862 -21.37355 179.56276 312
67.22251 -22.76199 179.96651 456
64.95447 -23.13766 182.18741 454
62.68050 -23.49100 184.43739 452
60.34268 -23.86033 186.74237 449
57.93608 -24.19237 189.06984 447
55.48194 -24.60070 191.48344 445
52.93975 -24.98397 193.97656 442
50.36699 -25.36600 196.50529 440
47.73413 -25.79851 199.11330 437
45.00890 -26.19882 201.81358 434
42.19648 -26.62275 204.55876 432
39.29464 -27.08899 207.41273 429
36.27819 -27.53416 210.35945 426
-180.17638 -60.98925 223.18034 361
83.33084 -21.16108 178.80977 461
76.60855 -22.25315 179.55882 312
67.15669 -23.76104 179.90923 456
64.92460 -24.12777 182.12947 454
62.62233 -24.47698 184.37363 451
60.27079 -24.87430 186.67667 449
57.88815 -25.23725 189.02147 447
55.40600 -25.64279 191.45564 444
52.90041 -26.06407 193.90355 442
50.26915 -26.46626 196.45100 439
47.63089 -26.88278 199.10492 437
44.86955 -27.34788 201.77565 434
42.08857 -27.81502 204.53751 432
39.04303 -28.26747 207.38147 411
35.74785 -28.81729 210.32248 402
-180.69182 -63.61349 223.14905 361
83.28071 -22.04751 178.77524 460
76.81556 -23.13175 179.57787 312
67.12022 -24.77208 179.85056 456
64.86578 -25.14688 182.04459 453
62.54533 -25.49541 184.28493 451
60.19851 -25.88759 186.60818 449
57.79365 -26.31881 188.96158 447
55.33364 -26.74149 191.42328 444
52.80328 -27.15201 193.87207 442
50.18386 -27.59513 196.44958 439
47.52993 -28.01003 199.04257 437
44.70820 -28.50327 201.75941 416
41.64863 -28.99092 204.49841 413
38.51725 -29.54822 207.32083 411
35.13350 -30.08493 210.27443 401
-397.97849 -66.45074 6.64923 361
83.24570 -22.92479 178.71667 460
76.99513 -24.00919 179.58667 312
67.05541 -25.75249 179.76509 455
64.80390 -26.14483 181.98488 453
62.51517 -26.54695 184.24667 451
60.13062 -26.95112 186.54668 449
57.73409 -27.37674 188.94742 446
55.23908 -27.81131 191.36029 444
52.73095 -28.22411 193.85083 441
50.08619 -28.70096 196.40892 421
47.21897 -29.17942 198.97906 418
44.24228 -29.71556 201.65868 415
41.18956 -30.25802 204.43269 413
37.97698 -30.79525 207.29581 403
34.51120 -31.36308 210.24532 401
-181.96663 -68.93237 223.25433 361
83.20749 -23.84756 178.62128 460
77.23790 -24.92211 179.58202 312
67.02092 -26.72853 179.70454 455
64.77795 -27.13887 181.93100 453
62.47079 -27.58338 184.20062 451
60.07666 -27.98852 186.48613 448
57.66481 -28.44265 188.87292 446
55.21344 -28.88294 191.29196 443
52.46951 -29.34191 193.79135 422
49.67310 -29.85760 196.30223 420
46.77428 -30.37194 198.90573 417
43.79868 -30.91811 201.60965 415
40.70801 -31.46021 204.39799 412
37.38672 -32.08813 207.25455 403
33.90245 -32.69854 210.22353 400
-183.01428 -71.69978 216.47054 425
-182.92921 -71.68318 223.21320 323
83.18469 -24.74976 178.58118 459
77.43385 -25.78802 179.58180 312
66.99886 -27.74519 179.63989 455
64.72825 -28.14582 181.86443 453
62.40427 -28.58759 184.11624 450
60.05555 -29.02409 186.42578 448
-109.06343 -20.27414 -18.30190 427
54.82114 -29.99447 191.19792 424
52.06212 -30.50335 193.68826 422
49.21524 -31.03634 196.21635 419
46.31729 -31.60810 198.84081 417
43.30751 -32.15521 201.53494 414
40.20502 -32.72319 204.32289 405
36.78148 -33.37627 207.19351 402
33.30568 -34.03152 210.20847 399
-183.07108 -74.23884 216.55263 424
-185.44847 -74.73094 223.32376 322
83.13744 -25.61150 178.47400 459
77.67578 -26.70376 179.58820 312
66.96032 -28.75342 179.55789 454
64.67112 -29.17471 181.78113 452
62.26985 -29.62381 184.03345 431
59.73500 -30.12778 186.35062 428
57.11446 -30.65455 188.71793 426
54.39798 -31.16151 191.10680 424
51.66728 -31.69833 193.58687 421
48.80124 -32.22918 196.16966 419
45.87225 -32.79639 198.77899 416
42.86153 -33.36452 201.49896 414
39.58788 -34.01892 204.27736 404
36.20105 -34.67652 207.16618 401
32.64291 -35.33479 210.17917 399
-182.99751 -76.84486 216.47476 424
-188.06847 -77.74297 223.37848 321
83.09195 -26.54276 178.40056 459
77.90434 -27.55722 179.57042 312
66.87521 -29.75624 179.52750 434
64.43608 -30.24940 181.68260 432
61.95135 -30.74400 183.91705 430
59.36145 -31.25008 186.23244 428
56.70681 -31.77075 188.61165 425
54.01656 -32.30916 191.02675 423
51.25554 -32.86111 193.50983 421
48.38887 -33.41806 196.03951 418
45.39795 -34.03292 198.71980 416
42.38132 -34.63440 201.44641 406
39.04169 -35.29925 204.20758 403
35.61633 -35.97433 207.12251 401
32.05639 -36.66705 210.11790 398
-182.96768 -79.33527 216.52776 424
-190.76279 -80.93163 223.45599 323
83.08555 -27.43096 178.35547 458
78.12344 -28.43433 179.58371 312
66.55305 -30.79818 179.35567 434
64.11212 -31.32099 181.56905 432
61.59250 -31.84304 183.81126 429
59.02228 -32.35567 186.11436 427
56.35434 -32.94018 188.49413 425
53.60561 -33.47050 190.90260 422
50.82872 -34.06552 193.42068 420
47.90234 -34.65814 196.00368 417
44.93564 -35.25070 198.63348 415
41.83344 -35.89855 201.34692 405
38.48618 -36.56394 204.14520 403
35.01197 -37.30844 207.05852 400
31.39106 -38.01191 210.07828 397
-183.04634 -81.96555 216.54805 424
83.03460 -28.35335 178.26494 458
78.36372 -29.35060 179.58534 312
66.24317 -31.90705 179.22623 433
63.78890 -32.44598 181.43178 431
61.21632 -32.96388 183.70039 429
58.64367 -33.49532 185.99234 426
55.98027 -34.08052 188.37828 424
53.20468 -34.62968 190.80099 422
50.41280 -35.25127 193.33382 419
47.47544 -35.84990 195.89760 417
44.48682 -36.47602 198.55331 414
41.26059 -37.18755 201.27257 405
37.86456 -37.88914 204.09264 402
34.39023 -38.61285 207.02011 399
30.76239 -39.42290 210.08145 362
-182.92513 -84.55530 216.46904 439
83.01489 -29.27535 178.19879 458
78.61947 -30.23136 179.56938 312
65.92797 -32.97978 179.06438 433
63.45858 -33.50764 181.29767 430
60.90094 -34.06416 183.56155 428
58.27656 -34.63691 185.89444 426
55.58151 -35.23358 188.27388 423
52.80511 -35.85351 190.68488 421
49.99370 -36.46655 193.20767 419
47.03357 -37.10159 195.79878 416
43.99345 -37.76062 198.49445 407
40.70017 -38.50211 201.20622 404
37.28561 -39.19902 204.03871 401
33.76183 -39.97660 206.98715 399
30.05785 -40.79148 210.02779 362
-182.82507 -87.18444 216.46500 438
82.98367 -30.16665 178.12671 457
78.86980 -31.08861 179.57466 312
65.59724 -34.08756 178.94679 432
63.11459 -34.62422 181.15848 430
60.52645 -35.21667 183.42807 427
57.88506 -35.78282 185.73822 425
55.19613 -36.39323 188.15205 423
52.41906 -37.03053 190.57536 420
49.56121 -37.68024 193.13014 418
46.60418 -38.31904 195.72957 416
43.41137 -39.01380 198.40227 406
40.10713 -39.80677 201.13844 403
36.70577 -40.53553 203.98146 401
33.14884 -41.34274 206.91083 398
29.34919 -42.19440 209.96892 361
-188.48862 -90.98233 209.57904 436
-184.39333 -90.08733 216.54478 296
82.96051 -31.08906 178.02287 457
79.13223 -31.97405 179.56450 312
65.25008 -35.18449 178.79875 431
62.74376 -35.72900 181.01695 429
60.17585 -36.37130 183.29848 427
57.53419 -36.95259 185.62711 425
54.81231 -37.57702 188.01662 422
52.01374 -38.22540 190.48712 420
49.14249 -38.90255 193.00467 417
46.13017 -39.59477 195.62827 408
42.88816 -40.33420 198.32004 405
39.55179 -41.10706 201.04581 403
36.08912 -41.90309 203.91986 400
32.51386 -42.72170 206.91054 397
28.69309 -43.59879 209.96289 358
-188.11336 -93.61021 209.60709 485
-191.32849 -94.32890 216.49869 295
82.80809 -32.05021 177.93939 437
79.39062 -32.86629 179.56201 312
64.93189 -36.26661 178.62946 431
62.42777 -36.88557 180.88268 428
59.80231 -37.48737 183.17551 426
57.16721 -38.12558 185.48476 424
54.39859 -38.79800 187.91493 422
51.57387 -39.43824 190.37566 419
48.68873 -40.12807 192.93652 417
45.58620 -40.84614 195.52644 407
42.32181 -41.65279 198.19653 405
38.94790 -42.45393 200.99527 402
35.46985 -43.29067 203.84235 399
31.85787 -44.10839 206.82396 397
27.94467 -45.02954 209.94693 357
-187.56386 -96.15403 209.54532 485
82.55260 -33.00900 177.79227 437
79.66579 -33.71407 179.56769 312
64.61497 -37.40650 178.51410 430
62.07173 -37.99853 180.73372 428
59.44296 -38.66211 183.01166 426
56.76612 -39.30806 185.35550 423
54.01391 -39.99104 187.78235 421
51.18640 -40.64869 190.26445 418
48.23478 -41.37673 192.82430 409
45.07701 -42.18551 195.44380 406
41.74618 -42.97798 198.11818 404
38.35486 -43.78283 200.88615 401
34.86404 -44.62304 203.80763 399
31.20642 -45.49823 206.80632 396
27.21600 -46.50105 209.86916 357
-187.12608 -98.69323 209.61774 484
-3024.07935 -789.92303 217.26093 480
82.32744 -34.02324 177.63504 436
79.95255 -34.62352 179.56042 312
64.31150 -38.51956 178.35341 429
61.71737 -39.16603 180.60384 427
59.08004 -39.82289 182.87361 425
56.36237 -40.50065 185.24524 423
53.61829 -41.19134 187.67577 420
50.76926 -41.92904 190.13132 418
47.72915 -42.63716 192.70628 408
44.54611 -43.46387 195.31979 406
41.20458 -44.30423 198.01161 403
37.80554 -45.13549 200.84009 401
34.23402 -46.03896 203.71783 398
30.57501 -46.95667 206.71088 395
26.50027 -47.95549 209.82614 356
-186.81136 -101.28473 209.55013 485
82.06659 -35.01788 177.49617 435
79.79048 -35.60493 179.45775 432
63.93814 -39.64293 178.18687 429
61.35844 -40.31311 180.42114 426
58.70950 -41.00934 182.73424 424
56.01321 -41.68597 185.11507 422
53.22089 -42.42501 187.55194 420
50.35531 -43.17461 190.05513 417
47.22168 -43.97654 192.56512 408
43.99813 -44.75380 195.19351 405
40.64622 -45.61052 197.90959 402
37.18972 -46.50014 200.73146 400
33.60820 -47.42479 203.66162 397
29.93154 -48.39272 206.67786 394
25.77712 -49.41904 209.81323 355
-189.05197 -104.61582 209.49907 294
81.83649 -36.00629 177.33327 435
79.52593 -36.60886 179.31389 431
63.61823 -40.80094 178.03905 428
61.00397 -41.46766 180.29204 426
58.35250 -42.18645 182.61392 424
55.61000 -42.88871 184.99216 421
52.82166 -43.63322 187.40929 419
49.82449 -44.41462 189.90231 409
46.67711 -45.25509 192.44257 407
43.46677 -46.10092 195.08995 404
40.06720 -47.00872 197.85039 402
36.60402 -47.88553 200.68535 399
33.00127 -48.83232 203.56825 396
29.26891 -49.83992 206.63655 394
25.04319 -50.92651 209.78937 355
81.58605 -37.00282 177.17812 434
79.27579 -37.65192 179.17920 430
70.54710 -39.96217 179.63564 308
60.69082 -42.66540 180.13972 425
57.96901 -43.35376 182.43874 423
55.21783 -44.12033 184.81104 421
52.41242 -44.87607 187.26802 418
49.34760 -45.72061 189.77055 409
46.18552 -46.55909 192.35823 406
42.90385 -47.44787 194.97989 404
39.52122 -48.37482 197.74562 401
35.97664 -49.29761 200.57355 398
32.35449 -50.30748 203.53719 396
28.57354 -51.31341 206.55663 393
23.32439 -52.69565 209.68422 263
81.32144 -38.02546 177.03879 433
78.99491 -38.68517 178.99570 430
70.89699 -40.92154 179.62119 308
60.30872 -43.82525 179.98866 424
57.62761 -44.55643 182.29836 422
54.85011 -45.32524 184.70329 420
51.92634 -46.11834 187.16554 410
48.82136 -46.99389 189.61940 408
45.62224 -47.88171 192.20084 405
42.33664 -48.80101 194.88675 403
38.89899 -49.75571 197.64386 400
35.36047 -50.69418 200.49954 398
31.71728 -51.74081 203.45638 395
27.81974 -52.80251 206.48746 381
-187.65282 -112.34167 202.54866 495
81.08669 -39.04671 176.88348 433
78.74453 -39.72802 178.86597 429
71.19817 -41.85928 179.60852 308
59.98503 -45.00539 179.83432 424
57.25334 -45.78248 182.16364 421
54.45466 -46.56611 184.53391 419
51.45414 -47.40834 187.00385 410
48.35546 -48.28666 189.53258 407
45.12556 -49.20906 192.07451 405
41.80173 -50.15241 194.78444 402
38.34962 -51.13538 197.56477 400
34.76600 -52.17524 200.42113 397
30.95752 -53.23394 203.38765 383
26.82815 -54.37708 206.45137 370
80.85828 -40.08498 176.71838 432
78.48782 -40.76545 178.71698 428
71.51234 -42.77111 179.60855 308
59.60703 -46.22351 179.67323 423
56.87579 -47.03057 182.01134 421
54.06199 -47.82856 184.41275 411
50.97068 -48.69975 186.83519 409
47.80685 -49.64658 189.35397 406
44.55044 -50.57861 191.94966 404
41.22485 -51.53884 194.64830 401
37.75798 -52.53810 197.42883 399
34.06705 -53.62281 200.31247 385
30.10602 -54.76294 203.27078 382
25.75332 -56.02216 206.34746 369
80.59795 -41.13092 176.55948 431
78.23383 -41.79927 178.53394 428
71.85172 -43.72490 179.63107 308
59.26907 -47.44491 179.49548 422
56.47557 -48.24823 181.86972 420
53.56424 -49.12435 184.25488 411
50.51381 -50.02015 186.71864 408
47.32162 -50.96860 189.24484 406
44.04959 -51.93732 191.85741 403
40.66719 -52.93835 194.54225 401
37.06614 -53.98769 197.35744 386
33.21573 -55.12957 200.21303 384
29.18425 -56.34750 203.19083 370
24.60382 -57.68431 206.25798 368
80.32253 -42.17579 176.42572 431
77.97023 -42.88367 178.40887 427
72.16141 -44.63381 179.60768 308
58.87653 -48.65457 179.33360 422
56.09186 -49.48469 181.70389 412
53.10058 -50.39616 184.07808 410
50.00085 -51.35305 186.55365 407
46.81784 -52.29612 189.07036 405
43.50158 -53.31963 191.70392 402
39.99785 -54.36141 194.40948 388
36.25747 -55.49614 197.22496 386
32.35598 -56.67786 200.08611 383
28.08194 -57.97448 203.09195 370
23.43849 -59.36693 206.19791 367
80.09949 -43.22218 176.22963 430
77.67625 -43.95680 178.21902 426
72.48866 -45.55072 179.60558 308
58.52656 -49.87126 179.17674 421
55.65346 -50.75661 181.53851 411
52.62228 -51.72039 183.94341 409
49.52732 -52.65802 186.40283 407
46.28506 -53.68735 188.94250 404
42.87165 -54.71706 191.58643 390
39.20045 -55.87567 194.27893 387
35.38649 -57.04416 197.10429 385
31.47528 -58.26106 199.99333 382
26.97983 -59.61362 202.96999 369
22.28985 -61.09264 206.10051 366
-27823.34180 -8675.50488 2143.80981 1000
79.82705 -44.28987 176.08459 429
77.42449 -45.03646 178.09882 426
72.84988 -46.46324 179.61357 308
58.14932 -51.14661 178.99922 420
55.21051 -52.07199 181.35709 411
52.13882 -52.99936 183.76352 408
49.00748 -54.02694 186.25751 406
45.70129 -55.07034 188.79860 391
42.10699 -56.21463 191.42163 389
38.39701 -57.38197 194.11382 386
34.58031 -58.61172 196.94035 384
30.45271 -59.90401 199.85605 370
25.86072 -61.35216 202.87305 368
21.07675 -62.82369 206.02255 365
79.59228 -45.34065 175.90845 427
77.14445 -46.14355 177.91162 425
73.19857 -47.41887 179.62776 308
57.73308 -52.37654 178.81448 412
54.76749 -53.38359 181.15843 410
51.67777 -54.34624 183.57050 408
48.43145 -55.41024 186.05962 393
44.94914 -56.52339 188.64221 390
41.32469 -57.67906 191.26230 388
37.58136 -58.88805 193.98315 386
33.74347 -60.14710 196.79120 383
29.36979 -61.56301 199.70155 370
24.72289 -63.07184 202.79570 367
19.83579 -64.64145 205.92215 364
79.33126 -46.42909 175.76070 427
76.87039 -47.21489 177.76903 424
73.57016 -48.34420 179.62393 308
57.31042 -53.68570 178.64401 412
54.31752 -54.69983 181.01613 409
51.16133 -55.72785 183.42023 394
47.72895 -56.84581 185.87038 392
44.18644 -58.02152 188.42546 390
40.58265 -59.22872 191.06731 387
36.78745 -60.43388 193.83536 385
32.78139 -61.74244 196.69420 371
28.25102 -63.24710 199.57704 369
23.56890 -64.78234 202.64624 366
18.63122 -66.45100 205.83299 363
79.08369 -47.53095 175.58722 426
76.61547 -48.35006 177.58156 424
73.93130 -49.24724 179.60596 308
56.89107 -54.98677 178.45866 411
53.77908 -56.02935 180.80414 396
50.49029 -57.13394 183.20491 394
47.02235 -58.28466 185.69199 391
43.48451 -59.47034 188.23770 389
39.77217 -60.75457 190.92580 386
35.97274 -62.03585 193.65416 384
31.74310 -63.46267 196.53381 370
27.14767 -64.97165 199.45029 368
22.36148 -66.58226 202.54597 365
17.39899 -68.27982 205.73943 362
78.81928 -48.62776 175.37234 425
76.35467 -49.44592 177.42487 423
73.77977 -50.34308 179.48174 421
56.42125 -56.31273 178.22432 397
53.16231 -57.42623 180.58772 395
49.76860 -58.58506 182.96425 393
46.33267 -59.75277 185.47345 390
42.69761 -61.01223 188.04097 388
39.00852 -62.26643 190.72968 385
35.07831 -63.62764 193.48756 372
30.67886 -65.11323 196.35547 369
26.04469 -66.70946 199.30605 367
21.19302 -68.36826 202.44496 364
16.10127 -70.13210 205.68901 361
78.55545 -49.73269 175.19618 424
76.06598 -50.56145 177.25066 422
73.51756 -51.49275 179.31181 420
55.78102 -57.67047 178.01489 397
52.46684 -58.83495 180.35007 394
49.08705 -60.02954 182.75653 392
45.59289 -61.23479 185.25406 389
41.95111 -62.50652 187.89192 387
38.17845 -63.84468 190.54953 385
34.05976 -65.29992 193.35774 371
29.60840 -66.85847 196.19608 368
24.90149 -68.49442 199.20293 366
19.98653 -70.20612 202.32411 363
14.84691 -72.01418 205.60970 360
78.28893 -50.81221 175.03932 424
75.77688 -51.71114 177.07971 422
73.22087 -52.62202 179.17366 419
63.58786 -56.09900 179.70071 304
51.82343 -60.28961 180.09300 393
48.39012 -61.47878 182.54575 391
44.84184 -62.75155 185.09181 389
41.14853 -64.08221 187.68318 386
37.36837 -65.45260 190.38980 384
33.01989 -66.98478 193.14325 370
28.48597 -68.60858 196.02513 368
23.69388 -70.32058 199.04303 365
18.75043 -72.08382 202.18477 362
12.57323 -74.26578 205.43678 314
78.03330 -51.96902 174.85034 423
75.50367 -52.87766 176.90080 421
72.91967 -53.78785 178.98424 419
64.00768 -57.06298 179.68376 304
51.13593 -61.73891 179.87450 393
47.70075 -62.97389 182.31758 390
44.09375 -64.29934 184.87407 388
40.40535 -65.63786 187.47316 385
36.41037 -67.09419 190.18979 372
31.99706 -68.72523 192.97200 369
27.36452 -70.36235 195.85379 367
22.56467 -72.13852 198.85426 364
17.07336 -74.13419 202.00890 331
9.25229 -76.99560 205.24837 313
77.78212 -53.06742 174.64742 422
75.23079 -54.01077 176.70267 420
72.62393 -55.00242 178.80026 418
64.39659 -58.03223 179.69913 304
50.50596 -63.21160 179.62953 392
46.96648 -64.48856 182.09325 389
43.35973 -65.85081 184.63997 387
39.58413 -67.24966 187.30537 384
35.38649 -68.80319 189.95055 371
30.89709 -70.43137 192.74046 368
26.20891 -72.17855 195.67459 366
21.28224 -74.03790 198.73222 333
14.67808 -76.45787 201.79282 315
5.86209 -79.77135 205.04507 312
77.53532 -54.21445 174.48128 422
74.96484 -55.17525 176.50566 419
72.35326 -56.16035 178.62115 417
64.80054 -59.03420 179.68352 304
49.82750 -64.68156 179.38177 391
46.26683 -66.05799 181.87286 388
42.61082 -67.40598 184.41595 386
38.72378 -68.89553 187.08377 373
34.37501 -70.52151 189.74083 370
29.79973 -72.23116 192.57338 367
25.09339 -74.02103 195.48033 365
19.04642 -76.33270 198.45731 332
11.45395 -79.18845 201.55307 313
2.29990 -82.64194 204.82277 311
77.24886 -55.37475 174.29037 421
74.68490 -56.37684 176.32039 419
72.04009 -57.39052 178.43744 416
65.25167 -60.00358 179.70628 304
49.10087 -66.21296 179.13284 390
45.50640 -67.56178 181.62402 387
41.80243 -69.01405 184.21010 385
37.72707 -70.58313 186.82750 372
33.29414 -72.28878 189.55817 369
28.73006 -74.02859 192.35129 366
23.18430 -76.15586 195.23956 333
16.71167 -78.65289 198.20650 331
8.08214 -82.00905 201.29182 312
-1.33099 -85.59235 204.55687 310
76.99670 -56.53059 174.09933 420
74.40774 -57.54635 176.14496 418
71.72089 -58.60487 178.26517 416
65.67590 -60.96774 179.67134 304
48.39913 -67.71553 178.91673 389
44.82084 -69.14365 181.39212 387
41.01250 -70.63716 183.95544 373
36.72091 -72.32875 186.58186 371
32.25716 -74.03137 189.32733 368
27.26188 -76.04610 192.09665 335
20.97556 -78.45013 194.97144 332
13.63527 -81.38720 197.88657 314
4.60336 -84.89608 201.00919 311
-5.11921 -88.70678 204.32242 309
76.71715 -57.70137 173.89540 419
74.13931 -58.75361 175.95410 417
71.31488 -59.87526 178.06686 386
66.13114 -61.92592 179.69002 304
47.70056 -69.27779 178.62859 388
44.03817 -70.72055 181.16495 386
40.08373 -72.34792 183.69987 372
35.70834 -74.08581 186.32693 370
31.15646 -75.90276 189.10284 336
25.10099 -78.27660 191.78851 333
18.70325 -80.87162 194.67860 331
10.33863 -84.17801 197.60016 313
1.04927 -87.91563 200.69374 310
76.46227 -58.88166 173.68384 419
73.84746 -59.93366 175.76727 387
70.62956 -61.25908 177.78558 385
66.52950 -62.91427 179.68083 304
46.97807 -70.82100 178.40588 387
43.27245 -72.34541 180.87485 385
39.11547 -74.05222 183.45461 371
34.70594 -75.84514 186.07652 369
29.13427 -78.10385 188.71359 335
22.93679 -80.60941 191.42697 332
15.78226 -83.49213 194.27054 314
6.90725 -87.12131 197.21561 311
-3.74260 -91.46114 200.29909 283
76.18582 -60.08142 173.49750 418
73.19029 -61.32729 175.46782 386
69.99875 -62.62617 177.51201 384
66.96693 -63.87550 179.68047 304
46.26703 -72.44723 178.11974 386
42.40621 -74.06480 180.63126 373
38.10757 -75.77841 183.17430 370
33.05846 -77.90163 185.76805 336
27.03046 -80.35815 188.32614 334
20.69706 -83.02197 191.09500 331
12.58428 -86.34142 193.88998 313
3.35877 -90.13943 196.82874 310
-21.86171 -100.59851 198.99640 264
75.70779 -61.37326 173.21890 388
72.56521 -62.66284 175.16452 385
69.30537 -64.05862 177.20923 383
66.40589 -65.25203 179.42107 395
54.49140 -70.31394 179.79559 300
41.44295 -75.76591 180.36206 372
36.84828 -77.72296 182.87183 337
31.02459 -80.12375 185.32617 335
24.91012 -82.70026 187.96770 333
17.96582 -85.61095 190.68266 314
9.19788 -89.28628 193.46568 312
-2.99837 -94.44701 196.19711 283
75.10499 -62.72959 172.90671 387
71.94955 -64.10095 174.89699 384
68.63226 -65.48678 176.90326 382
65.74207 -66.73093 179.14621 394
54.95728 -71.32226 179.75902 300
40.53249 -77.54716 180.04758 371
34.92431 -79.88162 182.38458 336
28.98060 -82.43721 184.90475 334
22.69900 -85.10507 187.54025 331
14.82268 -88.51723 190.22168 313
5.44689 -92.52032 192.97141 284
74.48531 -64.10201 172.59285 386
71.27744 -65.51400 174.58887 383
67.95783 -66.93545 176.63083 381
65.07858 -68.22267 178.90041 393
55.45330 -72.38227 179.77083 300
38.68780 -79.66107 179.56818 338
32.96966 -82.15946 181.92720 335
26.92613 -84.77947 184.47235 333
20.19133 -87.70902 187.11488 315
11.51872 -91.47286 189.72357 312
-2.49891 -97.61818 192.07187 265
73.86190 -65.48724 172.29678 385
70.62334 -66.93895 174.28554 383
67.23023 -68.43422 176.31366 380
64.35834 -69.69024 178.58472 392
55.93772 -73.42810 179.77945 300
36.85302 -81.86485 179.05936 336
30.95317 -84.44574 181.50320 334
24.74653 -87.24605 184.05351 332
17.06940 -90.59270 186.60452 313
6.33617 -95.35411 189.00191 284
73.25903 -66.90166 171.94608 384
69.93872 -68.40681 173.92960 382
66.55099 -69.94135 176.02924 379
63.67505 -71.23080 178.33395 391
56.43896 -74.44073 179.76973 300
34.93587 -84.11983 178.57437 335
28.91285 -86.81171 181.01102 333
22.41274 -89.73705 183.56367 315
13.89532 -93.59239 186.00652 312
-2.22338 -100.80000 187.85692 265
73.27008 -68.03764 171.81099 316
69.27305 -69.85854 173.65041 381
65.81650 -71.42921 175.71878 378
62.98374 -72.76616 178.02608 390
56.99734 -75.46706 179.76624 300
32.97568 -86.43913 178.10637 334
26.81794 -89.30913 180.54100 332
19.39532 -92.63474 182.96295 314
7.35238 -98.14755 184.99448 284
73.76720 -68.94855 171.80527 316
68.58811 -71.35973 173.29910 380
65.12575 -72.98424 175.41989 391
62.26588 -74.28440 177.76164 389
57.50991 -76.53357 179.74072 300
30.96729 -88.83439 177.54393 333
24.59495 -91.78376 179.98479 331
15.34259 -96.11416 182.18040 285
-1.70283 -103.98488 183.56845 265
74.23477 -69.90812 171.81151 316
67.91203 -72.89043 172.98756 379
64.42992 -74.52942 175.08267 390
61.54412 -75.88686 177.42393 388
58.01191 -77.55790 179.72835 300
43.09061 -84.59177 179.86543 296
21.68599 -94.69653 179.37056 314
8.42068 -100.93372 180.92863 284
-23.62481 -116.00717 180.27563 344
74.73427 -70.83900 171.83487 316
67.20516 -74.42757 172.63818 378
63.72809 -76.08935 174.78931 389
60.80754 -77.49110 177.11960 387
57.76626 -78.93320 179.59964 385
43.69106 -85.69189 179.88541 296
16.44433 -98.74767 178.26057 285
-0.96087 -107.09674 179.31157 265
-21.84768 -117.09548 180.40088 284
75.21578 -71.73290 171.82222 316
66.51440 -76.00788 172.29634 377
63.02363 -77.65414 174.45377 387
60.07300 -79.10502 176.81010 386
57.02888 -80.59647 179.28630 383
44.23534 -86.80116 179.85530 296
9.56695 -103.74867 176.87794 284
-14.89249 -115.62061 176.88550 346
-21.11331 -118.63496 180.43686 284
75.70641 -72.64929 171.79082 316
65.79036 -77.56638 171.95595 376
62.31200 -79.31039 174.09926 386
59.34173 -80.75443 176.50020 384
55.80010 -82.50071 178.87816 326
44.84821 -87.94396 179.84976 296
-7.16286 -113.60659 173.71683 290
-7.14566 -113.65652 178.01180 290
-20.34777 -120.16183 180.40022 284
76.23667 -73.59901 171.81947 316
66.15024 -78.62747 171.90953 312
61.59676 -80.94141 173.78853 385
58.52453 -82.46526 176.18221 383
53.58931 -84.97443 178.26643 325
45.44554 -89.03761 179.85602 296
27.89580 -97.87054 180.01134 292
1.83537 -110.93794 179.41669 292
76.74413 -74.50124 171.80394 316
66.68983 -79.59290 171.86203 312
60.86587 -82.57701 173.44145 384
56.51653 -84.81598 175.54295 326
51.26377 -87.45694 177.63676 324
45.93093 -90.19440 179.84302 323
28.49127 -99.04626 180.02614 292
7.37434 -109.88099 180.19189 288
77.25896 -75.38943 171.80815 316
67.21724 -80.59975 171.85843 312
59.39946 -84.66185 172.91095 327
54.28248 -87.28231 174.87527 325
48.87443 -90.06332 176.95360 324
43.42386 -92.91611 179.18111 322
29.19942 -100.28186 179.98772 292
8.04890 -111.17263 180.15459 288
77.77260 -76.31867 171.79939 316
67.77754 -81.57242 171.87473 312
57.23689 -87.09280 172.19719 325
52.01814 -89.84950 174.15253 323
46.43375 -92.78320 176.27307 322
40.79979 -95.73266 178.49379 320
29.80543 -101.50877 179.98058 292
8.79972 -112.53427 180.15166 288
78.31461 -77.22390 171.78961 316
68.34096 -82.51905 171.86261 312
57.04701 -88.57630 171.95526 308
49.59680 -92.52185 173.44337 322
43.94922 -95.54433 175.52081 321
38.06427 -98.67912 177.85191 319
29.07293 -103.46887 179.70227 273
9.53993 -113.89651 180.16861 288
78.83464 -78.11246 171.78024 316
68.89864 -83.46808 171.87926 312
57.63250 -89.55711 171.96078 308
47.17921 -95.26209 172.67522 321
41.28605 -98.39773 174.79349 320
35.29628 -101.68874 177.09370 318
17.50950 -111.25582 177.39853 271
79.39738 -79.04292 171.78117 316
69.46028 -84.45728 171.87730 312
58.27434 -90.62241 171.94537 308
45.38429 -97.65999 172.03992 304
38.60874 -101.38676 174.04637 319
24.68585 -109.05090 174.74911 270
-53.44100 -151.85561 163.90523 373
79.92638 -79.92719 171.78352 316
70.05920 -85.38701 171.85234 312
58.88588 -91.67001 171.96852 308
46.05774 -98.77679 172.07297 304
32.80914 -106.16800 172.58450 271
13.75024 -116.74261 172.35524 296
-49.51805 -152.01526 164.51183 374
80.49004 -80.80161 171.78697 316
70.63161 -86.37687 171.83678 312
59.47330 -92.66732 171.96014 308
46.68771 -99.92365 172.03226 304
31.87819 -108.24146 172.14928 300
14.51773 -118.05320 172.31027 296
-45.46713 -151.95134 165.04224 366
81.03527 -81.72234 171.76599 316
71.24807 -87.33235 171.83702 312
60.11917 -93.69037 171.95172 308
47.34459 -101.01747 172.03212 304
32.60150 -109.42778 172.14552 300
15.26919 -119.38061 172.28688 296
-43.34411 -152.98492 165.20483 286
81.59129 -82.58035 171.75458 316
71.79983 -88.25029 171.81599 312
60.75162 -94.70985 171.95633 308
48.00908 -102.09261 172.03232 304
33.32068 -110.63743 172.14185 300
16.11248 -120.65983 172.30997 296
-42.34401 -154.62053 165.20950 286
82.15604 -83.48762 171.76303 316
72.41478 -89.23500 171.83646 312
61.35126 -95.75243 171.95546 308
48.72726 -103.18452 172.02538 304
34.06841 -111.86234 172.14311 300
16.88447 -121.96174 172.32529 296
-41.35043 -156.28264 165.26741 286
82.72467 -84.38042 171.73430 316
73.04015 -90.18109 171.81393 312
62.02922 -96.76582 171.91216 308
49.41900 -104.28371 172.01135 304
34.81929 -112.98907 172.12454 300
17.63946 -123.20766 172.29536 296
-40.31371 -157.86209 165.23888 286
83.28500 -85.23705 171.75734 316
73.61647 -91.11796 171.84354 312
62.68528 -97.73185 171.91702 308
50.10612 -105.40108 172.02895 304
35.51001 -114.16644 172.13924 300
18.47628 -124.54012 172.32838 296
-39.26889 -159.53824 165.27455 286
83.87823 -86.14243 171.75462 316
74.22646 -92.05883 171.81831 312
63.30392 -98.76610 171.89761 308
50.75641 -106.45905 171.99463 304
36.28822 -115.35300 172.11452 300
-22.43403 -151.40070 163.41977 373
84.48083 -86.98294 171.74649 316
74.88519 -92.97669 171.83427 312
63.97622 -99.75539 171.92963 308
51.47376 -107.55634 171.98788 304
37.04451 -116.51773 172.10693 300
-18.87778 -151.31058 163.90950 375
85.03981 -87.85455 171.71791 316
75.49539 -93.93095 171.81058 312
64.63871 -100.73631 171.89723 308
52.16714 -108.62868 172.02180 304
37.77280 -117.68027 172.14320 300
-15.34938 -151.25256 164.44028 376
85.67441 -88.73299 171.73717 316
76.12166 -94.80630 171.82971 312
65.33682 -101.75993 171.87299 308
52.92230 -109.66055 172.01442 304
38.54676 -118.86639 172.10765 300
-11.94604 -151.17210 164.96664 377
86.26955 -89.60187 171.72858 316
76.74554 -95.74149 171.78802 312
65.96695 -102.71986 171.90031 308
53.62733 -110.72853 172.01604 304
39.36346 -120.01579 172.13483 300
-8.55471 -151.07010 165.47240 378
86.87463 -90.44770 171.69748 316
77.40327 -96.67423 171.80600 312
66.67455 -103.72296 171.86388 308
54.38448 -111.82787 171.97797 304
40.13737 -121.21285 172.13995 300
-6.45995 -151.83147 165.71828 291
87.44798 -91.33753 171.71713 316
78.06060 -97.60203 171.78214 312
67.38107 -104.72798 171.86862 308
55.11150 -112.88761 171.98459 304
40.89066 -122.31345 172.09372 300
-5.44263 -153.19957 165.78673 291
88.07278 -92.18987 171.68633 316
78.69140 -98.53038 171.77902 312
68.06007 -105.71949 171.85764 308
55.87618 -113.95108 171.96562 304
41.74087 -123.48568 172.09111 300
-4.34287 -154.56322 165.78154 291
88.73012 -93.01299 171.72334 316
79.37572 -99.43007 171.78906 312
68.77928 -106.68478 171.87030 308
56.57849 -114.98557 171.97775 304
4.54650 -150.63074 162.92146 285
-3.34114 -155.96645 165.74324 291
89.33756 -93.89989 171.70955 316
80.02694 -100.34600 171.76161 312
69.46690 -107.66092 171.85362 308
57.37759 -116.03249 171.97005 304
7.30090 -150.70406 163.39980 384
-2.26565 -157.30392 165.76546 290
89.96217 -94.72621 171.67865 316
80.69479 -101.23299 171.76117 312
70.16919 -108.62912 171.85062 308
58.12735 -117.07629 171.96687 304
10.31051 -150.66258 163.82581 386
-1.17898 -158.76215 165.80008 290
90.59810 -95.56092 171.70851 316
81.36751 -102.14571 171.76462 312
70.88998 -109.56632 171.82759 308
58.91146 -118.13085 171.97122 304
13.25829 -150.57224 164.35359 387
91.22899 -96.41327 171.66454 316
82.04583 -103.05474 171.74713 312
71.59741 -110.55313 171.84579 308
59.65902 -119.15456 171.93660 304
16.14496 -150.50349 164.77370 388
91.91966 -97.26808 171.69617 316
82.72759 -103.92021 171.77338 312
72.35641 -111.51382 171.84529 308
60.43932 -120.17873 171.92220 304
19.00194 -150.44437 165.25981 389
92.55119 -98.07466 171.67880 316
83.45077 -104.79063 171.73625 312
73.09959 -112.45522 171.82214 308
61.21812 -121.25777 171.95526 304
21.80991 -150.35500 165.73225 388
93.20776 -98.92941 171.67931 316
84.12522 -105.68557 171.73317 312
73.82223 -113.42139 171.83618 308
62.02951 -122.25065 171.90295 304
24.51779 -150.34006 166.11147 297
93.86712 -99.73141 171.65698 316
84.86333 -106.55997 171.74968 312
74.56025 -114.34547 171.82080 308
62.82506 -123.24995 171.93076 304
25.53926 -151.51813 166.16885 297
94.53094 -100.55480 171.65813 316
85.53834 -107.48125 171.71640 312
75.31870 -115.32671 171.83638 308
31.74237 -148.74344 163.26033 296
26.55303 -152.76102 166.13924 297
95.21088 -101.39008 171.62971 316
86.24426 -108.31634 171.72733 312
76.09477 -116.24608 171.80641 308
32.72176 -149.93419 163.26233 392
27.56447 -153.96896 166.15695 297
95.87331 -102.16907 171.66289 316
86.98277 -109.21161 171.74413 312
76.84875 -117.18942 171.83305 308
35.38204 -149.88016 163.70854 393
28.60401 -155.17952 166.11264 297
96.59357 -102.97971 171.63847 316
87.72661 -110.08351 171.69812 312
77.62772 -118.12293 171.78195 308
37.96710 -149.72617 164.12154 395
29.62812 -156.42032 166.17134 297
97.24620 -103.81371 171.61470 316
88.41206 -110.93951 171.72876 312
78.38934 -119.04884 171.80627 308
40.45310 -149.63364 164.56454 396
30.66496 -157.64394 166.15408 297
97.97340 -104.58952 171.63173 316
89.18250 -111.79158 171.71429 312
79.20978 -119.95752 171.79124 308
42.96404 -149.54857 164.94762 397
31.66311 -158.76334 166.16000 297
98.63996 -105.42105 171.64372 316
89.89725 -112.64868 171.71364 312
79.98409 -120.87500 171.80074 308
45.43955 -149.49084 165.37425 398
99.36153 -106.19343 171.63048 316
90.63373 -113.48907 171.70602 312
80.76348 -121.80469 171.80106 308
47.84578 -149.39595 165.76553 399
100.08385 -107.00114 171.62457 316
91.37560 -114.36094 171.70045 312
54.24537 -145.88751 163.39464 300
50.21118 -149.30676 166.19426 400
100.75986 -107.78548 171.58737 316
92.16550 -115.18308 171.65208 312
55.05918 -147.08302 163.37860 300
51.48205 -150.15961 166.22818 301
101.51898 -108.55429 171.60860 316
92.90536 -116.02926 171.64516 312
55.92952 -148.19550 163.31445 300
52.50261 -151.23579 166.23352 301
102.20219 -109.35313 171.57367 316
93.68441 -116.88049 171.68968 312
57.15471 -149.02412 163.44685 403
53.47345 -152.23264 166.24818 301
102.95061 -110.11321 171.58211 316
94.47807 -117.69472 171.68170 312
59.40623 -148.97278 163.82651 405
54.50240 -153.28250 166.23479 301
103.69499 -110.89327 171.56531 316
95.20461 -118.52204 171.65239 312
61.65901 -148.83716 164.16519 406
55.52066 -154.39075 166.26566 301
104.40669 -111.68401 171.58792 316
95.99628 -119.35484 171.62901 312
63.81243 -148.76231 164.54454 407
56.54834 -155.43214 166.29242 301
105.15904 -112.43829 171.55475 316
96.80660 -120.16483 171.66408 312
65.93414 -148.68790 164.92970 408
57.59888 -156.46413 166.27583 301
105.89662 -113.18199 171.56975 316
74.12733 -142.97179 163.59242 304
68.10757 -148.59474 165.33325 409
58.62515 -157.45410 166.29152 301
106.65842 -113.96457 171.56474 316
74.98328 -143.98021 163.51775 304
70.19207 -148.55887 165.68448 410
107.41742 -114.70766 171.52721 316
75.82570 -145.02721 163.51895 304
72.23168 -148.46681 166.01909 411
108.17049 -115.46687 171.56221 316
76.69747 -146.07669 163.47160 304
74.26287 -148.37863 166.35831 412
108.92167 -116.21863 171.51675 316
77.55947 -147.05911 163.43767 304
75.26187 -149.27849 166.34421 306
109.66988 -116.95040 171.54529 316
78.41035 -148.07474 163.38922 303
76.30142 -150.20811 166.35464 306
110.47549 -117.67582 171.53815 316
80.22315 -148.18822 163.69861 415
77.31388 -151.10818 166.34126 306
111.22401 -118.41296 171.52663 316
82.15830 -148.08733 164.03133 416
78.27833 -152.03700 166.37341 306
112.02893 -119.16885 171.52122 316
84.07812 -148.03342 164.38110 417
79.30705 -152.94931 166.35873 306
92.53522 -141.04535 163.64883 311
85.96562 -147.92865 164.71236 418
80.34882 -153.79726 166.41360 306
-1972.08716 -2299.23438 268.92010 335
93.41573 -141.95708 163.62434 311
87.81210 -147.89082 165.02393 419
81.35243 -154.70569 166.37975 306
-1930.10669 -2283.91211 268.40997 336
94.28549 -142.81882 163.61398 311
89.65931 -147.77812 165.36951 420
82.39860 -155.59081 166.36917 305
-1920.85962 -2302.80713 216.33623 352
-1898.28577 -2279.00903 267.61121 336
95.16427 -143.71965 163.58047 311
91.44596 -147.75775 165.65984 421
83.42076 -156.44415 166.38750 305
-1854.44861 -2258.13477 216.51205 348
-1872.02661 -2278.01562 266.88406 297
96.08359 -144.59651 163.52579 311
93.25990 -147.67236 165.97729 423
-1819.17346 -2247.97021 216.94087 349
-1944.57654 -2385.39917 269.10449 473
96.97737 -145.45131 163.52539 311
95.03069 -147.59232 166.23409 424
-1786.31543 -2239.97729 216.75136 362
-1928.27002 -2396.67334 269.74811 473
97.86323 -146.32390 163.49338 311
96.53026 -147.80852 166.44585 310
-1755.56909 -2232.80908 216.59479 363
-1911.05115 -2407.50513 269.41245 465
98.79340 -147.17703 163.49876 312
97.50102 -148.64130 166.47588 310
-1727.10962 -2227.96387 216.65971 408
-1894.23621 -2418.79443 269.52200 374
100.47465 -147.18105 163.77043 415
98.54027 -149.41446 166.48358 310
-1701.04089 -2225.54956 216.52380 423
-1877.80420 -2429.14429 269.28760 378
102.24323 -146.99037 164.13696 417
99.53115 -150.21416 166.46471 310
-1675.15918 -2222.99512 216.85268 424
-1744.00037 -2304.40430 266.41083 442
104.03944 -146.79303 164.43590 418
-56.12334 -66.37777 -21.76838 310
-1650.84595 -2222.23560 216.28813 434
-1719.98022 -2304.70898 265.76718 443
105.79146 -146.65193 164.75829 419
101.51026 -151.78938 166.45166 310
-1626.94019 -2221.53931 216.76163 435
-1696.81201 -2305.05420 265.67847 444
107.53412 -146.48004 165.10944 420
102.48721 -152.56340 166.45775 310
-1603.86353 -2222.04443 216.39528 444
-1684.94019 -2319.60913 266.09912 370
109.24573 -146.27107 165.41632 421
103.51781 -153.31186 166.43289 310
-1581.40601 -2222.12207 216.86711 445
-1685.29041 -2349.22510 265.77814 369
110.94329 -146.11832 165.73778 422
104.50304 -154.07622 166.46191 310
-1559.29626 -2222.15649 216.52930 446
-1629.96655 -2310.76929 264.68524 447
112.60693 -145.94685 166.01587 423
105.54801 -154.83339 166.44386 310
-1537.53931 -2222.49536 216.65849 447
-1600.73816 -2303.15332 264.81168 485
114.23733 -145.79944 166.29359 424
106.57418 -155.61235 166.43912 310
-1515.66113 -2223.55103 216.50060 448
-1580.36243 -2305.44092 264.59650 449
115.54700 -146.08026 166.47791 314
-1493.71948 -2224.07202 216.41740 449
-1577.92236 -2332.87183 264.40625 399
116.53323 -146.73041 166.44571 314
-1472.40491 -2224.39136 216.75250 450
-1581.87549 -2368.01611 265.01498 477
-1578.39941 -2362.93042 313.86646 478
-1577.36194 -2361.66992 362.70020 451
117.45422 -147.44882 166.44810 314
-1451.14551 -2224.43115 216.88339 451
-1488.60876 -2273.98291 263.50232 452
-1539.83496 -2342.29639 408.68573 452
118.54315 -148.01956 166.48849 430
-1430.35266 -2224.63110 216.73759 452
-1466.88403 -2274.81372 262.90417 453
-1545.10828 -2379.68555 362.08453 453
120.08267 -147.90536 166.77666 431
119.36254 -148.89175 169.71231 431
-1409.45471 -2225.50513 216.53168 452
-1462.70508 -2297.75024 263.12704 388
121.64360 -147.78114 167.02713 441
120.95831 -148.74518 169.93906 432
-1388.80737 -2225.51953 216.14546 453
-1463.89563 -2328.69702 263.64117 393
123.09495 -147.78519 167.22626 442
122.49465 -148.59763 170.17589 433
-1368.03113 -2226.42065 216.87349 454
-1464.52795 -2359.78882 263.92291 391
124.40429 -147.95239 167.37326 316
123.97026 -148.59200 170.36798 441
-1347.93164 -2226.57886 216.74199 455
-1465.10254 -2391.99878 264.67041 390
125.34377 -148.65483 167.37100 316
125.11381 -148.97203 170.46242 312
-1327.81189 -2226.95801 216.45068 456
-1465.39722 -2424.04565 265.30142 395
-1382.82495 -2305.96606 308.76920 465
-1381.63916 -2303.59839 354.80969 470
-1382.28943 -2305.63403 400.97708 380
126.29845 -149.29437 167.37059 316
126.11105 -149.63676 170.46437 312
-1307.44055 -2227.45825 216.20395 457
-1457.33337 -2443.61401 265.36182 458
-1380.81543 -2333.66650 402.06299 375
127.31291 -149.92693 167.34471 316
-1287.38770 -2227.76050 216.14540 458
-1381.09143 -2364.86377 404.43286 374
128.26106 -150.58122 167.35820 316
-1267.99268 -2227.82495 216.35239 458
-1381.49292 -2396.70117 405.58130 373
-1248.54736 -2228.23926 216.18234 459
-1385.15283 -2435.38086 312.32486 461
-1383.71582 -2432.77710 360.19818 467
-1228.82007 -2228.62500 216.52733 460
-1210.12305 -2228.90552 216.27095 461
-1190.73767 -2229.43750 216.36612 462
-1172.13477 -2229.71069 216.15123 462
-1152.80261 -2230.33765 216.65610 491
-1137.08008 -2235.76099 216.66405 492
-1121.75623 -2241.53149 216.73540 445
-1107.12622 -2247.54980 216.74002 446
-1093.66309 -2256.05762 216.28258 360
-1189.71191 -2455.04883 216.59665 368
-1179.96887 -2473.04883 216.22278 450
-1160.81628 -2473.78223 216.04866 451
-1143.69275 -2478.51221 216.22844 476
-1126.87109 -2484.88062 216.72385 359
-1113.65100 -2496.62329 216.76671 359
-307.16086 -1409.51941 142.28877 412
-310.63669 -1418.85559 166.55405 271
-295.82324 -1406.22266 142.47408 493
-296.79657 -1407.98486 167.22673 463
-297.45966 -1410.24072 191.77090 463
-299.17346 -1414.73584 216.56259 447
-287.05576 -1408.28955 142.59848 498
-287.81104 -1410.28113 167.03850 498
-288.39322 -1412.30933 191.75145 479
-289.11835 -1414.75684 216.50984 477
-279.70938 -1415.23889 142.35893 438
-280.89954 -1418.81311 166.93059 378
-5095.12109 -15937.06055 -4286.24463 1000
5140.40283 -43703.28906 2376.80786 1000
1266.21484 -9169.63379 2051.90015 1000
743.25415 -3688.87158 338.17715 1000
2312.74683 -2769.97803 215.50703 473
2332.94995 -2762.05688 215.34488 467
2354.37378 -2755.75830 216.12726 444
2376.03003 -2748.08691 216.24559 439
2398.40649 -2742.66113 216.29112 439
2526.24634 -2903.46265 276.75522 423
2420.11597 -2736.15356 215.50053 438
2532.66211 -2874.98975 275.68793 424
2443.24585 -2729.21338 215.54134 438
2538.30103 -2846.72803 275.88391 424
2465.55884 -2723.14062 216.07602 433
2543.70947 -2819.09790 275.48651 425
2490.07886 -2719.29565 215.46396 424
2549.24829 -2790.00903 275.01080 407
2515.16309 -2715.14502 216.19865 419
2555.87061 -2763.22266 274.59113 427
2541.57861 -2712.77246 215.59451 411
2560.89233 -2736.29688 274.62918 428
3549.31885 -3896.25757 1060.93616 1000
2568.93896 -2711.02466 215.49153 409
2577.63379 -2721.16455 274.50702 485
2597.44043 -2710.74829 215.54250 401
2600.42334 -2713.82568 274.84189 437
2629.16260 -2712.90479 215.86320 389
2631.20361 -2715.71924 274.94717 403
2663.95190 -2719.09033 215.49475 376
2666.51245 -2721.89844 276.11044 402
2700.75269 -2726.38745 215.95668 375
1649.43799 -1546.44409 147.30771 478
1651.60083 -1548.64246 181.35718 435
2738.68506 -2734.48608 216.31303 382
1658.99585 -1537.87781 147.20357 466
1661.04041 -1539.57202 181.53712 466
1662.33313 -1541.34338 215.79050 465
2813.79077 -2748.63916 215.74524 384
2853.34863 -2756.73096 215.53043 383
2894.21143 -2765.77637 215.57834 382
2935.41675 -2773.49927 215.79857 381
2977.68384 -2782.00513 215.65015 382
3020.51270 -2792.42920 216.00188 382
17169.15820 -15372.64355 -910.21912 1000
45939.61719 -38046.69531 -8612.73438 1000
375.48306 -105.85505 167.61377 313
13138.71777 -9470.58105 1264.04150 1000
376.05695 -104.95287 167.64221 313
376.65131 -103.99924 167.65916 313
377.28085 -103.09115 167.66151 313
377.84576 -102.19341 167.68420 313
378.44226 -101.27263 167.67894 315
379.03912 -100.34822 167.65051 315
379.60953 -99.46790 167.67844 315
380.18121 -98.51308 167.66273 315
380.73322 -97.58521 167.66444 315
381.32553 -96.66029 167.67426 315
381.84952 -95.72881 167.71066 315
382.46140 -94.82093 167.70877 438
383.77841 -94.34253 167.42674 437
385.09476 -93.91514 167.19405 436
386.43924 -93.44888 166.93623 435
394.91214 -98.48984 167.70264 309
387.83716 -92.96542 166.69614 434
395.46521 -97.51406 167.70636 309
389.19479 -92.50150 166.44576 433
395.99106 -96.46582 167.70551 309
390.62427 -92.01400 166.19844 432
396.53931 -95.42383 167.69836 309
392.03027 -91.50024 165.91905 431
397.05267 -94.35670 167.70854 309
393.45868 -91.02275 165.61325 430
397.58630 -93.33463 167.74934 309
60368.64844 -33690.12891 -11171.87598 1000
2749.50610 -1410.74072 121.70443 352
394.90759 -90.49328 165.37398 429
398.09488 -92.31271 167.75858 309
2749.26562 -1390.77966 122.07665 497
2754.25122 -1393.39172 168.61136 496
2760.19531 -1396.81848 216.34361 426
396.35364 -89.98569 165.08644 428
398.61777 -91.23905 167.74065 309
2770.65039 -1382.65479 121.47375 299
397.77451 -89.48151 164.80640 317
399.13962 -90.18034 167.74065 311
398.32898 -88.44183 164.79161 317
399.65781 -89.14829 167.76944 311
398.84146 -87.44753 164.76480 317
400.82074 -88.46001 167.56624 426
399.39307 -86.38721 164.77118 317
402.37210 -87.91594 167.27197 425
399.90265 -85.39488 164.77725 317
403.88199 -87.42094 167.02394 424
400.42761 -84.36521 164.75377 317
405.50397 -86.84452 166.69168 423
414.64832 -91.45398 167.73349 305
400.89993 -83.29980 164.78899 317
407.04428 -86.29795 166.43869 441
415.16544 -90.28281 167.78328 305
401.41089 -82.26505 164.77815 317
408.40100 -85.61817 166.18643 440
415.63339 -89.09709 167.77728 305
401.89337 -81.19690 164.74400 317
409.80402 -84.96532 165.95839 439
416.12424 -87.96515 167.75078 305
402.36823 -80.16028 164.75357 317
411.19131 -84.29105 165.67426 438
416.59512 -86.81835 167.76082 305
402.87256 -79.09447 164.74190 317
412.58008 -83.59829 165.42863 437
417.07257 -85.64143 167.77037 305
403.28470 -78.05239 164.73599 317
414.03784 -82.87691 165.19601 436
417.56403 -84.46697 167.78326 305
52388.00000 -23605.99609 -10206.74609 1000
403.78342 -76.95435 164.77461 317
415.44519 -82.18180 164.88049 435
418.03860 -83.33145 167.82059 305
380.77429 -65.61871 171.61237 316
416.17386 -81.14620 164.84840 312
418.45068 -82.11767 167.81433 305
381.17151 -64.69323 171.61772 316
416.64346 -80.00682 164.83177 312
418.93271 -80.94810 167.84088 305
381.50754 -63.77815 171.62454 316
417.11520 -78.83281 164.83841 312
419.92474 -80.02009 167.68120 433
381.86270 -62.81565 171.63208 316
417.60034 -77.68071 164.83379 312
421.42593 -79.28832 167.42941 432
3672.76318 -1432.39734 216.35590 351
382.21576 -61.89279 171.62817 316
418.05951 -76.55169 164.81628 312
422.92200 -78.52674 167.17133 431
3644.80444 -1396.28931 155.60037 355
3644.92773 -1396.66101 215.59767 352
382.57996 -60.95428 171.63452 316
418.50034 -75.39642 164.81172 312
424.46265 -77.79440 166.87346 430
3638.41870 -1370.22388 155.51408 418
3646.56421 -1372.46558 215.94035 402
382.90451 -59.99652 171.61511 316
418.97141 -74.23845 164.83607 312
425.99576 -77.06085 166.59967 429
3634.87598 -1344.60535 156.37531 457
3652.48926 -1350.96680 216.14578 385
383.24808 -59.06071 171.63403 316
419.40802 -73.08521 164.84886 312
427.60529 -76.29408 166.34073 428
437.11057 -79.96910 167.81020 301
3633.08594 -1319.52734 156.70944 461
3663.18579 -1331.28357 215.64883 338
383.56046 -58.11353 171.65248 316
419.85678 -71.97096 164.80780 312
429.19159 -75.49950 166.05357 427
437.53461 -78.68694 167.84904 301
3632.40039 -1295.18335 155.92097 482
383.91479 -57.15925 171.65459 316
420.24640 -70.76698 164.80934 312
430.81360 -74.68809 165.75784 426
437.98740 -77.42340 167.83829 301
3633.27661 -1272.04944 156.41284 488
384.22641 -56.24922 171.66748 316
420.65848 -69.62989 164.83923 312
432.41553 -73.89565 165.44521 425
438.37341 -76.07150 167.84485 301
3634.10669 -1248.51001 156.88838 488
384.51242 -55.27597 171.66782 316
395.08359 -59.07889 171.77411 312
434.09116 -73.13094 165.17525 424
438.76620 -74.79198 167.85245 301
3635.24292 -1225.45886 156.65269 488
384.82184 -54.31202 171.63956 316
395.41367 -58.04722 171.73817 312
435.51614 -72.20040 164.89742 308
439.14639 -73.51791 167.87927 301
3640.75000 -1203.72498 157.29822 492
385.11682 -53.37411 171.66339 316
395.73077 -57.00911 171.77200 313
435.93317 -70.93993 164.90436 308
439.50452 -72.22610 167.85750 301
