# .PCD v.7 - Point Cloud Data file format
VERSION .7
FIELDS x y z rgb
SIZE 4 4 4 4
TYPE F F F U
COUNT 1 1 1 1
WIDTH 1356
HEIGHT 1
VIEWPOINT 6420.496582 -2173.911377 147.106308 -0.807009 -0.065812 -0.116502 0.575180
POINTS 1356
DATA ascii
76.70353 -23.09387 179.55739 312
67.09580 -24.69835 179.85257 456
64.87527 -25.04348 182.08727 453
62.53751 -25.43991 184.33818 451
60.20699 -25.82251 186.62134 449
57.77927 -26.19168 189.00682 446
55.32388 -26.63668 191.42007 444
52.78179 -27.03461 193.91586 442
50.22002 -27.49274 196.43517 439
47.55266 -27.90197 199.05824 436
44.73182 -28.35607 201.74092 416
41.70921 -28.88142 204.48120 413
38.57533 -29.39989 207.36102 411
35.22155 -29.95807 210.27251 401
-181.51396 -65.92514 223.33192 361
83.22783 -22.88315 178.74338 460
76.86494 -23.98515 179.57336 312
67.06234 -25.69909 179.79779 455
64.78029 -26.04070 182.02960 453
62.47719 -26.47080 184.27318 451
60.14774 -26.88677 186.57101 449
57.74728 -27.26871 188.96794 446
55.26448 -27.69567 191.39075 444
52.74213 -28.13670 193.87459 441
50.11385 -28.58623 196.43178 421
47.25932 -29.09157 199.02464 418
44.28059 -29.58631 201.71335 415
41.23497 -30.09372 204.46626 413
38.05484 -30.63254 207.30000 403
34.62253 -31.23216 210.24866 401
-182.16145 -68.62469 223.32243 360
83.17522 -23.79883 178.67528 460
77.09157 -24.85090 179.56197 312
66.99712 -26.68977 179.75246 455
64.73289 -27.05794 181.94431 453
62.44484 -27.48167 184.22224 451
60.06794 -27.89153 186.50916 448
57.66952 -28.35682 188.89890 446
55.17685 -28.76137 191.33841 443
52.48906 -29.23606 193.79352 422
49.66174 -29.75942 196.31430 420
46.79131 -30.23518 198.94666 417
43.80444 -30.81440 201.64780 415
40.75165 -31.33947 204.41769 412
37.42046 -31.93406 207.27263 403
33.98553 -32.55517 210.20691 400
-182.82762 -71.29551 216.68434 425
-183.08789 -71.35575 223.37769 322
83.13873 -24.67415 178.57593 459
77.30237 -25.74531 179.57423 312
66.96417 -27.68913 179.69603 455
64.68627 -28.10861 181.87694 452
62.40396 -28.49966 184.15480 450
60.02353 -28.96057 186.49658 448
57.47963 -29.41326 188.81210 427
54.84055 -29.90208 191.23854 424
52.06978 -30.42003 193.68942 422
49.27238 -30.93267 196.25095 419
46.36028 -31.47999 198.87785 417
43.35721 -32.01512 201.58589 414
40.25389 -32.59227 204.35150 405
36.83775 -33.21518 207.23488 402
33.35665 -33.88498 210.20288 399
-182.88786 -73.86788 216.61421 425
-185.57928 -74.35185 223.49294 322
83.11249 -25.59771 178.52731 459
77.52200 -26.63942 179.56650 312
66.89837 -28.64901 179.61255 454
64.63412 -29.09522 181.83563 452
62.27821 -29.55336 184.08157 431
59.73417 -30.03546 186.38451 428
57.12516 -30.54217 188.73119 426
54.41724 -31.05286 191.16495 424
51.64654 -31.57463 193.62372 421
48.80532 -32.12543 196.19228 419
45.88154 -32.69647 198.82660 416
42.88158 -33.28024 201.51088 414
39.65248 -33.83999 204.28261 404
36.23334 -34.53053 207.18675 401
32.75420 -35.17912 210.15680 399
-182.80052 -76.40307 216.69334 424
-188.17850 -77.40705 223.52267 321
83.09678 -26.49126 178.44675 459
77.73711 -27.53968 179.58026 312
66.86783 -29.66516 179.53166 454
64.44798 -30.14806 181.72813 432
61.93325 -30.63539 183.96300 430
59.35167 -31.13943 186.26350 428
56.71500 -31.66169 188.63455 425
54.01440 -32.18402 191.04012 423
51.25516 -32.78260 193.54465 421
48.39883 -33.33568 196.09651 418
45.44307 -33.87854 198.71065 416
42.39489 -34.48177 201.45418 413
39.08930 -35.15916 204.24910 403
35.61942 -35.83785 207.12009 401
32.08524 -36.55036 210.14537 398
-182.81673 -79.05548 216.68414 424
-190.89946 -80.57407 223.51974 321
83.06712 -27.37148 178.38751 458
77.95875 -28.43391 179.58430 312
66.54300 -30.72520 179.43166 434
64.07737 -31.26209 181.62378 432
61.57482 -31.76190 183.86528 429
58.98724 -32.26654 186.13203 427
56.35888 -32.82845 188.54091 425
53.61259 -33.38969 190.96196 422
50.81567 -33.92363 193.42464 420
47.94385 -34.55099 196.03119 417
44.99088 -35.11476 198.64099 415
41.86462 -35.78278 201.36620 405
38.49368 -36.43218 204.16899 403
35.05972 -37.16903 207.11568 400
31.43647 -37.88012 210.12457 397
-182.81204 -81.55287 216.72173 424
83.03077 -28.30356 178.31303 458
78.19330 -29.31654 179.56796 312
66.24910 -31.82276 179.26302 433
63.73733 -32.33352 181.46835 431
61.23481 -32.89957 183.71078 429
58.64266 -33.42923 186.02333 426
55.95183 -33.94984 188.38794 424
53.23303 -34.56102 190.83882 422
50.41587 -35.15752 193.33215 419
47.51886 -35.75396 195.91209 417
44.50832 -36.37553 198.57478 414
41.29008 -37.05183 201.32796 405
37.90819 -37.75872 204.12852 402
34.42780 -38.48208 207.04756 399
30.77570 -39.25347 210.07700 362
-182.78143 -84.20915 216.67511 439
82.98863 -29.21589 178.23148 458
78.41196 -30.21451 179.54674 312
65.88010 -32.91259 179.13356 433
63.39990 -33.46365 181.36476 430
60.86354 -33.99899 183.61855 428
58.26587 -34.57682 185.90837 426
55.54760 -35.14721 188.28822 423
52.80689 -35.75010 190.76318 421
49.97048 -36.33504 193.24500 419
47.06024 -36.99023 195.86414 416
43.98896 -37.62582 198.51088 407
40.71474 -38.32132 201.26830 404
37.29812 -39.07461 204.08932 401
33.82164 -39.82719 206.99928 399
30.11512 -40.64160 210.05432 362
-182.74071 -86.80593 216.73515 439
82.94435 -30.11693 178.18159 457
78.65859 -31.07231 179.56516 312
65.57064 -33.97814 178.98318 432
63.08194 -34.55767 181.19626 430
60.50642 -35.10290 183.48602 427
57.87720 -35.71756 185.78427 425
55.19948 -36.32633 188.18948 423
52.42466 -36.92155 190.64937 420
49.53978 -37.58655 193.15047 418
46.62082 -38.23334 195.76472 415
43.45440 -38.89615 198.43445 406
40.14105 -39.65111 201.14740 403
36.69777 -40.42124 204.03386 401
33.16379 -41.19542 206.96130 398
29.37766 -42.04541 210.00331 361
-188.27299 -90.66103 209.77925 436
-184.42195 -89.75874 216.63025 296
82.90786 -31.05273 178.09647 457
78.92304 -31.97060 179.56584 312
65.24844 -35.12328 178.87720 431
62.71548 -35.66062 181.09433 429
60.17310 -36.25566 183.36708 427
57.47693 -36.87409 185.68695 424
54.78251 -37.49554 188.05460 422
51.98175 -38.11760 190.52519 420
49.10858 -38.78587 193.06815 417
46.14168 -39.47427 195.64806 408
42.90403 -40.20296 198.33217 405
39.56813 -40.99482 201.12108 403
36.10714 -41.78881 203.94644 400
32.53311 -42.59252 206.90883 397
28.68181 -43.46468 209.96654 358
-188.00533 -93.21602 209.75528 485
-191.28731 -93.92292 216.65570 295
82.77558 -32.00563 177.98907 437
79.16866 -32.83509 179.56207 312
64.92570 -36.19954 178.70996 431
62.38933 -36.79387 180.92479 428
59.77081 -37.41946 183.20792 426
57.13598 -38.03910 185.53255 424
54.41760 -38.67178 187.96010 421
51.58363 -39.32486 190.43265 419
48.68605 -40.00973 192.94653 417
45.58984 -40.76440 195.55453 407
42.31392 -41.53226 198.25954 405
39.01118 -42.30048 201.01778 402
35.51173 -43.15767 203.89709 399
31.91199 -43.97042 206.89352 397
27.99204 -44.88837 209.93016 357
-187.63499 -95.74463 209.83342 485
82.51193 -32.95749 177.82518 437
79.40186 -33.70699 179.54848 312
64.59558 -37.33415 178.58138 430
62.02517 -37.95808 180.79803 428
59.43484 -38.59216 183.07091 425
56.75172 -39.23740 185.44505 423
53.96839 -39.87593 187.82738 421
51.16181 -40.58237 190.30646 418
48.20689 -41.27705 192.88632 409
45.04376 -42.04219 195.45496 406
41.77061 -42.83648 198.17665 404
38.40406 -43.67102 200.95363 401
34.90597 -44.52109 203.84753 399
31.25161 -45.36497 206.83794 396
27.24983 -46.37219 209.89990 356
-187.15523 -98.40351 209.76419 485
82.26693 -33.97234 177.70395 436
79.66439 -34.60287 179.54918 312
64.23309 -38.45184 178.43179 429
61.69941 -39.11261 180.67337 427
59.05074 -39.75802 182.93900 425
56.36549 -40.42830 185.29393 423
53.57138 -41.07549 187.73778 420
50.75370 -41.83152 190.22887 418
47.74417 -42.54102 192.77235 408
44.50816 -43.32108 195.39139 406
41.23238 -44.19007 198.07741 403
37.78141 -45.00466 200.87605 401
34.29361 -45.87885 203.75198 398
30.60035 -46.82505 206.80069 395
26.54523 -47.80645 209.90109 356
-186.77861 -100.91351 209.78116 485
82.02145 -34.93432 177.56345 435
79.77405 -35.54763 179.52599 432
63.90930 -39.56495 178.24031 429
61.33902 -40.22407 180.52162 426
58.69442 -40.93715 182.80875 424
55.97492 -41.57951 185.17834 422
53.20321 -42.32294 187.58827 419
50.32426 -43.06257 190.09775 417
47.19871 -43.85070 192.62585 408
43.98382 -44.68777 195.24507 405
40.66191 -45.53078 198.01065 402
37.20589 -46.36749 200.78914 400
33.65037 -47.32520 203.71193 397
29.94334 -48.20953 206.73312 394
25.79753 -49.29148 209.84142 355
-189.13419 -104.20596 209.69714 294
81.77569 -35.93494 177.42473 435
79.50586 -36.55896 179.35492 431
63.60625 -40.71147 178.09447 428
60.99054 -41.39460 180.35394 426
58.32737 -42.08459 182.67331 423
55.58841 -42.78798 185.02904 421
52.80996 -43.53073 187.48689 419
49.84451 -44.33197 189.95145 409
46.69301 -45.15714 192.51399 407
43.41552 -45.98962 195.17023 404
40.06508 -46.84069 197.91856 402
36.62296 -47.77312 200.72588 399
33.02490 -48.70911 203.66966 396
29.29560 -49.68129 206.69861 394
24.96817 -50.81944 209.79219 269
81.50879 -36.95845 177.27924 434
79.24065 -37.59916 179.22643 430
63.23832 -41.86474 177.96483 427
60.60150 -42.58505 180.23087 425
57.95922 -43.31844 182.53661 423
55.22732 -44.01749 184.88184 420
52.35712 -44.75873 187.35797 418
49.32924 -45.60651 189.85625 409
46.15291 -46.43297 192.41539 406
42.90172 -47.31363 195.05426 404
39.49288 -48.20501 197.79240 401
36.00806 -49.15840 200.63684 398
32.35727 -50.13207 203.57631 396
28.62201 -51.14951 206.63713 393
-188.37451 -109.40074 202.82166 483
-47002.63672 -12677.58105 11663.21582 1000
81.29174 -37.96738 177.10416 433
78.98876 -38.61021 179.07732 430
70.53758 -40.93049 179.65512 308
60.27030 -43.73271 180.06355 424
57.55954 -44.47836 182.40427 422
54.80765 -45.23377 184.75740 420
51.93684 -46.03312 187.19640 410
48.82840 -46.91207 189.68854 408
45.64588 -47.75962 192.27226 405
42.34502 -48.68561 194.95508 403
38.90171 -49.63873 197.69009 400
35.37815 -50.59513 200.56160 398
-157.71904 -43.42784 -10.57662 395
27.85615 -52.63247 206.56798 381
-187.82477 -111.96452 202.76614 495
81.04100 -38.99863 176.96901 433
78.69622 -39.64286 178.93347 429
70.85663 -41.87524 179.62711 308
59.90284 -44.95026 179.90402 424
57.20048 -45.68280 182.24049 421
54.38368 -46.50431 184.62605 419
51.42353 -47.31871 187.05411 410
48.28782 -48.22271 189.57474 407
45.10777 -49.11182 192.17702 405
41.75149 -50.02401 194.82942 402
38.34320 -51.00058 197.61104 399
34.74269 -52.00996 200.46576 397
30.99401 -53.07390 203.44489 383
26.88002 -54.23416 206.53271 369
80.79242 -40.01970 176.79141 432
78.42290 -40.70282 178.76990 428
71.14076 -42.81228 179.61462 308
59.54978 -46.12864 179.74063 423
56.82378 -46.91489 182.07576 421
54.00326 -47.73097 184.46623 411
50.92994 -48.62238 186.92453 409
47.81697 -49.53179 189.45950 406
44.57881 -50.46150 192.04646 404
41.20386 -51.40620 194.75218 401
37.75554 -52.42493 197.51042 399
34.06752 -53.48774 200.38391 385
30.11040 -54.61938 203.34901 382
25.76572 -55.87810 206.42950 369
80.53796 -41.08666 176.66719 431
78.16553 -41.77630 178.65533 428
71.45167 -43.74759 179.62598 308
59.20809 -47.33538 179.61383 422
56.45740 -48.16945 181.93060 420
53.54116 -49.02099 184.32579 411
50.46236 -49.94505 186.76274 408
47.28630 -50.86079 189.30595 406
44.04116 -51.81193 191.91383 403
40.61366 -52.82106 194.61182 401
37.05095 -53.86336 197.41219 386
33.23511 -55.01895 200.30194 384
29.22221 -56.18566 203.29108 381
24.65084 -57.54397 206.35222 368
80.25477 -42.11136 176.49724 431
77.87409 -42.82889 178.47624 427
71.77509 -44.64778 179.60530 308
58.84224 -48.56068 179.44893 422
56.08265 -49.40261 181.77722 412
53.06953 -50.32857 184.17404 410
49.93503 -51.24654 186.61925 407
46.77563 -52.21007 189.16437 405
43.43159 -53.21309 191.81816 402
40.01453 -54.24208 194.50388 388
36.27333 -55.36329 197.27280 385
32.37211 -56.55837 200.15538 383
28.10450 -57.83862 203.18773 370
23.48950 -59.23422 206.29945 367
80.01504 -43.16723 176.34007 430
77.63876 -43.91614 178.30405 426
72.08583 -45.61008 179.62129 308
58.46840 -49.79182 179.27104 421
55.62605 -50.70858 181.59480 411
52.55069 -51.63325 184.02457 409
49.48258 -52.57991 186.48521 407
46.23728 -53.57690 189.02745 404
42.85975 -54.64000 191.67825 390
39.20444 -55.76440 194.35023 387
35.41557 -56.93270 197.16133 385
31.47704 -58.14396 200.05515 382
27.00399 -59.48387 203.05334 369
22.28117 -60.95615 206.17863 366
79.74947 -44.20815 176.18082 428
77.36478 -44.96711 178.14877 426
72.44858 -46.54012 179.64130 308
58.10521 -51.03745 179.08354 420
55.14094 -51.97781 181.45189 411
52.11671 -52.93624 183.84917 408
48.93857 -53.92583 186.34721 406
45.64526 -54.96820 188.90112 391
42.10611 -56.09240 191.48102 389
38.40489 -57.27523 194.23764 386
34.57066 -58.44122 197.00749 384
30.44870 -59.73915 199.92296 370
25.86329 -61.18010 202.96968 368
21.11481 -62.68958 206.09499 365
79.51450 -45.27972 176.01996 427
77.09956 -46.08897 178.01907 425
72.77396 -47.45267 179.61250 308
57.69667 -52.32105 178.91351 412
54.68731 -53.27048 181.28490 410
51.61281 -54.25880 183.66727 408
48.40404 -55.31889 186.18507 393
44.93705 -56.44631 188.68649 390
41.34382 -57.56288 191.34662 388
37.59555 -58.78592 194.07388 385
33.70949 -60.00647 196.89195 383
29.37477 -61.42350 199.80504 369
24.77003 -62.91171 202.84634 367
19.91456 -64.45969 206.02217 364
79.25503 -46.35004 175.83904 426
76.81638 -47.17707 177.82681 424
73.12511 -48.37585 179.60638 308
57.23228 -53.58106 178.74669 412
54.24109 -54.60002 181.09496 409
51.11643 -55.61862 183.50813 394
47.68428 -56.72831 186.00383 392
44.17937 -57.88524 188.54068 390
40.52653 -59.05264 191.16504 387
36.73555 -60.34027 193.89873 385
32.75932 -61.65269 196.76411 371
28.29010 -63.11918 199.67047 369
23.59935 -64.62574 202.76286 366
18.68734 -66.25574 205.94530 363
79.00111 -47.46713 175.67407 426
76.52538 -48.26905 177.69032 424
73.46798 -49.32359 179.59055 308
56.81553 -54.91505 178.55530 411
53.72817 -55.90242 180.89919 396
50.41463 -57.05390 183.32341 394
46.97018 -58.18455 185.76704 391
43.43991 -59.38720 188.33777 389
39.74166 -60.63577 191.02808 386
35.93216 -61.90444 193.78848 384
31.71500 -63.29591 196.60208 370
27.14330 -64.81202 199.54565 368
22.39960 -66.40031 202.61977 365
17.43050 -68.12570 205.84306 362
78.75223 -48.54554 175.49432 425
76.23826 -49.40934 177.53159 423
73.74133 -50.25376 179.59875 421
56.34182 -56.23800 178.33221 397
53.06926 -57.34988 180.69730 395
49.73678 -58.46736 183.10219 393
46.25096 -59.64297 185.57191 390
42.67820 -60.89655 188.18658 388
38.95777 -62.16613 190.83237 385
35.07700 -63.45647 193.63577 372
30.66896 -65.00867 196.43648 369
26.04637 -66.54655 199.42752 367
21.20409 -68.23797 202.50960 364
16.16153 -69.95084 205.74490 361
78.45282 -49.64700 175.33037 424
75.97156 -50.49941 177.34372 422
73.41755 -51.42173 179.41498 420
55.69793 -57.57481 178.13821 397
52.42410 -58.75465 180.46765 394
49.04310 -59.92858 182.86835 392
45.51928 -61.12403 185.38759 389
41.88169 -62.43512 187.96252 387
38.12181 -63.73353 190.66284 385
34.03550 -65.17322 193.42130 371
29.53437 -66.72198 196.29964 368
24.89382 -68.33271 199.29207 366
20.00348 -70.05769 202.42468 363
14.81783 -71.86131 205.70094 360
78.21506 -50.78401 175.13992 424
75.72633 -51.67188 177.16835 421
73.12793 -52.58474 179.27814 419
55.09137 -59.02308 177.87338 396
51.76196 -60.16960 180.23737 393
48.32712 -61.37261 182.66920 391
44.80610 -62.66588 185.16512 389
41.14220 -63.98359 187.76929 386
37.29200 -65.32742 190.50156 384
32.99193 -66.85629 193.23457 370
28.47590 -68.45451 196.11250 368
23.70569 -70.17520 199.11095 365
18.73567 -71.88651 202.29396 362
12.68277 -74.07594 205.56758 314
77.94321 -51.88750 174.95294 423
75.41544 -52.80996 176.99046 421
72.83893 -53.73347 179.08528 419
63.44263 -57.15114 179.70528 304
51.11045 -61.65398 179.97723 392
47.63277 -62.88823 182.43332 390
44.03930 -64.16998 184.97998 388
40.31650 -65.53072 187.56807 385
36.34416 -66.96272 190.30589 372
31.95681 -68.56786 193.05688 369
27.33650 -70.22545 195.96785 367
22.55733 -71.97430 199.00320 364
17.20725 -73.90511 202.12349 331
9.41067 -76.76910 205.38293 313
77.67351 -53.00638 174.77989 422
75.14659 -53.94604 176.80244 420
72.54923 -54.93664 178.92722 418
63.84810 -58.13820 179.71069 304
50.39956 -63.13253 179.76685 392
46.94298 -64.38595 182.23709 389
43.27111 -65.75452 184.78256 387
39.52691 -67.10741 187.39120 384
35.34605 -68.68764 190.08989 371
30.85836 -70.30856 192.86955 368
26.19256 -72.02902 195.78242 366
21.31012 -73.87181 198.85365 363
14.78019 -76.26139 201.96855 315
6.02260 -79.53734 205.13716 312
77.42366 -54.15142 174.59882 422
74.87936 -55.11309 176.65460 419
72.24097 -56.09967 178.72899 417
64.25885 -59.09917 179.70139 304
49.73569 -64.58080 179.50273 391
46.17345 -65.94221 181.97273 388
42.53850 -67.29505 184.54289 386
38.67373 -68.78738 187.17786 372
34.31939 -70.41415 189.90047 370
29.76273 -72.11014 192.67963 367
25.06640 -73.90437 195.64696 365
19.09383 -76.13125 198.60513 332
11.57712 -78.98011 201.68912 313
2.46748 -82.39574 204.92255 311
77.15226 -55.33346 174.39606 421
74.60531 -56.31053 176.45432 419
71.97666 -57.29463 178.56300 416
64.69263 -60.09438 179.69705 304
49.05123 -66.12547 179.25307 390
45.43604 -67.47820 181.73380 387
41.77085 -68.91131 184.32388 385
37.67041 -70.43835 186.97691 372
33.30375 -72.14865 189.65331 369
28.67167 -73.93024 192.46146 366
23.24600 -75.99203 195.39995 333
16.77700 -78.48051 198.35223 331
8.19539 -81.74148 201.44376 312
-1.18446 -85.37736 204.75381 310
76.89927 -56.48903 174.22502 420
74.30904 -57.50583 176.25238 418
71.64600 -58.53088 178.38373 416
65.06389 -61.08654 179.66479 304
48.31343 -67.63201 179.05247 389
44.73005 -69.07636 181.50124 387
40.95149 -70.50964 184.11461 373
36.68983 -72.19237 186.71196 371
32.19780 -73.92227 189.46632 368
27.27542 -75.87066 192.24739 335
21.00022 -78.29844 195.09245 332
13.67467 -81.16171 198.03920 314
4.71902 -84.63507 201.12669 311
-5.02683 -88.48173 204.49132 309
76.62096 -57.64330 173.99492 419
74.00660 -58.68327 176.06813 417
71.23920 -59.78333 178.19319 386
65.50155 -62.08440 179.67276 304
47.61977 -69.20361 178.79245 388
43.95741 -70.65480 181.27472 386
39.98004 -72.22712 183.83643 372
35.63721 -73.93153 186.49629 370
31.13972 -75.70998 189.20932 367
25.11508 -78.14581 191.91144 333
18.77342 -80.64795 194.80968 331
10.43219 -83.97713 197.69960 313
1.16480 -87.66660 200.83148 310
76.35046 -58.81522 173.80246 419
73.73981 -59.86886 175.88101 416
70.55900 -61.16119 177.92677 385
65.95972 -63.03318 179.69722 304
46.88904 -70.77605 178.52324 387
43.21367 -72.25292 181.05167 385
39.04773 -73.94176 183.58978 371
34.65720 -75.70946 186.25478 369
29.14498 -77.92976 188.87918 335
22.92458 -80.45844 191.56502 332
15.82738 -83.30823 194.45137 314
7.03156 -86.90754 197.36980 311
-3.37185 -91.10149 200.46581 283
76.07641 -59.99973 173.63214 418
73.08584 -61.25185 175.60632 386
69.87458 -62.56329 177.61978 384
66.37018 -63.99194 179.69318 304
46.17727 -72.37106 178.23180 386
42.33922 -73.93645 180.74457 373
38.02913 -75.71397 183.33305 370
33.03217 -77.79610 185.86490 336
27.04664 -80.20789 188.49582 334
20.71249 -82.83665 191.25525 331
12.60185 -86.12725 194.05785 313
3.45858 -89.92917 196.98755 310
-20.89540 -99.96379 199.22284 264
75.60371 -61.28251 173.37697 388
72.47465 -62.64402 175.32285 385
69.21928 -63.98650 177.32220 383
66.37598 -65.17334 179.56802 395
45.43062 -73.92961 178.01665 385
41.35970 -75.63535 180.49751 372
36.79914 -77.56107 183.01450 337
31.04771 -79.98314 185.46548 335
24.88997 -82.58686 188.09685 333
18.04947 -85.43301 190.83951 314
9.31793 -89.09719 193.63002 312
-2.68191 -94.10243 196.41750 283
74.99701 -62.63834 173.05167 387
71.81656 -64.01109 175.01109 384
68.52140 -65.38825 177.04836 382
65.65868 -66.63942 179.30547 394
54.25930 -71.50534 179.79510 300
40.43345 -77.40150 180.16771 371
34.89504 -79.79209 182.58473 336
28.94320 -82.30792 185.06723 334
22.70271 -84.93092 187.68565 331
14.82591 -88.33402 190.38332 313
5.73231 -92.16449 193.20740 284
74.37768 -64.03014 172.73630 386
71.17757 -65.41592 174.73822 383
67.84277 -66.88496 176.75151 381
64.99403 -68.11633 179.00746 393
54.74327 -72.57239 179.75214 300
38.65106 -79.53699 179.72455 338
32.90903 -82.04044 182.10812 335
26.88129 -84.64439 184.60672 333
20.19854 -87.56180 187.28903 315
11.55459 -91.25499 189.89583 312
-1.82245 -97.07635 192.31601 283
73.73962 -65.43378 172.43806 385
70.53252 -66.86385 174.40646 382
67.14643 -68.34273 176.44865 380
64.31942 -69.62193 178.74562 392
55.22313 -73.60949 179.75597 300
36.75932 -81.74525 179.25583 336
30.91094 -84.29481 181.64162 334
24.70695 -87.05527 184.20766 332
17.08214 -90.45296 186.75362 313
6.59933 -95.04297 189.18236 284
73.12807 -66.84429 172.10846 384
69.85075 -68.30342 174.09196 382
66.43785 -69.86434 176.15370 379
63.58934 -71.11655 178.46381 391
55.69743 -74.66316 179.77214 300
34.84412 -84.00383 178.73375 335
28.86891 -86.72108 181.19360 333
22.38306 -89.59245 183.73425 315
13.88869 -93.43822 186.21288 312
-1.62077 -100.39661 188.10524 265
72.66824 -68.19386 171.85196 316
69.17760 -69.80843 173.77118 381
65.72625 -71.35554 175.85966 392
62.90822 -72.63432 178.20396 390
56.19757 -75.69343 179.78394 300
32.88670 -86.33324 178.27335 334
26.72024 -89.14938 180.72057 332
19.36140 -92.51887 183.11717 314
7.47566 -97.90226 185.20627 284
73.15401 -69.13283 171.82903 316
68.49641 -71.28049 173.43449 380
65.02077 -72.89176 175.56700 391
-121.83861 -56.47195 -28.87209 389
56.74227 -76.75016 179.73766 300
30.87414 -88.74117 177.71248 333
24.58684 -91.63260 180.17096 331
15.45182 -95.85828 182.38882 285
-1.22444 -103.56775 183.83273 265
73.59692 -70.08636 171.80617 316
67.76553 -72.81460 173.11975 379
64.35470 -74.40381 175.22337 390
61.44761 -75.76684 177.59448 388
57.26536 -77.77670 179.74191 300
28.76242 -91.17157 177.18164 332
21.65262 -94.50254 179.55429 314
8.51349 -100.73467 181.17648 284
-24.15158 -116.09630 180.42661 344
74.06897 -70.99971 171.82544 316
67.05653 -74.36250 172.79466 378
63.64452 -75.99155 174.95512 389
60.70842 -77.38665 177.31738 387
57.73109 -78.82080 179.74376 385
42.78030 -85.94197 179.88892 296
16.53520 -98.55457 178.48351 285
-0.60544 -106.73209 179.57124 265
-23.29050 -117.60428 180.45830 284
74.55976 -71.92284 171.81876 316
66.38393 -75.90086 172.44783 377
62.95594 -77.58451 174.63551 387
59.97741 -78.99530 177.01949 386
56.93399 -80.46593 179.43378 383
43.34930 -87.07766 179.89594 296
9.63375 -103.50345 177.09764 283
-15.41404 -115.65485 177.00867 346
-22.60671 -119.11607 180.39215 284
75.06342 -72.84966 171.83369 316
65.62848 -77.50115 172.10303 376
62.23870 -79.18204 174.31027 386
59.22194 -80.64470 176.69342 384
55.79066 -82.38428 179.07352 326
43.91999 -88.20853 179.88211 296
-8.21142 -113.93572 173.73956 290
-8.28120 -113.97374 178.07449 290
-21.82889 -120.67871 180.44072 284
75.57147 -73.76710 171.81995 316
65.43919 -78.88144 171.90308 312
61.50454 -80.82803 173.93332 385
58.45372 -82.31289 176.37804 383
53.56122 -84.80578 178.43149 325
44.51109 -89.35992 179.88980 296
26.79682 -98.17967 180.02328 292
0.79696 -111.27364 179.42267 292
76.07102 -74.71753 171.79459 316
65.95958 -79.85652 171.90939 312
60.76518 -82.45930 173.63741 384
56.45581 -84.67371 175.73398 326
51.26027 -87.33807 177.83127 325
45.12094 -90.44408 179.87320 296
27.42347 -99.40767 180.00731 292
6.11469 -110.26820 180.21935 288
76.56258 -75.61920 171.78519 316
66.50502 -80.80896 171.86409 312
59.32555 -84.52161 173.09708 327
54.27264 -87.16203 175.08633 325
48.89260 -89.93288 177.12906 324
43.43986 -92.75486 179.37537 322
28.07773 -100.66818 180.03268 292
6.80767 -111.65410 180.18607 288
77.07895 -76.50748 171.79561 316
67.03399 -81.79721 171.89053 312
57.22540 -86.96941 172.36838 325
51.96048 -89.71867 174.34192 323
46.43718 -92.57724 176.48985 322
40.82498 -95.53433 178.73003 320
28.73378 -101.85806 179.98425 292
7.55099 -112.98644 180.16042 288
77.59957 -77.43064 171.77812 316
67.62065 -82.76711 171.85236 312
56.20966 -88.82305 171.96922 308
49.56394 -92.34704 173.64560 322
43.91173 -95.36894 175.76584 321
38.08465 -98.45019 178.05473 319
29.42598 -103.06274 180.00862 292
8.23742 -114.32602 180.17336 288
78.11484 -78.37383 171.78123 316
68.13670 -83.74651 171.88095 312
56.81935 -89.86814 171.95207 308
47.14444 -95.07811 172.88254 321
41.31101 -98.21832 175.01343 320
35.28740 -101.48554 177.32033 318
18.11985 -110.78638 177.76715 271
78.63868 -79.24739 171.79239 316
68.69955 -84.69939 171.87677 312
57.40647 -90.91649 171.96744 308
44.63518 -97.89436 172.12646 320
38.57930 -101.19804 174.26297 319
25.12076 -108.58747 175.07382 270
-53.88041 -151.87518 164.15443 373
79.21867 -80.16506 171.77446 316
69.27703 -85.68572 171.84407 312
58.01286 -91.94326 171.94394 308
45.11892 -99.11930 172.05696 304
33.10353 -105.78326 172.87741 271
12.60262 -117.17744 172.34300 296
-49.95871 -151.98323 164.67145 374
79.74132 -81.09606 171.75941 316
69.85851 -86.64216 171.86604 312
58.62651 -92.99763 171.97081 308
45.74533 -100.20586 172.04468 304
30.85845 -108.66409 172.21516 300
13.39407 -118.47987 172.33824 296
-46.22738 -152.09232 165.25403 287
80.28768 -81.96336 171.76860 316
70.43493 -87.58573 171.85825 312
59.25917 -93.99443 171.94411 308
46.40220 -101.34853 172.08354 304
31.56224 -109.84238 172.15514 300
14.13123 -119.82220 172.34825 296
-45.17790 -153.75168 165.24814 286
80.83105 -82.87299 171.75345 316
71.00763 -88.53923 171.84392 312
59.88257 -95.01770 171.92505 308
47.07039 -102.44054 172.04460 304
32.27336 -111.05116 172.20425 300
14.86285 -121.08791 172.34641 296
-44.21881 -155.35818 165.18452 286
220.98892 -1.52906 217.09941 1000
81.40295 -83.77963 171.74689 316
71.58355 -89.51869 171.84531 312
60.50137 -96.05962 171.95474 308
47.76891 -103.56873 172.03285 304
33.01077 -112.23208 172.15973 300
15.66490 -122.43048 172.34639 296
-43.19963 -157.00529 165.18738 286
81.97272 -84.64159 171.73735 316
72.21584 -90.46974 171.85542 312
61.14505 -97.09302 171.90634 308
48.40539 -104.67754 172.01732 304
33.69543 -113.41313 172.13559 300
16.45093 -123.71745 172.34285 296
-42.11950 -158.71091 165.24042 286
82.54688 -85.53044 171.75168 316
72.82274 -91.43636 171.84209 312
61.73936 -98.09029 171.93008 308
49.09887 -105.75542 172.03403 304
34.45787 -114.59446 172.14125 300
17.26011 -125.04068 172.31587 296
-41.14909 -160.35809 165.23103 286
83.11465 -86.42059 171.76982 316
73.42047 -92.35651 171.84291 312
62.39783 -99.12909 171.89568 308
49.81631 -106.87619 172.02769 304
35.19165 -115.80262 172.12129 300
-22.91584 -151.42036 163.64052 373
83.65558 -87.29666 171.73207 316
74.02961 -93.31492 171.83427 312
63.03424 -100.12804 171.93005 308
50.51596 -107.92431 172.02266 304
35.90731 -116.99818 172.12856 300
-19.34430 -151.35849 164.18492 374
84.27151 -88.18095 171.71690 316
74.66507 -94.22887 171.82283 312
63.69853 -101.14389 171.92844 308
51.22221 -109.02773 172.04391 304
36.67167 -118.13567 172.15958 300
-15.84948 -151.27425 164.71600 376
84.84734 -89.07070 171.73723 316
75.27206 -95.15973 171.82430 312
64.39326 -102.13773 171.88808 308
51.91213 -110.08103 172.02460 304
37.47272 -119.35819 172.10828 300
-12.37024 -151.15091 165.24699 377
85.43788 -89.90674 171.70866 316
75.90720 -96.10735 171.81790 312
65.07193 -103.12605 171.89665 308
52.61610 -111.19434 172.01219 304
38.22382 -120.53996 172.12202 300
-9.05859 -151.17725 165.69296 291
86.05088 -90.78667 171.70923 316
76.52772 -97.05689 171.79361 312
65.71445 -104.13521 171.89932 308
53.34288 -112.24146 171.97427 304
38.97210 -121.69363 172.14342 300
-8.03685 -152.53273 165.69296 291
86.65051 -91.64084 171.70181 316
77.20352 -97.95225 171.80118 312
66.44034 -105.12978 171.91016 308
54.07688 -113.32045 171.97676 304
39.76218 -122.81636 172.11130 300
-7.02190 -153.98140 165.74773 291
87.27106 -92.55360 171.71918 316
77.84313 -98.88945 171.79939 312
67.07733 -106.11076 171.88185 308
54.80642 -114.37798 171.99026 304
40.56697 -123.97002 172.08360 300
-5.99731 -155.33600 165.71492 291
87.86847 -93.37695 171.69244 316
78.47041 -99.81044 171.77785 312
67.76942 -107.10645 171.88170 308
55.57952 -115.46203 171.98076 304
3.80689 -150.80908 163.09291 383
-4.91473 -156.75127 165.72244 290
88.52051 -94.24327 171.72220 316
79.11184 -100.73225 171.78978 312
68.48477 -108.10081 171.87122 308
56.30357 -116.48550 171.95966 304
6.87544 -150.76784 163.59448 384
-3.89338 -158.16469 165.72627 290
89.12440 -95.10957 171.72121 316
79.81107 -101.61852 171.76212 312
69.22076 -109.07647 171.85620 308
57.07145 -117.56767 171.98672 304
9.85129 -150.66783 164.11649 385
-2.82108 -159.53528 165.71559 290
89.77158 -95.93737 171.71440 316
80.48495 -102.55096 171.76015 312
69.93963 -110.01216 171.88730 308
57.81594 -118.62616 171.96588 304
12.84873 -150.56525 164.54259 387
90.38221 -96.77900 171.70703 316
81.15030 -103.45285 171.77647 312
70.63955 -110.97712 171.85475 308
58.60200 -119.70133 171.92976 304
15.69691 -150.51326 164.99603 388
-19737.56836 -14356.86914 5131.67432 1000
91.05259 -97.61880 171.67137 316
81.83466 -104.35625 171.78003 312
71.34981 -111.94688 171.85577 308
59.37636 -120.74035 171.92706 304
18.54641 -150.47179 165.47627 389
91.66277 -98.45747 171.69031 316
82.51352 -105.26007 171.77113 312
72.09747 -112.91614 171.85429 308
60.16680 -121.74936 171.94907 304
21.35452 -150.40346 165.90216 388
92.35044 -99.30441 171.65965 316
83.21027 -106.16791 171.73338 312
72.80605 -113.88967 171.85268 308
60.89966 -122.79794 171.93164 304
23.18044 -151.01299 166.14418 297
92.99641 -100.15604 171.64461 316
83.88997 -107.04606 171.74930 312
73.54831 -114.85326 171.83295 308
29.56251 -148.20193 163.21982 296
24.13327 -152.30736 166.09560 297
93.65781 -100.99610 171.67032 316
84.60665 -107.92540 171.74762 312
74.32603 -115.81396 171.84332 308
30.32939 -149.54446 163.20819 296
25.12556 -153.52408 166.13797 297
-18250.80859 -14167.15723 1764.23096 1000
94.31035 -101.78192 171.65863 316
85.32557 -108.79387 171.72107 312
75.04260 -116.75092 171.83955 308
32.29905 -149.93356 163.44635 392
26.12827 -154.70140 166.13789 297
94.98671 -102.60889 171.66420 316
86.03624 -109.65588 171.72079 312
75.82017 -117.67111 171.82039 308
34.91865 -149.84544 163.94228 393
27.19506 -155.96602 166.16281 297
95.67114 -103.45786 171.65233 316
86.74117 -110.53109 171.71919 312
76.60719 -118.63899 171.78522 308
37.51725 -149.79483 164.35033 394
28.20453 -157.19392 166.12764 297
96.33357 -104.22922 171.61499 316
87.47169 -111.42399 171.69003 312
77.35542 -119.54881 171.78426 308
40.05207 -149.67690 164.76738 396
29.19724 -158.38112 166.12390 297
97.02869 -105.06850 171.64737 316
88.21661 -112.28409 171.72807 312
78.16796 -120.48906 171.80455 308
42.53608 -149.56102 165.22331 397
97.73769 -105.87547 171.62994 316
88.92817 -113.15382 171.68810 312
78.91584 -121.44267 171.80910 308
44.98704 -149.48418 165.61758 398
98.40621 -106.66919 171.62405 316
89.65318 -114.00594 171.69295 312
52.08778 -145.42867 163.45216 300
47.38713 -149.35974 166.03236 399
99.15022 -107.47791 171.63425 316
90.42722 -114.87241 171.68063 312
52.91506 -146.62347 163.38747 300
49.16368 -149.79004 166.24142 301
99.83593 -108.29997 171.62900 316
91.14642 -115.69588 171.65933 312
53.76981 -147.80769 163.34706 300
50.18936 -150.92146 166.23418 301
-2055.79565 -1957.88000 219.04872 341
100.53539 -109.08963 171.61560 316
91.93526 -116.55845 171.66692 312
54.59620 -149.02649 163.32768 300
51.18122 -151.95216 166.24207 301
-2011.68201 -1944.06189 170.41008 299
-2024.52795 -1955.78943 218.98640 340
101.25910 -109.83388 171.60202 316
92.68930 -117.43549 171.66949 312
56.72001 -149.01120 163.67757 403
52.17936 -153.00114 166.22557 301
-1966.12720 -1928.28833 170.88863 328
-2001.92725 -1959.78882 218.77261 371
101.98370 -110.63367 171.58846 316
93.46334 -118.23667 171.68686 312
58.98877 -148.95024 164.03572 405
53.20384 -154.11418 166.26819 301
-1931.84570 -1922.16321 171.37923 403
-2045.86719 -2023.61914 218.89758 476
102.69015 -111.41976 171.58420 316
94.20943 -119.06657 171.68295 312
61.14135 -148.88866 164.42747 406
54.23797 -155.14464 166.24249 301
-1903.72119 -1920.22900 171.92226 404
-2034.05774 -2037.64673 219.14113 475
103.42849 -112.21092 171.58572 316
94.98080 -119.92870 171.66791 312
63.37338 -148.78085 164.80737 407
55.21794 -156.20918 166.25374 301
-1875.97791 -1918.55078 172.14348 405
-2022.46216 -2053.30835 219.37181 384
104.18597 -112.95758 171.55440 316
95.78178 -120.73909 171.67136 312
65.53127 -148.69984 165.15825 408
56.23084 -157.23232 166.26329 301
-1850.46509 -1919.06665 172.74818 424
-2013.50793 -2070.08838 219.35339 329
104.91777 -113.76102 171.56184 315
72.84796 -143.69388 163.54620 303
67.65242 -148.61920 165.53130 409
-1826.06934 -1919.70508 172.64473 425
105.65443 -114.52866 171.57446 315
73.67891 -144.76982 163.51530 303
69.69212 -148.55145 165.90562 410
-1801.57239 -1921.12573 172.84785 426
-1989.51636 -2098.10913 218.83345 432
106.40132 -115.26888 171.57773 315
74.57582 -145.84337 163.49245 303
71.73781 -148.49728 166.26482 411
-1778.02856 -1922.43958 173.78513 438
107.15813 -116.00683 171.54633 315
75.41932 -146.82620 163.46329 303
73.03488 -149.11749 166.35750 305
-1756.21118 -1924.39392 173.99709 420
107.94559 -116.76616 171.54692 315
76.27813 -147.84700 163.43190 303
74.04719 -150.08078 166.33661 305
-1763.25378 -1955.73340 127.16171 431
-1734.81213 -1927.29639 173.95415 421
-1803.60779 -1995.01599 218.94679 456
108.69386 -117.53178 171.55855 315
77.80925 -148.25954 163.61253 414
75.06764 -151.01523 166.33269 305
-1740.94080 -1957.27563 128.01329 432
-1714.55518 -1930.51721 174.26865 428
-1783.14771 -1998.91272 218.58983 456
109.46996 -118.25900 171.51756 315
79.75974 -148.18973 163.94002 415
76.02524 -151.91809 166.38921 305
-1719.67468 -1959.84912 128.39534 433
-1694.30872 -1934.40198 173.99004 429
-1770.08789 -2011.17041 219.12354 361
110.20307 -119.01225 171.52191 315
81.67932 -148.10481 164.28583 416
77.04823 -152.80669 166.36650 305
-1698.14124 -1962.07104 129.03746 432
-1674.75647 -1938.28577 174.33139 432
-1757.02979 -2022.38879 218.63258 460
90.50768 -140.88019 163.67598 311
83.57150 -148.05339 164.65402 417
78.04705 -153.73477 166.38329 305
-1677.49963 -1965.46033 129.37254 444
-1655.49854 -1942.16736 174.58229 433
-1780.30066 -2071.52393 218.92201 359
91.41221 -141.81036 163.63368 311
85.44952 -147.98291 164.96439 418
79.11443 -154.62805 166.40614 305
-1657.66016 -1968.96960 129.64725 445
-1636.29724 -1946.04419 174.74268 433
-1785.76721 -2102.87817 218.91458 358
92.24185 -142.68042 163.60321 311
87.30671 -147.90797 165.26282 419
80.11131 -155.55054 166.37920 305
-1638.81238 -1972.87292 130.16821 446
-1616.58435 -1950.23853 174.80380 434
-1685.49438 -2022.31885 218.90593 461
93.13895 -143.56302 163.60443 311
89.19656 -147.80438 165.60793 420
81.13618 -156.42664 166.36229 305
-1619.25830 -1977.19470 129.90495 447
-1597.68384 -1953.92627 175.23360 435
-1661.34473 -2021.91284 218.49680 461
94.03216 -144.47510 163.57411 311
91.00595 -147.73721 165.91959 421
-1600.56665 -1980.77332 130.10942 427
-1579.05554 -1957.67517 174.73993 435
-1655.49646 -2039.82739 218.85591 381
94.90289 -145.34892 163.52928 311
92.80048 -147.67891 166.22562 422
-1581.21362 -1984.09973 130.81451 427
-1560.58728 -1961.26697 175.19218 436
-1660.38477 -2070.42212 219.01958 457
-1667.11853 -2078.05493 264.55893 463
-1661.49475 -2072.25073 310.76733 385
95.83044 -146.24828 163.52304 311
94.40638 -147.81648 166.44019 309
-1560.29150 -1986.11011 130.97346 318
-1541.78467 -1964.93433 175.14722 437
-1697.93115 -2138.77686 219.12894 442
-1639.87866 -2073.65576 264.34204 458
-1649.97095 -2085.82397 310.33780 252
96.70171 -147.09569 163.47559 311
95.36167 -148.63689 166.44054 309
-1541.30383 -1988.67566 131.78702 318
-1523.75500 -1968.82373 175.32703 437
-1557.68164 -2007.30627 218.46039 465
98.14891 -147.39520 163.70540 414
96.33811 -149.42569 166.46843 309
-1521.41162 -1991.52332 131.60570 318
-1505.52771 -1972.63953 175.70613 438
-1539.15833 -2011.48706 218.99547 465
-1625.78308 -2109.58521 356.49539 466
-1624.14600 -2107.46631 403.12540 465
99.95566 -147.20027 164.02733 415
97.34581 -150.24370 166.47702 310
-1502.72559 -1994.26367 132.56250 319
-1487.21143 -1975.99768 175.93338 439
-1536.95520 -2033.44800 218.53928 368
101.75932 -147.05569 164.37981 416
98.30360 -151.03922 166.44304 310
-1483.20007 -1996.58911 132.57167 319
-1468.59827 -1979.63232 175.87276 439
-1544.65662 -2068.14429 218.37006 373
103.50777 -146.87700 164.67865 418
99.32784 -151.80154 166.44020 310
-1464.79688 -1999.09399 132.54709 319
-1450.86914 -1983.55640 176.08400 440
-1550.89478 -2101.33618 218.92134 372
105.24248 -146.67462 165.01228 419
100.29156 -152.59492 166.46744 310
-1445.58118 -2002.13232 133.04449 319
-1433.21472 -1986.79114 176.04962 441
-1557.42810 -2135.82349 218.52646 370
106.99203 -146.52940 165.35503 420
101.29327 -153.39058 166.44131 310
-1427.19397 -2004.71692 133.55788 320
-1415.62610 -1990.45349 176.19376 441
-1459.48975 -2043.84253 218.62312 469
108.67142 -146.35840 165.67998 421
102.31920 -154.13676 166.47249 310
-1408.68457 -2007.50574 134.00507 320
-1398.02271 -1994.54651 176.29643 442
-1459.54480 -2069.85938 349.64001 470
110.35536 -146.18933 165.98134 422
103.31557 -154.93071 166.44833 310
-1390.05981 -2009.71326 133.97299 320
-1380.49573 -1998.00708 176.79996 443
112.04159 -146.02632 166.25575 423
104.37737 -155.67973 166.46245 310
-1372.12292 -2012.53760 134.29475 320
-1363.42847 -2000.85291 176.49008 443
113.46659 -146.15942 166.43954 314
-1354.30103 -2014.60010 134.42824 321
-1345.84326 -2004.48840 176.99313 444
-1485.14319 -2181.79517 264.30838 472
-1484.40405 -2180.87573 309.46613 472
114.42513 -146.84486 166.45642 314
-1336.43262 -2017.50500 134.77371 321
-1328.66138 -2008.03833 177.15439 444
115.39791 -147.54488 166.45741 314
-1318.41956 -2020.38171 135.02928 321
-1311.87842 -2011.34619 177.13503 445
116.34068 -148.23062 166.47281 429
-1300.83118 -2022.61255 135.21346 321
-1295.09546 -2014.93286 177.29681 446
-14481.27441 -19456.31641 3448.09473 1000
117.97190 -148.08937 166.76546 430
117.20397 -149.05428 169.70000 430
-1282.91357 -2025.10974 135.40739 322
-1277.80994 -2018.32068 177.46251 446
119.54565 -147.92244 167.00482 430
118.82996 -148.93051 169.92046 431
-1265.46631 -2027.90601 135.63692 322
-1261.34839 -2021.42371 177.07838 447
120.99372 -147.93355 167.22314 441
120.38842 -148.81178 170.18257 432
-1248.47632 -2030.07886 136.44218 322
-1244.76123 -2025.21143 177.28183 447
122.32921 -148.14127 167.42111 316
121.86743 -148.76340 170.39484 440
-1230.93909 -2032.72327 136.11557 322
-1227.93237 -2028.16846 177.20728 448
123.25736 -148.80606 167.39996 316
123.01485 -149.13789 170.48598 312
-1217.90308 -2040.62854 136.45084 349
-1214.55420 -2035.39001 177.68674 404
124.50816 -149.06081 167.50015 490
123.97599 -149.79674 170.49770 312
-1208.10327 -2053.34473 136.13403 348
-1202.00378 -2044.85437 177.26042 404
-1280.79785 -2156.73120 218.19629 452
125.18097 -150.12096 167.40652 316
-1226.72205 -2107.01489 134.20259 347
-1282.96838 -2188.23975 174.60130 346
126.20074 -150.74745 167.35974 316
-1291.53101 -2229.98145 174.72131 344
-1287.77039 -2254.70703 173.98273 475
-1270.32971 -2257.55688 174.47131 476
-1254.77319 -2265.07300 174.25682 494
-1239.99219 -2273.02759 173.86073 472
-1226.14575 -2281.26831 174.51825 472
-1211.82678 -2290.52856 174.25749 394
-248.69876 -1351.72827 123.15759 464
-249.72389 -1354.73743 146.45889 414
-251.39871 -1360.18201 169.99768 352
-239.17856 -1351.23181 123.39253 493
-239.55257 -1353.39160 147.01828 493
-240.67171 -1356.17017 170.12108 491
-241.14021 -1357.65125 193.60434 490
-231.04970 -1355.45471 123.50836 479
-232.11246 -1357.93823 146.60538 479
-233.21358 -1361.78687 170.28427 388
-225.47824 -1366.45239 122.61774 376
-824.81805 -3674.45410 281.15497 1000
-2960.15747 -13947.63574 926.80811 1000
-2769.45312 -14768.27344 223.91315 1000
-10453.97266 -60058.39062 -1751.51465 1000
-3594.10962 -23145.54492 -4041.08496 1000
-1127.10608 -8907.28809 1557.34937 1000
1157.06299 -28791.48047 3539.35815 1000
7365.45947 -45809.69141 984.99286 1000
27335.41016 -60084.06641 7802.07275 1000
2141.62085 -3190.44824 159.31847 287
2127.65405 -3167.92114 219.29219 257
2147.72363 -3157.77954 159.60155 291
119.14475 -196.28474 0.20583 312
2160.95654 -3135.18799 159.29933 434
2259.32812 -3296.38232 219.33186 369
2185.78345 -3132.89917 158.98158 435
2277.81470 -3280.11865 219.58603 490
2210.85815 -3130.70020 158.89302 429
2294.20630 -3261.69946 219.25687 490
2236.47461 -3127.66528 158.53593 422
2327.60767 -3270.68140 220.06813 399
2261.48120 -3125.50439 158.29338 412
2411.43164 -3355.01318 219.59125 450
2289.23560 -3126.02661 158.67786 406
2322.88379 -3176.51367 219.84236 382
2317.02734 -3126.51758 158.30101 406
2324.01489 -3136.27539 218.93925 301
2345.84277 -3127.46558 157.32568 403
2337.83472 -3115.42725 219.82855 394
2376.51221 -3131.10645 156.73012 397
2366.33618 -3116.11475 218.85785 431
2408.93335 -3138.42480 157.00708 379
2396.84375 -3119.37769 219.49203 428
2445.83276 -3150.14209 156.57956 368
2429.84497 -3127.06885 219.64934 397
2485.01025 -3163.24780 156.18640 367
2468.79199 -3140.38916 219.05754 385
2524.02124 -3177.38062 155.18884 374
2508.42871 -3155.14868 219.21562 388
2563.47998 -3191.24170 154.36716 373
2554.30298 -3177.69238 219.31619 322
2604.05713 -3205.11133 154.23155 371
2594.67554 -3192.18604 219.81834 322
2645.77368 -3219.12964 153.80327 370
2635.75830 -3205.87866 218.90547 321
2687.43579 -3233.35645 152.26997 369
2677.87891 -3220.98950 219.62314 320
2730.72827 -3249.74536 152.22295 374
2720.42456 -3236.28735 219.64252 362
1650.47815 -1822.02002 141.98505 443
1654.52649 -1827.08643 180.19295 385
2764.81567 -3252.76660 218.73465 361
1660.37134 -1811.71118 142.37379 489
1664.36365 -1816.81531 180.08189 457
41790.04688 -31721.16797 1087.80762 1000
2763.82715 -1861.81665 114.58133 372
375.55731 -105.48392 167.66266 313
2768.96655 -1841.84058 114.74767 491
2776.86475 -1847.10413 166.09573 494
376.10855 -104.55213 167.65462 313
376.73962 -103.65791 167.67368 313
377.28363 -102.70061 167.64268 313
377.90991 -101.80875 167.68466 315
378.50208 -100.86882 167.66560 315
379.06763 -99.93630 167.68085 315
379.63931 -99.04241 167.70581 315
380.22296 -98.09037 167.69781 315
380.78943 -97.15125 167.67532 315
381.33002 -96.24126 167.67751 315
381.85275 -95.27225 167.71275 315
382.96371 -94.64043 167.55215 437
384.28766 -94.21591 167.29019 436
24315.08789 -14705.19336 -4914.04492 1000
385.64499 -93.73322 167.03510 435
394.41132 -98.98956 167.67189 309
387.00677 -93.28352 166.78279 434
394.94705 -97.98763 167.68695 309
388.36157 -92.77854 166.50320 433
395.50427 -96.91277 167.69077 309
3648.96387 -2001.55481 152.56979 388
3658.36133 -2007.40820 216.53749 341
389.75256 -92.27704 166.26019 432
395.99649 -95.87552 167.73880 309
3647.41040 -1972.53015 151.78473 437
3662.58594 -1981.17810 217.31232 413
391.18762 -91.79005 165.98300 431
396.54041 -94.84599 167.73442 309
3649.56030 -1945.27295 152.18034 458
3693.17334 -1971.16052 217.00801 260
392.63495 -91.32623 165.70148 430
397.04868 -93.80553 167.72470 309
3651.14453 -1919.43445 152.24573 482
3704.64917 -1949.33960 216.36868 416
394.08661 -90.79215 165.45721 429
397.54749 -92.75586 167.76506 309
3655.35645 -1893.63306 152.69853 483
395.53259 -90.31368 165.15034 428
398.06717 -91.70335 167.76614 309
3660.41992 -1869.86218 152.43748 488
397.01569 -89.79395 164.83893 427
398.61694 -90.63116 167.78764 311
3666.11987 -1844.95508 153.00974 488
397.76456 -88.89015 164.75743 317
399.10907 -89.59270 167.77287 311
3674.26392 -1822.71790 153.11208 491
398.31543 -87.83870 164.77811 317
400.00198 -88.72342 167.63039 426
3680.12720 -1799.32507 153.14159 493
398.81366 -86.85171 164.75977 317
401.53287 -88.21880 167.36847 425
3684.52222 -1774.72278 153.55843 494
399.32108 -85.79739 164.74709 317
403.10608 -87.66948 167.06990 424
3693.79517 -1752.06470 152.74362 495
3751.42236 -1781.38098 216.53575 328
399.83990 -84.76665 164.77043 317
404.63800 -87.12212 166.79924 423
3696.49390 -1727.91882 153.43384 495
3764.82666 -1761.63623 216.20549 255
3786.09009 -1771.43005 281.87201 324
400.36108 -83.69878 164.73476 317
406.23108 -86.61150 166.48039 422
414.63199 -90.71099 167.77856 305
3705.12793 -1704.64392 152.91930 497
3788.55762 -1746.60486 216.40588 255
3735.84985 -1720.56006 280.14191 326
3833.84912 -1768.13916 347.70081 496
400.87396 -82.67085 164.77843 317
407.70728 -85.93982 166.19594 440
415.08768 -89.53033 167.77393 305
3713.31641 -1683.34656 153.59839 497
3776.86353 -1713.39221 216.66910 325
3744.97656 -1698.22461 280.56107 499
3844.49414 -1745.63147 348.39697 496
401.31039 -81.60594 164.74107 317
409.07309 -85.31320 165.98886 439
415.62213 -88.36275 167.78523 305
3722.19458 -1660.98596 152.75909 478
3755.80151 -1677.19373 216.21159 499
3755.49438 -1676.20972 280.02454 499
401.78650 -80.56525 164.76270 317
410.49686 -84.61334 165.70740 438
416.10742 -87.21862 167.80244 305
3732.01929 -1639.34619 152.96559 478
3766.91333 -1655.47937 216.36623 499
3767.15698 -1655.30273 280.22440 499
402.29865 -79.48643 164.77100 317
411.89368 -83.89259 165.45996 437
416.54556 -86.03429 167.81929 305
3741.54834 -1617.19885 152.70706 478
3778.03760 -1634.39880 215.91995 498
3778.56104 -1634.34753 280.06918 499
402.77048 -78.42054 164.73425 317
413.31250 -83.22004 165.21271 436
416.99374 -84.88806 167.78354 305
3751.75903 -1596.70374 153.16409 478
3784.77930 -1611.69922 216.42847 499
3784.13354 -1610.39539 279.83987 499
403.20438 -77.36802 164.74530 317
414.80905 -82.49916 164.91594 435
417.44421 -83.72952 167.82413 305
3762.92700 -1575.06042 153.53587 478
3795.37109 -1590.17261 216.37703 498
3794.89893 -1589.52148 280.75214 499
380.24301 -66.00070 171.58437 316
415.57703 -81.52928 164.84526 312
417.89603 -82.54117 167.81126 305
3772.94507 -1554.11536 153.09772 477
3806.02808 -1568.63306 216.86186 498
3806.39575 -1568.59021 280.41772 499
380.57425 -65.07468 171.62576 316
416.05505 -80.38686 164.87012 312
418.36020 -81.37341 167.81502 305
3784.07690 -1532.78809 153.26689 446
3818.63013 -1548.24255 216.03612 499
3816.86792 -1546.71484 280.67023 497
380.95395 -64.15443 171.61395 316
416.53754 -79.25851 164.87404 312
419.25009 -80.36092 167.75871 433
3795.98779 -1512.21851 153.28656 446
3833.96240 -1528.22498 216.23627 499
3832.05029 -1527.19482 280.29007 499
381.28827 -63.20132 171.64081 316
417.00311 -78.10107 164.83734 312
420.70566 -79.63173 167.48215 432
3806.86597 -1491.12915 153.29161 446
3844.60522 -1506.93298 216.16586 498
3845.02515 -1506.93555 280.47687 499
3970.70459 -1559.58191 349.37122 435
381.67065 -62.23680 171.60710 316
417.48520 -76.94850 164.82941 312
422.23407 -78.88950 167.17590 431
3819.16626 -1470.18469 152.41034 446
3857.09009 -1485.83923 216.08675 498
3856.12622 -1485.87061 280.55475 498
4005.27295 -1546.28967 349.57928 263
381.98053 -61.30667 171.62727 316
417.91440 -75.75515 164.82318 312
423.78757 -78.16151 166.93468 430
3830.59644 -1449.56238 152.57198 446
