# .PCD v.7 - Point Cloud Data file format
VERSION .7
FIELDS x y z rgb
SIZE 4 4 4 4
TYPE F F F U
COUNT 1 1 1 1
WIDTH 1390
HEIGHT 1
VIEWPOINT 6470.822266 -2362.863770 144.048508 -0.835372 -0.070913 -0.108596 0.534164
POINTS 1390
DATA ascii
-154.32397 -7.61935 265.85928 280
-153.21176 -7.56735 272.01233 378
-135.72583 -7.28225 275.36160 496
-111.92473 -6.69417 277.03549 295
-198.49611 -8.52555 299.95932 495
-198.45982 -8.46495 307.09256 494
-198.42630 -8.48553 314.25433 493
-198.31688 -8.52885 321.50916 492
82.62911 -3.54658 179.54045 316
70.41870 -3.89447 178.86900 463
68.31264 -3.96230 180.97171 461
66.17360 -3.98784 183.14935 459
63.96428 -4.06590 185.35789 457
61.73308 -4.13172 187.56468 454
59.45832 -4.19100 189.87505 452
57.11416 -4.23276 192.22466 450
54.74499 -4.29088 194.66068 447
52.28960 -4.37006 197.14238 445
49.73896 -4.45328 199.64838 442
47.15537 -4.52245 202.27074 439
44.51920 -4.59039 204.93370 437
41.76424 -4.63185 207.72658 434
38.95009 -4.69790 210.55713 431
-159.83527 -10.17171 222.77982 499
-178.20961 -10.58992 229.59906 476
-151.06424 -9.93663 234.84840 470
-151.59526 -9.93131 240.94415 416
-181.76225 -10.73246 269.57251 487
-179.79166 -10.66342 276.00357 281
-146.94658 -9.71172 277.19498 290
-115.32430 -8.87896 277.64783 288
82.71877 -4.42130 179.53520 316
70.31734 -4.81186 178.83994 463
68.20773 -4.90261 180.92822 461
66.06897 -4.96392 183.09407 459
63.91074 -5.02682 185.29904 456
61.63647 -5.09665 187.55302 454
59.38543 -5.17292 189.85269 452
57.00528 -5.24613 192.22154 449
54.63217 -5.30950 194.63875 447
52.17247 -5.39105 197.12099 444
49.63507 -5.47716 199.64960 442
47.07352 -5.57193 202.25119 439
44.36687 -5.67723 204.92851 437
41.64737 -5.76950 207.67398 434
38.82559 -5.83521 210.55971 431
-159.92030 -12.51090 222.78900 499
-152.16718 -12.21267 234.81834 469
-152.71582 -12.18678 241.06947 416
-181.75241 -13.11805 269.51651 487
-190.10925 -13.46894 277.53906 286
-149.36459 -12.11391 277.63242 284
82.75919 -5.25800 179.50766 316
70.25510 -5.74972 178.81474 462
68.14421 -5.81046 180.92604 461
65.98473 -5.89853 183.04776 458
63.80980 -5.99281 185.27579 456
61.55986 -6.06830 187.54306 454
59.27809 -6.16522 189.82503 452
56.91904 -6.26975 192.19550 449
54.50861 -6.32831 194.61543 447
52.04661 -6.46855 197.07152 444
49.54193 -6.53265 199.62813 442
46.94195 -6.66138 202.26247 439
44.25398 -6.72594 204.92737 436
41.50777 -6.87692 207.67615 434
38.67113 -6.95823 210.54652 431
-179.49181 -15.56262 223.06032 384
-153.25650 -14.51916 234.93880 468
-154.04224 -14.58197 241.16379 358
-181.70999 -15.65598 269.53741 487
82.84204 -6.10662 179.51067 316
70.18730 -6.67376 178.75121 462
68.07948 -6.76214 180.88766 460
65.92448 -6.86330 183.02901 458
63.70406 -6.95250 185.24832 456
61.48205 -7.06011 187.50957 454
59.18265 -7.16719 189.79764 451
56.82460 -7.28624 192.15860 449
54.39369 -7.38328 194.60483 447
51.94739 -7.51826 197.06024 444
49.40601 -7.59242 199.63040 442
46.83131 -7.72540 202.22816 439
44.11324 -7.82920 204.92310 436
41.36977 -7.96598 207.66206 434
38.54440 -8.10212 210.51524 431
-179.49330 -18.08051 223.11211 384
-156.03815 -16.98006 235.06613 396
-181.66908 -18.12653 269.53610 486
82.92797 -6.95154 179.53247 316
70.14798 -7.61438 178.72993 462
68.00301 -7.73384 180.83257 460
65.80341 -7.84542 182.97749 458
63.62283 -7.94164 185.19952 456
61.37368 -8.05382 187.47260 454
59.09052 -8.18957 189.79195 451
56.72186 -8.28329 192.15817 449
54.32315 -8.43168 194.55067 446
51.83163 -8.52871 197.05551 444
49.31863 -8.67971 199.60138 441
46.66932 -8.79775 202.21471 439
44.01178 -8.94536 204.87750 436
41.23818 -9.07732 207.67320 433
38.42970 -9.21344 210.53404 431
-179.48216 -20.56877 223.12997 384
-162.32262 -19.61645 235.34853 294
-181.64937 -20.54670 269.62149 486
83.02889 -7.80164 179.50499 316
70.06333 -8.53290 178.68904 462
67.92857 -8.65636 180.79639 460
65.75583 -8.77767 182.96701 458
63.54237 -8.89890 185.17397 456
61.29272 -9.05867 187.42175 453
58.99099 -9.18260 189.72643 451
56.61005 -9.32195 192.08740 449
54.22535 -9.44788 194.52844 446
51.73175 -9.59521 197.00568 444
49.17859 -9.75440 199.56927 441
46.58107 -9.89629 202.17706 439
43.89885 -10.04212 204.87820 436
41.10509 -10.19455 207.65776 433
38.28643 -10.37848 210.52954 430
-179.51031 -22.96894 223.06732 384
-181.71028 -23.00033 269.66998 486
83.11880 -8.66555 179.50491 316
69.98940 -9.46485 178.64305 462
67.85508 -9.59452 180.76192 460
65.68889 -9.75750 182.93259 457
63.44384 -9.88101 185.11104 455
61.20371 -10.02156 187.38232 453
58.87903 -10.16827 189.69417 451
56.51643 -10.33907 192.07152 448
54.08181 -10.49275 194.48653 446
51.62283 -10.62344 196.97629 444
49.05133 -10.80812 199.52956 441
46.44466 -10.97579 202.17255 438
43.77537 -11.12326 204.89107 436
41.01057 -11.30306 207.65680 433
38.11107 -11.49160 210.49280 430
-179.47931 -25.43725 223.16655 384
-181.74170 -25.55335 269.61740 486
83.22798 -9.48485 179.50931 316
69.94948 -10.41397 178.61322 461
67.80618 -10.57563 180.72595 459
65.59252 -10.72791 182.89293 457
63.41336 -10.87004 185.11023 455
61.09619 -11.04617 187.34311 453
58.79847 -11.21924 189.67403 451
56.44180 -11.34299 192.04068 448
54.00425 -11.54721 194.47337 446
51.49327 -11.69477 196.95667 443
48.95059 -11.89062 199.50980 441
46.32993 -12.06000 202.16072 438
43.63125 -12.22620 204.85393 436
40.84515 -12.44691 207.66306 433
38.02154 -12.63509 210.50040 430
-179.53822 -27.95020 223.18349 384
-181.64319 -28.02387 269.73688 486
83.31652 -10.31678 179.50835 316
69.85999 -11.35227 178.56773 461
67.73501 -11.53898 180.69821 459
65.56818 -11.67749 182.83264 457
63.32514 -11.87386 185.07938 455
61.01688 -12.04766 187.31171 452
58.70738 -12.19806 189.63069 450
56.32917 -12.37217 192.02229 448
53.89138 -12.56636 194.47243 446
51.40586 -12.73893 196.96031 443
48.85078 -12.94065 199.50064 441
46.19233 -13.15044 202.15999 438
43.53292 -13.33718 204.82611 435
40.73471 -13.57091 207.64005 433
37.88819 -13.77181 210.47984 430
-179.50407 -30.44420 223.11276 384
-181.66435 -30.45905 269.74625 486
83.40266 -11.18312 179.51143 316
69.83438 -12.30937 178.51044 461
67.65753 -12.48989 180.63171 459
65.49897 -12.66308 182.80447 457
63.24157 -12.82004 185.01822 454
60.96043 -13.02060 187.30197 452
58.60529 -13.21676 189.59239 450
56.23945 -13.43242 191.98761 448
53.78720 -13.62228 194.43710 445
51.27930 -13.82026 196.94247 443
48.71301 -14.00647 199.49303 440
46.08353 -14.22005 202.14209 438
43.37194 -14.46049 204.83638 435
40.61341 -14.69769 207.59827 432
37.72197 -14.89393 210.50188 430
-179.47745 -32.86855 223.12531 384
-181.64845 -32.97369 269.74103 486
83.51845 -12.03724 179.51517 316
69.76125 -13.25611 178.45566 461
67.61932 -13.44165 180.57368 459
65.40559 -13.60626 182.76949 457
63.17668 -13.83826 184.97697 454
60.86256 -14.03748 187.27083 452
58.54769 -14.21675 189.59451 450
56.16238 -14.43946 191.96602 447
53.67981 -14.63702 194.38437 445
51.19824 -14.89774 196.88040 443
48.62185 -15.10452 199.47746 440
45.99820 -15.33472 202.11813 437
43.27499 -15.60521 204.81656 435
40.47378 -15.83491 207.60484 432
37.56742 -16.06930 210.46361 429
-179.54626 -35.29570 223.10727 384
-181.61157 -35.53764 269.83267 486
-186.77905 -35.89621 277.26956 496
-186.77658 -35.94590 284.11676 495
-186.73506 -35.92947 291.08685 495
83.59467 -12.87405 179.51146 463
69.69608 -14.18738 178.44334 461
67.53643 -14.38014 180.53110 459
65.34299 -14.62514 182.72432 456
63.09191 -14.81635 184.93741 454
60.79751 -15.03796 187.23419 452
58.44950 -15.22722 189.54459 449
56.04882 -15.47530 191.92072 447
53.58355 -15.68373 194.34941 445
51.10333 -15.94980 196.85463 442
48.50712 -16.19081 199.43297 440
45.85303 -16.45771 202.05771 437
43.13097 -16.71359 204.79430 435
40.35548 -16.94421 207.59137 432
37.46690 -17.21112 210.46947 429
-179.55933 -37.78388 223.12952 384
-181.60649 -37.99824 269.85745 486
83.53649 -13.75238 179.46883 463
69.62753 -15.15650 178.36351 460
67.49053 -15.36654 180.49948 458
65.27644 -15.58044 182.69026 456
63.01908 -15.80508 184.92580 454
60.75119 -16.03510 187.17119 452
58.37391 -16.25531 189.51099 449
55.95907 -16.51670 191.88788 447
53.48751 -16.73322 194.35057 444
50.95772 -17.01461 196.84689 442
48.37264 -17.27066 199.42772 440
45.71268 -17.54711 202.03671 437
43.02134 -17.82137 204.77141 434
40.21472 -18.11385 207.59691 432
37.32004 -18.35939 210.46858 429
-179.59610 -40.27779 223.15924 384
-181.62308 -40.46307 269.89444 486
83.47937 -14.60374 179.39534 463
69.59224 -16.09350 178.32404 460
67.42315 -16.32738 180.46626 458
65.22199 -16.54678 182.64091 456
62.97474 -16.81010 184.86024 454
60.66580 -17.04515 187.12218 451
58.31103 -17.28981 189.46925 449
55.89073 -17.55432 191.87621 447
53.42612 -17.83196 194.30968 444
50.88789 -18.08527 196.79134 442
48.30997 -18.35254 199.37245 439
45.62450 -18.64087 202.03047 437
42.90971 -18.93499 204.74713 434
40.06569 -19.21656 207.54669 431
37.19258 -19.55354 210.47934 429
-179.64146 -42.82343 223.14240 383
-181.50122 -42.96522 269.95966 485
83.43276 -15.47469 179.33763 462
69.53349 -17.03987 178.26439 460
67.36272 -17.30031 180.39565 458
65.13039 -17.55345 182.61272 456
62.91785 -17.80968 184.83362 453
60.59838 -18.06142 187.11906 451
58.21681 -18.31823 189.40984 449
55.81828 -18.59906 191.80812 446
53.31801 -18.86269 194.27359 444
50.76284 -19.16745 196.78984 441
48.19450 -19.45373 199.35532 439
45.51133 -19.75997 202.00470 437
42.76157 -20.03417 204.73622 434
39.93615 -20.38488 207.53339 431
37.03794 -20.68246 210.42366 428
-179.57985 -45.37527 223.15839 383
83.40073 -16.33614 179.32068 462
69.47575 -18.02292 178.21545 460
67.30702 -18.24345 180.34885 458
65.09391 -18.54356 182.53697 455
62.82770 -18.81708 184.76848 453
60.50567 -19.05467 187.03645 451
58.16415 -19.37720 189.37991 448
55.73871 -19.65927 191.80093 446
53.23647 -19.95254 194.25908 444
50.68731 -20.22078 196.76430 441
48.06771 -20.53085 199.34171 439
45.39286 -20.84716 201.99039 436
42.66478 -21.19331 204.72472 434
39.82189 -21.53213 207.56311 431
36.89789 -21.86014 210.45926 428
-179.60916 -47.76323 223.21404 383
83.33945 -17.19361 179.26910 462
69.43323 -18.98767 178.17647 459
67.25098 -19.25623 180.29028 457
65.04334 -19.50839 182.49541 455
62.76778 -19.81976 184.73392 453
60.45961 -20.11012 187.02151 451
58.09069 -20.39772 189.37378 448
55.64532 -20.66751 191.75713 446
53.15235 -20.97647 194.19978 443
50.62027 -21.30482 196.73770 441
47.96384 -21.66290 199.29509 438
45.25506 -21.99096 201.95976 436
42.53240 -22.35551 204.70691 433
39.68771 -22.67966 207.50180 431
36.74216 -23.05410 210.44524 428
-179.64491 -50.26775 223.20294 383
83.30049 -18.08672 179.20279 462
69.37402 -19.94162 178.10898 459
67.20508 -20.21507 180.26538 457
64.95969 -20.51648 182.47035 455
62.69735 -20.77585 184.69208 453
60.39650 -21.11391 186.95889 450
58.00892 -21.40183 189.29478 448
55.57320 -21.74810 191.69061 446
53.05934 -22.06817 194.15822 443
50.50619 -22.39750 196.69028 441
47.85309 -22.75591 199.27013 438
45.19214 -23.10044 201.94257 435
42.39143 -23.44151 204.67316 433
39.56564 -23.86502 207.52664 430
36.65615 -24.21372 210.42896 428
-179.58109 -52.80078 223.17186 383
83.23713 -18.94321 179.12529 461
69.30443 -20.90164 178.06989 459
67.12762 -21.19879 180.21858 457
64.93101 -21.50790 182.39369 455
62.66202 -21.80427 184.66112 452
60.30291 -22.13582 186.93239 450
57.92893 -22.46131 189.27333 448
55.46957 -22.80603 191.69171 445
52.99368 -23.12309 194.11670 443
50.40554 -23.47600 196.64705 440
47.77379 -23.84394 199.26225 438
45.09632 -24.22973 201.93529 435
42.26870 -24.61438 204.67191 432
39.43556 -25.02631 207.47983 430
36.48595 -25.42016 210.41074 427
-179.66541 -55.27757 223.17548 383
83.19506 -19.83213 179.10402 461
69.27452 -21.87079 178.01224 459
67.09837 -22.16879 180.16391 457
64.85980 -22.50250 182.36713 454
62.59010 -22.82592 184.60980 452
60.22835 -23.13928 186.89598 450
57.88332 -23.49246 189.24940 447
55.42341 -23.86576 191.62407 445
52.89168 -24.20680 194.10776 443
50.32211 -24.57779 196.61716 440
47.69453 -24.97949 199.24471 437
44.98817 -25.35981 201.91168 435
42.19502 -25.77138 204.62941 432
39.31841 -26.15214 207.49353 429
36.33861 -26.59710 210.40016 427
-179.70883 -57.85228 223.22108 383
83.15601 -20.71721 179.02585 461
75.71972 -21.83888 179.59895 312
67.05325 -23.14279 180.10559 456
64.79072 -23.47317 182.27472 454
62.53351 -23.81979 184.56244 452
60.18284 -24.17616 186.84895 450
57.77880 -24.52832 189.17987 447
55.33731 -24.88750 191.59018 445
52.80053 -25.29192 194.07854 442
50.23729 -25.68907 196.57533 440
47.58923 -26.04462 199.18932 437
44.85888 -26.48604 201.86137 435
42.06118 -26.87645 204.64288 432
39.17196 -27.33022 207.46684 429
36.14239 -27.78960 210.40869 410
-180.17137 -60.48148 223.25172 361
83.12800 -21.61889 178.95448 461
75.87243 -22.76504 179.57219 312
66.99202 -24.15801 180.04724 456
64.73041 -24.48375 182.25945 454
62.46402 -24.84582 184.48621 452
60.10027 -25.22260 186.77609 449
57.72270 -25.58961 189.16400 447
55.23763 -25.97367 191.54602 444
52.73684 -26.37080 194.02470 442
50.16550 -26.75646 196.57837 439
47.49760 -27.20216 199.18803 437
44.78471 -27.60369 201.83928 434
41.96243 -28.03842 204.62141 414
38.84640 -28.51624 207.42389 412
35.55309 -29.05045 210.35799 402
-180.83241 -63.09534 223.23991 361
83.06066 -22.49410 178.89543 460
76.07706 -23.62740 179.59212 312
66.91903 -25.12253 179.99384 456
64.71348 -25.48308 182.19690 454
62.37981 -25.86975 184.44464 451
60.04519 -26.23135 186.72844 449
57.65915 -26.63981 189.08870 447
55.19025 -27.04459 191.51620 444
52.67862 -27.44678 193.99258 442
50.06504 -27.87636 196.53564 439
47.39970 -28.27757 199.12442 437
44.49788 -28.78446 201.79236 416
41.49457 -29.27339 204.55661 414
38.34173 -29.79346 207.42203 411
34.95222 -30.30845 210.32216 402
-181.46056 -65.72256 223.28889 361
83.03052 -23.35447 178.86848 460
76.21831 -24.53285 179.57199 312
66.87375 -26.09493 179.94661 455
64.62192 -26.47315 182.13124 453
62.34336 -26.90626 184.39854 451
59.97199 -27.29112 186.69183 449
57.55939 -27.70467 189.06541 446
55.09569 -28.09780 191.49257 444
52.59198 -28.52673 193.94785 441
49.84548 -28.98302 196.47217 421
46.97279 -29.48928 199.07961 418
44.05700 -29.97554 201.77614 416
40.98997 -30.52267 204.50728 413
37.80289 -31.03397 207.37155 404
34.32148 -31.61141 210.33125 401
-182.07045 -68.29979 223.36284 361
83.01540 -24.26900 178.79012 460
76.41618 -25.44025 179.55978 312
66.83835 -27.11508 179.85089 455
64.56487 -27.52676 182.07907 453
62.29216 -27.92247 184.33838 451
59.90303 -28.33514 186.62997 448
57.51336 -28.74326 188.98575 446
54.96904 -29.18415 191.41391 425
52.22428 -29.68421 193.89436 423
49.44065 -30.16076 196.40396 420
46.53013 -30.64544 199.02533 418
43.56161 -31.19830 201.69102 415
40.49415 -31.75256 204.46158 413
37.16655 -32.32219 207.34396 403
33.71418 -32.90985 210.30670 400
-182.90601 -71.08839 216.57430 425
-182.70842 -70.98506 223.27798 360
82.95381 -25.13919 178.72443 459
76.60983 -26.30906 179.58769 312
66.79045 -28.13701 179.80692 455
64.53763 -28.53561 182.00584 453
62.20694 -28.93180 184.27675 450
59.82796 -29.37412 186.59055 429
57.20924 -29.83872 188.92633 427
54.54211 -30.35280 191.32947 424
51.81613 -30.82794 193.80403 422
48.96682 -31.35155 196.33176 420
46.10945 -31.89204 198.96451 417
43.11186 -32.43831 201.65903 415
39.97239 -32.96278 204.43877 405
36.61070 -33.57580 207.27783 402
33.10121 -34.20041 210.26591 400
-182.91069 -73.65057 216.62584 425
-185.22931 -74.13622 223.42839 322
-27643.84375 -5084.99219 1154.98962 1000
82.91286 -26.04436 178.68135 459
76.82779 -27.19164 179.55896 312
66.72931 -29.09601 179.76036 455
64.48914 -29.52866 181.96017 452
61.97264 -30.02036 184.19127 431
59.46122 -30.51573 186.48160 429
56.85939 -30.97140 188.81293 426
54.16885 -31.50323 191.23622 424
51.38234 -31.99865 193.72449 421
48.53609 -32.53860 196.24733 419
45.64214 -33.08361 198.89110 416
42.63541 -33.66902 201.60583 414
39.38377 -34.27217 204.35947 404
35.98287 -34.88145 207.26869 402
32.46716 -35.52608 210.21141 399
-182.91624 -76.15955 216.58540 424
-187.79591 -77.09894 223.50194 322
82.88837 -26.96134 178.59846 459
77.02293 -28.10723 179.57181 312
66.56212 -30.14953 179.64555 435
64.14919 -30.64426 181.82988 433
61.66996 -31.09456 184.05922 430
59.10135 -31.59541 186.35870 428
56.48050 -32.10913 188.71947 426
53.77013 -32.65514 191.14926 423
50.97097 -33.18107 193.62766 421
48.13361 -33.74041 196.18176 418
45.18218 -34.31953 198.82753 416
42.11674 -34.87204 201.50351 406
38.79633 -35.54364 204.33124 404
35.39067 -36.19452 207.17865 401
31.84859 -36.89925 210.19220 364
-182.89911 -78.73701 216.60852 424
-190.44409 -80.27570 223.49821 321
82.86636 -27.87021 178.51498 459
77.25005 -28.98386 179.59189 312
66.25558 -31.23216 179.51402 434
63.80846 -31.73128 181.72852 432
61.29442 -32.22117 183.94043 430
58.70961 -32.70876 186.26886 427
56.05415 -33.26302 188.58626 425
53.34788 -33.80292 191.01808 423
50.57312 -34.34187 193.53726 420
47.69613 -34.91605 196.11041 418
44.71109 -35.52274 198.74081 415
41.58854 -36.16874 201.45824 406
38.23077 -36.81664 204.23347 403
34.79719 -37.53236 207.17476 400
31.17981 -38.24580 210.16199 363
-182.84360 -81.46243 216.68204 424
82.82410 -28.79699 178.47215 458
77.47754 -29.86877 179.55403 312
65.90576 -32.29897 179.38794 433
63.44188 -32.79030 181.59445 431
60.94175 -33.33140 183.83826 429
58.35901 -33.84956 186.12303 427
55.66556 -34.37965 188.49760 424
52.92544 -34.96675 190.95801 422
50.15635 -35.56172 193.42934 420
47.23349 -36.15996 196.02419 417
44.24997 -36.73963 198.65848 408
41.00808 -37.46866 201.38235 405
37.65546 -38.16354 204.20663 402
34.14307 -38.87488 207.11234 400
30.50480 -39.61154 210.15297 362
-182.85234 -83.97633 216.61819 439
82.79390 -29.69587 178.39018 458
77.69405 -30.79187 179.56279 312
65.58477 -33.35694 179.25131 433
63.13193 -33.90060 181.46399 431
60.59193 -34.43270 183.70636 428
57.94991 -34.98051 186.00182 426
55.27998 -35.54705 188.39140 424
52.55263 -36.15962 190.82600 421
49.68377 -36.76265 193.34642 419
46.81165 -37.38623 195.91660 416
43.70147 -38.02974 198.60141 407
40.42394 -38.74462 201.32137 404
37.07697 -39.47281 204.15778 402
33.53505 -40.17949 207.05919 399
29.81309 -41.01986 210.12019 362
-182.70656 -86.52629 216.60753 439
82.77251 -30.58975 178.32953 458
77.90756 -31.66992 179.57265 312
65.26077 -34.44309 179.12221 432
62.77895 -34.99835 181.30914 430
60.19885 -35.54691 183.56487 428
57.58698 -36.15056 185.88541 425
54.88375 -36.70589 188.29799 423
52.10789 -37.34449 190.75348 421
49.28954 -37.94533 193.24733 418
46.36256 -38.61471 195.86125 416
43.17514 -39.32999 198.51616 406
39.87190 -40.01699 201.23909 404
36.45448 -40.79855 204.09396 401
32.93083 -41.54073 207.01439 398
29.10055 -42.38490 210.07243 358
-183.55272 -89.40375 216.58553 296
82.68587 -31.53167 178.23146 438
78.12846 -32.54792 179.58365 312
64.95939 -35.55087 178.98965 432
62.43185 -36.11035 181.20494 429
59.84439 -36.72133 183.47466 427
57.20010 -37.30850 185.77017 425
54.52531 -37.90218 188.17529 422
51.72660 -38.56814 190.61035 420
48.83096 -39.18413 193.14328 418
45.83526 -39.88685 195.77182 408
42.63606 -40.62655 198.42477 406
39.30634 -41.34796 201.16853 403
35.85074 -42.11972 204.01157 400
32.27908 -42.93724 206.96178 398
28.39045 -43.81960 210.06212 358
-188.10359 -93.00867 209.73042 485
-190.35762 -93.48918 216.58646 296
82.44087 -32.47482 178.08722 437
78.36693 -33.43911 179.58542 312
64.61435 -36.64733 178.83740 431
62.06963 -37.25786 181.04538 429
59.48792 -37.85742 183.32465 426
56.83005 -38.45091 185.64656 424
54.10543 -39.11713 188.05342 422
51.27958 -39.76214 190.50363 419
48.44112 -40.42590 193.04912 417
45.29318 -41.15706 195.64503 407
42.08445 -41.88117 198.31850 405
38.70578 -42.68308 201.12000 402
35.27782 -43.47693 203.94627 400
31.63024 -44.33760 206.91537 397
27.66056 -45.26965 210.03613 357
-187.70358 -95.59935 209.71489 485
82.17278 -33.47340 177.95801 437
78.63709 -34.33343 179.57314 312
64.27660 -37.75543 178.70241 430
61.72287 -38.36728 180.88661 428
59.10180 -39.00381 183.17940 426
56.44551 -39.62968 185.51205 423
53.70297 -40.27197 187.94020 421
50.89024 -40.99870 190.41374 419
47.93689 -41.68504 192.96150 409
44.78044 -42.42339 195.57449 407
41.48446 -43.21634 198.23100 404
38.13691 -44.00265 201.02339 402
34.64911 -44.87486 203.89729 399
30.99943 -45.70385 206.88438 396
26.97685 -46.68091 209.98079 357
-187.18201 -98.15868 209.80316 485
81.96156 -34.45451 177.84850 436
78.89447 -35.20128 179.55548 312
63.91729 -38.89272 178.54646 430
61.37393 -39.53020 180.74632 427
58.75187 -40.16006 183.07094 425
56.07658 -40.85049 185.40007 423
53.29803 -41.50550 187.82822 420
50.44676 -42.21746 190.33197 418
47.45062 -42.93394 192.82904 409
44.23590 -43.71178 195.45805 406
40.97310 -44.52599 198.14166 403
37.52487 -45.39603 200.96996 401
34.01352 -46.21927 203.83339 398
30.35967 -47.12933 206.85901 395
26.23106 -48.14460 209.91821 356
-186.81581 -100.66955 209.73880 485
81.68780 -35.44412 177.69902 436
79.12991 -36.07069 179.56236 312
63.60022 -40.01355 178.40358 429
61.03073 -40.65648 180.62819 427
58.40163 -41.33422 182.93634 424
55.65481 -42.02600 185.27708 422
52.90593 -42.73700 187.72050 420
50.00679 -43.43682 190.19101 410
46.90201 -44.25091 192.73810 408
43.70620 -45.07031 195.36871 405
40.36935 -45.87260 198.08353 403
36.95244 -46.74276 200.89337 400
33.40677 -47.61843 203.77977 397
29.71749 -48.57141 206.81339 395
25.21913 -49.66947 209.91791 269
-188.19408 -103.69787 209.67319 295
81.44035 -36.41690 177.56247 435
79.17548 -37.04477 179.50558 431
63.25228 -41.16569 178.25005 428
60.67648 -41.81341 180.47940 426
58.02078 -42.51187 182.77567 424
55.31240 -43.21974 185.16534 421
52.48224 -43.91984 187.57883 419
49.52671 -44.73960 190.09448 410
46.41079 -45.52444 192.60738 407
43.15502 -46.35328 195.23175 405
39.81806 -47.23284 197.95467 402
36.32836 -48.13700 200.82436 399
32.75463 -49.02172 203.71562 397
29.05458 -50.04239 206.72037 394
23.85820 -51.35739 209.82083 263
81.20499 -37.42277 177.38472 434
78.90466 -38.04354 179.36354 431
62.91357 -42.28889 178.07318 428
60.30693 -42.97917 180.34747 425
57.63128 -43.70854 182.66776 423
54.88384 -44.43169 185.03209 421
52.06506 -45.16734 187.48286 411
49.00247 -46.00145 189.93945 409
45.86076 -46.81089 192.50139 406
42.62542 -47.69565 195.17859 404
39.22172 -48.57043 197.89935 401
35.73623 -49.52325 200.69559 399
32.15031 -50.46273 203.64410 396
28.38640 -51.48064 206.69991 393
-188.36020 -109.10143 202.76633 483
80.93295 -38.45173 177.25087 434
78.64801 -39.08640 179.21127 430
69.67441 -41.51825 179.65942 308
59.94249 -44.16580 180.17770 425
57.26965 -44.91530 182.52072 422
54.53773 -45.63734 184.87663 420
51.61665 -46.42079 187.30026 411
48.52899 -47.27087 189.83737 408
45.32124 -48.12341 192.39822 406
42.06144 -49.05715 195.02489 403
38.63001 -49.97720 197.80586 401
35.14319 -50.93962 200.61459 398
31.49340 -51.93446 203.57117 395
27.58104 -53.00050 206.65488 381
-187.82619 -111.72424 202.70041 495
80.69746 -39.46878 177.11357 433
78.38522 -40.11965 179.08382 429
69.95518 -42.46214 179.65407 308
59.59106 -45.35762 180.03671 424
56.90880 -46.10503 182.37708 422
54.13437 -46.90707 184.77737 419
51.13190 -47.72584 187.19603 410
47.99627 -48.59481 189.70886 407
44.82409 -49.48608 192.29626 405
41.46859 -50.42100 194.93256 402
38.04197 -51.35466 197.72429 400
34.48940 -52.36692 200.57341 397
30.69022 -53.39621 203.53552 383
26.59435 -54.54417 206.56279 370
80.43044 -40.50557 176.95358 432
78.08123 -41.14925 178.92342 429
70.28643 -43.38045 179.62158 308
59.23078 -46.55345 179.88199 423
56.51555 -47.32505 182.19734 421
53.65374 -48.12598 184.60606 412
50.65232 -48.99332 187.04630 409
47.50619 -49.92712 189.56659 407
44.24628 -50.80884 192.14268 404
40.92021 -51.77265 194.81271 402
37.47754 -52.74733 197.59175 399
33.76572 -53.82906 200.48033 385
29.80962 -54.93786 203.40587 382
25.47501 -56.16287 206.49394 369
80.19968 -41.52761 176.82811 432
77.83753 -42.21812 178.77550 428
70.59274 -44.31993 179.63890 308
58.85579 -47.75780 179.72902 423
56.16540 -48.55423 182.08917 420
53.20105 -49.43726 184.44670 411
50.14308 -50.29196 186.88972 408
46.96928 -51.21929 189.43105 406
43.72746 -52.18555 192.05190 403
40.32857 -53.15948 194.71519 401
36.75307 -54.19346 197.51840 387
32.92383 -55.35575 200.37721 384
28.92206 -56.49588 203.35193 371
24.32625 -57.86044 206.42043 368
79.92181 -42.55058 176.63962 429
77.57054 -43.27429 178.62282 427
70.87609 -45.24645 179.62880 308
58.51996 -48.95521 179.56958 422
55.71981 -49.80479 181.92975 413
52.74042 -50.70574 184.31940 410
49.62155 -51.62734 186.73204 408
46.44545 -52.59129 189.27252 405
43.17304 -53.57399 191.90604 403
39.64962 -54.59293 194.60454 388
35.94647 -55.69353 197.36142 386
32.07521 -56.86136 200.25081 383
27.79666 -58.16105 203.21695 370
23.17006 -59.52574 206.33038 367
79.67109 -43.61910 176.50941 429
77.28685 -44.34030 178.47414 427
71.17641 -46.20634 179.63622 308
58.16113 -50.18550 179.42950 421
55.29364 -51.08305 181.75694 412
52.24537 -52.01500 184.11600 409
49.16130 -52.96550 186.61868 407
45.92178 -53.91066 189.17242 404
42.51259 -54.97528 191.73735 390
38.89524 -56.08482 194.44008 388
35.10269 -57.22918 197.24478 385
31.20897 -58.41432 200.15543 382
26.73914 -59.78519 203.10843 369
21.98743 -61.21415 206.27769 366
79.39791 -44.66582 176.32675 428
76.99746 -45.41629 178.32164 426
71.52435 -47.13001 179.61536 308
57.74714 -51.44687 179.24655 413
54.84141 -52.34251 181.59515 411
51.78848 -53.32746 184.00562 409
48.65015 -54.26016 186.44878 406
45.30117 -55.34548 188.97382 392
41.73978 -56.45417 191.59871 389
38.07655 -57.58123 194.33507 387
34.26084 -58.74826 197.10655 384
30.13834 -60.05525 200.02545 371
25.59468 -61.47579 203.05005 368
20.82589 -62.94923 206.15556 365
79.15484 -45.74890 176.17880 427
76.72382 -46.50030 178.16293 425
71.84227 -48.08075 179.63971 308
57.36212 -52.69435 179.07536 413
54.37117 -53.67656 181.38997 410
51.28917 -54.63565 183.80275 408
48.04993 -55.65162 186.27194 393
44.58562 -56.79907 188.81941 391
40.96058 -57.90778 191.46498 388
37.24214 -59.10566 194.15536 386
33.41781 -60.31721 196.98849 383
29.05412 -61.74476 199.89497 370
24.46848 -63.16808 202.92024 367
19.60379 -64.74297 206.08853 365
78.87805 -46.80701 176.00644 427
76.48512 -47.61024 178.02344 425
72.15641 -48.99905 179.62598 308
56.89846 -53.96020 178.86575 412
53.93347 -54.94714 181.23151 410
50.71860 -55.99203 183.63483 395
47.31782 -57.08370 186.08406 392
43.84996 -58.22222 188.66411 390
40.19301 -59.43180 191.27545 388
36.43408 -60.62379 194.00548 385
32.44274 -61.94259 196.82330 372
27.99681 -63.39197 199.74599 369
23.31361 -64.90430 202.79869 366
18.39961 -66.54138 205.99902 364
78.65108 -47.90760 175.85289 426
76.20193 -48.70202 177.86334 424
72.52144 -49.94936 179.61411 308
56.46160 -55.29508 178.71292 411
53.34558 -56.31479 181.01834 396
50.02287 -57.39923 183.44954 394
46.64667 -58.54704 185.88628 392
43.08981 -59.69342 188.44185 389
39.42485 -60.91047 191.11423 387
35.59699 -62.19078 193.86859 384
31.35688 -63.60958 196.70111 371
26.84494 -65.10976 199.61388 368
22.09591 -66.68779 202.68060 365
17.14708 -68.35411 205.92249 363
78.36456 -48.97311 175.67628 425
75.92843 -49.80272 177.68256 423
72.85425 -50.85219 179.60728 308
55.93063 -56.59839 178.51347 398
52.70615 -57.73102 180.79488 395
49.32810 -58.84873 183.23177 393
45.89820 -59.98796 185.73076 391
42.33529 -61.21743 188.30309 388
38.61137 -62.46650 190.92519 386
34.74410 -63.81430 193.69101 372
30.30584 -65.29867 196.55035 370
25.73883 -66.86452 199.51028 367
20.91829 -68.45753 202.62483 364
15.88766 -70.15817 205.86653 362
78.11547 -50.07467 175.50584 425
75.61389 -50.94665 177.50276 423
73.07684 -51.82847 179.58774 420
55.32342 -58.01155 178.24361 397
52.03071 -59.11420 180.57698 395
48.65182 -60.25559 183.00159 392
45.14637 -61.49836 185.49228 390
41.55335 -62.76188 188.11539 387
37.82912 -64.05983 190.77855 385
33.69969 -65.44142 193.53259 371
29.27172 -67.00401 196.40721 369
24.57127 -68.58522 199.37613 366
19.72318 -70.29578 202.45528 364
14.60487 -72.05001 205.71780 361
77.83237 -51.18621 175.31824 424
75.37600 -52.06570 177.32790 422
72.80303 -52.96717 179.43675 420
54.69104 -59.36055 178.03064 396
51.37300 -60.53762 180.36978 394
47.99147 -61.75906 182.80568 391
44.46926 -62.99337 185.32863 389
40.77396 -64.26298 187.91771 386
36.98033 -65.60374 190.63000 373
32.65993 -67.15009 193.35619 371
28.14700 -68.73444 196.19905 368
23.40646 -70.40747 199.24142 365
18.49003 -72.16100 202.37909 363
12.27476 -74.33692 205.61659 315
77.60744 -52.30388 175.16441 423
75.08462 -53.21501 177.19293 421
72.51218 -54.14462 179.26395 419
62.42106 -57.74401 179.71860 304
50.71464 -62.01626 180.15161 393
47.23336 -63.23569 182.60674 390
43.71108 -64.50607 185.09903 388
39.97267 -65.85100 187.71460 386
36.02307 -67.28319 190.41278 372
31.61339 -68.85746 193.17627 370
27.04066 -70.54001 196.04979 367
22.21553 -72.22879 199.06065 364
16.76327 -74.20303 202.18980 332
9.00424 -76.99483 205.43387 314
77.31110 -53.43864 174.96008 423
74.80751 -54.35653 177.02151 420
72.20249 -55.32226 179.08588 418
62.82917 -58.74379 179.68109 304
50.00963 -63.44451 179.90108 392
46.55906 -64.74766 182.36763 390
42.96381 -66.03056 184.89174 387
39.22438 -67.44930 187.52606 385
35.01237 -68.98569 190.21643 371
30.53369 -70.61072 192.99895 369
25.92025 -72.33716 195.90862 366
20.95478 -74.13892 198.91011 333
14.31254 -76.53172 202.02971 315
5.59140 -79.75402 205.22937 312
77.04758 -54.57195 174.80070 422
74.52013 -55.50121 176.82932 420
71.89985 -56.49377 178.91743 417
63.21198 -59.75785 179.69624 304
49.35815 -64.90882 179.66817 391
45.83639 -66.25048 182.14786 389
42.20196 -67.63957 184.70892 386
38.29707 -69.04777 187.32196 373
33.97912 -70.70415 190.01512 370
29.48134 -72.38157 192.79124 368
24.73435 -74.12435 195.72818 365
18.72194 -76.42187 198.70027 332
11.15234 -79.21318 201.75821 314
2.13604 -82.59325 205.00098 311
76.78477 -55.71238 174.60648 421
74.22937 -56.68390 176.65471 419
71.62025 -57.67724 178.73784 417
63.61914 -60.74599 179.69284 304
48.65022 -66.45229 179.41803 390
45.07776 -67.79386 181.90851 388
41.45265 -69.17912 184.45132 385
37.31937 -70.74223 187.08000 372
32.95610 -72.40161 189.77650 369
28.34845 -74.17942 192.61241 367
22.81334 -76.24468 195.45674 334
16.41697 -78.73429 198.46956 315
7.80224 -82.00491 201.46399 313
-1.48570 -85.55853 204.81093 310
76.53445 -56.85576 174.39487 420
73.93210 -57.84138 176.46729 418
71.30872 -58.86279 178.55722 416
64.01632 -61.72107 179.68912 304
47.92934 -67.95695 179.19347 389
44.34025 -69.35836 181.64839 387
40.55147 -70.81167 184.20871 374
36.31571 -72.49202 186.83916 371
31.89258 -74.17467 189.54823 368
26.79685 -76.14130 192.35281 335
20.64696 -78.54625 195.17839 332
13.26876 -81.38708 198.13208 314
4.37372 -84.87434 201.23694 312
-5.27933 -88.57746 204.53194 309
76.25748 -58.02485 174.19937 420
73.67708 -59.06804 176.27428 417
70.73483 -60.19296 178.35106 386
64.43360 -62.71972 179.69109 304
47.26522 -69.49873 178.93623 388
43.61063 -70.92722 181.46167 386
39.63134 -72.48752 183.98578 373
35.28839 -74.19248 186.62177 370
30.71338 -76.03678 189.35016 336
24.69142 -78.36663 192.05205 334
18.39301 -80.88297 194.88860 331
9.99590 -84.23145 197.77203 313
0.80965 -87.82581 200.95093 311
-44756.67188 -17788.01953 1825.65906 1000
75.96613 -59.18470 174.02361 419
73.24034 -60.29046 176.04253 387
70.10453 -61.54970 178.07632 385
64.82094 -63.68074 179.70506 304
46.53537 -71.05337 178.66870 388
42.88219 -72.51743 181.16798 374
38.67270 -74.23933 183.73917 372
34.27622 -75.96698 186.38942 369
28.67084 -78.23079 188.99844 335
22.55549 -80.72032 191.71338 333
15.37705 -83.57323 194.54398 314
6.62306 -87.12333 197.46864 312
-3.85152 -91.32772 200.55156 283
75.70984 -60.40485 173.83669 418
72.63369 -61.65438 175.78333 387
69.44107 -62.93387 177.77213 384
65.26708 -64.63210 179.66566 304
45.80283 -72.61266 178.43582 387
41.92696 -74.22525 180.93541 373
37.69153 -75.93159 183.45168 371
32.52690 -78.07456 186.01299 337
26.61722 -80.51305 188.61632 334
20.35635 -83.06437 191.35504 332
12.18251 -86.37486 194.13142 313
3.16327 -90.10549 197.08832 311
-21.27810 -100.12933 199.32071 264
75.14265 -61.71660 173.51460 388
71.99526 -62.99099 175.50049 386
68.73869 -64.36687 177.49586 383
65.71246 -65.62557 179.68417 304
45.08191 -74.22884 178.14000 386
41.02422 -75.92304 180.61409 372
36.32912 -77.87678 183.10448 338
30.58055 -80.27151 185.57527 335
24.46791 -82.77483 188.20239 333
17.55549 -85.73144 190.93762 315
8.90513 -89.30480 193.73618 312
-3.13871 -94.28544 196.46321 283
74.53010 -63.06678 173.23227 387
71.36442 -64.42140 175.19385 385
68.07493 -65.78993 177.25331 382
65.30977 -66.95905 179.47775 394
44.21030 -75.88353 177.87785 374
39.95704 -77.71973 180.34825 339
34.39927 -80.06170 182.67656 337
28.51523 -82.57346 185.19655 334
22.30584 -85.19652 187.84671 332
14.40333 -88.51483 190.45358 314
5.16938 -92.44628 193.22333 284
73.91530 -64.42147 172.93436 386
70.70085 -65.79063 174.91167 384
67.40067 -67.25097 176.94717 381
64.62366 -68.40531 179.19849 393
53.60700 -73.18471 179.75916 300
38.12774 -79.85233 179.88739 338
32.44897 -82.27352 182.22939 336
26.42811 -84.88230 184.73721 333
19.71901 -87.79189 187.37735 315
11.17569 -91.50220 189.97890 312
-2.78576 -97.49757 192.32198 265
73.28030 -65.83159 172.63324 385
70.03770 -67.24802 174.59956 383
66.71040 -68.68835 176.67519 394
63.97082 -69.88070 178.93895 392
54.05859 -74.24569 179.79767 300
36.27974 -81.99333 179.41916 337
30.46539 -84.58216 181.81088 335
24.28417 -87.27531 184.35214 332
16.65790 -90.65056 186.85500 314
5.99178 -95.33282 189.25642 284
72.65993 -67.23000 172.30037 384
69.39607 -68.67176 174.26930 382
66.02238 -70.13981 176.35577 393
63.28215 -71.40077 178.69328 391
54.56075 -75.26961 179.78963 300
34.39909 -84.25842 178.89227 336
28.43118 -86.89930 181.32336 333
21.93321 -89.84234 183.82307 315
13.46526 -93.61438 186.34631 313
-2.55373 -100.72887 188.12248 265
71.99957 -68.63206 171.97116 383
68.69131 -70.13451 173.99730 381
65.38450 -71.63377 176.05634 392
62.55767 -72.89242 178.38696 390
55.05441 -76.33190 179.77809 300
32.41410 -86.56555 178.42908 335
26.30119 -89.32474 180.82870 332
18.89175 -92.69231 183.27887 314
6.92633 -98.15910 185.29892 284
71.98145 -69.81929 171.81418 316
68.01210 -71.59553 173.64613 380
64.70990 -73.13508 175.77858 391
61.86237 -74.48814 178.08621 389
55.52225 -77.35916 179.75659 300
30.42008 -88.94311 177.87488 334
24.14217 -91.86678 180.31993 315
14.80909 -96.16116 182.48230 285
-2.10207 -103.91808 183.92342 265
72.42563 -70.72717 171.81287 316
67.31385 -73.10116 173.32472 379
63.99476 -74.65712 175.46002 390
61.14750 -76.01633 177.81989 388
56.03611 -78.39059 179.74034 300
28.37107 -91.36466 177.37907 332
21.16765 -94.69485 179.70328 314
7.95854 -100.89843 181.24623 284
-25.20218 -116.41094 180.42783 284
72.93085 -71.67074 171.84247 316
66.61172 -74.64883 172.99692 378
63.30600 -76.25582 175.16142 389
60.41233 -77.64324 177.49907 387
56.52431 -79.46259 179.76346 300
41.53820 -86.56993 179.88455 296
15.85577 -98.77540 178.62161 285
-1.48702 -107.03702 179.62988 265
-24.48720 -118.00221 180.47984 284
73.37817 -72.60803 171.82812 316
65.90189 -76.18510 172.67058 377
62.60932 -77.80784 174.85774 388
59.64907 -79.19665 177.24098 386
56.60619 -80.69476 179.63808 384
42.13852 -87.69296 179.88509 296
9.06569 -103.67802 177.21320 284
-15.69130 -115.68672 177.21132 346
-23.74601 -119.53214 180.44705 284
73.86889 -73.55858 171.84024 316
65.18240 -77.75875 172.30109 376
61.89856 -79.42714 174.51666 387
58.89351 -80.86843 176.90268 385
55.29765 -82.66052 179.24586 327
42.66995 -88.82569 179.88878 296
-8.90280 -114.15129 173.82687 290
-8.99734 -114.20065 178.13182 290
-23.00282 -121.10627 180.40201 284
74.34451 -74.46343 171.82462 316
64.43860 -79.39449 171.97482 375
61.14103 -81.02213 174.19225 386
58.10328 -82.54603 176.60927 328
53.09158 -85.03684 178.61917 327
43.21344 -89.95850 179.85681 296
0.22288 -111.41998 175.36835 291
0.13923 -111.42654 179.56880 291
74.82043 -75.39408 171.83368 316
64.71500 -80.49809 171.90463 312
60.44282 -82.66303 173.84419 385
55.94926 -84.92743 175.94542 326
50.79381 -87.52353 177.99036 325
43.80542 -91.10149 179.84477 296
26.16291 -99.96532 179.99339 292
4.83760 -110.79597 180.21190 288
75.33572 -76.29220 171.81639 316
65.26657 -81.46930 171.90588 312
58.82683 -84.78579 173.30817 327
53.76038 -87.38564 175.24184 325
48.49036 -90.08573 177.36339 324
43.06077 -92.91525 179.57419 322
26.80012 -101.24089 180.02455 292
5.54436 -112.17718 180.19951 288
75.86054 -77.21199 171.81912 316
65.79022 -82.46515 171.88589 312
56.70267 -87.21561 172.57431 326
51.51512 -89.91331 174.56706 324
46.05457 -92.71941 176.66992 323
40.48133 -95.66923 178.94257 321
27.45202 -102.44647 179.98358 292
6.25635 -113.50416 180.16934 288
76.32542 -78.15637 171.81287 316
66.30749 -83.42390 171.86781 312
54.95501 -89.45750 171.96806 308
49.17067 -92.55234 173.83934 323
43.57090 -95.50963 175.95488 322
37.79638 -98.56829 178.25235 320
28.08931 -103.69904 179.97211 292
6.93952 -114.84322 180.15248 288
76.86430 -79.05603 171.81149 316
66.86124 -84.41026 171.90312 312
55.49834 -90.52141 172.00348 308
46.70750 -95.23524 173.12538 321
40.98117 -98.35232 175.24158 320
35.04347 -101.51833 177.54439 318
18.08452 -110.63028 177.97453 272
77.37637 -79.96532 171.78297 316
67.40630 -85.36924 171.86063 312
56.08323 -91.57243 171.98904 308
44.23232 -98.02383 172.36942 320
38.31299 -101.25364 174.49522 319
24.73707 -108.63131 175.31004 271
-54.48414 -151.87251 164.28030 372
77.87380 -80.87524 171.77345 316
67.95028 -86.35644 171.89520 312
56.71184 -92.63036 171.99184 308
43.79632 -99.76532 172.07907 304
32.63448 -105.91813 173.04846 271
12.20764 -117.23457 172.52956 269
-50.59448 -151.93983 164.83258 373
78.42129 -81.78636 171.78937 316
68.50389 -87.33221 171.89174 312
57.28721 -93.64680 171.95784 308
44.45224 -100.84220 172.09146 304
29.49961 -109.25190 172.19574 300
12.01606 -119.05350 172.37366 296
-47.65686 -152.52745 165.20030 286
78.98181 -82.67877 171.76859 316
69.08157 -88.28775 171.85942 312
57.90031 -94.64896 171.93936 308
45.06232 -101.99327 172.08620 304
30.22530 -110.42298 172.16522 300
12.75192 -120.34229 172.31107 296
-46.67756 -154.19466 165.15910 286
79.48614 -83.58291 171.77834 316
69.68596 -89.23759 171.84032 312
58.49192 -95.70901 171.96042 308
45.70999 -103.07359 172.09117 304
30.87444 -111.65471 172.18922 300
13.53039 -121.66076 172.33038 296
-45.70145 -155.91087 165.20641 286
80.04735 -84.46839 171.78192 316
70.25016 -90.23322 171.86078 312
59.12035 -96.69994 171.95398 308
46.38502 -104.17424 172.05664 304
31.59167 -112.81680 172.18533 300
14.24581 -123.00178 172.36310 296
-44.70805 -157.52876 165.19885 286
80.60634 -85.37552 171.76738 316
70.85365 -91.15954 171.83875 312
59.73236 -97.75460 171.92300 308
47.04788 -105.27876 172.04364 304
32.35405 -114.03792 172.20538 300
15.06807 -124.26368 172.35043 296
-43.69042 -159.23581 165.16592 286
81.13680 -86.23599 171.75545 316
71.42383 -92.12095 171.84230 312
60.38977 -98.79623 171.93166 308
47.71087 -106.37630 172.02379 304
33.01670 -115.22062 172.17615 300
-27.25346 -151.50191 163.22043 371
-42.68324 -160.87065 165.19989 286
81.70273 -87.14297 171.77835 316
72.04325 -93.05785 171.86530 312
60.97598 -99.80634 171.90753 308
48.37976 -107.48003 172.05135 304
33.74420 -116.43225 172.18900 300
-23.61688 -151.43651 163.77126 373
82.26893 -88.05268 171.75887 316
72.61836 -94.03087 171.85228 312
61.63983 -100.81440 171.93732 308
49.09775 -108.59284 172.02843 304
34.50737 -117.59441 172.18135 300
-19.99745 -151.40192 164.36098 374
82.86918 -88.91921 171.73944 316
73.23421 -94.99181 171.82391 312
62.29045 -101.82712 171.92693 308
49.74291 -109.67445 172.00693 304
35.27427 -118.79351 172.17061 300
-16.53736 -151.25945 164.87703 375
83.42239 -89.78116 171.72992 316
73.83381 -95.91470 171.81731 312
62.95715 -102.83683 171.94325 308
50.44792 -110.78281 172.02177 304
35.98885 -119.93620 172.17458 300
-13.07525 -151.21835 165.40137 377
84.01014 -90.69888 171.74107 316
74.44557 -96.81903 171.82066 312
63.60387 -103.84338 171.88857 308
51.15266 -111.87863 171.99298 304
36.77459 -121.12134 172.16983 300
-10.69232 -151.77571 165.70795 291
84.59641 -91.52927 171.73312 316
75.07483 -97.78650 171.83611 312
64.24640 -104.84625 171.90945 308
51.90860 -112.92440 171.99518 304
37.49759 -122.28106 172.13536 300
-9.70146 -153.14613 165.70869 291
85.18484 -92.41151 171.71812 316
75.70407 -98.66833 171.79065 312
64.90774 -105.83799 171.89369 308
52.57368 -113.99271 172.00386 304
38.25774 -123.47390 172.15111 300
-8.65671 -154.62341 165.71933 291
85.79098 -93.27358 171.71144 316
76.34306 -99.59569 171.78490 312
65.59685 -106.81348 171.90472 308
53.30621 -115.05447 172.00694 304
0.42874 -150.57066 162.90411 285
-7.62757 -156.02516 165.72270 291
86.38674 -94.15860 171.73740 316
76.99061 -100.52903 171.82249 312
66.28019 -107.81968 171.91270 308
54.07712 -116.14177 172.00626 304
3.09716 -150.81146 163.29198 383
-6.59545 -157.39816 165.72101 290
87.02058 -94.99088 171.71901 316
77.65869 -101.46192 171.79240 312
66.99951 -108.78046 171.90407 308
54.77812 -117.23208 171.97786 304
6.12661 -150.74196 163.78099 384
-5.58969 -158.82753 165.69984 290
87.61833 -95.85693 171.69150 316
78.30025 -102.38683 171.80446 312
67.65432 -109.79256 171.87955 308
55.53819 -118.26550 171.99062 304
9.06909 -150.69261 164.26236 385
88.23884 -96.73232 171.72687 316
78.91386 -103.29041 171.78326 312
68.40839 -110.74580 171.87222 308
56.27137 -119.33717 171.98746 304
12.05733 -150.58031 164.75586 386
88.85024 -97.56211 171.67804 316
79.60648 -104.21573 171.78751 312
69.08505 -111.74409 171.84306 308
57.01367 -120.34172 171.97705 304
14.93272 -150.54187 165.23238 388
89.46667 -98.42142 171.68303 316
80.29134 -105.11281 171.75113 312
69.78562 -112.70148 171.85913 308
57.76707 -121.44115 171.99054 304
17.80289 -150.44295 165.69815 389
90.14581 -99.24313 171.67349 316
80.97301 -106.00781 171.76418 312
70.50484 -113.67984 171.87392 308
58.57612 -122.50071 171.95802 304
20.45373 -150.45311 166.09187 295
90.76515 -100.08079 171.68224 316
81.61501 -106.90170 171.77530 312
71.25656 -114.62781 171.84959 308
59.30982 -123.52391 171.94598 304
21.43809 -151.71999 166.10339 297
91.44343 -100.92358 171.67102 316
82.30561 -107.78609 171.74959 312
71.97620 -115.63060 171.82445 308
27.76277 -148.93410 163.23183 296
22.43926 -152.94991 166.10844 297
92.07215 -101.76230 171.67496 316
82.97981 -108.70531 171.77646 312
72.71815 -116.57982 171.86494 308
28.83549 -150.10037 163.26474 390
23.39485 -154.21150 166.08670 297
92.71196 -102.58121 171.68004 316
83.69205 -109.58546 171.72183 312
73.43027 -117.52063 171.81607 308
31.42079 -150.01326 163.70483 392
24.42563 -155.41832 166.14526 297
93.36679 -103.43560 171.65271 316
84.37943 -110.44531 171.74144 312
74.18119 -118.44061 171.83499 308
34.04405 -149.91286 164.14709 393
25.42094 -156.66071 166.13133 297
-2027.83557 -1765.42566 124.52657 360
94.04439 -104.23045 171.67325 316
85.10038 -111.35700 171.75900 312
74.93605 -119.38610 171.84229 308
36.61825 -149.78221 164.62050 394
26.42006 -157.91429 166.11288 297
-1989.83057 -1758.07544 125.49404 363
94.70522 -105.07273 171.65721 316
85.81224 -112.19965 171.74451 312
75.71700 -120.37225 171.81149 308
39.16350 -149.73433 165.04353 395
27.43760 -159.13309 166.08592 297
-2016.28027 -1800.76648 76.79401 322
-1960.32178 -1756.72131 126.41582 387
95.37304 -105.88408 171.64461 316
86.52788 -113.07101 171.70158 312
76.49766 -121.27157 171.83386 308
41.65578 -149.64471 165.44701 397
-1964.51941 -1782.12195 79.14276 378
-1934.13257 -1756.87158 126.74311 388
96.06259 -106.70848 171.63029 316
87.23948 -113.93016 171.70023 312
77.25088 -122.20614 171.81525 308
44.11320 -149.49554 165.85966 398
-1922.42358 -1769.39661 81.83199 271
-1909.13184 -1759.06055 127.95308 358
96.75003 -107.50369 171.61633 316
87.99744 -114.81402 171.70386 312
50.25101 -146.28191 163.38879 300
46.37154 -149.50932 166.22990 301
-1881.64099 -1758.29749 83.43913 291
-1887.90063 -1762.98145 128.08316 359
97.43829 -108.31470 171.63316 316
88.73436 -115.67646 171.68445 312
51.00909 -147.51483 163.36707 300
47.35059 -150.59877 166.22536 301
-1853.90466 -1757.07385 84.36411 367
-1866.88232 -1767.40051 128.66852 358
98.16443 -109.09753 171.61188 316
89.44659 -116.52669 171.71916 312
51.86452 -148.69794 163.27461 300
48.35374 -151.67012 166.26653 301
-1828.16907 -1756.79272 85.35728 379
-1847.51196 -1772.75769 129.10301 297
98.85119 -109.92152 171.64095 316
90.20106 -117.37978 171.70734 312
53.50270 -149.19228 163.47920 402
49.37137 -152.78076 166.27515 301
-1803.52942 -1757.43518 85.98631 379
-1832.38342 -1782.37415 128.83667 394
99.53894 -110.71250 171.61580 316
90.95554 -118.22057 171.68930 312
55.73970 -149.09662 163.89365 403
50.35550 -153.81596 166.21938 301
-1781.19531 -1759.24854 87.27962 432
-1954.08911 -1911.08301 123.68548 473
100.23496 -111.47902 171.59216 316
91.69040 -119.06956 171.65881 312
57.99258 -148.97351 164.31175 404
51.34394 -154.91138 166.25809 301
-1759.17102 -1761.89026 88.04079 445
-1939.05078 -1921.60291 123.86220 465
100.98692 -112.25977 171.60721 316
92.48360 -119.91602 171.67593 312
60.17348 -148.94139 164.69107 405
52.33321 -155.97072 166.24948 301
-1738.20728 -1765.31018 88.16882 446
-1923.97449 -1931.92285 123.60712 377
101.67387 -113.03288 171.58551 316
93.22832 -120.72552 171.68715 312
62.31996 -148.83951 165.06779 406
53.36872 -157.01547 166.24773 301
-1718.65149 -1768.66357 89.16445 447
-1790.60938 -1834.60303 128.62418 463
-1785.76514 -1830.47241 173.36647 463
102.41762 -113.82391 171.60579 316
70.06744 -143.60205 163.52667 304
64.47087 -148.77336 165.42914 408
54.35960 -158.05803 166.26414 301
-1699.20813 -1773.18628 89.39871 455
-1771.67139 -1840.18384 129.44777 464
-1815.64514 -1879.81079 172.81905 313
103.14969 -114.61850 171.58894 316
70.89439 -144.65318 163.52786 304
66.59002 -148.68524 165.81810 409
-1680.54761 -1777.42542 89.95928 456
-1753.11719 -1845.38257 129.71167 464
-1825.66321 -1912.64832 172.06099 312
103.87167 -115.35457 171.56163 316
71.75978 -145.70477 163.44391 303
68.67031 -148.58281 166.19141 410
-1661.42786 -1781.74780 90.69310 457
-1744.66724 -1859.60718 129.21802 351
-1834.86414 -1945.56689 172.00412 332
104.62359 -116.13507 171.55574 316
72.55453 -146.76112 163.45692 303
70.14347 -149.04477 166.31880 305
-1643.84778 -1787.08167 91.29321 464
-1752.86292 -1890.90674 128.94896 350
-1820.01538 -1955.44470 171.59619 466
105.35513 -116.87389 171.59091 316
73.42393 -147.79536 163.42876 303
71.15346 -149.99991 166.34740 305
-1626.40906 -1792.26257 91.77293 465
-1761.76038 -1923.24805 127.59279 349
106.11479 -117.65938 171.55054 316
74.71705 -148.38947 163.50008 413
72.13611 -150.94293 166.34566 305
-1608.81165 -1797.28625 91.55087 465
