# .PCD v.7 - Point Cloud Data file format
VERSION .7
FIELDS x y z rgb
SIZE 4 4 4 4
TYPE F F F U
COUNT 1 1 1 1
WIDTH 1373
HEIGHT 1
VIEWPOINT 4293.469238 -4102.037598 136.234482 -0.002200 -0.115500 0.000078 0.993305
POINTS 1373
DATA ascii
61.34562 -108.32027 171.95288 308
49.02580 -116.66986 172.01341 304
-1.57044 -150.95027 163.48265 382
-12.49879 -158.31451 165.64351 290
82.06697 -95.55785 171.75133 316
72.67584 -101.98285 171.85147 312
61.95549 -109.31994 171.92792 308
49.69913 -117.71788 172.04268 304
1.43099 -150.89526 163.94858 383
-11.50741 -159.72221 165.63014 290
82.64635 -96.39687 171.73360 316
73.23981 -102.91602 171.81189 312
62.62501 -110.32437 171.93861 308
50.36618 -118.77336 172.03522 304
4.35883 -150.79797 164.45067 385
83.22642 -97.26183 171.75319 316
73.87370 -103.83242 171.81615 312
63.25434 -111.28005 171.91737 308
51.08939 -119.88472 172.00711 304
7.29173 -150.68265 164.92323 386
83.79686 -98.12582 171.76543 316
74.46754 -104.75822 171.83133 312
63.94409 -112.30202 171.89580 308
51.82980 -120.94713 172.01161 304
10.12106 -150.62299 165.39839 387
84.36914 -98.97228 171.75273 316
75.11636 -105.65782 171.81578 312
64.58940 -113.25702 171.91539 308
52.53051 -121.97775 172.02110 304
12.94210 -150.58446 165.91075 388
84.95853 -99.82828 171.71631 316
75.72834 -106.58748 171.82642 312
65.22542 -114.21452 171.92268 308
53.22140 -123.03790 172.01619 304
14.48184 -151.36130 166.05733 295
85.54325 -100.65237 171.74980 316
76.34924 -107.47580 171.82802 312
65.92614 -115.22342 171.89667 308
21.27980 -148.33162 163.28421 296
15.42808 -152.65076 166.04178 295
86.14347 -101.47662 171.73006 316
77.02173 -108.37200 171.78349 312
66.63222 -116.18327 171.89738 308
21.91501 -149.74484 163.20625 296
16.38334 -153.87788 166.05423 295
86.74528 -102.35661 171.69667 316
77.63132 -109.24691 171.78001 312
67.30215 -117.14465 171.87308 308
23.72598 -150.26036 163.43617 390
17.40597 -155.12538 166.05751 295
87.36160 -103.18270 171.73322 316
78.30535 -110.17030 171.77791 312
68.00831 -118.09631 171.89961 308
26.28680 -150.18384 163.90291 391
18.35920 -156.35892 166.07414 295
87.95673 -103.98997 171.69196 316
78.92508 -111.06072 171.78288 312
68.66828 -119.05843 171.87781 308
28.87645 -150.08998 164.33070 393
19.31964 -157.51289 166.06587 295
88.56250 -104.82277 171.71361 316
79.61199 -111.93891 171.77277 312
69.39592 -119.96374 171.88272 308
31.40891 -149.99052 164.74971 394
20.30430 -158.74435 166.05643 295
89.20884 -105.64175 171.72328 316
80.27969 -112.80081 171.77710 312
70.12891 -120.92329 171.86920 308
33.92328 -149.91628 165.23141 395
89.83926 -106.46949 171.69748 316
80.94800 -113.66463 171.76460 312
70.79280 -121.86559 171.83411 308
36.32011 -149.83362 165.60397 396
90.46799 -107.28745 171.68495 316
81.59553 -114.54661 171.77777 312
43.35180 -145.96573 163.37979 300
38.73532 -149.73593 166.01218 397
91.11504 -108.08807 171.69684 316
82.28848 -115.43175 171.74231 312
44.07562 -147.15208 163.36424 300
40.25647 -150.31668 166.21481 301
91.72021 -108.92902 171.67702 316
82.95518 -116.30210 171.76451 312
44.85325 -148.38654 163.27890 300
41.18777 -151.44675 166.22244 301
92.41367 -109.72105 171.67223 316
83.63651 -117.15295 171.75488 312
45.76242 -149.44896 163.30939 400
42.12211 -152.50577 166.18047 301
93.04427 -110.52972 171.68298 316
84.34174 -118.02026 171.73462 312
47.99037 -149.39944 163.70107 402
43.08030 -153.65186 166.23604 301
93.69099 -111.30718 171.67921 316
85.04744 -118.85260 171.73106 312
50.20815 -149.30830 164.12253 403
44.00652 -154.73549 166.24133 301
94.38190 -112.11905 171.64117 316
85.73906 -119.70067 171.73663 312
52.40554 -149.18326 164.52171 404
44.93353 -155.79411 166.24530 301
95.01430 -112.91301 171.64871 316
86.47945 -120.56271 171.71205 312
54.58394 -149.10873 164.92119 405
45.90839 -156.85635 166.20770 301
95.70793 -113.70271 171.64668 316
87.21310 -121.38757 171.71049 312
56.67522 -149.07692 165.30161 406
46.83955 -157.94971 166.23032 301
96.36038 -114.45876 171.62682 315
63.62502 -144.48956 163.46231 303
58.76398 -148.99304 165.63921 407
97.05465 -115.22723 171.64505 315
64.39577 -145.58127 163.45334 303
60.84645 -148.86232 166.02319 408
97.72305 -116.01169 171.61107 315
65.18311 -146.63539 163.43376 303
62.63499 -148.98436 166.32265 305
98.46001 -116.80971 171.61638 315
65.95834 -147.71916 163.39537 303
63.57473 -149.97174 166.33568 305
99.14197 -117.53891 171.63106 315
66.86580 -148.68340 163.38739 411
64.48737 -150.92149 166.33614 305
99.82797 -118.32113 171.62236 315
68.77302 -148.56770 163.72324 412
65.42799 -151.87274 166.29590 305
100.52862 -119.04929 171.60472 315
70.69808 -148.51799 164.12112 413
66.40800 -152.82101 166.32787 305
102.11292 -119.16454 171.57721 316
72.60905 -148.47321 164.43298 414
67.35615 -153.75314 166.31151 305
81.02246 -141.74741 163.62759 307
74.47847 -148.40265 164.77257 416
68.29435 -154.69324 166.31595 305
81.79989 -142.72256 163.60358 307
76.33499 -148.32881 165.11076 417
69.21889 -155.58186 166.35030 305
82.60938 -143.65024 163.58498 307
78.15439 -148.26627 165.44536 418
70.15845 -156.50121 166.32979 305
83.40835 -144.60754 163.56566 307
79.99466 -148.15929 165.79048 419
71.15794 -157.44830 166.34218 305
84.18430 -145.48421 163.49318 307
81.76188 -148.09637 166.10977 420
85.01038 -146.44487 163.49901 307
83.45006 -148.09283 166.41792 309
85.81465 -147.37584 163.46478 307
84.39101 -148.88370 166.39354 309
86.97659 -147.92722 163.56172 422
85.30986 -149.74146 166.38683 309
88.65727 -147.85565 163.84389 423
86.22939 -150.57816 166.40160 309
90.33453 -147.79973 164.20869 424
87.13178 -151.37625 166.38585 309
91.99194 -147.69341 164.51358 425
88.09348 -152.14743 166.42052 309
93.61323 -147.66090 164.79065 426
89.03559 -152.97833 166.40565 309
95.23679 -147.60207 165.08826 427
89.95137 -153.74300 166.40681 309
96.86238 -147.54929 165.38924 418
90.93272 -154.55928 166.41275 309
98.51057 -147.33943 165.67654 419
91.90201 -155.32228 166.45567 309
100.17254 -147.19061 166.02084 420
92.82388 -156.11354 166.43869 309
101.81371 -147.05545 166.30804 421
102.99357 -147.38295 166.47960 314
103.91125 -148.09688 166.43704 314
104.82026 -148.77008 166.46065 314
105.74057 -149.51137 166.45776 314
106.64959 -150.22108 166.44952 314
107.56331 -150.91711 166.47574 314
108.48894 -151.60973 166.47807 314
109.42503 -152.28271 166.43842 314
110.32305 -152.98398 166.46399 314
111.28773 -153.61995 166.44711 314
112.23422 -154.33008 166.46483 314
120.00475 -149.00462 168.83778 489
120.82621 -149.68303 168.76910 489
124.24282 -148.43651 169.57916 439
125.64679 -148.35698 169.80031 440
127.00266 -148.23569 170.00520 441
127.72436 -149.05052 169.92284 395
-1034.46973 -3646.52539 1052.54858 1000
-277.74606 -1937.92737 87.08659 400
-264.69629 -1935.28711 87.21586 497
-266.05023 -1942.03479 119.97861 495
-267.88974 -1948.28894 152.49907 495
-254.21416 -1945.40540 87.00270 385
-5660.50391 -35152.55469 4340.26953 1000
-1023.72351 -33716.85938 6946.34082 1000
229.01645 -1447.14185 75.04810 406
229.21870 -1452.44958 98.31008 405
237.95251 -1441.41931 75.53017 490
237.99763 -1445.42786 98.90415 490
238.12669 -1449.51453 122.52833 489
238.03323 -1453.91382 145.90138 489
238.23083 -1457.75952 169.78888 487
246.79832 -1440.83704 75.64796 498
246.87338 -1444.86902 98.80756 482
246.94139 -1449.57605 122.23995 481
247.02287 -1454.84814 145.95880 450
247.21237 -1463.59790 169.45660 297
255.45633 -1444.37305 75.02353 442
255.79454 -1450.61084 98.58575 383
1661.89648 -9722.35645 1188.08618 1000
722.03748 -954.38794 92.98690 348
724.03473 -943.67657 93.84454 464
724.99048 -945.51227 111.20317 464
726.19684 -947.62433 128.94852 415
727.52942 -950.57568 146.24571 396
728.93518 -952.93988 163.92070 340
728.39050 -937.70453 94.12888 494
729.30695 -939.74945 111.78573 493
730.19781 -941.35217 129.15912 493
731.24652 -943.16101 146.70126 472
732.97345 -946.30627 164.07639 476
732.98804 -946.59503 181.61081 492
733.74469 -934.31891 94.35540 498
734.72552 -936.22791 111.72107 498
736.00439 -937.95593 129.22748 498
737.40619 -940.65619 146.44676 474
738.32428 -942.60724 163.97874 469
739.90729 -945.15167 181.43864 436
740.25867 -932.59296 94.03471 478
741.52667 -934.84857 111.36874 478
743.20453 -937.95630 128.94258 436
745.39502 -941.87323 146.21933 375
748.42688 -933.60077 93.37619 435
751.19012 -938.35565 110.84570 375
23239.39453 -37924.71875 -10050.91699 1000
30990.79297 -31528.69922 11306.61914 1000
368.88504 -108.10062 167.62265 313
369.52835 -107.18594 167.65213 313
370.13800 -106.21022 167.63600 313
370.76459 -105.29765 167.61311 315
371.40768 -104.33910 167.65279 315
371.98499 -103.43011 167.64351 315
372.62805 -102.45895 167.65501 315
373.21564 -101.54301 167.64198 315
373.83463 -100.56558 167.67476 315
374.38654 -99.62396 167.65771 315
374.99423 -98.64444 167.68481 315
30558.48438 -19235.32422 -8132.27832 1000
375.54956 -97.69094 167.68730 315
376.41580 -96.90482 167.58072 437
377.82474 -96.44443 167.31331 436
379.21860 -95.95196 167.09236 435
388.27780 -101.37051 167.67415 309
380.60678 -95.45950 166.81602 434
388.82355 -100.33833 167.67281 309
382.01340 -94.97537 166.56174 433
389.40659 -99.26974 167.69424 309
383.47385 -94.47364 166.30916 432
389.94891 -98.18950 167.69106 309
384.94272 -93.97243 166.02921 431
390.51111 -97.13123 167.70581 309
386.37680 -93.47942 165.73215 430
391.07690 -96.05964 167.71008 309
387.90204 -92.95980 165.45238 429
391.59317 -94.97438 167.73979 309
389.39563 -92.40364 165.18399 428
392.16690 -93.94217 167.74985 311
390.87051 -91.90422 164.86620 427
392.72009 -92.85600 167.71321 311
391.79138 -91.05144 164.74216 317
393.26086 -91.76693 167.73956 311
392.36572 -90.01357 164.74451 317
393.99835 -90.85142 167.68456 426
392.95264 -88.96423 164.73186 317
395.56906 -90.27557 167.37949 425
393.46323 -87.88580 164.76778 317
397.14798 -89.72021 167.12215 424
394.00299 -86.84032 164.71410 317
398.77615 -89.20434 166.81740 423
408.42081 -93.97291 167.71008 305
3288.19727 -1520.73254 1076.07776 1000
394.53513 -85.76138 164.73323 317
400.39490 -88.62083 166.50835 421
408.96051 -92.77991 167.73950 305
395.04700 -84.69238 164.75566 317
402.07074 -88.03245 166.15556 420
409.50177 -91.63517 167.73404 305
395.57138 -83.61898 164.70366 317
403.69272 -87.45742 165.86661 419
409.99579 -90.42660 167.76845 305
396.12445 -82.54145 164.69633 316
405.42770 -86.89082 165.51622 418
410.46118 -89.26411 167.77455 305
396.59677 -81.48448 164.71089 316
407.09702 -86.28259 165.20638 437
410.96729 -88.04457 167.78616 305
397.11273 -80.36493 164.72791 316
408.56046 -85.55753 164.95972 436
411.48755 -86.84105 167.81081 305
397.56525 -79.27880 164.70052 316
409.51096 -84.62373 164.84360 312
411.96054 -85.65218 167.78250 305
374.63892 -68.00191 171.55043 316
410.03955 -83.42872 164.82005 312
412.40646 -84.44752 167.83200 305
375.01999 -66.99860 171.54018 316
410.55655 -82.26436 164.82594 312
413.07846 -83.36442 167.74094 434
375.40314 -66.08730 171.54086 316
411.02319 -81.11553 164.84735 312
414.59479 -82.60182 167.48830 433
375.76437 -65.08500 171.54277 316
411.52948 -79.93640 164.81557 312
416.19485 -81.86572 167.21037 432
376.15417 -64.14367 171.55589 316
412.04410 -78.78114 164.82477 312
417.72284 -81.07732 166.98848 431
376.52737 -63.15525 171.56126 316
412.49420 -77.56467 164.84520 312
419.30109 -80.29065 166.70490 430
376.87372 -62.20640 171.57153 316
412.95575 -76.41921 164.83377 312
420.94305 -79.51279 166.38989 429
430.89761 -83.43657 167.78925 301
377.24045 -61.26397 171.57217 316
413.42575 -75.22508 164.79854 312
422.55377 -78.75658 166.10748 428
429.85480 -81.66267 167.84627 301
377.60046 -60.25967 171.60185 316
413.86899 -74.05592 164.79008 312
424.21100 -77.95073 165.81639 427
431.76920 -80.83107 167.79666 301
377.95764 -59.29275 171.59673 316
414.34378 -72.83949 164.77766 312
425.82419 -77.13158 165.53430 426
432.20013 -79.46840 167.83478 301
378.29047 -58.34741 171.58148 316
414.75342 -71.63393 164.82719 312
427.50720 -76.32121 165.20653 425
432.65286 -78.18770 167.83824 301
378.60925 -57.33531 171.59746 316
389.26611 -61.17171 171.69220 312
429.25211 -75.47022 164.90727 424
433.07834 -76.85213 167.83990 301
378.95993 -56.36070 171.61621 316
389.61264 -60.09695 171.68198 312
429.80988 -74.21439 164.87791 308
433.47498 -75.51140 167.87013 301
379.24719 -55.39402 171.60429 316
389.97650 -59.08370 171.69849 312
430.25812 -72.93160 164.90465 308
433.88696 -74.21101 167.88942 301
379.60175 -54.42387 171.58691 316
390.27612 -58.04418 171.68549 312
430.68387 -71.67873 164.88336 308
434.45285 -72.96365 167.86279 421
379.86835 -53.41110 171.61913 316
390.62100 -56.99176 171.71375 312
431.10858 -70.39733 164.85107 308
436.26575 -72.09029 167.51877 420
380.17603 -52.41932 171.58957 316
390.94797 -55.93031 171.70287 312
431.52216 -69.06498 164.86037 308
438.04013 -71.19209 167.19702 419
380.47119 -51.45549 171.62914 316
391.25537 -54.86967 171.72012 312
431.94366 -67.75803 164.86163 308
439.79044 -70.27840 166.88689 433
380.80090 -50.46486 171.59990 316
391.56635 -53.81496 171.71376 312
432.37375 -66.45863 164.88446 308
441.43002 -69.31502 166.65248 432
381.05899 -49.46848 171.62285 316
391.89603 -52.74158 171.69977 312
432.75125 -65.19746 164.89781 308
443.06818 -68.27979 166.32762 431
381.33554 -48.49971 171.59421 316
392.15771 -51.70845 171.71690 312
433.09045 -63.89000 164.87553 308
444.74619 -67.31490 166.05780 430
455.34833 -70.46674 167.86517 297
381.61401 -47.49180 171.60783 316
392.47791 -50.63998 171.73848 312
404.74896 -54.20853 171.82066 308
446.39874 -66.29921 165.82066 429
455.69269 -69.00386 167.88345 297
381.90503 -46.50804 171.62523 316
392.74985 -49.55558 171.70631 312
405.10248 -53.07937 171.85910 308
448.13498 -65.26717 165.51576 428
455.99686 -67.50294 167.87488 297
63363.13281 -17919.01562 -10604.85449 1000
267.46576 -13.69407 203.48886 288
393.04358 -48.50690 171.72267 312
405.36136 -51.95136 171.86922 309
449.83746 -64.28486 165.18648 427
456.36926 -66.03740 167.92052 297
267.48712 -13.38971 203.50195 314
393.29169 -47.43452 171.73074 312
405.69656 -50.79369 171.83366 309
451.22122 -63.11674 164.98712 303
456.68472 -64.57893 167.93329 297
898.62299 -184.11452 124.21237 1000
267.55145 -13.10553 203.50110 314
393.57248 -46.37629 171.74493 312
405.96494 -49.67263 171.85229 309
451.55493 -61.72325 164.99168 303
457.01749 -63.13032 167.91194 297
3647.15967 -904.43958 217.29483 491
3653.73193 -905.78174 275.05881 497
267.63361 -12.80982 203.50357 314
393.84512 -45.29810 171.72510 312
406.21045 -48.49870 171.87022 309
451.92300 -60.29189 164.99210 303
457.29834 -61.66210 167.95930 297
267.70227 -12.52763 203.51021 314
394.10522 -44.25800 171.72713 312
406.51413 -47.38007 171.85399 309
452.29468 -58.84665 164.94629 303
457.57993 -60.19096 167.96103 297
267.77225 -12.23533 203.50017 314
394.35245 -43.18002 171.76349 312
406.75015 -46.22163 171.86142 309
452.62003 -57.40943 164.97177 303
458.73657 -58.88441 167.77100 422
267.84024 -11.93718 203.49966 314
394.61279 -42.12503 171.75250 313
407.03781 -45.04882 171.87503 309
452.92743 -55.96840 164.97260 303
460.61319 -57.81480 167.52130 421
267.91171 -11.64998 203.50302 314
394.85208 -41.03260 171.76826 313
407.30139 -43.93167 171.84756 309
453.24475 -54.55566 164.96204 303
462.42020 -56.64006 167.16428 453
267.97424 -11.35371 203.49905 314
395.05133 -39.95167 171.76038 313
407.54941 -42.74799 171.88835 309
453.55649 -53.15092 165.00429 303
463.74750 -55.40067 167.01569 452
268.03162 -11.06838 203.50960 314
395.29068 -38.86635 171.75009 313
407.76822 -41.62139 171.85071 309
453.91675 -51.72113 164.98055 304
465.12167 -54.15660 166.80159 451
268.09601 -10.77583 203.50208 314
395.50751 -37.82021 171.75343 313
408.01343 -40.47172 171.88490 309
422.30365 -43.48700 172.01260 305
466.49359 -52.87661 166.51970 450
268.15482 -10.48090 203.49869 314
395.68686 -36.73754 171.76862 313
408.19992 -39.32742 171.87944 309
422.54990 -42.25467 172.01402 305
467.86884 -51.58200 166.35617 450
268.21292 -10.19139 203.50638 314
395.89191 -35.62603 171.75160 313
408.45978 -38.16346 171.85313 309
422.77408 -40.97819 171.99347 305
469.29666 -50.29454 166.12068 449
268.25861 -9.89150 203.50928 314
396.12509 -34.56459 171.77417 313
408.63763 -36.99418 171.90143 309
423.03519 -39.76327 172.02090 305
470.71536 -48.91707 165.90326 448
268.32306 -9.60043 203.50519 314
396.28192 -33.47434 171.77374 313
408.88055 -35.80674 171.89189 309
423.21896 -38.48794 171.99530 305
472.08743 -47.62923 165.67992 447
482.82043 -49.63772 168.01469 293
268.37207 -9.29946 203.50601 314
396.48416 -32.41838 171.74144 313
409.06757 -34.65151 171.85640 309
423.44928 -37.23519 172.04279 305
473.51883 -46.26540 165.38356 446
483.05579 -47.99102 168.06401 293
268.42609 -9.00394 203.50821 314
396.64999 -31.33747 171.75047 313
409.27063 -33.48969 171.90056 309
423.62427 -36.02473 171.99902 305
474.95496 -44.92651 165.19496 445
483.21008 -46.34083 168.07303 293
268.46793 -8.71668 203.50153 314
396.86267 -30.22317 171.78564 313
409.42337 -32.35498 171.86331 309
423.82367 -34.75895 172.02182 305
475.64374 -43.43185 165.07463 300
483.36719 -44.75662 168.05162 293
268.51651 -8.42313 203.50426 314
397.01620 -29.17447 171.78461 313
409.63333 -31.18842 171.88930 309
424.04056 -33.48302 172.00288 305
475.86053 -41.88610 165.11090 300
483.57236 -43.09314 168.06546 293
268.56580 -8.12230 203.50800 314
397.18674 -28.09059 171.77821 313
409.78842 -30.03777 171.87428 309
424.19882 -32.26369 172.04001 305
476.07590 -40.27528 165.08118 300
483.73727 -41.49068 168.08783 293
268.60376 -7.83135 203.49898 314
397.32822 -27.00245 171.74113 313
409.95078 -28.87152 171.89447 309
424.38925 -30.97336 172.05109 305
476.26776 -38.71098 165.13939 300
483.90134 -39.83736 168.11804 293
268.64899 -7.53130 203.50510 314
397.45520 -25.88642 171.73940 313
410.12354 -27.67738 171.89447 309
424.58621 -29.73390 172.00603 305
476.49261 -37.16224 165.14043 300
484.04169 -38.18694 168.08826 294
268.68622 -7.23110 203.50903 314
397.58676 -24.81458 171.74362 313
410.23999 -26.51251 171.90305 309
424.73947 -28.46615 172.02150 305
441.44650 -30.79130 172.16574 301
484.11374 -36.60583 168.15704 294
268.71863 -6.93386 203.50630 314
397.74966 -23.69941 171.74963 313
410.39005 -25.34488 171.91121 309
424.85684 -27.22045 172.00856 305
441.61758 -29.39138 172.16934 301
484.80270 -34.99766 168.07277 459
268.74991 -6.64830 203.50829 314
397.88327 -22.63232 171.79051 313
410.50748 -24.19950 171.91330 309
425.00400 -25.96821 172.01025 305
441.79462 -28.04317 172.20493 301
486.08752 -33.48421 167.83923 458
268.79031 -6.34875 203.50728 314
397.97296 -21.51320 171.74861 313
410.67413 -22.99291 171.89758 309
425.13339 -24.69775 172.05827 305
441.93552 -26.67286 172.20384 301
487.29575 -32.03666 167.64226 457
268.81949 -6.05381 203.49796 314
398.08621 -20.44047 171.79396 313
410.76166 -21.83846 171.92009 309
425.31265 -23.44432 172.01152 305
442.08398 -25.33725 172.21535 301
488.47250 -30.45765 167.49454 457
268.85681 -5.75027 203.49895 314
272.32816 -6.10869 203.47978 280
410.89401 -20.68831 171.88463 309
425.41751 -22.22230 172.00720 305
442.19919 -23.98712 172.22777 301
489.77954 -28.93589 167.27458 456
268.88354 -5.45748 203.49968 314
272.33878 -5.78931 203.48804 280
411.01813 -19.49785 171.92259 309
425.55209 -20.94924 172.05682 305
442.31607 -22.59442 172.16805 301
491.04144 -27.38603 167.06021 455
268.90179 -5.15790 203.50345 314
272.34866 -5.46754 203.49236 280
411.13657 -18.31287 171.88332 309
425.61536 -19.67844 172.02013 305
442.46332 -21.21901 172.22873 301
492.28638 -25.87054 166.83908 454
268.92825 -4.86370 203.49940 314
272.35266 -5.15903 203.49115 281
411.22482 -17.16179 171.88989 309
425.72821 -18.41514 172.01086 305
442.55447 -19.88544 172.23112 301
493.54327 -24.25270 166.66594 453
268.95639 -4.55751 203.49994 314
272.34534 -4.83658 203.50519 281
411.29614 -15.98290 171.89705 309
425.85516 -17.14144 172.06075 305
442.64127 -18.49077 172.20171 301
494.84778 -22.66502 166.48798 452
268.98019 -4.25657 203.50418 314
272.36420 -4.51371 203.50333 310
411.39969 -14.79712 171.89934 309
425.93112 -15.87788 172.05521 305
442.76688 -17.15216 172.20486 301
496.16855 -21.12140 166.23270 452
268.99127 -3.95902 203.50179 314
272.37891 -4.18762 203.50790 310
411.47351 -13.66799 171.88237 309
426.00992 -14.65097 172.02025 305
442.83008 -15.76691 172.23436 301
497.05060 -19.48338 166.12083 483
269.01093 -3.66426 203.49797 314
272.39981 -3.87923 203.50670 310
411.52161 -12.47509 171.89229 309
426.08792 -13.37706 172.06731 305
442.92599 -14.38299 172.17693 301
462.56851 -15.61559 172.40483 297
269.02783 -3.36911 203.50418 314
272.41885 -3.55922 203.50040 310
411.58240 -11.30484 171.90251 309
426.14664 -12.13273 172.03139 305
442.98688 -13.02395 172.21596 301
462.66501 -14.14601 172.40924 297
269.03760 -3.06611 203.49951 314
272.43396 -3.24352 203.50394 310
411.66373 -10.12653 171.88533 309
426.20786 -10.87406 172.02615 305
443.02213 -11.66848 172.20367 301
462.72891 -12.66969 172.36363 297
269.04877 -2.77070 203.50049 314
272.44870 -2.91621 203.50456 310
411.67438 -8.97860 171.91045 309
426.24902 -9.57377 172.02457 305
443.09314 -10.30953 172.21510 301
462.78348 -11.16566 172.42116 297
269.06848 -2.47873 203.50362 314
272.45871 -2.60093 203.50369 310
411.74518 -7.80608 171.90323 309
426.26813 -8.32445 172.06609 305
443.15292 -8.94089 172.22772 301
462.80621 -9.64642 172.36868 297
269.07019 -2.16951 203.50879 314
272.46899 -2.27360 203.50665 310
411.77438 -6.60045 171.89516 309
426.31085 -7.03279 172.06781 305
443.20135 -7.59653 172.19264 301
462.87619 -8.20529 172.39838 297
269.07413 -1.87587 203.50717 314
272.47629 -1.96477 203.49751 310
411.80710 -5.44558 171.91017 309
426.34677 -5.80305 172.05005 305
443.19653 -6.22235 172.19019 301
462.92993 -6.71964 172.36906 297
269.08203 -1.58293 203.50041 314
272.47946 -1.64490 203.50078 310
411.78436 -4.25308 171.92056 309
426.40100 -4.54849 172.01480 305
443.21341 -4.84942 172.19934 301
462.92398 -5.22755 172.42171 297
269.09125 -1.27823 203.50414 314
272.48065 -1.32564 203.49783 310
411.83475 -3.07912 171.89966 309
426.37164 -3.27866 172.05534 305
443.25690 -3.44606 172.20381 301
462.96719 -3.70855 172.38525 297
512.59802 -4.37091 168.28033 288
269.09195 -0.98181 203.50351 314
272.48022 -1.00867 203.50490 310
411.81506 -1.91404 171.92270 309
426.38379 -2.01922 172.05922 305
443.23303 -2.12641 172.21864 301
451.76569 -2.18196 174.43071 425
512.52612 -2.56523 168.30789 288
63700.44531 -397.97479 1248.74487 1000
269.08752 -0.68392 203.50273 314
272.47391 -0.68119 203.49774 310
411.82645 -0.75221 171.90276 309
426.41135 -0.74285 172.03183 305
443.24490 -0.75894 172.20804 301
462.93845 -0.72801 172.40126 297
512.47174 -0.72991 168.33047 288
269.08792 -0.38816 203.50470 314
272.48090 -0.36035 203.50780 310
411.80847 0.45223 171.92290 309
426.37155 0.53970 172.02501 305
443.24011 0.64174 172.20354 301
452.37604 0.70333 174.28798 425
512.47168 1.02967 168.29987 288
269.07858 -0.08821 203.50739 314
272.47241 -0.04443 203.50406 310
411.81036 1.61023 171.90234 309
426.39810 1.79874 172.02690 305
443.21136 1.97118 172.18755 301
451.96774 2.07184 174.36145 422
512.49249 2.86231 168.24931 288
269.06924 0.21694 203.50462 314
272.46762 0.26814 203.50523 310
411.76038 2.81151 171.91786 309
426.33792 3.04290 172.03954 305
443.18918 3.35196 172.18420 301
462.88538 3.70988 172.40227 297
269.06454 0.51186 203.50986 314
272.44995 0.58834 203.50143 310
411.73380 3.95266 171.89732 309
426.31577 4.29328 172.05588 305
443.15646 4.70892 172.21231 301
462.83035 5.17877 172.41360 297
269.06168 0.80314 203.50197 314
272.44794 0.91612 203.49889 310
411.72247 5.12384 171.92087 309
426.26431 5.56514 172.03134 305
443.11746 6.08498 172.19989 301
462.81335 6.70088 172.39427 297
269.04190 1.10161 203.50578 314
272.43619 1.23291 203.49997 310
411.70328 6.31159 171.87975 309
426.25964 6.84601 172.01253 305
443.05899 7.48862 172.21552 301
462.73755 8.17964 172.41289 297
269.02820 1.40440 203.50543 314
272.41989 1.54699 203.50711 310
411.61060 7.49024 171.89066 309
426.19211 8.09623 172.01117 305
443.02097 8.84551 172.17447 301
462.72742 9.68673 172.38449 297
269.01392 1.70461 203.50700 314
272.40353 1.86702 203.50111 310
411.58997 8.65042 171.91270 309
426.15021 9.35836 172.00710 305
442.97672 10.16298 172.22333 301
462.63144 11.18538 172.41539 297
268.99271 2.00665 203.49960 314
272.39087 2.18569 203.50134 310
411.53497 9.81526 171.88469 309
426.08990 10.60901 172.00668 305
442.86740 11.56784 172.21417 301
462.53891 12.66486 172.40587 297
268.97485 2.29479 203.49730 314
272.36630 2.50554 203.50644 310
411.43948 10.98438 171.86810 309
426.00473 11.89395 172.04781 305
442.76727 12.91307 172.18999 301
462.43607 14.10553 172.35681 297
268.95724 2.59588 203.49783 314
272.33911 2.82588 203.50226 310
411.35074 12.19631 171.90202 309
425.89810 13.18173 172.02444 305
442.72308 14.29067 172.19376 301
462.34540 15.61871 172.35973 297
268.94046 2.89853 203.50713 314
272.31113 3.13774 203.50246 310
411.30215 13.34339 171.88193 309
425.79575 14.41200 172.04922 305
442.63678 15.66913 172.19536 301
496.69400 19.63564 166.10501 483
268.90939 3.18661 203.50937 314
272.29529 3.46797 203.49733 310
411.20468 14.53348 171.89598 309
425.72433 15.68995 172.02577 305
442.49661 17.03716 172.22069 301
495.44400 21.20274 166.29248 452
4933.89355 376.08640 293.17929 434
268.88361 3.49366 203.49994 314
272.26004 3.77529 203.50403 310
411.09784 15.67528 171.88141 309
425.58887 16.92337 172.01630 305
442.38403 18.34749 172.16333 301
494.14682 22.80903 166.53189 453
4915.76465 402.67365 293.34000 470
268.86063 3.78566 203.49756 314
272.23676 4.09162 203.50174 310
410.99448 16.84773 171.89000 309
425.47852 18.17690 172.04768 305
442.27710 19.73040 172.19157 301
492.86844 24.40104 166.71667 454
4900.13281 430.77280 292.88678 456
268.82410 4.07903 203.49907 314
272.19974 4.41160 203.50356 310
410.87079 18.02711 171.88591 309
425.37161 19.46528 172.02917 305
442.14090 21.10439 172.16074 301
491.63672 25.93335 166.91698 455
4888.57861 457.96069 292.92209 460
21188.56836 2064.42969 2986.31177 1000
268.79938 4.38027 203.50946 314
272.17050 4.72789 203.50900 310
410.74326 19.17575 171.86452 309
425.24481 20.70440 172.04608 305
441.99020 22.49092 172.19804 301
490.37332 27.54673 167.09138 456
4877.73242 486.42096 292.31525 458
268.76630 4.68171 203.49814 314
272.13708 5.04328 203.50758 310
410.66440 20.34768 171.88622 309
425.11514 21.99327 172.03189 305
441.84726 23.85166 172.15887 301
489.13242 29.05721 167.29271 457
4871.54297 515.20782 292.07291 389
268.72888 4.96527 203.50702 314
272.09399 5.36873 203.51031 310
410.52719 21.52310 171.88452 309
424.97101 23.23420 171.99510 305
441.74362 25.17045 172.17790 301
487.85553 30.55538 167.50262 457
4866.05518 542.60315 292.41846 387
268.68781 5.26892 203.49756 314
272.05573 5.68444 203.50470 310
410.37332 22.69205 171.90349 309
424.85483 24.46048 172.00620 305
441.57529 26.54545 172.19635 301
486.64444 32.12000 167.69864 458
4861.52881 571.42780 291.49133 387
268.64963 5.56082 203.50035 314
272.00839 6.00270 203.50124 310
410.22418 23.87759 171.87840 309
424.68594 25.71059 172.04340 305
441.39267 27.87098 172.18542 301
485.44766 33.56559 167.89847 459
4864.47461 600.71460 291.67624 293
268.61710 5.86236 203.50417 314
271.97037 6.30915 203.50085 310
410.08701 25.03791 171.89891 309
424.51801 27.00662 172.00554 305
441.18484 29.25420 172.15166 301
484.21466 35.08558 168.04189 460
4865.04688 628.99298 292.00790 450
268.57474 6.15405 203.50542 314
271.96600 6.64340 203.48859 282
409.90140 26.19740 171.85036 309
424.34583 28.25989 171.99648 305
441.00729 30.59472 172.19588 301
483.62689 36.65107 168.07800 294
4904.01172 663.75623 293.58859 499
268.52051 6.44641 203.50334 314
397.18372 25.47728 171.75331 313
409.73914 27.32813 171.88702 309
424.20093 29.50193 171.98271 305
475.99591 37.15106 165.07912 300
483.53885 38.24755 168.11850 293
4902.23486 693.56940 293.45605 499
268.47711 6.74112 203.50116 314
396.99002 26.59464 171.73103 313
409.60571 28.50441 171.86801 309
423.98254 30.76152 172.03120 305
475.74799 38.72978 165.07602 300
483.31232 39.93595 168.05858 293
268.43607 7.03312 203.49925 314
396.83694 27.67988 171.76027 313
409.39532 29.68923 171.87152 309
423.82104 31.97423 172.02026 305
475.57053 40.29629 165.08775 300
483.20126 41.55194 168.02831 293
4902.56250 751.63281 293.40790 498
268.38690 7.33515 203.50684 314
396.67194 28.71275 171.76077 313
409.22632 30.85143 171.88918 309
423.58276 33.21598 172.02934 305
475.28223 41.84100 165.09929 300
482.94583 43.13797 168.04323 293
4895.55322 780.09314 292.44312 498
268.32761 7.63110 203.49785 314
396.46960 29.83816 171.76218 313
409.04614 31.97669 171.84821 309
423.41891 34.50390 172.02895 305
475.05432 43.47042 165.10754 300
482.74649 44.78631 167.99380 293
268.27988 7.92504 203.50981 314
396.29895 30.88373 171.72522 313
408.81085 33.17595 171.84450 309
423.18716 35.71318 172.02075 305
474.31317 44.91515 165.19301 446
482.56125 46.36969 168.05060 293
268.22372 8.21581 203.50175 314
396.08554 31.98651 171.73964 313
408.63785 34.32605 171.85083 309
422.94962 36.99104 172.01631 305
472.88928 46.26744 165.41093 447
482.37296 48.04040 168.03539 293
4997.58643 887.94836 295.19403 419
268.16211 8.49885 203.50548 314
395.89835 33.05450 171.71718 313
408.40036 35.47128 171.87173 309
422.70905 38.21150 171.97296 305
471.44666 47.62025 165.62173 448
4854.94287 890.94879 292.14398 497
268.10544 8.79587 203.50726 314
395.71362 34.15839 171.74210 313
408.17343 36.63074 171.82988 309
422.48087 39.46606 171.97340 305
470.02139 48.88999 165.85663 449
4868.27637 924.09064 292.95926 497
268.04565 9.09287 203.50005 314
395.47891 35.20119 171.73605 313
407.95090 37.79475 171.82625 309
422.27280 40.73024 171.99576 305
468.61322 50.24466 166.10681 450
267.98605 9.37989 203.50899 314
395.28720 36.28181 171.71205 313
407.74863 38.91865 171.87172 309
422.02914 41.93895 171.96744 305
467.27600 51.52244 166.26643 451
267.91440 9.67451 203.50204 314
395.02408 37.34717 171.70781 313
407.48087 40.09643 171.86696 309
421.75781 43.19603 171.97867 305
465.88458 52.77890 166.48625 451
267.84882 9.96825 203.50052 314
394.79486 38.44600 171.72096 313
407.24582 41.20861 171.86090 309
453.23126 51.52167 164.97971 303
464.51233 54.05282 166.71703 452
267.78922 10.25584 203.50055 314
394.59036 39.48711 171.71112 313
406.98965 42.38203 171.86528 309
452.88086 52.95969 164.94754 303
463.13980 55.30898 166.94930 453
267.71677 10.54116 203.50397 314
394.35620 40.56910 171.70854 313
406.76459 43.52512 171.81981 309
452.59094 54.38665 164.95738 303
461.65225 56.54331 167.13866 421
267.65140 10.83252 203.49844 314
394.09769 41.63266 171.70366 313
406.50162 44.66401 171.85510 309
452.24908 55.81974 164.93219 303
459.75830 57.64875 167.49629 422
267.57739 11.12309 203.50967 314
393.84210 42.70350 171.70270 313
406.18423 45.78468 171.83006 309
451.85733 57.20350 164.94089 303
457.98239 58.72654 167.78745 423
267.50226 11.41255 203.50314 314
393.55185 43.75883 171.73427 313
405.92462 46.93500 171.84190 309
451.54477 58.63151 164.92479 303
456.75311 59.98453 167.90477 298
267.42337 11.69580 203.50891 314
393.32739 44.84914 171.70174 313
405.66544 48.09004 171.82080 309
451.18161 60.10684 164.92572 303
456.47635 61.49620 167.94234 298
267.34561 11.98345 203.50574 314
393.02002 45.92091 171.72939 313
405.34555 49.21511 171.83234 309
450.74512 61.49508 164.96367 303
456.09998 62.96805 167.91006 298
267.25998 12.27323 203.50546 314
392.75848 46.94069 171.71449 313
405.02191 50.38773 171.84029 309
450.42111 62.87835 164.95810 303
455.81854 64.37845 167.87779 297
267.18658 12.55746 203.50810 314
392.47528 48.01037 171.71240 313
404.76288 51.50583 171.81587 309
449.08334 64.04667 165.12718 428
455.46933 65.83369 167.86452 297
267.10504 12.84922 203.50301 314
392.17731 49.08967 171.67680 313
404.43097 52.61400 171.79480 309
447.38254 65.06701 165.44431 429
455.12961 67.32140 167.89249 297
267.01733 13.12806 203.50121 314
391.89456 50.13784 171.67377 313
404.13477 53.75699 171.79817 309
445.70712 66.09225 165.73935 430
454.75879 68.79023 167.88426 297
266.93494 13.41645 203.50169 314
391.58331 51.18320 171.68907 313
432.30643 63.54804 164.86064 308
444.06973 67.10368 166.00272 431
454.33887 70.21297 167.84277 297
266.83591 13.69918 203.50533 314
391.27963 52.25076 171.70924 313
431.97858 64.84126 164.82831 308
442.44061 68.08290 166.24876 432
266.75644 13.98730 203.49870 314
390.95499 53.31406 171.67792 313
431.54721 66.13803 164.80582 308
440.75146 69.08578 166.52805 433
266.66220 14.26547 203.50752 314
390.61090 54.31901 171.69908 313
431.13660 67.44493 164.84610 308
439.16827 70.01537 166.83139 419
266.64285 14.58096 203.47855 288
390.26526 55.38115 171.65485 313
430.70026 68.69788 164.83633 308
437.31436 70.93806 167.14275 420
379.27988 52.81290 171.55489 316
389.94577 56.45398 171.69005 313
430.26773 70.00264 164.83543 308
435.56964 71.77523 167.45853 421
378.96899 53.80301 171.58345 316
389.59305 57.46889 171.66199 313
429.81796 71.31784 164.87788 308
433.76660 72.68150 167.74475 422
378.62665 54.77440 171.55235 316
389.27713 58.49971 171.64740 313
429.33844 72.59566 164.83519 308
432.91699 73.79761 167.82722 301
378.28271 55.74998 171.56265 316
388.92896 59.55725 171.66008 313
428.89563 73.87660 164.83577 308
432.51987 75.13182 167.84694 301
377.95944 56.75189 171.53923 316
388.54156 60.60764 171.65485 313
428.36642 75.09329 164.84253 308
432.06177 76.47199 167.82602 301
377.61847 57.71238 171.57681 316
388.19095 61.63274 171.63914 313
426.87195 76.00898 165.10451 426
431.63217 77.76521 167.78720 301
377.25693 58.68985 171.53844 316
413.45563 72.37331 164.78925 312
425.23538 76.80676 165.39490 427
431.18906 79.09792 167.76756 301
376.91888 59.61304 171.54951 316
413.03473 73.56357 164.74248 312
423.59637 77.65359 165.68594 428
430.76031 80.40937 167.75328 301
376.54333 60.61617 171.55241 316
412.55695 74.70803 164.75851 312
421.93500 78.42844 166.00468 429
430.27625 81.72349 167.73988 301
376.17715 61.55321 171.51793 316
412.08121 75.93272 164.79431 312
420.37344 79.20088 166.25154 430
429.82373 83.03175 167.78728 301
375.81549 62.53852 171.55109 316
411.60147 77.05618 164.79802 312
418.73453 79.99399 166.52376 431
375.40887 63.47873 171.55258 316
411.06845 78.24890 164.75972 312
417.17914 80.76932 166.82985 432
375.03101 64.42250 171.51308 316
410.59583 79.41078 164.77119 312
415.63565 81.51513 167.05664 433
374.66891 65.36398 171.54121 316
410.09317 80.59840 164.79262 312
414.06601 82.30090 167.34227 434
374.26062 66.34323 171.53934 316
409.56241 81.75753 164.78998 312
412.53864 83.05250 167.60495 435
373.87177 67.27607 171.53687 316
409.06921 82.85840 164.78271 312
411.39380 83.92554 167.79135 305
373.46820 68.22839 171.53297 316
408.56000 84.05881 164.77754 312
410.86633 85.06599 167.77045 305
396.18506 79.77343 164.68584 317
407.98633 85.20801 164.79750 312
410.37134 86.26418 167.76653 305
395.69049 80.85283 164.64473 317
406.54782 85.89008 165.04062 418
409.90881 87.46987 167.77074 305
395.18472 81.92203 164.67018 317
404.85645 86.47495 165.36441 419
409.34677 88.61838 167.73451 305
394.68521 82.97846 164.69920 317
403.18570 87.09412 165.71198 420
408.85120 89.82231 167.74185 305
394.12701 84.02589 164.70428 317
401.50513 87.64747 165.98083 422
408.36252 91.00023 167.70241 305
393.60971 85.11691 164.66684 317
399.88940 88.19833 166.31541 423
407.83032 92.18456 167.71638 305
393.02109 86.15326 164.71002 317
398.23767 88.78893 166.58777 424
407.29950 93.34447 167.71634 305
392.49460 87.23524 164.68015 317
396.66016 89.33579 166.88980 425
391.93713 88.24931 164.67741 317
395.05664 89.91130 167.19385 426
391.35184 89.32076 164.71236 317
393.49295 90.40811 167.47343 427
390.78094 90.32254 164.68285 317
392.16727 91.04778 167.70320 311
3795.97266 1910.43103 215.26469 453
390.21622 91.36163 164.68608 317
391.61731 92.10918 167.67886 311
3788.66577 1933.92896 215.73991 388
388.91180 91.99887 164.91624 429
391.07089 93.20485 167.66829 311
387.44916 92.52940 165.21210 430
390.50543 94.22090 167.71138 311
385.94724 93.03546 165.51518 431
389.93216 95.27995 167.68594 309
47519.89062 26783.34180 -12475.43848 1000
384.51413 93.55843 165.78400 432
389.34283 96.35383 167.67284 309
383.03699 94.05078 166.05083 433
388.82047 97.42735 167.66237 309
381.62863 94.56300 166.30905 434
388.24460 98.47860 167.66940 309
380.22205 95.03085 166.54092 435
387.66757 99.51110 167.64606 309
378.83362 95.55376 166.81085 436
387.03873 100.52265 167.62904 309
377.44104 96.00298 167.08186 437
376.08786 96.49681 167.24309 438
374.70911 96.96595 167.53586 439
373.87476 97.76072 167.62708 315
373.29126 98.72836 167.61650 315
372.71097 99.64995 167.61736 315
372.08102 100.60895 167.57478 315
371.46310 101.54688 167.61487 315
370.84680 102.46539 167.56738 315
370.22974 103.42368 167.58627 315
369.60425 104.34505 167.58385 315
368.97125 105.26012 167.55679 315
368.31097 106.19556 167.57253 315
367.69452 107.12390 167.58955 313
367.03897 108.04565 167.56161 313
44026.86719 33330.36719 13035.29395 1000
4818.14600 4947.07129 325.47626 416
4761.71143 4948.47510 326.03641 416
4706.73730 4949.39307 324.18210 417
4652.39404 4949.01855 323.81488 418
4613.96143 4968.22559 323.77505 490
3579.86157 3846.32764 215.79221 479
4607.11865 5021.12207 325.38654 416
3265.35571 4940.74268 216.55093 396
774.18829 1035.16772 98.45818 485
774.42340 1035.36670 117.75883 449
774.60461 1035.89343 137.00359 450
775.15308 1036.21143 156.42824 394
775.23248 1037.24524 175.59224 394
776.06335 1038.59229 194.77631 324
768.38971 1039.53345 98.36475 397
768.33972 1039.04480 118.00296 452
768.16168 1038.39319 137.25320 452
767.77509 1038.16882 156.65714 487
767.60834 1038.04541 175.91081 488
767.57587 1037.84216 195.01221 488
767.65521 1037.66772 214.15869 499
767.35565 1037.53650 233.44205 499
767.30341 1037.78076 252.61125 499
767.63483 1037.57178 271.93518 486
767.50568 1037.73413 291.21115 486
767.77594 1037.90125 310.51511 486
767.65710 1038.46106 329.85025 449
763.06671 1044.62012 272.13983 327
762.40729 1043.58838 291.14642 397
761.85425 1042.79810 310.49402 397
761.64178 1041.96130 329.81799 452
3099.62231 5894.56934 204.63165 321
3039.56030 5862.48828 204.48863 382
2986.62866 5844.51709 204.04640 446
2937.68677 5834.04443 203.67967 447
2891.30103 5824.11572 204.44766 452
2846.47656 5822.64453 204.83339 466
2802.02734 5817.43701 204.94028 374
2817.67944 5855.74756 310.10544 479
2867.98462 5967.31055 417.24811 479
2758.12085 5815.43896 205.08340 473
2776.48071 5856.77490 309.04904 480
2714.34863 5813.65527 204.31941 477
2731.16797 5852.47412 309.65421 480
2671.91089 5811.39746 204.09175 480
2688.14990 5852.88623 308.42438 481
2630.29468 5812.04199 204.67000 480
2649.60449 5859.12305 309.21091 482
2589.02979 5812.58496 204.58002 481
2607.95239 5858.23438 308.16321 482
2547.73999 5813.54932 205.34177 481
2565.11841 5858.82910 308.59085 483
2619.59277 5994.71094 416.76144 466
2506.19727 5814.59668 204.25334 482
2544.41333 5909.80029 309.07892 338
2546.94336 5920.98486 412.11588 338
2465.86426 5814.23291 205.88062 483
2544.16748 6019.50977 310.13480 337
2514.56250 5940.08936 412.39890 462
1400.14038 3111.11011 155.70247 292
1470.57788 3296.22046 209.74503 467
2534.55518 6104.30078 310.91403 417
2472.86499 5941.73779 412.51804 492
1354.81348 3049.20386 157.36327 490
1448.16736 3298.94995 209.49406 469
1339.20203 3064.20435 157.33235 435
1425.53137 3301.43481 210.03412 469
1327.48022 3090.27319 156.61244 296
1403.91553 3302.79541 210.06136 469
1314.71643 3116.08228 156.13054 390
1381.19568 3305.34863 210.48398 470
2322.73462 5987.06348 308.51968 448
1303.16663 3144.41479 156.06213 383
1358.73279 3306.89087 209.98933 470
1292.11877 3173.81909 155.77487 382
1336.62415 3307.94775 209.67856 472
1280.17126 3203.47046 155.47447 375
1315.21692 3310.59424 209.84085 471
1268.94983 3237.74609 154.13432 361
1293.62366 3312.70874 210.42990 471
1259.40137 3276.73462 153.79263 343
1272.53906 3317.00366 209.73003 449
1251.58337 3322.76929 153.34203 338
1256.09192 3335.77783 210.36765 459
1249.50146 3388.15332 152.56192 298
1253.38477 3400.34082 209.54362 306
2074.75537 6104.55664 308.69913 422
1259.34302 3498.70825 150.32236 298
1322.26331 3709.82959 209.31425 472
1268.60669 3608.58936 147.98817 293
1273.88452 3629.41821 210.04427 297
1280.09912 3735.90625 145.83766 295
258.77277 1542.84863 87.63424 473
258.77313 1542.02808 112.68273 496
258.73880 1541.25208 138.45909 496
258.78329 1540.28186 163.75446 495
258.77820 1539.86035 188.88873 495
258.47321 1539.55872 214.02991 495
258.54358 1539.34033 239.41957 470
258.61194 1539.08789 264.39481 470
258.54956 1539.21814 289.79987 422
258.78305 1539.49036 315.10770 357
249.27596 1542.10339 264.40805 367
249.08678 1539.95947 289.65262 429
249.27119 1538.71680 314.81140 429
-166.17398 2009.87354 247.30043 1000
-238.09003 2044.29541 76.62355 491
-238.42958 2044.22205 110.98629 492
-238.23915 2044.02734 145.01683 492
-238.25656 2043.46106 179.71445 492
-238.09483 2043.30151 213.97711 492
-237.91585 2043.60693 247.95230 492
-237.97850 2043.22607 282.11411 461
-2976.68604 11564.07715 2182.74927 1000
-8892.16797 24078.33008 3150.57275 1000
-2808.06909 6303.53516 -827.66608 1000
124.58473 148.77170 168.79236 489
120.43404 149.04243 168.15666 489
118.00910 150.71115 167.39397 316
117.08452 150.02896 167.40504 316
116.19101 149.39012 167.40161 316
115.23869 148.73131 167.42380 316
112.07324 151.26974 166.39896 314
111.15256 150.60872 166.38028 314
110.22100 149.92526 166.41725 314
109.30954 149.23094 166.39197 314
108.38439 148.57574 166.39914 314
107.45773 147.87137 166.41647 314
106.55251 147.20712 166.40024 314
105.64304 146.47554 166.36885 314
-11828.26660 15444.62598 2457.22607 1000
104.12202 146.54613 166.11363 423
96.65393 155.99121 166.39548 310
102.53176 146.71193 165.80791 422
95.64754 155.27789 166.37569 310
100.90441 146.86093 165.50157 421
94.69006 154.49051 166.35703 310
99.22223 147.02934 165.22270 420
93.76460 153.75244 166.37198 310
97.56365 147.20894 164.89088 419
92.79549 152.96117 166.34346 310
95.92407 147.33131 164.57437 428
91.79469 152.22359 166.35864 310
94.32117 147.41171 164.30316 427
90.86320 151.41483 166.34491 310
92.70448 147.45059 164.02905 426
89.90697 150.66748 166.36932 310
91.01651 147.50719 163.70920 425
88.99265 149.86110 166.36986 310
89.36475 147.57545 163.37962 424
88.05070 149.06728 166.34456 310
88.49968 146.70793 163.38762 307
87.11539 148.29964 166.31888 310
87.66875 145.85977 163.42699 307
85.95686 147.68471 166.27495 423
86.80911 144.94351 163.44611 307
84.23722 147.80423 165.95659 422
86.01431 144.06522 163.50137 307
82.47508 147.82318 165.67281 421
74.05046 156.90227 166.24191 305
85.18514 143.15004 163.53539 307
80.68594 147.90685 165.34296 420
73.12489 155.99886 166.27315 305
84.37228 142.25186 163.54701 307
78.90271 148.00232 165.01353 419
72.11582 155.10991 166.27849 305
83.60126 141.30302 163.61565 307
77.10060 148.03929 164.68390 417
71.18472 154.21864 166.27953 306
103.34402 119.31647 171.52357 316
75.26562 148.14929 164.37004 416
70.21491 153.32349 166.29639 306
102.63569 118.59591 171.54782 316
73.34473 148.21564 164.00926 415
69.22174 152.38759 166.28848 306
101.89468 117.84507 171.52052 316
71.49865 148.28935 163.65067 414
68.28820 151.47246 166.26268 306
101.17326 117.09261 171.55727 316
69.58328 148.32649 163.31851 413
67.30580 150.54184 166.26715 306
100.46448 116.34348 171.54147 316
68.66921 147.42628 163.30379 304
66.37329 149.62338 166.25090 306
99.78247 115.62391 171.55235 316
67.86474 146.39093 163.34241 304
65.46847 148.71063 166.24956 306
99.08245 114.83984 171.56032 316
67.03661 145.35823 163.37369 304
63.67174 148.54765 165.94028 410
98.36426 114.08586 171.56642 316
66.25605 144.29305 163.45967 304
61.62972 148.62589 165.59502 409
97.70237 113.32571 171.56158 316
89.31963 121.05939 171.62614 312
59.59649 148.70589 165.25430 408
-41.72655 38.76023 -12.32689 301
96.99090 112.56953 171.55949 316
88.59420 120.27705 171.64682 312
57.47110 148.81419 164.91272 407
48.84746 156.71651 166.15875 301
96.30758 111.81087 171.59624 316
87.90051 119.41619 171.66663 312
55.40521 148.88428 164.53569 406
47.91997 155.67577 166.16081 301
95.65447 111.03424 171.60197 316
87.18251 118.60088 171.64888 312
53.25632 149.00418 164.13380 405
46.93089 154.63577 166.18391 301
94.95233 110.25313 171.58661 316
86.45208 117.75259 171.69348 312
51.05434 149.05797 163.74075 404
45.98780 153.53264 166.17296 301
94.29546 109.45978 171.61552 316
85.74792 116.95253 171.65633 312
48.82740 149.12602 163.32646 402
45.04105 152.47243 166.17926 301
93.61865 108.65331 171.61267 316
85.03595 116.09329 171.68018 312
47.56732 148.42015 163.20679 300
44.10299 151.40714 166.13515 302
92.98965 107.87052 171.62946 316
84.30035 115.22980 171.68091 312
46.73906 147.21634 163.27696 300
43.11769 150.38457 166.12279 302
92.31064 107.09203 171.62851 316
83.63434 114.39739 171.71001 312
46.02031 146.05246 163.32574 300
42.02602 149.40701 166.09499 399
91.69164 106.30228 171.61617 316
82.90782 113.54676 171.69606 312
73.01019 121.78464 171.77870 308
39.63084 149.53853 165.67145 398
91.00729 105.46061 171.61925 316
82.25957 112.66527 171.72580 312
72.28545 120.89722 171.79428 308
37.27839 149.62598 165.31746 397
90.39375 104.65650 171.65976 316
81.57822 111.80657 171.70680 312
71.52117 119.95553 171.79817 308
34.80783 149.67494 164.89633 396
23.42130 158.93446 166.04219 297
89.73041 103.85957 171.64801 316
80.90319 110.96027 171.71283 312
70.82463 119.03273 171.77649 308
32.37598 149.82225 164.43732 395
22.45463 157.75203 166.03540 297
89.10631 103.03468 171.64284 316
80.22884 110.07922 171.73099 312
70.06427 118.07756 171.81622 308
29.84325 149.89978 164.01163 393
21.47951 156.51682 166.05959 297
88.49448 102.23331 171.67581 316
79.52392 109.21532 171.72226 312
69.38609 117.16312 171.81413 308
27.34057 149.98819 163.54073 392
20.53925 155.31160 166.04959 295
87.89009 101.42065 171.65894 316
78.88831 108.34176 171.71930 312
68.66667 116.21419 171.84200 308
24.74420 150.07071 163.13632 391
19.48625 154.05910 166.04880 295
87.24728 100.59772 171.66658 316
78.23965 107.46828 171.72377 312
67.97118 115.26572 171.81236 308
23.88162 148.82216 163.15013 296
18.52720 152.88281 165.98337 295
86.64034 99.77219 171.66618 316
77.59911 106.56339 171.75592 312
67.26038 114.30000 171.82681 308
55.46049 123.16508 171.91766 304
17.52206 151.68161 165.99409 295
86.04700 98.91473 171.69510 316
76.92532 105.68575 171.75551 312
66.55285 113.38951 171.83559 308
54.72006 122.18610 171.94604 304
16.58401 150.43266 165.97101 295
85.46693 98.09254 171.66667 316
76.30305 104.81068 171.75311 312
65.88874 112.38457 171.86906 308
53.99394 121.15556 171.91855 304
13.98149 150.42352 165.61505 389
84.85832 97.27126 171.69504 316
75.67108 103.87567 171.77022 312
65.19250 111.42294 171.85631 308
