# .PCD v.7 - Point Cloud Data file format
VERSION .7
FIELDS x y z rgb
SIZE 4 4 4 4
TYPE F F F U
COUNT 1 1 1 1
WIDTH 1371
HEIGHT 1
VIEWPOINT 6609.260742 47.505440 144.307983 -0.623442 -0.100620 -0.081999 0.771020
POINTS 1371
DATA ascii
1846.76660 353.02054 134.80714 478
1883.64746 361.27585 160.83844 497
1889.81409 362.60916 188.52678 498
1890.01050 362.58081 216.49702 498
1889.98621 362.77271 244.62796 498
1889.47217 362.29544 272.09567 498
1898.71008 364.62357 300.75195 418
1968.74243 379.77066 333.55142 497
1991.84265 384.57083 365.06570 411
386.98981 35.92686 171.65805 316
397.97897 38.40919 171.76955 313
410.39865 41.19957 171.88341 309
456.48691 51.53914 164.93381 304
465.13553 53.49286 167.27293 452
1853.60950 364.98196 79.45516 370
1842.16345 362.51309 107.57502 493
1845.62817 363.36542 134.76593 478
1889.00940 372.90414 160.76881 497
1888.65063 373.27625 188.42680 497
1888.86658 373.14700 216.40784 497
1888.82666 372.86639 244.66154 497
1888.77710 372.83563 272.34366 497
1898.20056 374.99719 300.62057 418
1946.49817 385.88962 332.27905 497
1983.06909 394.02441 364.38736 461
386.72659 36.92884 171.65289 316
397.72409 39.44384 171.74706 313
410.13342 42.34198 171.84981 309
456.19476 52.97406 164.98860 303
463.83228 54.75205 167.44952 453
1853.10950 375.36087 79.57829 370
1841.07678 372.56491 107.72380 493
1844.93188 373.53134 134.56265 478
1887.91052 383.57266 160.65143 497
1887.99316 383.54968 188.35269 497
1886.79919 383.39871 216.69293 495
1887.01514 383.46854 244.26477 495
1887.76721 383.70242 272.39764 497
1895.55103 385.26688 300.75897 415
1945.53687 396.87195 332.50229 497
1979.23291 404.71805 364.35590 476
386.50607 37.92171 171.66338 316
397.47302 40.53863 171.77176 313
409.84494 43.49482 171.88707 309
455.84769 54.42392 164.99091 303
462.45840 55.94580 167.65671 454
1852.03748 386.10464 79.16412 370
1840.26257 382.91357 107.53493 493
1843.56897 383.96368 134.72849 478
1887.17358 394.20090 160.61481 497
1886.95544 393.96460 188.66920 497
1886.97266 394.15036 216.62186 497
1886.76990 394.18320 244.34956 497
1886.46106 394.25937 272.43869 497
1895.81812 396.48248 300.88171 418
1944.63306 407.71198 332.23792 497
1978.45227 415.76004 364.61667 454
386.26590 38.93315 171.61719 316
397.20264 41.62613 171.72215 313
409.56015 44.63889 171.83971 309
455.46698 55.80032 164.96819 303
460.69540 57.08319 167.93741 298
1851.36975 396.48761 79.24895 370
1839.02429 393.45157 107.58311 493
1842.65723 393.94406 134.68129 477
1885.91882 404.73218 160.68880 497
1885.89307 404.59210 188.34552 497
1885.75110 404.93564 216.39613 497
1885.55701 404.81708 244.44035 497
1885.57532 404.68210 272.31915 497
1894.74927 407.12207 301.12741 418
1964.68127 423.81284 334.00443 496
1984.19031 428.60550 365.01944 347
385.98129 39.93128 171.64084 316
396.91437 42.65247 171.72234 313
409.30157 45.78752 171.85995 309
455.06781 57.25786 164.97133 303
460.41122 58.55241 167.93793 297
1850.98779 406.53958 78.78611 370
1838.34436 403.68210 107.21317 492
1841.59741 404.52841 134.50491 477
2129.09155 476.61209 152.01952 496
1893.82605 417.78226 301.14563 418
1997.63953 443.41098 336.24338 331
1998.67871 443.89435 366.51572 274
385.73254 40.95314 171.63635 316
396.62106 43.76151 171.72424 313
408.97525 46.94004 171.87218 309
454.69131 58.67125 164.94272 303
460.06500 60.04198 167.96207 297
1850.09119 417.14352 78.93350 370
1837.45190 414.08655 107.37489 492
1840.54407 414.88623 134.40955 477
2128.38647 488.59879 151.97987 496
1966.59290 447.05417 304.94998 433
1964.16602 446.58551 334.08450 497
2007.63049 457.85303 367.74332 366
385.45172 41.94453 171.63300 316
396.34750 44.79449 171.75528 313
408.70331 48.06644 171.87932 309
454.33698 60.11530 164.96674 303
459.72711 61.51545 167.94804 297
1849.24377 427.78842 78.75890 369
1836.33655 424.10278 107.05842 492
1839.79590 425.11572 134.33627 477
2127.32935 501.14981 152.31456 496
1961.69800 457.10486 334.44733 498
2009.40576 469.89032 367.77777 475
385.15497 42.94939 171.64856 316
396.05008 45.87793 171.76003 313
408.36551 49.21714 171.84981 309
453.51431 61.42139 165.07266 426
459.37573 62.94244 167.91776 297
1848.63684 438.25491 78.36500 369
1835.40723 434.72357 107.15807 492
1838.82593 435.50189 134.49113 476
2126.15332 513.14429 151.71497 496
1960.27380 468.25632 334.53690 485
2012.94592 482.47363 368.26605 448
2006.59021 480.61896 398.46698 474
384.88956 43.93874 171.63666 316
395.74603 46.94318 171.72676 313
408.06912 50.33808 171.87457 309
451.81403 62.42682 165.36401 427
459.02335 64.46842 167.89133 297
1848.09583 448.74997 78.30962 369
1834.50085 444.77066 107.02730 491
1837.47449 446.05243 134.44366 476
1960.92639 480.01361 334.50824 483
2016.85156 495.56290 369.18405 491
2009.25500 493.40076 398.91714 484
2003.46460 491.73587 428.96179 491
384.57852 44.89435 171.63852 316
395.43555 47.97588 171.71805 312
407.74066 51.45469 171.82947 309
450.08350 63.47373 165.60338 428
458.65323 65.93514 167.85522 297
1847.35608 459.48523 77.95409 369
1833.59119 455.48523 106.75845 491
1836.59399 456.43973 133.92192 474
2019.00281 508.04718 339.01694 436
2012.83728 505.99939 368.96136 484
2003.62292 503.82166 398.51889 470
384.30676 45.89648 171.62027 316
395.12802 49.03142 171.70413 312
436.11172 60.94791 164.86409 308
448.39032 64.52077 165.91927 429
458.29520 67.36681 167.85727 297
1846.39868 469.90158 78.13522 369
1832.87170 465.82251 106.46900 491
1835.60876 466.76880 134.14406 474
1998.99927 513.88953 337.72266 353
1999.55969 514.34888 368.11575 364
383.98370 46.88264 171.63724 316
394.80365 50.08824 171.70291 312
435.70169 62.27096 164.84213 308
446.67981 65.50861 166.18115 430
1845.86865 480.23834 77.82087 369
1831.57471 476.12955 106.43864 491
1834.30640 477.10867 134.09654 474
1976.41113 519.40778 336.57425 399
1974.39758 518.39935 366.16135 355
383.71042 47.87668 171.59877 316
394.48505 51.14109 171.73473 312
435.34030 63.53591 164.84901 308
445.02637 66.51093 166.47871 431
1845.33130 491.20660 77.52018 368
1830.58472 486.50037 106.49620 490
1833.54272 487.76651 133.96230 473
383.36133 48.86405 171.60402 316
394.14035 52.22605 171.69678 312
434.91809 64.86704 164.84709 308
443.39868 67.51124 166.74232 432
1844.59729 501.78305 77.22090 368
1829.65332 497.36563 106.35478 490
1832.45605 497.86414 133.74684 473
383.03586 49.88167 171.59233 316
393.82559 53.27148 171.70627 312
434.48157 66.13785 164.88460 308
441.79300 68.49840 167.00499 433
1843.85034 512.65631 77.32462 368
1828.85181 507.76147 106.04241 490
1831.54749 508.74673 133.78125 473
382.71231 50.86419 171.59218 316
393.46439 54.33550 171.69295 312
434.08926 67.45030 164.82835 308
440.17328 69.40752 167.27042 434
1843.29358 523.40521 76.68900 368
1827.81226 518.24402 106.08739 489
2116.73779 611.62836 118.42178 493
382.40048 51.85114 171.60161 316
393.10919 55.34961 171.69687 312
433.64227 68.76351 164.87154 308
438.50732 70.35860 167.54292 420
1842.45044 533.94330 76.78720 368
1826.71765 528.97607 105.85960 489
2115.89771 624.39453 118.65717 493
382.07205 52.81369 171.58258 316
392.75906 56.40972 171.69659 312
433.15689 70.05540 164.83565 308
436.73538 71.24508 167.87875 301
1841.81750 545.05957 76.57921 368
1826.12427 539.73126 105.51929 489
2114.32886 636.80096 118.34047 492
381.70901 53.80649 171.57515 316
392.40536 57.45062 171.72102 312
432.64795 71.32171 164.84488 308
436.31543 72.58725 167.83966 301
1841.66687 556.02942 76.02837 292
1824.94006 550.27582 105.24017 488
2113.50684 649.70862 118.52450 492
2115.40259 650.27570 150.95117 291
381.36356 54.76174 171.60803 316
392.03403 58.49664 171.71657 312
432.21698 72.59670 164.85509 308
435.89929 73.88498 167.81860 301
1841.71423 567.18396 75.87486 292
1823.83923 561.08557 105.27171 488
2101.76343 658.04968 118.58570 310
2101.51562 657.97345 151.35651 310
381.01379 55.73664 171.60313 316
391.64636 59.52937 171.67456 312
431.45898 73.77425 164.90428 424
435.41602 75.18630 167.79742 301
1842.20654 578.20520 75.71548 292
1823.09314 571.54327 105.02354 488
2052.18604 653.66107 120.78919 311
2052.26147 653.44092 152.89528 312
380.65860 56.69085 171.59113 316
417.16016 70.04987 164.75746 312
429.76959 74.62069 165.32352 425
434.96371 76.53013 167.82698 301
1842.46765 589.72168 75.10812 298
1822.04089 582.53412 104.71142 487
1987.85864 642.67731 124.39923 415
1987.59839 642.51581 155.01460 415
1987.74512 642.90320 185.78586 415
1987.61133 642.66412 216.25571 415
380.29944 57.67982 171.59727 316
416.68701 71.22157 164.77667 312
428.04477 75.44254 165.54552 426
434.53476 77.82101 167.78210 301
1842.48682 601.19574 74.91335 297
1821.04749 593.06909 104.73213 487
1846.52625 602.46881 131.17513 301
1960.67908 644.83594 155.89955 314
379.91574 58.63115 171.58878 316
416.24109 72.42872 164.76982 312
426.43500 76.27900 165.80771 427
434.06546 79.13140 167.76947 301
1842.57190 612.50092 74.63080 297
1820.11731 604.03485 104.57143 486
1821.73511 604.51453 132.34425 473
1918.13538 640.90552 156.95821 316
379.54724 59.63930 171.55954 316
415.72833 73.59660 164.79846 312
424.77133 77.06997 166.11035 428
433.57016 80.46857 167.75119 301
1842.62219 623.90326 73.94621 297
1819.19348 614.65631 104.30682 486
1820.77734 615.26508 132.26453 473
1877.56812 637.38452 158.19118 317
379.15875 60.57280 171.55946 316
415.24109 74.74512 164.75647 312
423.15689 77.85197 166.37990 429
433.09879 81.74570 167.75726 301
1818.26477 625.82465 104.31884 486
1819.28308 626.28809 131.99031 473
1856.28027 640.65332 159.21613 496
378.77786 61.52918 171.55409 316
414.72534 75.94354 164.79755 312
421.53098 78.64352 166.65810 430
1817.30115 636.62518 104.10968 485
1818.49902 637.39172 132.20451 472
1872.63110 658.78210 158.24506 489
378.36444 62.51460 171.57208 316
414.23410 77.11390 164.79620 312
419.90176 79.42891 166.93230 431
1816.08374 647.45471 103.79428 485
1817.01782 648.14655 131.84662 472
1871.69275 670.40375 158.11673 489
1854.91431 663.60895 187.48718 425
377.97952 63.46692 171.57544 316
413.73596 78.24617 164.76396 312
418.38718 80.17984 167.19539 432
1815.34705 658.71515 103.50153 484
1816.30505 659.26190 131.60327 471
2101.70361 777.15869 150.17946 488
1853.92432 674.56915 187.72855 364
377.56686 64.43359 171.56497 316
413.19846 79.46194 164.77423 312
416.80539 80.96468 167.44609 433
1814.21497 669.99658 103.19767 484
1814.93005 670.15503 131.46678 471
1851.65918 685.63293 158.36253 489
377.16315 65.36967 171.52475 316
412.67297 80.60213 164.81067 312
415.24753 81.71095 167.71335 434
1812.90222 680.97107 103.04105 483
1813.96497 681.09448 131.49960 471
2012.14624 765.84515 152.87312 472
2017.33411 768.58026 184.49583 378
376.72742 66.30984 171.56087 316
412.11871 81.75038 164.80954 312
414.51373 82.77565 167.75154 305
1811.96362 691.84009 102.70969 483
1812.84595 692.53497 131.31273 470
2006.32617 776.87567 152.51422 499
2007.91345 777.25555 184.54689 499
376.29703 67.29131 171.54518 316
411.56931 82.92852 164.82634 312
414.00436 83.97572 167.76091 305
1810.98840 703.31396 102.48949 482
1811.77881 703.54724 131.26443 470
1849.29822 720.10095 158.36330 453
1940.84546 760.53900 185.75916 311
399.16614 78.70590 164.69308 317
410.72571 83.93421 164.86731 436
413.46756 85.14893 167.76930 305
1810.05396 714.20459 102.52574 482
1810.37952 714.46338 130.98601 469
1915.67334 762.18286 155.68294 499
1917.49329 762.55859 186.04672 474
398.64340 79.78612 164.70505 317
409.21982 84.62843 165.18250 437
412.92606 86.36962 167.73288 305
1809.00378 725.97845 102.19032 481
1809.30237 725.72363 130.83665 469
1863.13928 750.57043 157.44106 485
1848.17249 743.61877 187.18382 332
2012.10437 819.03772 216.55421 303
398.12369 80.84370 164.71922 317
407.77933 85.37776 165.40805 438
412.45587 87.54814 167.76834 305
1807.88037 737.10779 101.63022 481
1808.44507 737.04016 130.62556 468
1906.20056 782.81494 155.79823 499
1845.59412 754.37335 187.15797 483
2000.08264 826.30676 216.20441 345
397.60986 81.94823 164.69518 317
406.20609 86.00919 165.69652 419
411.91876 88.69429 167.72839 305
1807.21387 748.27942 101.60304 480
1807.38623 748.39777 130.58441 468
1845.10339 766.66888 157.62311 458
1902.58264 793.75098 186.11441 499
1992.96765 836.44067 216.67067 345
27.66921 13.29266 -8.22620 317
404.53448 86.61475 165.99081 421
411.36188 89.87497 167.71992 305
1808.59888 761.08203 101.05488 411
1809.77893 761.72394 129.99922 380
1896.90027 803.33588 155.81221 499
1897.84644 804.22180 186.26929 499
1916.36877 813.13672 216.62543 291
396.50247 84.09702 164.68849 317
402.86365 87.18563 166.28059 422
410.79929 91.06886 167.72589 305
1856.69421 796.46637 97.12812 483
1856.21008 796.39148 127.41493 413
1892.37793 813.96179 155.42271 499
1893.40027 814.58838 186.14699 499
1905.57617 820.46210 216.39273 346
2074.85132 903.28436 249.93625 435
395.94785 85.12614 164.73225 317
401.20676 87.75102 166.58939 423
410.27979 92.26672 167.70464 305
1913.52417 837.19177 93.02013 438
1891.38916 826.00787 125.19782 458
1887.43457 824.31573 155.53125 499
1888.56677 824.68817 186.18356 499
1898.71033 829.73077 216.61894 346
395.35040 86.19462 164.69006 317
399.58224 88.30345 166.92096 424
1891.03601 838.86798 124.81385 406
1851.28137 819.07404 156.59036 487
1886.53027 836.41962 185.99142 461
1894.04431 840.36627 216.67108 466
394.77277 87.25217 164.71834 317
397.96930 88.86893 167.17850 425
1895.55859 854.26398 123.98820 390
1886.57275 849.65808 155.03705 455
1887.86084 849.92462 185.96982 460
394.22455 88.31237 164.71397 317
396.39340 89.41684 167.46382 426
1888.09131 863.25262 155.10510 454
1849.15564 842.84314 186.35754 397
393.63260 89.33281 164.73943 317
395.01056 90.07523 167.68910 311
393.01123 90.35436 164.70139 317
394.42163 91.13326 167.72696 311
391.73801 91.01115 164.92339 428
393.85181 92.17365 167.70779 311
1852.80042 883.65753 246.92012 403
390.24063 91.56569 165.20445 429
393.27304 93.23969 167.69260 309
388.73911 92.10361 165.51280 430
392.71054 94.28236 167.71130 309
387.23523 92.59237 165.76941 431
392.10590 95.35610 167.69707 309
59822.44141 33759.72266 12677.76074 1000
385.80240 93.13744 166.04700 432
391.54575 96.44876 167.66075 309
384.34033 93.61511 166.28250 433
390.96655 97.47536 167.66335 309
9175.75684 5217.09912 2811.92700 1000
382.88406 94.12216 166.53844 434
390.34918 98.50887 167.65665 309
9674.09961 5585.24854 -1046.86877 1000
381.47229 94.60402 166.80963 435
389.73535 99.58965 167.62906 309
380.07224 95.09686 167.04366 436
378.65356 95.56860 167.33032 437
377.30505 96.05173 167.56036 438
376.44662 96.87844 167.63965 315
375.85770 97.81443 167.63728 315
375.20505 98.75285 167.62688 315
374.56631 99.72443 167.59991 315
373.94183 100.66487 167.63345 315
373.33038 101.59231 167.59001 315
372.70764 102.53494 167.60585 315
372.03247 103.49589 167.61441 315
371.36752 104.40362 167.61084 315
370.74301 105.30166 167.59056 315
370.09073 106.27077 167.57208 313
369.39380 107.19171 167.55661 313
37690.80859 31919.10352 -12114.43164 1000
5917.67725 5982.08691 486.77536 1000
5993.39990 10054.94336 -2290.34155 1000
513.62585 942.85809 86.08884 383
514.81995 947.40894 101.85173 383
506.33261 939.89136 86.83731 482
507.21677 942.78009 102.82905 442
508.30798 946.27106 118.83327 442
509.17880 949.64526 134.80856 450
510.44620 953.39240 150.81647 380
500.03958 939.88080 86.79841 499
500.99911 942.75067 102.89385 498
501.80362 945.70551 118.79400 498
502.66708 948.93188 134.92281 499
503.45392 951.65997 151.10789 497
504.39255 954.63068 167.24384 486
494.38443 941.86017 86.75291 491
495.24875 944.88995 102.93739 490
496.18484 948.22516 118.83137 490
497.26852 951.48560 134.87637 463
498.18726 954.80817 151.09778 461
499.19180 958.65863 167.08420 442
489.38730 946.29803 86.62983 458
490.34354 949.70276 102.58123 406
491.60083 954.25781 118.52258 405
485.52145 955.05444 85.40067 338
-3891.65234 47762.42969 12217.08789 1000
-10093.29004 45938.05469 -9155.49219 1000
-10038.48730 45693.79688 -7522.12891 1000
-17084.28320 57056.73438 7067.60205 1000
-317.20944 1083.19885 77.16135 498
-349.32663 1147.89075 89.96899 299
-329.85077 1091.53748 75.75264 497
-352.90106 1137.82129 90.93324 487
-313.66122 1043.95618 81.47319 321
-360.52100 1135.68127 90.84231 487
-309.18756 1019.81085 84.11258 323
-368.61224 1134.08643 90.28476 486
-371.77438 1139.87305 110.84729 485
-308.16437 1002.50140 86.06635 272
-376.25665 1132.03906 90.25726 486
-379.71143 1138.05591 110.73556 485
-308.18997 987.80463 87.49246 332
-384.06412 1130.18311 90.03295 486
-387.63339 1136.18152 110.65788 485
-393.65491 1147.78613 130.94775 309
-307.74350 972.56378 89.06503 333
-392.35626 1128.43567 89.75106 329
-395.47766 1134.29895 110.62693 484
-398.78888 1140.47168 131.38013 483
-310.45761 963.70563 71.57658 315
-310.57108 963.71490 89.85095 272
-384.10861 1097.44946 92.97903 330
-397.15402 1121.10229 111.56335 329
-406.06818 1137.24402 131.35954 328
-307.42599 944.18646 74.04375 325
-316.37283 960.63788 89.70936 272
-380.23218 1075.25049 94.92098 332
-393.13693 1097.95825 113.22005 330
-401.77359 1113.75867 132.84714 329
-411.23303 1130.50696 152.86673 267
-305.06702 927.01843 75.92821 334
-307.17606 930.47162 93.14448 334
-376.88199 1053.44824 96.88147 333
-389.39474 1075.85913 114.98240 332
-384.60776 1067.57129 135.91396 303
-407.24820 1107.53589 153.70483 267
-308.68567 919.95428 76.48557 451
-307.92029 918.93945 94.48331 443
-372.05295 1030.82605 99.34202 334
-385.95920 1054.45557 116.72988 333
-381.73114 1047.17615 137.15858 445
-404.34140 1086.36694 154.95212 270
-314.87784 917.71259 76.58447 465
-312.81381 914.49982 94.53951 498
-318.21008 923.50867 110.92339 405
-382.13132 1033.58997 118.27297 335
-386.70319 1041.01099 137.29776 478
-401.81519 1067.23108 155.74901 269
-321.57611 916.54321 75.98274 465
-319.25546 912.49957 94.47784 470
-322.94998 918.71606 111.27757 454
-378.74301 1013.45197 119.72406 336
-372.65442 1002.69659 140.07678 315
-400.48694 1050.17273 156.56749 269
-328.61755 915.37128 75.76854 464
-326.04044 911.19922 94.08652 470
-325.48981 910.54877 111.80241 443
-375.71420 994.14062 121.41940 337
-370.58011 985.37048 141.06813 289
-399.29401 1033.59314 157.07861 269
-335.33371 914.11859 75.56924 464
-332.91812 910.01050 93.81128 469
-330.64206 906.52551 111.97520 485
-372.42102 975.24072 122.87047 339
-385.41391 996.22327 139.92302 338
-398.65958 1018.23950 157.80327 269
-342.32837 913.18372 75.14574 463
-338.21750 906.44257 93.85921 489
-337.38638 904.85645 111.63234 470
-341.12344 910.97809 128.57307 324
-382.06436 977.63989 141.21092 339
-398.82162 1004.39301 158.49297 269
127.55587 148.31992 169.42976 485
-349.38098 911.76196 74.67015 462
-344.41476 904.02850 93.55567 475
-344.20541 903.50934 111.25627 469
-343.44257 902.48578 129.06645 493
-373.62900 950.74811 142.79744 341
-402.34454 996.80798 158.67664 257
-356.34634 910.74420 74.45229 462
-353.33386 905.70642 93.01195 443
-351.20511 902.44897 111.09048 469
-349.23251 899.67480 128.95599 488
-370.75528 933.17755 144.07227 342
-408.73477 993.72198 158.66879 257
124.69743 148.89645 168.87263 489
-363.39041 909.74524 74.11311 461
-360.34152 904.70245 92.53526 461
-358.00839 901.04291 110.78300 468
-356.03265 898.07458 128.99429 476
-360.07971 904.25677 146.04413 426
-370.62552 908.36816 73.55827 462
-367.28571 903.52838 92.23786 460
-365.19370 899.92542 110.57764 468
-362.89273 896.68427 128.67273 476
-364.90088 899.50269 145.93515 477
-409.38779 967.91046 159.67937 346
-377.62421 907.11188 73.36401 461
-374.39365 902.26093 92.12078 460
-372.19562 898.61609 110.29266 467
-369.99344 895.43652 128.36810 472
-371.11719 897.19385 145.83319 480
-406.02307 949.94891 160.46466 347
120.67265 149.27440 168.16344 489
-384.91998 906.04547 72.85841 461
-381.72787 901.14471 91.48897 459
-377.03201 894.27942 110.27623 474
-376.84348 894.13733 128.20157 471
-378.25229 895.91888 145.80183 476
-402.77277 932.72845 161.28862 348
118.24910 150.94026 167.38680 316
-392.19604 904.69281 72.43869 460
-388.88049 900.04041 91.42362 460
-384.00760 892.75067 110.08988 323
-383.80481 892.58331 127.98165 479
-384.99628 894.42114 145.50156 475
-399.71579 916.27374 161.90269 351
117.37182 150.29759 167.39479 316
-399.36594 903.34357 71.96807 460
-396.07199 898.65558 90.81665 459
-392.70352 893.70380 109.55771 459
-391.09503 891.28400 127.78973 478
-392.16599 893.04669 145.36969 474
-403.63885 910.07233 162.14474 472
116.49926 149.68483 167.43349 316
-406.55682 902.35889 71.56432 459
-403.33957 897.38025 90.59541 459
-399.95227 892.39313 109.14143 460
-398.12750 889.87799 127.39456 477
-399.27798 891.75116 145.29134 474
115.62012 149.02580 167.43929 316
-413.99228 900.94751 71.17953 458
-410.51736 896.10699 90.30385 458
-407.00986 891.44440 108.80968 459
-405.30966 888.65466 127.26128 477
-406.57376 890.52856 144.84122 473
114.56622 148.62932 167.33673 275
-421.19940 899.70502 70.64032 457
-418.01395 894.80524 89.94936 457
-414.30515 890.10815 108.69537 459
-412.37680 887.34460 127.00374 476
-413.64648 889.01984 144.65591 473
-13645.43652 19436.45898 1779.18762 1000
111.63272 150.83049 166.40610 314
-425.28223 893.70032 89.57220 457
-421.69180 888.75598 108.35766 458
-419.80237 885.97266 126.57880 475
-420.89938 887.78052 144.62448 472
110.74023 150.17824 166.39070 314
-432.89050 892.47888 89.09781 456
-429.18961 887.50494 107.91311 458
-426.91534 884.54742 126.57835 475
-428.25595 886.39832 144.41832 471
109.84825 149.49606 166.41287 314
-440.15540 891.11200 88.54209 456
-436.46506 886.23010 107.60027 457
-433.77863 882.49554 126.13638 278
-435.49301 885.01160 144.18558 471
-603.56390 1111.84192 148.52856 469
108.95695 148.76888 166.39232 314
-447.60025 889.79443 88.38724 455
-444.05554 884.97150 107.24213 457
-440.06509 879.65479 126.11512 278
-442.84262 883.42084 143.93936 470
108.08093 148.12025 166.40710 314
-455.15863 888.72418 87.92910 455
-451.24808 883.38617 107.01010 456
-447.37231 878.34491 125.74676 472
-450.22437 882.11102 143.71358 473
-456.40228 890.13495 161.52725 463
107.25792 147.39850 166.37572 314
-462.93185 887.10718 87.55000 454
-458.74841 882.11780 106.73681 455
-454.76468 876.77185 125.53339 472
-457.66983 880.64221 143.47916 472
-464.20709 888.94348 161.29988 417
106.34563 146.67596 166.37666 314
-470.68979 886.00232 87.03543 430
-466.48853 880.75354 106.35336 455
-462.19949 875.29608 125.32007 411
-465.21930 879.29108 143.11429 471
105.13518 146.42009 166.23932 423
97.42148 156.26540 166.38968 310
-478.47360 885.27167 86.41180 429
-474.01459 879.36298 105.87598 454
-469.59500 873.63550 125.00787 410
-472.75085 877.92206 142.87732 471
103.57436 146.57487 165.95534 422
96.47189 155.45767 166.36812 310
-486.52664 884.15601 86.10411 428
-481.66147 878.24365 105.57461 453
-476.89029 872.05865 124.61327 410
-480.57043 876.44611 142.68474 470
-664.20819 1106.10535 146.62236 330
102.03008 146.78464 165.65649 421
95.59086 154.72289 166.37917 310
-494.57114 883.03625 85.44814 428
-489.58310 876.77039 105.24525 453
-484.64395 870.62567 124.41357 409
-488.04938 875.02924 142.52461 469
-668.04688 1096.98315 147.10548 456
100.39725 146.92198 165.31432 420
94.65063 153.96626 166.37317 310
-502.84256 882.10400 85.06407 427
-497.19885 875.46954 104.88676 452
-492.32074 869.00317 124.28973 468
-495.84448 873.63129 142.24936 468
-677.64160 1095.21667 146.63748 470
98.80312 147.10326 165.03120 419
93.76122 153.18976 166.34807 310
-511.30869 881.16797 84.42719 426
-505.12668 873.89832 104.25956 451
-500.09366 867.72906 123.88863 467
-503.53732 872.16998 142.08611 468
-676.23828 1080.13879 147.34026 354
97.18764 147.25609 164.68617 418
92.85238 152.40834 166.38910 310
-519.42371 880.16193 83.88865 426
-513.02545 872.70471 103.87046 451
-507.60385 866.34436 123.47436 467
-511.28802 870.67175 141.70607 467
-678.79626 1069.27368 147.68130 491
95.55586 147.34877 164.37917 427
91.94704 151.64951 166.35254 310
-527.75415 879.25684 83.40913 445
-520.96735 871.02661 103.47570 450
-515.67249 864.63995 123.06915 466
-519.19385 869.15607 141.51019 466
-677.03601 1054.34717 148.21414 373
93.98315 147.42642 164.06844 426
91.02488 150.86647 166.34116 310
-535.99738 877.92151 83.05139 445
-529.06360 869.83569 103.13023 449
-523.33337 863.32538 122.81564 465
-527.37445 867.68030 141.36156 465
-673.91296 1037.81152 149.01700 374
92.41068 147.46120 163.77989 425
90.10837 150.04807 166.34196 310
-544.63348 876.82782 82.30460 444
-537.03497 868.23676 102.88856 448
-531.43042 861.91309 122.48092 464
-535.19086 866.21460 140.94292 464
-665.43176 1015.18842 150.18207 465
-733.70538 1093.47729 168.70309 465
90.78279 147.53282 163.45663 424
89.22469 149.24754 166.37613 309
-553.00104 875.74573 81.95552 443
-545.22687 866.69843 102.46873 448
-539.44629 860.22565 122.19623 463
-543.14331 864.64233 140.87408 464
-550.37860 872.84790 159.08771 448
-744.32379 1092.04651 168.73582 465
89.72006 146.91986 163.38844 307
88.37266 148.45294 166.35966 309
-561.50549 874.52448 81.20918 442
-553.80408 865.82196 101.80753 424
-547.64655 858.90271 121.71637 463
-551.28687 862.98206 140.43240 463
-682.31671 1009.71063 149.94804 450
-754.32800 1089.90271 168.68475 464
88.96619 145.99709 163.42592 307
87.44865 147.63867 166.36546 423
-570.20026 873.27161 80.77325 442
-562.32922 864.65570 101.23872 423
-555.58063 857.48712 121.51118 462
-559.57178 861.53510 140.10020 462
-692.44611 1008.23224 149.62457 462
-764.71356 1088.01111 168.09772 463
88.19477 145.12262 163.47054 307
85.80645 147.71078 166.01068 422
-578.69385 872.17120 80.02914 441
-570.85809 863.62921 100.77710 423
-564.04321 855.84418 121.11400 461
-567.70667 860.05664 139.85040 461
-702.92181 1007.34229 149.16307 379
-774.76031 1085.78931 168.32802 463
87.42335 144.21448 163.50764 307
84.09443 147.77637 165.74968 421
75.42155 157.04401 166.29112 305
-587.46838 870.91223 79.58893 440
-579.82727 862.60541 100.50775 422
-572.31177 854.54431 120.75300 382
-576.15894 858.44366 139.62430 461
-652.94537 941.13403 153.21971 357
-785.22363 1083.81787 167.75415 471
86.62944 143.30608 163.51074 307
82.34374 147.82632 165.43370 420
74.54291 156.19408 166.29468 305
-596.28796 869.55054 78.97003 439
-588.70660 861.48584 99.82706 421
-581.04492 853.11047 120.21514 382
-584.45087 856.69336 139.38599 460
-650.13928 926.95361 153.99606 498
-794.67944 1080.57532 167.61591 478
85.87394 142.38954 163.54488 307
80.62402 147.93707 165.10446 419
73.60629 155.26395 166.30528 305
-605.37213 868.56561 78.49471 438
-597.72272 860.36719 99.19447 420
-589.33734 851.75873 120.04708 459
-592.79663 855.41901 139.08533 459
-652.44409 917.89777 154.21136 385
-804.26166 1077.22070 167.58405 481
85.13199 141.44659 163.58682 307
78.80254 147.99319 164.79309 417
72.71208 154.36702 166.27867 305
-614.81433 867.92987 77.56437 405
-606.57495 859.13727 98.75952 420
-597.95380 850.33441 119.42359 458
-601.35114 853.49530 138.58971 458
-649.88928 904.11359 154.82733 386
-813.54889 1073.86060 167.75189 480
-40382.49609 42131.98828 10858.94629 1000
104.95770 119.44243 171.53581 316
77.04929 148.06061 164.43285 416
71.77915 153.46605 166.29701 305
-624.50586 867.36334 77.06566 404
-615.62006 857.93762 98.42496 419
-606.72302 848.84479 118.99023 393
-609.83801 852.04431 138.26146 457
-643.28967 886.45081 155.68623 346
-821.55402 1069.22729 167.49734 486
104.26817 118.69032 171.53061 316
75.23782 148.13464 164.08061 415
70.86366 152.53578 166.29518 305
-634.64661 866.60437 76.21020 403
-625.01874 856.84271 97.76257 418
-615.79785 847.58545 118.61146 392
-618.32190 850.62811 137.98302 456
-641.77155 874.01013 155.90576 365
-826.99933 1061.95410 167.41092 481
103.60181 117.98921 171.50377 316
73.36427 148.20235 163.71771 414
69.98050 151.62265 166.25891 305
-644.23157 865.95093 75.33993 409
-633.99115 855.69562 97.29045 417
-624.74481 846.32672 118.24175 391
-627.17688 848.70038 137.72697 457
-631.24744 852.89929 157.20897 453
-832.38568 1053.80640 167.76146 483
102.91404 117.21419 171.55286 316
71.48490 148.23940 163.40471 413
69.03166 150.71567 166.25372 305
-653.83337 865.12646 74.67368 408
-643.35980 854.48315 96.42427 420
-633.72797 844.71405 117.69016 391
-635.91418 846.89966 137.33504 455
-640.53381 851.91071 156.77792 453
-837.06879 1046.22192 167.81293 382
102.27232 116.45515 171.54980 316
70.42874 147.53928 163.35281 303
68.17339 149.75116 166.24820 305
-663.74121 864.04401 74.14047 407
-652.42224 852.87927 96.00460 420
-642.69519 843.36646 117.21697 391
-644.56860 845.27264 136.95468 454
-649.61426 850.07196 156.70911 452
-835.18774 1031.14343 168.14772 379
101.59356 115.70033 171.55923 316
69.70918 146.48817 163.36275 304
67.29118 148.81703 166.23180 305
-673.58124 862.96307 73.34362 406
-661.60284 851.58197 95.37532 419
-651.79877 842.15076 116.94597 421
-653.48853 843.73767 136.57257 453
-656.72437 846.70728 156.41435 445
-832.37640 1015.85815 168.35355 380
100.94920 114.96755 171.56294 316
68.92033 145.44604 163.37178 304
65.76961 148.48528 166.07362 410
-683.36792 861.91522 72.71614 406
-671.07318 849.93854 94.93948 403
-661.00378 840.51208 116.49603 420
-662.71246 841.94238 136.40883 452
-665.64813 844.97583 156.13951 445
-829.58801 1000.86023 168.96481 381
100.31881 114.20383 171.57413 316
68.18313 144.44194 163.44420 304
63.73196 148.58873 165.70508 409
-693.54102 860.68781 71.89981 384
-680.85516 848.94421 94.33633 402
-670.14197 839.05804 115.81703 419
-671.64514 840.39343 135.83403 451
-674.82983 843.12250 156.00319 444
-825.83215 985.45258 169.38492 378
99.65757 113.42033 171.56038 316
67.40789 143.37993 163.46683 304
61.77365 148.65800 165.35916 408
51.82814 157.89777 166.18970 301
-704.33167 860.26288 71.03413 383
-690.82965 847.97845 93.79035 401
-679.64301 837.18719 115.44160 419
-680.95172 838.50623 135.63057 450
-683.86859 841.43701 155.55215 443
-824.13165 971.51453 169.70343 383
99.04230 112.65459 171.56824 316
90.61745 120.39162 171.63501 312
59.75789 148.72165 164.94183 407
50.88617 156.87640 166.18718 301
-701.03992 846.79993 93.11000 400
-688.83893 835.56976 114.91652 418
-690.16180 836.95612 135.13176 449
-693.40436 839.61371 155.36511 442
-697.23981 843.41779 175.60027 447
98.38960 111.87727 171.56746 316
89.94164 119.53760 171.65675 312
57.63968 148.77969 164.57031 406
49.95284 155.81808 166.17778 301
-711.26569 845.72699 92.42161 399
-698.31207 834.27930 114.56692 417
-699.51385 835.03180 134.97383 449
-702.75049 837.75262 155.24623 441
-707.10278 842.30994 175.36629 446
97.74638 111.09287 171.59778 316
89.23340 118.73403 171.63074 312
55.53833 148.90504 164.19141 405
49.00671 154.74960 166.17657 301
-721.50183 844.32629 91.47831 398
-707.89587 832.56384 113.97629 416
-708.93915 833.19012 134.59221 448
-712.15424 836.09052 154.84663 440
-716.77747 840.36914 175.06631 445
97.13352 110.31344 171.57550 316
88.58573 117.91119 171.62889 312
53.41323 148.98564 163.82919 404
48.14488 153.66750 166.19232 301
-731.99384 843.48499 90.80940 396
-717.92316 831.14581 113.37045 400
-718.44482 831.60809 133.98288 447
-721.59540 834.39642 154.62000 439
-726.58136 838.79187 174.91904 444
96.52203 109.52624 171.56943 316
87.91894 117.04982 171.67159 312
51.30983 149.03885 163.38628 402
47.24775 152.60004 166.17337 301
-742.64355 842.56787 90.03853 390
-728.28998 829.89783 113.01692 398
-728.35010 829.82458 133.49625 438
-731.38721 832.73303 154.02681 430
-736.34991 836.96100 174.65948 443
95.88931 108.75132 171.58115 316
87.28487 116.19555 171.68626 312
49.78273 148.53224 163.20885 300
46.33703 151.50154 166.16858 301
-753.90271 841.69354 89.50241 389
-738.74963 829.02466 112.45409 392
-738.62476 828.64160 133.33334 437
-741.83575 831.51801 153.93289 429
-747.17126 836.17322 174.37180 417
-2419.57690 2278.91064 159.31783 355
-2418.82959 2278.42651 215.96472 355
-2418.71167 2278.13818 273.53873 420
95.26734 107.97377 171.62091 316
86.62103 115.37140 171.66920 312
49.08550 147.35580 163.29956 300
45.41836 150.44063 166.16125 301
-765.65045 841.20746 88.46215 369
-750.10492 828.47736 111.67886 389
-749.48999 827.65723 132.86609 419
-753.36115 830.97650 153.61194 411
-758.92999 835.92474 174.04965 415
94.65965 107.17529 171.61092 316
85.95206 114.52359 171.68063 312
48.35020 146.17552 163.28285 300
44.50644 149.34395 166.16946 301
-778.81982 842.25146 87.56121 368
-761.62878 827.72559 110.94427 378
-761.01691 827.32336 132.28738 418
-765.44409 830.88721 153.09917 398
-771.26056 836.12714 173.95842 409
94.05916 106.36181 171.61008 316
85.33554 113.65378 171.67516 312
75.33954 121.91649 171.76300 308
42.27992 149.37347 165.74461 398
-793.58466 843.92419 86.11591 351
-774.33246 828.06750 110.15673 377
-773.64722 827.42755 131.65440 405
-778.15912 831.22705 152.49622 397
93.46587 105.53682 171.59470 316
84.69878 112.80699 171.66223 312
74.68066 120.97416 171.78687 308
39.93697 149.51526 165.37141 397
-808.25287 845.86646 84.87290 347
-787.56042 828.79608 109.15201 370
-786.01154 827.52124 130.85826 401
-791.90094 832.47321 152.11888 378
92.87092 104.75361 171.63216 316
84.02341 111.90897 171.71523 312
73.99557 120.08984 171.79388 308
37.55819 149.61734 164.95300 396
25.92296 159.00951 166.02977 297
-824.62250 848.58618 83.62193 346
-801.72198 829.82874 108.39220 361
-799.81885 828.04181 130.06306 393
-806.25269 833.66241 151.28409 368
92.32948 103.93059 171.62488 316
83.39905 111.03806 171.70795 312
73.31350 119.11452 171.78426 308
35.13616 149.69194 164.49956 395
25.00368 157.83386 166.04025 297
-841.88293 851.69714 82.05124 333
-816.96881 831.80493 107.26649 353
-814.26001 829.64905 129.33209 381
-822.70428 836.46790 150.51184 340
91.71487 103.12541 171.62091 316
82.80392 110.16496 171.68324 312
72.67962 118.17962 171.78729 308
32.72017 149.81456 164.06445 394
24.11027 156.56406 166.01643 297
-860.70178 855.89899 80.27531 333
-833.11780 833.90405 106.02840 349
-829.35541 831.15997 128.60312 384
-860.86255 856.35272 148.40511 256
91.14959 102.31934 171.61119 316
82.15771 109.30720 171.70468 312
71.97750 117.24493 171.78847 308
30.21541 149.88026 163.61372 392
23.14372 155.39412 166.06497 297
-880.06287 860.08252 78.80215 327
-850.28119 836.96124 104.70851 341
-844.52008 832.61804 127.55872 373
-864.07672 847.77057 148.53772 256
90.58121 101.47334 171.64288 316
81.55436 108.42456 171.72583 312
71.35435 116.29535 171.80640 308
27.62029 149.96358 163.15099 391
22.21524 154.14061 166.04436 297
-900.55292 865.44446 76.56392 329
-868.51807 840.49078 103.27612 339
-861.25739 834.89368 126.84956 370
-872.23236 843.58685 148.53168 339
89.99490 100.64644 171.63203 316
80.95178 107.54979 171.70483 312
70.65158 115.34428 171.78825 308
26.62985 148.85814 163.13765 296
21.32301 152.92390 166.03632 297
-924.79712 872.89471 74.22172 318
-888.05127 844.91260 102.03220 332
-878.73578 837.81195 125.68872 362
-891.72809 847.61731 147.76749 317
89.46514 99.80782 171.63669 316
80.36219 106.64974 171.71780 312
70.05048 114.40746 171.80791 308
58.16458 123.28830 171.88618 304
20.42551 151.63800 166.05162 295
-910.55341 850.89386 100.37022 319
-897.25201 840.88983 124.62606 345
-914.67029 853.83691 146.67844 307
88.87624 98.97348 171.63615 316
79.75317 105.74929 171.74512 312
69.37292 113.45849 171.79820 308
57.47850 122.29310 171.92297 304
19.53483 150.43803 166.01680 295
-936.45453 859.61072 98.14026 312
-918.42657 846.43188 123.33118 331
-939.96710 861.81854 145.49664 306
88.34201 98.13338 171.64658 316
79.18626 104.86332 171.72777 312
68.75871 112.51111 171.82240 308
56.78491 121.23679 171.92003 304
17.07774 150.33865 165.61403 389
-965.34656 869.78015 95.57936 308
-942.43335 852.85944 121.75270 333
-967.97632 871.58319 144.10875 308
87.79245 97.33403 171.68250 316
78.55299 103.98837 171.73645 312
68.11699 111.53088 171.81287 308
56.12550 120.21617 171.89841 304
14.36575 150.37816 165.19574 388
-993.54926 879.22241 93.49756 318
-966.31299 859.29736 120.07058 331
-1000.43005 884.29059 142.39699 290
87.23586 96.46590 171.68961 316
78.01970 103.09345 171.74316 312
67.47320 110.54070 171.82950 308
55.47334 119.13361 171.91025 304
11.55095 150.49635 164.72383 387
-984.44342 861.45825 119.03490 332
-1040.33630 900.97577 140.35408 287
86.69738 95.63154 171.66658 316
77.40527 102.17959 171.75185 312
66.89513 109.58620 171.84666 308
54.77697 118.08868 171.95132 304
8.73498 150.50650 164.28770 386
-1011.51910 869.04260 117.38456 312
86.19785 94.76770 171.66031 316
76.84129 101.27498 171.76886 312
66.27464 108.60947 171.83122 308
54.10953 117.05885 171.92999 304
5.86658 150.57994 163.78893 384
-5.98807 158.82373 165.64738 290
-1048.30994 883.38641 114.99624 304
85.67673 93.91992 171.69914 316
76.28667 100.33986 171.74078 312
65.64458 107.65235 171.86964 308
53.49710 116.01649 171.94968 304
2.91719 150.70789 163.28242 383
-6.91969 157.37959 165.62358 290
85.14642 93.08268 171.70485 316
75.72825 99.42237 171.76183 312
65.07577 106.63850 171.83023 308
52.84483 114.94530 171.96786 304
0.13205 150.62354 162.77121 285
-7.78041 155.97414 165.67862 291
84.62332 92.19810 171.69632 316
75.17423 98.51030 171.74883 312
64.47492 105.64116 171.87436 308
52.21031 113.87072 171.94789 304
37.95694 123.38947 172.10176 300
-8.77838 154.61290 165.62216 291
84.10762 91.35278 171.70644 316
74.65771 97.58257 171.77628 312
63.88494 104.68626 171.84486 308
51.55053 112.82163 171.97224 304
37.27252 122.20839 172.07256 300
-9.72272 153.22537 165.62427 291
83.60844 90.44445 171.71724 316
74.09239 96.62936 171.75307 312
63.27807 103.68452 171.87723 308
50.89819 111.72830 171.99307 304
36.60313 121.04945 172.11093 300
-10.64007 151.77264 165.65678 291
83.10082 89.59084 171.68497 316
73.57576 95.75280 171.78105 312
62.71500 102.69121 171.87567 308
50.27052 110.63976 171.97778 304
35.89872 119.87730 172.11890 300
-12.63818 151.07922 165.34633 377
82.61617 88.72179 171.71782 316
73.04427 94.77478 171.77776 312
62.16597 101.69894 171.90106 308
49.69541 109.59183 171.97055 304
35.24869 118.72615 172.11908 300
-15.99810 151.14806 164.85544 376
82.11014 87.83321 171.71245 316
72.52094 93.84550 171.78789 312
61.56340 100.64336 171.85982 308
49.04796 108.51471 171.97261 304
34.55724 117.53158 172.10152 300
-19.31430 151.20639 164.30656 375
81.62284 86.97597 171.73016 316
71.96557 92.89122 171.81859 312
61.03069 99.65173 171.90344 308
48.49355 107.39416 171.97685 304
33.89082 116.36565 172.08192 300
-22.81705 151.30717 163.78041 373
81.16839 86.07053 171.69850 316
71.48055 91.99392 171.79115 312
60.49546 98.67119 171.90004 308
47.85728 106.29845 171.96741 304
33.29737 115.16817 172.09834 300
-26.32374 151.42606 163.22015 372
80.68353 85.18967 171.73967 316
70.97739 91.00390 171.78436 312
59.90742 97.61765 171.90182 308
47.30871 105.20972 172.02676 304
32.62688 114.02805 172.14830 300
15.47579 124.26267 172.26758 296
-42.97950 159.29205 165.11914 286
80.22456 84.29896 171.73302 316
70.44011 90.09134 171.80777 312
59.38085 96.60392 171.88994 308
46.71671 104.15511 171.98656 304
32.02299 112.83539 172.15559 300
14.78574 122.97708 172.27760 296
-43.83926 157.61333 165.15533 286
79.73071 83.41811 171.72420 316
69.94862 89.10863 171.83224 312
58.86542 95.59686 171.88745 308
46.11781 103.03278 171.98561 304
31.35415 111.58962 172.10680 300
14.06846 121.67616 172.24158 296
-44.72671 155.99648 165.13959 286
79.30864 82.53759 171.72897 316
69.46329 88.17106 171.83049 312
58.32903 94.55986 171.90709 308
45.54215 101.94167 171.99448 304
30.73583 110.40264 172.11392 300
13.41690 120.37601 172.31192 296
-45.67671 154.30986 165.16272 286
78.85378 81.64194 171.75401 316
68.97800 87.18668 171.82530 312
57.78321 93.53828 171.89658 308
45.01251 100.80563 172.01288 304
30.13637 109.22848 172.12663 300
12.77565 119.05312 172.28673 296
-46.50719 152.62628 165.14578 286
78.37119 80.73122 171.76193 316
68.49496 86.26157 171.82254 312
57.28563 92.48907 171.90160 308
44.41377 99.69482 172.02412 304
29.54429 108.00048 172.15637 300
12.11087 117.76379 172.30971 296
-49.05835 151.93166 164.83018 374
-2794.26050 1684.69617 102.89949 326
-2793.20703 1684.84314 159.91412 326
-2793.83447 1684.49939 216.81189 396
-2793.78320 1684.78125 273.33960 396
77.94706 79.83070 171.76991 316
68.06081 85.28617 171.81293 312
56.78062 91.47192 171.94093 308
43.90210 98.60204 172.00845 304
37.56988 102.07178 174.09723 319
20.93771 111.18590 174.25607 270
-52.89206 151.84337 164.24852 373
77.51775 78.89487 171.77779 316
67.57360 84.32744 171.83376 312
56.26159 90.43068 171.94690 308
46.04032 95.99145 172.70308 321
40.22536 99.13701 174.85156 320
32.34577 103.45985 176.76556 271
13.81305 113.44010 176.97701 271
77.08964 77.98444 171.73412 316
67.12027 83.35316 171.82417 312
55.76718 89.41051 171.90726 308
48.44167 93.28838 173.44531 322
42.78234 96.33204 175.55121 321
36.87572 99.48707 177.84483 319
25.24855 105.71468 179.23604 273
76.68155 77.08530 171.73790 316
66.64953 82.36443 171.82533 312
56.05954 87.96851 172.16200 325
50.79125 90.70718 174.10114 323
45.22388 93.63678 176.21382 322
39.53877 96.65095 178.51691 320
28.51219 102.49513 179.93437 292
7.40520 113.59944 180.11624 288
76.25239 76.16401 171.74608 316
66.21931 81.38281 171.83401 312
58.13670 85.54650 172.81865 327
53.01878 88.22092 174.78342 325
47.61653 91.03405 176.86816 323
42.13123 93.88475 179.13596 321
27.91553 101.23536 179.95084 292
6.74942 112.22213 180.14333 288
75.83527 75.26466 171.75648 316
65.77734 80.40767 171.84973 312
60.21486 83.24406 173.49199 328
55.20764 85.79282 175.42513 326
49.96399 88.48919 177.50467 325
44.61347 91.20969 179.77058 323
27.40374 100.02354 179.97324 292
6.17549 110.91148 180.14139 288
75.41330 74.33666 171.75665 316
65.33368 79.44763 171.85416 312
60.99530 81.57061 173.82547 385
57.33004 83.42829 176.09129 327
52.19324 85.99989 178.10904 325
44.43489 89.93469 179.80009 296
26.80893 98.77428 179.93526 292
4.73438 109.92217 180.01750 292
75.04031 73.40644 171.76094 316
65.08035 78.34100 171.91829 376
61.74215 80.01511 174.10349 386
58.70238 81.50208 176.50349 384
54.38953 83.61958 178.70712 326
43.91963 88.83620 179.79860 296
-3.84257 112.47979 174.40105 290
-3.86893 112.51512 178.69431 290
-21.41578 121.23566 180.39728 284
74.61220 72.46571 171.79004 316
65.84713 76.79504 172.22661 377
62.42477 78.45371 174.42619 387
59.47268 79.86852 176.79179 385
56.40462 81.36916 179.28084 383
43.44254 87.71375 179.81960 296
5.91474 106.03027 176.29202 283
-13.20023 115.32472 177.22331 289
-22.08071 119.71014 180.36554 284
74.20944 71.58213 171.77567 316
66.55984 75.26764 172.58098 378
63.15116 76.87779 174.70676 388
60.19504 78.30556 177.09344 386
57.17134 79.75601 179.54124 384
43.00135 86.59655 179.84587 296
12.80100 101.08976 177.70450 285
-17.41970 115.61715 176.63736 345
-22.71842 118.12631 180.38396 284
73.86384 70.62931 171.81007 316
67.26788 73.75539 172.88039 379
63.83881 75.35711 175.03787 389
60.91741 76.74281 177.40421 387
57.48907 78.38408 179.71013 300
42.51330 85.44642 179.81531 296
19.28276 96.43906 178.99773 286
4.51413 103.41791 180.38622 283
-23.37231 116.57497 180.35445 284
73.48172 69.70898 171.80368 316
67.94600 72.29369 173.18884 380
64.51707 73.84879 175.30197 390
61.67103 75.22491 177.66858 388
57.06342 77.31616 179.71935 300
29.60341 90.14231 177.32237 333
22.86860 93.26402 179.73468 315
11.50125 98.58295 181.62921 285
-26.10610 116.04814 180.04041 342
73.10394 68.74454 171.81209 316
68.63638 70.83256 173.46642 381
65.19768 72.38216 175.57234 391
62.36013 73.66401 177.90778 389
56.67049 76.28753 179.70369 300
31.56879 87.78779 177.82430 334
25.41763 90.61422 180.28363 332
17.49972 94.27348 182.67412 314
3.25782 100.75140 184.45096 284
72.70160 67.84673 171.78949 316
69.32376 69.36090 173.75485 381
65.87300 70.88685 175.84100 392
63.07889 72.17383 178.19629 390
56.27134 75.23554 179.72466 300
33.57258 85.50350 178.32367 335
27.46779 88.22446 180.74762 333
20.50742 91.33990 183.28246 315
10.28873 95.97965 185.52142 285
73.27411 66.50665 172.07179 385
69.98603 67.94192 174.04105 382
66.57668 69.43790 176.15756 380
63.75014 70.69686 178.43765 391
55.83828 74.20070 179.72290 300
35.45028 83.22853 178.79886 336
29.51896 85.86458 181.22113 334
23.26382 88.68040 183.77167 332
15.10929 92.30043 186.27188 314
2.02714 98.04786 188.45312 284
73.89309 65.11441 172.37309 386
70.67175 66.52245 174.34480 383
67.28922 67.99001 176.39241 381
64.44038 69.24196 178.68179 392
55.44175 73.15939 179.71338 300
37.30300 81.08418 179.24655 338
31.55609 83.57560 181.67358 335
25.42319 86.23035 184.22604 333
18.16805 89.44630 186.80785 315
9.12712 93.38727 189.43510 285
-12.58064 102.81957 191.00787 265
74.52530 63.75892 172.63744 387
71.29897 65.13042 174.62093 384
67.99273 66.58198 176.69469 382
65.12669 67.77121 178.93466 393
55.04708 72.13675 179.73584 300
39.15200 78.95008 179.74049 339
33.46737 81.36869 182.12834 336
27.49135 83.95139 184.61456 334
21.10229 86.68855 187.32487 316
12.68103 90.29922 189.97269 313
0.90784 95.32140 192.49167 284
75.15307 62.41909 172.92535 388
71.96803 63.75747 174.90707 385
68.69399 65.14503 176.92767 383
65.79964 66.39075 179.20767 394
54.65521 71.04583 179.73109 300
40.72911 76.94427 180.09857 372
35.38862 79.20887 182.53819 337
29.50628 81.66643 185.05197 335
23.36485 84.26311 187.67981 333
15.82166 87.43706 190.36873 315
7.04115 91.14387 193.21669 312
-13.31260 99.74796 195.30934 265
75.75333 61.12236 173.20090 388
72.61710 62.43561 175.18292 386
69.35175 63.76388 177.19139 384
66.48753 64.97588 179.44937 395
45.66078 73.57170 177.87991 386
41.66469 75.24361 180.37561 373
37.23456 77.05827 182.92444 338
31.50560 79.46609 185.45114 336
25.47106 81.93031 188.04675 334
18.84333 84.71252 190.84755 316
10.34103 88.24964 193.65602 313
-0.10468 92.53780 196.50671 284
76.22454 59.86032 173.44554 419
73.26446 61.07066 175.45114 387
70.01858 62.37718 177.48987 385
66.99707 63.64549 179.65497 304
46.41996 72.02328 178.13989 387
42.58553 73.55756 180.64427 374
38.31888 75.31800 183.23358 372
33.47313 77.29170 185.79443 337
27.57537 79.66591 188.40669 335
21.29295 82.22639 191.21057 332
13.52983 85.40316 193.98622 314
4.60343 89.04901 197.02434 312
-13.92781 96.60246 199.58012 265
76.51138 58.69864 173.61264 419
73.90395 59.75930 175.71201 388
70.72575 61.02778 177.71158 386
66.66537 62.64177 179.65619 304
47.14246 70.47161 178.35689 388
43.41719 71.92835 180.92590 386
39.28058 73.61472 183.46153 372
34.91403 75.32544 186.09906 370
29.58983 77.49993 188.81194 336
23.47195 79.92832 191.55429 333
16.60761 82.63802 194.42238 315
7.97695 86.15328 197.33521 313
-1.38906 89.89387 200.53609 310
76.77648 57.57640 173.79784 420
74.17741 58.59105 175.86456 418
71.36364 59.70531 177.99184 387
66.30466 61.69655 179.65556 304
47.85962 68.94280 178.59467 389
44.16985 70.38424 181.10329 387
40.27825 71.91557 183.72656 373
35.91083 73.62897 186.32646 371
31.44148 75.40715 189.12149 368
25.60469 77.67549 191.82611 335
19.28067 80.13953 194.71149 332
11.22888 83.29548 197.67438 314
2.16656 86.89458 200.83835 311
77.06863 56.42882 173.96309 421
74.46668 57.41698 176.04797 419
71.81184 58.42651 178.16089 416
65.98709 60.67305 179.64529 304
48.52605 67.43988 178.84627 390
