# .PCD v.7 - Point Cloud Data file format
VERSION .7
FIELDS x y z rgb
SIZE 4 4 4 4
TYPE F F F U
COUNT 1 1 1 1
WIDTH 1404
HEIGHT 1
VIEWPOINT 6445.555176 -722.280090 144.214508 -0.634927 -0.096957 -0.086179 0.761604
POINTS 1404
DATA ascii
345.64432 884.79834 69.33493 469
344.78711 879.82166 84.91917 466
344.30792 875.14960 100.38084 468
343.59167 870.70490 115.55355 470
343.57214 871.19080 130.13803 489
343.98318 873.20862 144.68929 486
345.11429 881.59247 158.65419 481
340.11639 884.16986 69.51608 469
339.38342 878.95288 85.30912 467
338.51141 874.38623 100.63847 468
338.11743 869.73596 115.78153 470
338.08871 870.39783 130.45566 490
338.49258 872.35651 144.69853 486
339.75912 881.47870 158.64964 456
334.43027 883.35205 69.59613 469
333.76083 878.10040 85.49221 448
333.02975 873.43994 100.92807 469
332.45108 868.80133 116.03100 470
332.50717 869.59290 130.57635 490
332.90082 871.75958 144.87189 485
358.58597 1061.89832 146.90620 366
328.78870 882.58948 69.93621 470
328.17691 877.34601 85.79716 448
327.45267 872.42609 100.99043 469
326.91754 867.81232 116.12082 471
327.15588 868.62604 130.53979 490
327.31726 870.81348 144.92702 486
357.49945 1104.89172 144.14027 398
323.29233 881.87317 70.11057 470
322.78888 876.57642 85.99813 448
322.16013 871.61890 101.20686 470
321.46277 867.02026 116.36584 471
321.55322 868.03967 130.80461 491
321.90192 870.04498 144.95232 486
351.18787 1110.52539 143.59837 421
317.74213 881.35126 70.43511 470
317.15472 875.76495 86.06265 449
316.53781 870.71722 101.42989 470
316.12018 866.04938 116.52772 472
316.18918 867.18420 131.01103 491
316.33032 869.34509 145.21805 487
345.89871 1123.74023 142.77585 491
312.19897 880.61993 70.74002 471
311.65860 875.15515 86.17882 449
311.13321 869.79681 101.64126 470
310.71353 865.30432 116.78677 473
310.80450 866.52625 131.10573 492
311.11530 868.63049 145.36719 487
338.86118 1122.80408 143.14911 491
306.75327 879.87390 70.84036 471
306.15228 874.37109 86.60548 449
305.75378 868.92578 101.90651 471
305.10693 864.40302 116.95615 473
305.38876 865.61414 131.20552 492
305.54108 867.97552 145.50040 487
331.85361 1121.69824 143.14615 491
301.34692 879.25592 70.95541 471
300.67557 873.65735 86.77001 450
300.24133 867.95367 102.03577 471
299.89468 863.57391 117.16171 474
299.88348 864.88483 131.36449 492
300.10358 867.08820 145.40855 488
325.05093 1120.80762 143.25372 492
295.91293 878.34399 71.12581 472
295.27567 872.92181 86.89809 450
294.82291 867.20447 102.38631 471
294.39017 861.99164 117.23610 325
294.46426 864.17175 131.46637 493
294.77936 866.57501 145.58102 461
295.64886 876.11639 159.17590 288
290.51901 877.67004 71.51732 472
289.91412 872.24792 87.06738 450
289.43024 866.26941 102.38943 472
288.94489 860.51422 117.58838 325
289.16467 863.21851 131.48822 493
289.43884 865.91467 145.68835 462
290.16916 874.91827 159.31004 377
284.96848 876.98083 71.69108 472
284.66022 871.43896 87.14027 450
284.04025 865.24902 102.55597 472
283.67151 859.57233 117.68937 414
283.84167 862.54987 131.58337 493
284.04041 865.11975 145.81920 462
284.82172 873.89050 159.52594 377
279.68030 876.46051 71.82842 473
279.19858 870.72693 87.40115 451
278.69144 864.57068 102.88046 472
278.32404 858.59106 117.92491 414
278.51282 861.69281 131.76631 494
278.63107 864.41858 145.83710 462
279.21869 872.97638 159.67102 377
274.16632 875.61127 72.07737 473
273.76657 870.15515 87.46152 451
273.48172 863.61456 102.85823 473
273.00754 857.52069 118.08663 415
273.15747 861.01776 131.97327 494
273.29361 863.81781 146.04501 462
274.06497 871.90491 159.61115 447
268.86328 875.01416 72.15748 473
268.50143 869.27234 87.65405 451
268.14951 862.81372 103.14748 473
267.76398 856.67645 118.04869 415
268.02145 860.30121 131.92587 494
268.01575 863.17737 145.96461 463
268.46124 871.19293 159.61694 448
263.46667 874.28784 72.42794 473
263.15015 868.69409 87.88469 451
262.64255 861.81836 103.17079 473
262.47110 855.98792 118.29430 494
262.72400 859.55035 132.09557 495
262.88840 862.48120 146.17828 463
263.19931 870.21704 159.93636 447
258.09036 873.62354 72.48217 474
257.86707 867.94415 88.04566 452
257.48416 860.95074 103.42046 474
257.24713 855.07727 118.41853 494
257.28244 858.72058 132.12483 495
257.40161 861.85559 146.18134 463
257.98111 869.00916 159.89095 487
252.63873 872.91650 72.62019 474
252.48192 867.28607 88.14214 452
252.10432 860.06067 103.63007 474
252.01282 854.36755 118.45198 494
252.06714 857.99286 132.22195 495
252.25195 861.20404 146.33542 463
252.53568 868.43658 160.08228 494
247.46962 872.34723 72.64523 474
247.19698 866.49762 88.24235 452
247.01787 859.25183 103.75053 474
246.81100 853.46069 118.66962 401
246.93144 857.23096 132.35149 495
246.87486 860.33240 146.31802 464
247.29631 869.78125 159.76491 324
1199.09717 27301.93750 4284.73633 1000
241.95436 871.71191 72.87164 474
241.81425 865.96698 88.32245 452
241.51114 858.47601 103.93448 475
241.45174 852.49792 118.85860 401
241.64479 856.53882 132.52336 496
241.62683 859.79834 146.38249 464
236.78137 870.88855 73.08189 474
236.61551 865.23114 88.55848 452
236.26054 857.64624 103.87993 475
236.29404 851.63568 118.82413 401
236.26628 855.81494 132.55269 496
236.33099 859.17932 146.40715 464
231.43849 870.45361 73.19464 475
231.34497 864.50024 88.48631 453
231.29234 856.73468 104.05154 455
231.09595 850.55280 119.06927 401
231.18196 855.04614 132.72055 496
231.17352 858.28583 146.60889 464
226.12820 869.69971 73.30670 475
225.90718 863.93274 88.66257 453
225.96487 856.23077 104.05515 455
225.94711 849.81946 119.20321 496
225.90407 854.17487 132.81934 496
225.98065 857.82794 146.51395 464
220.91554 868.93799 73.31661 475
220.75114 863.28729 88.92082 453
220.85931 855.40033 104.24252 455
220.66226 849.14056 119.23869 496
220.68120 853.47650 132.75894 497
220.86560 857.04572 146.71436 465
215.47984 868.28168 73.41124 475
215.62794 862.52777 88.87712 453
215.53542 854.85291 104.44618 455
215.61659 848.43744 119.33366 496
215.44432 852.66632 132.96400 497
215.61221 856.46942 146.79037 465
210.16925 867.76111 73.48836 475
210.30006 861.89661 89.13267 453
210.42975 854.14398 104.36833 456
210.46565 847.67090 119.26431 496
210.31740 852.04474 132.90605 497
210.41373 855.80731 146.78311 465
205.03690 867.10095 73.57435 444
205.18077 861.19098 89.21178 453
205.20775 853.56793 104.37999 456
205.30905 846.78015 119.39774 496
205.30721 851.19348 133.15451 497
205.17963 855.11249 146.84413 465
201.86166 1107.57666 144.37709 471
199.63193 866.64746 73.68172 444
199.78540 860.59943 89.10832 454
200.02498 852.81598 104.63503 456
200.06845 846.08319 119.62399 497
200.10519 850.46490 133.01505 498
199.89403 854.28784 146.91890 465
194.50775 866.35278 73.70949 444
194.70953 859.97327 89.24342 454
194.85455 852.22186 104.63675 456
194.88455 845.20947 119.70462 497
194.92824 849.81250 133.08154 498
194.86526 853.71515 146.80573 465
189.22057 866.11975 73.81707 445
189.31512 859.37219 89.28777 454
189.61688 851.57581 104.78765 456
189.76639 844.61151 119.75790 497
189.72090 849.01605 133.31670 498
189.66177 853.06165 146.87979 465
183.84526 865.61499 73.88112 445
184.17743 858.81305 89.34138 454
184.58929 850.94812 104.77825 456
184.67613 843.85040 119.78800 497
184.64384 848.34552 133.28389 498
184.45261 852.40961 146.93607 466
214.42905 55.80608 215.59091 1000
178.76218 865.24353 73.76139 445
179.01773 858.09650 89.39410 454
179.40230 850.44879 104.84029 456
179.56076 843.20044 119.72082 497
179.55017 847.63489 133.37560 498
179.30296 850.66669 147.04820 483
173.28554 864.96301 73.80287 445
173.75085 857.39331 89.43988 454
174.14572 849.71277 104.74037 456
174.50725 842.37231 119.89671 498
174.42059 846.89911 133.32779 498
174.32494 848.59442 147.12985 483
168.05759 864.51373 73.91818 445
168.68814 856.87805 89.62511 454
169.08514 849.13855 104.85735 456
169.52820 841.60980 119.90301 498
169.25792 846.01483 133.50827 499
169.13202 847.74817 147.26675 497
162.96184 864.26959 73.87831 445
163.35689 856.09357 89.52976 454
163.95670 848.32538 104.95769 454
164.46335 840.80542 120.03742 498
164.14601 845.22974 133.46294 499
163.95737 846.88586 147.41403 497
157.71786 864.08331 73.85838 444
158.12569 855.42688 89.77448 452
158.77884 847.59747 105.08127 455
159.21214 840.05005 119.88786 498
158.87718 844.55786 133.39633 499
158.86732 846.24310 147.22980 497
141.71022 1096.99646 145.01230 499
152.28250 863.31110 73.97794 444
153.02112 854.43134 89.64287 452
153.63258 846.77869 105.05557 455
154.21288 839.33447 120.11899 498
153.82928 843.83350 133.43387 499
153.68365 845.59064 147.45581 497
135.00108 1095.69971 144.92151 498
147.04462 862.73688 73.90328 444
147.94147 853.71643 89.86824 452
148.65701 845.79584 105.09000 455
149.14255 838.58704 120.18638 498
148.73633 843.07050 133.63043 499
148.61757 844.65613 147.39188 497
148.34438 848.98114 161.07829 499
141.97739 862.12415 73.91795 444
142.70932 852.79858 89.88057 452
143.52226 845.08502 105.17886 455
144.15198 837.96442 120.13921 498
143.68596 842.42413 133.53360 499
143.60690 844.06995 147.36003 497
143.12270 848.89581 161.02675 499
136.65158 861.49640 73.96850 444
137.58975 852.20868 89.99214 440
138.28835 844.25311 105.29272 455
139.05992 837.11029 120.17873 498
138.63132 841.60327 133.66896 499
138.37907 843.29364 147.39177 498
137.94777 848.56488 161.11191 499
131.39667 860.86377 74.02604 445
132.41862 851.56830 89.98534 440
133.12173 843.42108 105.21343 455
133.87187 836.54541 120.13474 498
133.46825 840.76685 133.54312 499
133.38824 842.54340 147.56067 498
132.72833 847.91187 160.99518 499
126.30375 860.34918 74.12019 445
127.34079 851.00391 90.03329 440
128.16310 842.51898 105.41222 455
128.84251 835.61676 120.11372 498
128.50290 840.04541 133.78215 499
128.28281 841.73138 147.47205 498
127.64838 847.17480 161.05974 499
121.10172 859.62964 73.94846 445
122.04572 850.21814 89.98650 440
123.11910 841.71478 105.36759 455
123.89465 834.95715 120.08395 498
123.25365 839.27325 133.70526 499
123.16723 841.01581 147.51344 498
122.59624 846.71747 161.13696 499
115.79905 859.11127 74.11579 445
116.86041 849.83771 89.97761 440
117.89382 841.01385 105.29411 455
118.72944 834.13196 120.15358 499
118.25685 838.70343 133.59613 499
118.11450 840.31238 147.55151 498
117.27826 845.93823 161.16602 499
110.50333 858.39166 74.00058 445
111.80928 849.09094 89.85305 440
112.87722 840.13013 105.31953 455
113.67319 833.59967 120.33131 499
113.05888 837.86932 133.81757 499
112.85453 839.74060 147.40276 498
112.23247 845.21008 160.94547 499
81.04929 1096.58459 162.80690 499
105.36913 857.80560 74.10209 445
106.68702 848.48907 89.83458 440
107.88459 839.37469 105.40569 455
108.54041 832.67371 120.15607 499
107.96260 837.04968 133.67004 499
107.87061 838.96667 147.61450 498
107.05475 844.42920 161.04062 499
74.44913 1095.49902 162.68327 499
100.12448 857.16772 74.06548 444
101.42324 847.88965 89.78498 440
102.78829 838.53589 105.34295 455
103.52316 832.09192 120.20810 499
103.02546 836.53699 133.72655 499
102.71667 838.16187 147.48486 497
101.93243 843.93140 161.10362 499
102.02205 844.06848 174.93219 499
94.96090 856.74066 74.07209 426
96.25452 847.41785 89.83193 440
97.52304 837.71155 105.35148 443
98.43700 831.32166 120.35678 499
97.86514 835.65869 133.62743 499
97.71295 837.51410 147.53186 497
96.78620 843.12952 161.13687 499
96.81912 843.69647 175.00856 499
89.53423 856.41241 73.74664 426
90.96731 846.88470 89.74097 440
92.46229 837.22180 105.41265 443
93.47349 830.60297 120.32163 499
92.82916 834.99799 133.60916 499
92.50993 836.80524 147.39011 497
91.60786 842.46240 160.94794 499
91.47701 843.53900 175.11339 499
84.24442 856.14545 73.75436 426
85.83979 846.14874 89.90203 440
87.30209 836.61060 105.40242 443
88.39188 829.77893 120.14473 434
87.65359 834.17859 133.59093 499
87.45988 835.93604 147.47231 497
86.48083 841.89221 160.98264 499
86.40305 842.86292 175.00317 499
78.95007 855.89502 73.60262 426
80.57963 845.63397 89.72948 440
82.18506 835.98901 105.41885 443
83.24361 829.12872 120.29957 434
82.60194 833.32922 133.76447 499
82.45128 835.30597 147.50363 497
81.47803 841.18469 161.07797 499
81.21702 842.17389 175.06615 499
73.79333 855.66229 73.64850 426
75.49602 845.14893 89.65026 440
77.15681 835.62988 105.35079 443
78.39085 828.51117 120.27089 434
77.49553 832.70947 133.60606 499
77.27524 834.57916 147.41406 497
76.21678 840.50989 160.97885 499
76.17358 841.62714 175.08400 499
68.35191 855.40295 73.49889 426
70.31746 844.56549 89.74685 440
72.04345 835.10486 105.29804 442
73.11739 827.85938 120.23201 434
72.51384 832.12964 133.71216 499
72.09612 833.99323 147.48048 496
71.16804 839.80310 160.98799 499
70.98544 840.86597 175.07047 499
-354.72192 3283.33203 163.64430 1000
63.15617 854.88300 73.43649 426
65.21535 843.95013 89.47781 440
66.88668 834.50861 105.11636 442
68.17382 827.43835 120.13414 434
67.28033 831.57709 133.65889 499
66.89996 833.46356 147.48854 496
65.94108 838.99915 161.09741 499
65.81586 840.24200 174.92131 499
21.32980 1086.38672 180.92842 498
57.78796 854.54938 73.15157 421
59.78661 843.60223 89.47926 440
61.62296 833.90228 105.24920 442
62.89483 827.02582 119.97044 434
62.10423 831.05707 133.52141 498
61.89531 833.14124 147.29430 496
60.73222 838.45801 160.91495 499
60.58549 839.50183 175.01221 499
14.92685 1084.47034 180.87190 497
52.55556 854.37067 73.18124 422
54.69315 843.23938 89.47614 439
56.48853 833.73676 105.01006 442
57.84395 826.37366 119.88882 432
57.00928 830.81458 133.46007 495
56.64907 832.56183 147.21095 492
55.71439 837.61853 160.84921 496
55.52209 838.66534 174.90527 496
55.23405 839.78143 188.86687 496
47.20824 854.27283 73.09029 421
49.24884 842.97180 89.38215 439
51.35234 833.51031 105.01950 443
52.77756 826.27863 119.94634 432
51.83273 830.80164 133.30156 495
51.32573 832.76117 147.26062 491
50.27032 838.10468 160.91068 494
50.09725 839.21069 174.74756 494
49.89185 839.90625 188.84003 493
41.79263 854.17792 72.82211 416
44.00546 842.73236 89.11533 439
46.10378 833.35797 104.86098 443
47.56055 826.28503 119.69118 431
46.63123 830.63892 133.29997 494
46.10406 832.64813 147.14572 491
45.08847 838.13464 160.76784 492
44.89249 839.25952 174.69995 493
44.74970 840.04840 188.78987 493
-74.27189 349.57443 -58.81928 415
38.73248 842.34882 89.04285 440
40.70100 833.17090 104.57898 442
42.29288 825.96637 119.59225 431
41.28160 830.75458 133.09949 494
40.70076 832.83594 147.16057 491
39.66505 838.52466 160.63535 491
39.43357 839.43829 174.68248 493
39.30901 840.12793 188.79211 493
30.86692 854.47253 72.48981 414
33.33072 842.50726 88.98486 437
35.40417 833.24060 104.58379 440
37.00610 825.88654 119.61982 429
35.86893 830.78009 133.00249 490
35.49356 832.88873 147.04807 487
34.24548 838.78009 160.69695 491
33.96417 839.52905 174.73581 491
33.96345 840.18866 188.85420 492
25.37614 854.81494 72.25804 415
27.83228 842.84888 88.56752 432
30.21413 833.27539 104.43770 439
31.65185 825.91418 119.48336 429
30.56072 831.06769 132.88405 490
30.09151 833.35699 146.77779 485
28.84296 838.87262 160.42458 490
28.52168 839.82599 174.51974 490
28.47814 840.74951 188.56454 392
19.70619 855.54254 71.92830 414
22.40233 843.48328 88.42393 432
24.65403 833.57855 104.15731 439
26.34633 826.24323 119.28378 490
25.15910 831.40497 132.77222 489
24.67111 833.93652 146.76549 485
23.37592 839.19519 160.41757 490
23.36551 839.71771 174.48645 491
21.90751 846.20258 188.48515 395
13.94057 855.92590 71.64598 412
16.89791 843.99274 88.15560 431
19.37800 833.90729 103.86031 434
21.02376 826.43146 119.01362 490
19.73192 831.76202 132.71497 488
19.19063 834.33087 146.62492 484
18.06161 838.99432 160.21304 491
16.76500 844.91656 174.10010 394
15.16814 851.67181 188.35359 394
-1411.69800 6840.60986 912.65210 1000
-1405.53967 6814.79053 1142.38489 1000
8.39391 856.86456 71.07095 412
11.33968 844.54688 87.96709 426
13.77665 834.33508 103.73856 434
15.78995 826.51288 119.04218 490
14.37889 832.08508 132.35040 487
13.78675 834.66266 146.46375 484
11.56766 843.29755 159.86392 394
9.94349 850.59534 173.86855 393
8.31066 857.29260 188.11543 393
2.38074 857.86536 70.77875 411
5.59230 845.24475 87.44656 426
8.24538 834.68243 103.44605 434
10.36169 826.89258 118.73003 487
8.87841 832.61884 132.23250 485
8.18944 835.39471 146.35022 481
5.00384 848.04572 159.50383 406
3.18790 855.47290 173.66098 404
-3.30260 858.34607 70.52601 418
-0.04565 845.87146 87.18389 425
2.80612 835.28381 103.15633 428
4.78530 827.06750 118.65121 486
3.40818 833.05530 132.06505 482
2.69247 836.07574 146.10822 480
-1.80250 852.68164 159.25679 405
-9.02328 858.92371 70.20404 412
-5.69524 846.72211 86.82574 425
-2.91381 835.99280 103.04015 428
-0.59789 827.59222 118.40402 483
-2.23380 833.86481 131.79240 480
-2.98786 836.79095 145.79771 477
-14.92543 860.07019 69.75032 412
-11.44489 847.65479 86.42991 419
-8.57582 836.65680 102.57415 427
-6.18026 827.95624 118.01408 483
-7.88014 834.56738 131.73553 479
-8.82178 837.50952 145.61456 474
-20.76914 861.08105 69.37932 412
-17.43303 848.75287 86.12214 418
-14.21385 837.70685 102.32348 423
-11.83332 828.62372 117.79317 480
-13.55870 835.29224 131.33467 478
-14.55230 838.57477 145.44476 476
-26.88446 862.54736 68.81799 402
-23.20489 849.74384 85.69299 414
-20.11439 838.66931 102.08950 423
-17.35941 829.19019 117.76143 479
-19.29465 836.24969 131.23685 476
-20.12880 839.29358 145.38939 475
-32.89886 864.02356 68.28516 401
-29.03182 850.95386 85.30630 413
-25.67896 839.50598 101.79649 422
-23.06792 830.02155 117.40632 479
-24.94124 837.05359 130.87164 475
-26.02810 839.96497 145.18698 443
-38.96863 865.61639 67.80518 401
-35.04219 852.14954 84.97232 413
-31.64647 840.64551 101.30936 419
-28.60217 830.64655 117.17268 478
-30.87833 837.84729 130.74133 475
-31.70798 841.07513 145.01302 443
-45.34778 867.34222 67.12455 400
-41.15090 853.17706 84.62412 412
-37.50544 841.50269 101.04207 419
-34.46770 831.20831 116.81531 478
-36.65752 838.85638 130.58580 474
-37.65011 842.22388 144.63026 442
-51.50125 868.96246 66.49843 400
-47.20991 854.72620 83.97272 403
-43.58338 842.64148 100.57456 418
-40.01090 831.89966 116.57479 470
-42.71776 839.82489 130.30814 469
-43.54795 843.36456 144.31186 441
-57.99216 870.55933 66.03481 401
-53.36895 856.25659 83.58021 402
-49.47431 844.03076 100.16551 415
-46.00018 833.02753 116.28858 470
-48.60343 840.96564 129.87248 469
-49.74808 844.28979 144.32133 440
-64.29639 871.89935 65.43848 401
-59.69289 857.91504 82.90275 401
-55.55579 845.51416 99.73508 414
-51.90875 834.16040 115.97324 469
-54.54059 842.09271 129.75687 469
-55.71980 845.44061 144.04843 432
-70.74229 873.55182 64.90305 400
-65.88940 859.34918 82.47404 401
-61.84022 846.95892 99.26067 413
-58.02358 835.15662 115.65728 468
-60.67104 843.13397 129.23065 468
-61.67884 846.66089 143.69101 431
-72.34913 861.04816 81.86552 402
-67.92064 848.29834 99.01909 413
-63.95957 836.34039 115.35552 467
-66.66077 844.38300 129.09662 459
-67.93078 848.13800 143.34831 426
-78.65850 862.60553 81.45011 398
-74.37548 849.82471 98.49773 409
-70.14385 837.35333 114.88770 462
-72.87851 845.70856 128.66969 458
-74.36424 849.54742 143.23839 416
-85.29021 864.56842 80.89044 398
-80.58294 851.47052 98.10536 409
-76.17072 838.90247 114.51450 379
-79.02778 847.03503 128.40968 457
-80.56390 851.02795 142.99493 416
-91.97686 866.50824 80.35821 399
-87.11579 853.25775 97.48864 408
-82.68906 840.57788 114.14286 378
-85.33443 848.33154 128.09601 457
-86.82933 852.23090 142.71176 415
-98.56835 868.23828 79.57710 399
-93.69398 855.05072 97.03040 407
-88.96348 842.29059 113.61839 378
-91.73982 849.62384 127.62236 446
-93.45737 854.22418 142.24046 437
-105.34144 870.77301 78.99809 391
-100.43650 856.91943 96.54488 400
-95.40407 844.07501 113.28121 449
-98.28884 851.55249 127.36944 442
-100.25820 856.57678 141.82416 436
-112.51667 873.34851 78.23245 390
-107.29001 859.36157 95.78163 399
-102.11203 845.96558 112.74804 448
-105.03199 853.49579 126.95145 441
-107.05824 858.86676 141.63976 435
-119.53280 875.85663 77.47686 393
-114.04808 861.82526 95.10069 399
-108.97673 848.27374 112.11529 371
-111.62664 855.63416 126.61005 440
-113.79111 861.13507 141.25224 425
-126.68834 878.19507 76.87991 392
-121.12735 864.30542 94.51904 398
-115.79308 850.97180 111.73119 356
-118.46422 857.53467 125.93369 433
-120.96824 863.56293 140.70645 424
-134.17575 881.27399 75.97321 386
-128.33580 866.94067 93.85349 393
-122.98168 853.62524 110.98764 358
-125.56634 859.81293 125.55837 432
-128.01027 866.20697 140.44797 423
-141.44398 884.37537 75.12191 399
-135.52554 869.85181 93.20352 388
-130.28752 856.58148 110.31245 395
-132.57716 862.43787 125.07500 431
-135.15335 868.75714 139.87834 408
-148.94354 887.09790 74.40501 386
-143.16835 872.78058 92.29968 387
-137.50853 859.40100 109.65874 394
-139.57443 864.60663 124.67261 430
-142.55095 871.40686 139.41907 407
-156.63008 889.96753 73.41296 398
-150.48787 875.87128 91.58279 386
-144.83104 862.37543 109.13164 393
-147.05304 867.16608 124.05212 429
-150.07469 874.32697 139.03247 406
-158.24525 878.78986 90.80296 385
-152.31517 865.21356 108.60556 393
-154.10542 869.36786 123.63330 428
-157.41420 877.14703 138.65901 401
-165.82741 881.93854 90.05074 385
-159.76411 868.23035 107.93848 392
-161.35880 871.57013 123.22550 427
-165.16774 880.09167 138.17551 393
-173.70905 885.24127 89.31315 384
-167.36469 871.17029 107.04595 391
-168.64371 873.94397 122.51820 426
-172.72372 882.85834 137.49127 392
-181.35947 887.84027 88.68324 396
-175.10330 874.01410 106.44302 390
-176.10475 876.28680 122.11744 425
-180.52864 885.92816 137.22884 411
-9697.17090 21969.24609 6265.08789 1000
-189.31548 890.75024 87.84026 395
-183.06366 876.90283 105.82316 389
-183.87321 878.95819 121.56068 415
-188.63319 889.15765 136.53169 411
-197.26991 893.43768 87.03657 394
-191.00089 880.12921 105.20148 388
-191.58864 881.50714 120.95564 416
-196.79070 892.83276 135.94521 390
-205.13785 896.66412 86.06021 390
-199.03020 883.48950 104.37354 384
-199.50681 884.11353 120.43318 415
-205.50496 896.93512 135.55936 389
-207.29163 886.87958 103.65941 383
-207.35704 887.02606 119.96492 401
-214.02692 900.69244 134.94795 388
-215.73940 890.38068 102.92184 385
-215.82687 890.36749 119.27874 402
-222.53894 904.50269 134.15672 373
-224.31516 894.35052 101.86060 375
-224.11514 893.78644 118.53542 401
-231.66959 908.80798 133.72896 372
-233.04141 898.19934 101.06470 396
-232.74228 897.06244 117.96361 391
-240.50697 912.80469 133.12254 371
-242.10153 902.06116 100.15337 395
-241.33794 900.94702 117.21872 392
-251.23473 906.16528 99.19063 383
-250.17915 904.38788 116.51427 390
-259.26874 908.11316 115.63317 389
-268.11371 911.84662 114.96248 388
127.52588 148.31206 169.45865 485
126.50249 148.01320 169.40067 441
124.68778 148.88222 168.92409 489
120.65794 149.25432 168.24774 489
-4089.11646 6442.17871 1893.47888 1000
118.08597 151.14462 167.41847 316
117.21683 150.50368 167.43553 316
116.35073 149.85400 167.41513 316
115.50715 149.17380 167.45287 316
114.34392 148.93384 167.31322 275
111.47805 151.00694 166.36736 314
110.58555 150.32999 166.40059 314
109.72050 149.65111 166.38936 314
108.85233 148.94453 166.37341 314
108.01934 148.26762 166.41536 314
107.15028 147.54558 166.38638 314
106.27558 146.85059 166.39323 314
105.21143 146.46323 166.29282 423
103.64887 146.60916 165.99658 422
96.38116 155.67128 166.38541 309
102.08286 146.76196 165.65781 421
95.45890 154.88058 166.39700 309
100.46191 146.90051 165.39250 420
94.57796 154.14735 166.37756 309
98.85350 147.07605 165.06474 419
93.67822 153.38600 166.34692 309
97.25108 147.25404 164.70894 418
92.73146 152.58688 166.38054 309
95.63685 147.31499 164.44252 427
91.86345 151.77426 166.35631 309
94.08482 147.42540 164.15282 426
90.93816 150.99739 166.37044 309
92.46929 147.43202 163.83569 425
90.09202 150.22995 166.33313 309
90.85174 147.54211 163.50934 424
89.21514 149.42682 166.35472 309
89.69687 147.05737 163.39012 307
88.32140 148.62259 166.37479 309
88.89620 146.14795 163.45299 307
87.43424 147.77629 166.33534 309
88.13703 145.26471 163.43755 307
85.89146 147.73137 166.08803 422
87.40322 144.35406 163.51910 307
84.21070 147.76945 165.78691 421
86.61468 143.42838 163.54642 307
82.45548 147.81918 165.43997 420
74.50748 156.32082 166.24792 305
85.89919 142.52312 163.58273 307
80.74251 147.89854 165.12512 418
73.54218 155.44835 166.26025 305
85.12398 141.58713 163.58052 307
78.97117 147.96461 164.81996 417
72.64280 154.52600 166.26418 305
104.99684 119.54079 171.49817 316
77.18716 148.03177 164.46346 416
71.77346 153.59024 166.27469 305
104.32319 118.81659 171.53354 316
75.33392 148.12077 164.14995 415
70.84661 152.68874 166.25162 305
103.65782 118.07823 171.51393 316
73.50947 148.17661 163.79288 414
69.94170 151.77115 166.26917 305
103.00764 117.30305 171.54623 316
71.68980 148.26457 163.45609 413
69.05576 150.80682 166.25148 305
102.34169 116.58871 171.51707 316
70.47716 147.66109 163.30870 303
68.17201 149.90080 166.28329 305
101.71244 115.80340 171.53246 316
69.70782 146.61395 163.34296 303
67.31850 148.95886 166.24911 305
101.06417 115.04179 171.54680 316
68.95985 145.61804 163.39177 303
65.89938 148.48994 166.08803 410
100.43038 114.27560 171.57144 316
68.19636 144.56778 163.42334 304
63.96060 148.55942 165.75758 409
99.78692 113.55318 171.58162 316
67.46387 143.47920 163.48544 304
61.96465 148.62024 165.36699 408
51.78022 158.06418 166.17815 301
99.13039 112.76141 171.57124 316
90.69638 120.48318 171.64302 312
59.90667 148.69333 164.99445 407
50.87763 157.00232 166.17377 301
98.51900 111.99534 171.55411 316
90.05424 119.63753 171.63893 312
57.87225 148.80077 164.64578 406
49.99931 155.91759 166.15308 301
97.91065 111.19478 171.55376 316
89.39680 118.80722 171.62315 312
55.77553 148.87762 164.21532 405
49.10114 154.89500 166.17137 301
97.27639 110.39960 171.60201 316
88.69450 117.97930 171.64566 312
53.61969 148.98915 163.83850 404
48.21415 153.78954 166.19275 301
96.65897 109.61118 171.58470 316
88.03141 117.16414 171.67395 312
51.51879 149.07860 163.44406 402
47.25511 152.73846 166.18356 301
96.06409 108.84916 171.57768 316
87.42551 116.31210 171.66832 312
49.88087 148.63309 163.22943 300
46.39872 151.65147 166.15463 301
95.42712 108.06606 171.59018 316
86.73514 115.44518 171.69063 312
49.12076 147.46326 163.26041 300
45.49035 150.57211 166.12444 301
94.85938 107.27016 171.60397 316
86.11327 114.58903 171.66052 312
48.44321 146.31953 163.29173 300
44.63446 149.48648 166.18024 301
94.27499 106.47115 171.59535 316
85.48441 113.75397 171.67747 312
75.49725 122.03343 171.75229 308
42.50614 149.40907 165.80365 398
93.67611 105.64786 171.62132 316
84.82861 112.87288 171.67474 312
74.80851 121.08921 171.76099 308
40.20662 149.46225 165.37442 397
93.09301 104.82020 171.59457 316
84.23666 112.01322 171.66975 312
74.15417 120.14859 171.77667 308
37.81446 149.54858 164.98389 396
-1946.92566 1756.72070 80.04852 473
-1946.77478 1756.91138 125.41705 428
-1947.27441 1757.33789 171.16864 366
-1948.45874 1758.40442 216.68594 291
92.49313 104.02773 171.63242 316
83.62045 111.16173 171.71753 312
73.50162 119.24176 171.77406 308
35.40197 149.66438 164.54694 395
25.07732 157.94043 166.06857 297
91.94834 103.19210 171.61903 316
82.98740 110.29335 171.68748 312
72.80402 118.29559 171.78180 308
32.97845 149.75899 164.09094 393
24.15965 156.70815 166.02678 297
91.35266 102.38161 171.61415 316
82.37045 109.41341 171.70039 312
72.14963 117.36727 171.79781 308
30.48137 149.88655 163.70123 392
23.29095 155.52246 166.05942 297
90.79113 101.57831 171.63481 316
81.77848 108.52448 171.68860 312
71.52182 116.39800 171.79008 308
27.95573 149.95250 163.21753 391
22.33191 154.26915 166.04550 297
90.21864 100.74335 171.62794 316
81.17650 107.61504 171.74176 312
70.89020 115.47884 171.80614 308
26.77186 149.02896 163.10574 296
21.48650 153.03308 166.06723 297
89.66944 99.91473 171.65030 316
80.58864 106.74382 171.72148 312
70.22371 114.51099 171.82387 308
58.38389 123.37550 171.91115 304
20.59124 151.75806 166.03004 295
89.13903 99.06258 171.66115 316
79.98543 105.82289 171.74951 312
69.61719 113.52645 171.81488 308
57.71227 122.37894 171.92485 304
19.67768 150.50418 166.04990 295
88.57681 98.23840 171.67265 316
79.38622 104.95961 171.74957 312
68.96367 112.59739 171.81071 308
57.02929 121.34431 171.90498 304
17.35560 150.34836 165.64667 389
88.02940 97.38757 171.66287 316
78.80550 104.05648 171.72784 312
68.36977 111.62598 171.81201 308
56.31491 120.30356 171.94600 304
14.70506 150.38039 165.25291 388
87.52873 96.53078 171.68532 316
78.23603 103.12950 171.73059 312
67.73330 110.65405 171.80417 308
55.69545 119.21947 171.94577 304
11.89362 150.46526 164.79259 387
86.96416 95.67469 171.69150 316
77.70380 102.22147 171.73460 312
67.12493 109.67301 171.85631 308
55.03502 118.18558 171.96028 304
9.03889 150.52650 164.28421 386
86.43703 94.84903 171.66687 316
77.13674 101.34245 171.76036 312
66.49907 108.68683 171.85204 308
54.35726 117.16179 171.96135 304
6.20881 150.56404 163.80388 384
-5.78208 158.91360 165.65836 290
85.91949 94.00251 171.67302 316
76.55329 100.41363 171.75539 312
65.90761 107.71015 171.82030 308
53.71531 116.10870 171.94308 304
3.26383 150.65543 163.27943 383
-6.70864 157.55563 165.61745 290
85.40567 93.13457 171.68121 316
76.01067 99.49197 171.78406 312
65.30730 106.73529 171.87468 308
53.09769 115.04207 171.96939 304
0.25879 150.71866 162.81950 382
-7.65260 156.07755 165.66887 291
84.91695 92.27641 171.69905 316
75.49023 98.59495 171.78888 312
64.71678 105.74163 171.87810 308
52.45352 113.95588 171.95020 304
38.19164 123.44735 172.08798 300
-8.58215 154.73882 165.60129 291
84.43025 91.42411 171.70309 316
74.95007 97.66302 171.76627 312
64.16159 104.74335 171.88380 308
51.81067 112.88943 171.95517 304
37.49312 122.30420 172.06248 300
-9.48298 153.30722 165.66693 291
83.92725 90.56672 171.68094 316
74.38097 96.73340 171.78052 312
63.59292 103.75041 171.84204 308
51.18026 111.82656 171.94888 304
36.82934 121.12790 172.10966 300
-10.44405 151.84013 165.65805 291
83.41854 89.65478 171.70558 316
73.85799 95.81357 171.77383 312
63.00167 102.76828 171.86517 308
50.58348 110.71440 171.98979 304
36.19773 119.96732 172.09862 300
-12.27403 151.03093 165.38666 377
82.94617 88.77864 171.69742 316
73.33018 94.86022 171.78120 312
62.48443 101.73778 171.86784 308
49.99340 109.63131 171.98882 304
35.52772 118.80304 172.06889 300
-15.58649 151.10307 164.86684 376
82.43871 87.90413 171.68930 316
72.81734 93.92828 171.78372 312
61.91120 100.77139 171.88338 308
49.38214 108.60093 171.99785 304
34.87825 117.64317 172.10039 300
-18.96495 151.25714 164.35796 375
81.97522 87.02251 171.70062 316
72.30946 92.98862 171.77455 312
61.35455 99.71603 171.89505 308
48.74844 107.47691 171.96326 304
34.24221 116.45908 172.09016 300
-22.41141 151.28215 163.80960 373
81.50777 86.14121 171.70021 316
71.79381 92.06621 171.82278 312
60.80030 98.74643 171.86826 308
48.19552 106.40365 172.02176 304
33.60282 115.28802 172.08269 300
-25.87057 151.39296 163.23459 372
81.03593 85.25443 171.71690 316
71.29402 91.07353 171.78328 312
60.28002 97.71658 171.87201 308
47.60965 105.31284 171.97772 304
32.96958 114.05053 172.09964 300
15.74219 124.35063 172.26268 296
-42.71437 159.39346 165.09766 286
80.59340 84.38194 171.74243 316
70.83202 90.13323 171.81425 312
59.72749 96.69148 171.88603 308
47.01707 104.20703 172.01443 304
32.34573 112.90451 172.14267 300
15.08273 123.09050 172.24609 296
-43.57857 157.75682 165.15938 286
80.11459 83.49489 171.73050 316
70.30827 89.18390 171.80096 312
59.18742 95.69401 171.91011 308
46.47657 103.07871 172.00529 304
31.68061 111.66486 172.13722 300
14.42650 121.76192 172.24940 296
-44.53559 156.07295 165.15976 286
79.67318 82.61446 171.72488 316
69.85523 88.25887 171.80376 312
58.70348 94.62130 171.89722 308
45.88611 101.96526 172.03828 304
31.06769 110.50062 172.10359 300
13.72265 120.48689 172.30132 296
-45.39429 154.41000 165.16101 286
79.22495 81.71324 171.74844 316
69.35392 87.26645 171.83905 312
58.15924 93.62960 171.90758 308
45.35119 100.86821 172.00974 304
30.49608 109.31893 172.10934 300
13.09384 119.18127 172.27618 296
-46.28187 152.76309 165.12415 286
78.78172 80.81888 171.72734 316
68.92251 86.30133 171.82996 312
57.64949 92.58521 171.89273 308
44.77882 99.75767 171.99384 304
29.90019 108.06020 172.15477 300
12.45294 117.80576 172.28314 296
-48.63312 151.94641 164.88377 374
78.36282 79.87725 171.76901 316
68.44952 85.33370 171.83965 312
57.16198 91.53130 171.93318 308
44.24524 98.66253 172.03047 304
37.16064 102.56725 173.95941 319
19.17477 112.41270 173.85571 270
-52.46342 151.82600 164.31625 373
205.47641 9.96336 217.56041 1000
77.89732 79.00611 171.73244 316
67.99640 84.37258 171.81139 312
56.65522 90.49151 171.90295 308
45.68943 96.49689 172.50655 321
39.80690 99.64968 174.68732 320
30.61779 104.63841 176.31755 271
12.09377 114.67681 176.53966 271
77.50474 78.06634 171.77194 316
67.50389 83.39584 171.85832 312
56.17827 89.47417 171.94266 308
48.06844 93.81324 173.25026 322
42.34038 96.86131 175.36185 321
36.49018 99.97207 177.68379 319
23.58648 106.85535 178.82379 273
77.06332 77.16952 171.74808 316
67.05803 82.42255 171.81590 312
55.67658 88.39577 171.94850 308
50.40202 91.19738 173.90865 323
44.85766 94.15279 176.04866 322
39.16544 97.14492 178.30116 320
28.86899 102.54691 179.96506 292
7.79033 113.68189 180.14636 288
76.68682 76.26952 171.78395 316
66.62666 81.43985 171.82820 312
57.82640 86.06146 172.60841 327
52.63937 88.71465 174.59317 325
47.26820 91.51969 176.70274 324
41.71790 94.37927 178.98639 322
28.32349 101.30531 179.96344 292
7.16114 112.30495 180.11862 288
76.25882 75.33858 171.78523 316
66.16699 80.48343 171.83842 312
59.84602 83.70853 173.28545 328
54.84224 86.26070 175.24829 326
49.57593 88.94180 177.36295 325
44.20793 91.69096 179.56287 323
27.78434 100.10336 179.97691 292
6.51679 110.96773 180.13620 288
75.85203 74.41113 171.77682 316
65.76417 79.48568 171.84773 312
60.94381 81.93996 173.69687 385
56.97410 83.93167 175.85780 327
51.82285 86.51837 177.93329 325
44.87012 89.98682 179.81699 296
27.26791 98.85670 179.98105 292
5.95049 109.55278 180.14655 288
75.48520 73.48092 171.76956 316
65.31785 78.49107 171.86554 312
61.63442 80.33827 173.95981 386
58.63519 81.83997 176.38913 384
54.01879 84.12214 178.51607 326
44.41805 88.90237 179.82043 296
-2.42085 112.11478 174.57887 290
-2.44356 112.10164 178.86725 290
-21.04469 121.29247 180.37715 284
75.08460 72.55671 171.78806 316
65.75735 77.10339 172.08304 377
62.38056 78.79816 174.30592 387
59.38623 80.21031 176.70102 385
56.17144 81.76347 179.09573 327
43.92613 87.78308 179.83057 296
4.91199 106.75892 176.06926 283
-11.70145 114.90528 177.45404 289
-21.62444 119.72673 180.39447 284
74.66911 71.64716 171.79570 316
66.45774 75.56541 172.40672 378
63.08028 77.22864 174.56998 388
60.10363 78.66455 176.98743 386
57.08749 80.09192 179.42282 384
43.45682 86.63559 179.84538 296
11.85959 101.82502 177.45979 285
-16.82692 115.57587 176.67372 345
-22.30979 118.22704 180.34772 284
74.30250 70.72677 171.76938 316
67.16857 74.09055 172.73692 379
63.77119 75.72488 174.85153 389
60.83408 77.05733 177.24352 387
57.81912 78.51854 179.69780 385
43.01176 85.54135 179.81561 296
18.34615 97.12402 178.72835 286
3.49486 104.16694 180.15370 284
-22.91711 116.67348 180.40166 284
73.93942 69.78806 171.80264 316
67.86871 72.58945 173.00948 380
64.43417 74.17091 175.14827 390
61.58762 75.51468 177.53404 388
57.53880 77.39813 179.71875 300
29.33608 90.55752 177.19032 333
22.48637 93.71129 179.60240 315
10.50978 99.26834 181.39418 285
-25.52871 116.04596 180.12578 342
73.57521 68.84130 171.76822 316
68.58688 71.11980 173.34222 381
65.11150 72.72036 175.41756 391
62.29361 73.99386 177.79059 389
57.16119 76.37437 179.73784 300
31.35175 88.17802 177.67386 334
25.11688 91.02774 180.14203 332
17.09727 94.70354 182.54247 314
2.24609 101.52848 184.22554 284
73.20834 67.88832 171.77170 316
69.28116 69.69047 173.60196 382
65.82872 71.26296 175.69412 379
62.99926 72.49606 178.03427 390
56.72928 75.31706 179.72041 300
33.31165 85.88865 178.14946 335
27.20417 88.61970 180.59875 333
20.05750 91.81168 183.10191 315
9.26916 96.72226 185.29451 285
73.23947 66.82732 171.88808 385
69.91402 68.26890 173.89323 382
66.52019 69.76222 175.98709 380
63.68060 71.02922 178.29550 391
56.34206 74.28567 179.73869 300
35.20870 83.64381 178.63263 336
29.26710 86.29579 181.05943 334
22.97288 89.08005 183.64169 332
14.61583 92.75993 186.16054 314
0.98724 98.79807 188.23984 284
73.87256 65.46158 172.18993 386
70.58813 66.84592 174.19861 383
67.23025 68.30846 176.26013 381
64.35741 69.54496 178.57492 392
55.97399 73.23778 179.72423 300
37.04287 81.46204 179.09015 338
31.28312 83.98973 181.50734 335
25.12743 86.69244 184.07469 333
17.75017 89.88881 186.67427 315
8.12678 94.10700 189.24120 285
74.49081 64.06981 172.47975 387
71.28660 65.45846 174.45184 384
67.92226 66.87177 176.52051 382
65.05188 68.11804 178.79218 393
55.60867 72.18974 179.74615 300
38.88872 79.34200 179.56352 339
33.18686 81.78654 181.95778 336
27.22465 84.35858 184.48181 334
20.69695 87.10633 187.17145 316
12.24002 90.75688 189.82007 313
-0.17695 96.03699 192.29768 284
75.10398 62.74231 172.75539 388
71.91647 64.09163 174.73293 385
68.62692 65.46745 176.78656 383
65.70895 66.68475 179.05130 394
55.18433 71.13761 179.71999 300
40.62886 77.26151 179.97157 372
35.09391 79.58421 182.39842 337
29.26170 82.08702 184.92134 335
23.04857 84.69540 187.55002 333
15.36918 87.89750 190.27921 315
6.54087 91.60658 193.11131 312
-15.79638 101.01173 195.04396 265
75.70533 61.43393 173.03731 388
72.58878 62.72659 175.01849 386
69.29952 64.09006 177.04810 384
66.38457 65.28684 179.28581 395
54.81447 70.06324 179.75526 300
41.53677 75.58391 180.24211 373
36.98983 77.47340 182.77617 338
31.23103 79.83074 185.32855 336
25.19251 82.38451 187.94911 334
18.44241 85.12868 190.68008 316
9.86247 88.72353 193.47874 313
-1.22272 93.30488 196.35559 284
76.25874 60.17075 173.30437 419
73.21398 61.39584 175.25938 387
69.97750 62.73522 177.30867 385
67.04264 63.92266 179.51857 396
46.32640 72.30652 177.99139 387
42.48452 73.89198 180.50124 374
38.20779 75.62648 183.10945 372
33.18800 77.66094 185.66548 337
27.26376 80.09689 188.28938 335
20.99950 82.64445 191.09727 332
13.04305 85.84100 193.89073 314
4.10277 89.53223 196.90181 312
-16.41110 97.86639 199.38564 265
76.54699 58.99412 173.45152 419
73.86098 60.11029 175.51746 388
70.63869 61.34905 177.57889 386
67.22752 62.75156 179.66040 304
47.09393 70.77866 178.25894 388
43.35609 72.25624 180.79660 386
39.19416 73.93913 183.34891 372
34.80188 75.67988 186.03568 370
29.30665 77.89411 188.68356 336
23.19273 80.31879 191.40135 333
16.18144 83.13979 194.30753 315
7.49504 86.61392 197.21523 313
-2.27057 90.46046 200.42062 284
76.82446 57.84614 173.62086 420
74.21029 58.86291 175.72528 418
71.30336 60.04234 177.83354 387
66.89665 61.75055 179.64149 304
47.77259 69.23196 178.48056 389
44.10719 70.67461 181.01503 387
40.12605 72.23293 183.59692 373
35.83116 73.98245 186.20555 371
31.27677 75.71184 189.02084 337
25.27554 78.11974 191.74907 335
18.94589 80.60532 194.59286 332
10.75842 83.78224 197.54274 314
1.61654 87.36916 200.69266 312
77.10480 56.69212 173.80281 421
74.50484 57.69048 175.89859 419
71.85566 58.74311 178.02017 416
66.55917 60.75808 179.63136 304
48.50114 67.72443 178.68619 390
44.89899 69.14538 181.24576 387
41.06834 70.58101 183.83295 374
36.79850 72.22292 186.47168 372
32.37695 73.94518 189.22218 369
27.34505 75.91039 192.01608 336
21.16238 78.30210 194.92407 333
13.89663 81.07939 197.90295 315
5.07468 84.46063 200.98300 313
-4.47345 88.16000 204.37212 310
77.40564 55.58711 173.99063 422
74.81803 56.56263 176.07202 419
72.16657 57.58137 178.16628 417
66.28334 59.78885 179.62938 304
49.20663 66.27516 178.90617 391
45.62880 67.59093 181.43535 388
41.90202 69.03645 184.02277 386
37.79633 70.56508 186.69330 373
33.40200 72.22573 189.39026 370
28.82628 73.98342 192.25209 368
23.29677 76.05862 195.16080 334
16.87512 78.47015 198.20169 332
8.42718 81.66084 201.24904 314
-0.79409 85.18751 204.61909 311
-67.92200 25.23474 -19.40884 422
75.10796 55.39732 176.20337 420
72.47272 56.41179 178.35100 418
65.94584 58.81622 179.63625 304
49.89665 64.75369 179.14784 392
46.32297 66.10225 181.66965 389
42.65703 67.48483 184.24934 387
38.79596 68.89157 186.90611 374
34.42519 70.52480 189.63420 371
29.91193 72.20779 192.44339 369
25.17805 73.93461 195.38364 366
19.16405 76.23354 198.44257 333
11.66691 78.96973 201.48854 315
2.68219 82.32306 204.79993 312
77.97087 53.33058 174.27388 423
75.41164 54.25636 176.37892 421
72.79020 55.23846 178.47702 419
65.66592 57.84499 179.65175 304
50.56765 63.31372 179.38181 393
47.06034 64.62300 181.85876 390
43.42874 65.93382 184.41187 388
39.68261 67.28168 187.10033 385
35.46338 68.86332 189.80089 372
30.98211 70.48211 192.60365 369
26.33581 72.14925 195.56543 367
21.32325 73.97462 198.64296 334
14.75847 76.37282 201.74113 316
6.11346 79.51810 205.00133 313
78.25958 52.22350 174.44620 424
75.69865 53.12279 176.53543 422
73.11341 54.08748 178.64096 419
65.36330 56.82871 179.63266 304
51.27834 61.86182 179.58603 393
47.76661 63.12136 182.06972 391
44.21092 64.40892 184.64069 389
40.47876 65.75995 187.24413 386
36.45309 67.15483 189.97153 373
32.00702 68.77489 192.82788 370
27.43004 70.38634 195.75316 368
22.62219 72.12556 198.78778 365
17.12113 74.10086 201.92957 333
9.42066 76.84261 205.19373 315
78.54463 51.13288 174.61462 424
76.01601 52.04326 176.68018 422
73.42417 52.94617 178.78743 420
65.06004 55.82471 179.64906 304
51.93100 60.42617 179.78720 394
48.49174 61.65369 182.26767 392
44.92100 62.88314 184.82782 389
41.25669 64.22168 187.44830 387
37.40396 65.56495 190.17090 385
33.07624 67.04384 192.99069 371
28.52813 68.65065 195.90974 369
23.78077 70.31419 198.94083 366
18.78149 72.07274 202.11076 363
12.56936 74.25156 205.38763 316
78.79937 50.04653 174.77324 425
76.29916 50.89357 176.80458 423
73.69852 51.80298 178.90694 421
64.78551 54.83098 179.67676 304
52.60518 59.05533 179.99487 395
49.19461 60.21618 182.45601 393
45.67757 61.42558 184.97801 390
42.00262 62.69873 187.61212 388
38.21706 64.00995 190.34712 385
34.08224 65.42169 193.13217 372
29.61381 66.97611 196.04594 370
24.94024 68.53991 199.04688 367
20.01130 70.24290 202.24048 364
14.89153 72.00603 205.51732 362
79.10587 48.94527 174.89641 426
76.56758 49.81017 176.97865 424
74.00949 50.67202 179.08696 421
64.52351 53.88057 179.66333 304
53.28806 57.64125 180.19450 396
49.91519 58.80187 182.63579 394
46.42149 59.99546 185.20776 391
42.79849 61.19538 187.80054 389
39.05156 62.43066 190.50525 386
35.11320 63.76809 193.32607 373
30.66338 65.28719 196.19562 371
26.03179 66.82235 199.18874 368
21.19357 68.45226 202.32036 365
16.10665 70.17801 205.62654 363
79.35570 47.88360 175.06096 428
76.87745 48.70028 177.13171 424
74.32345 49.52857 179.21216 422
57.09117 55.20625 178.02658 412
53.93706 56.26957 180.41473 397
50.58148 57.38045 182.84322 395
47.10848 58.52216 185.38045 392
43.52618 59.70471 187.94681 390
39.85885 60.94708 190.63672 387
35.97472 62.19728 193.43492 385
31.72985 63.57447 196.32962 371
27.19412 65.08859 199.28217 369
22.39428 66.66738 202.44638 366
17.38981 68.31999 205.72189 364
79.63274 46.79967 175.19553 429
77.17915 47.59727 177.23502 425
74.62518 48.42466 179.35864 423
57.53753 53.95711 178.18727 412
54.50803 54.95167 180.59830 410
51.26242 55.98815 183.03427 395
47.84022 57.11016 185.52283 393
44.27108 58.23598 188.13031 391
40.61800 59.41659 190.80408 388
36.83645 60.65954 193.58871 386
32.77316 61.97281 196.48952 372
28.25682 63.43439 199.41969 370
23.54062 64.92178 202.55666 367
18.59553 66.51208 205.76004 364
79.92757 45.75629 175.36853 429
77.46492 46.50847 177.37242 426
74.91072 47.33474 179.49124 423
57.99680 52.70216 178.39568 413
54.98725 53.64365 180.75890 411
51.88482 54.63507 183.18262 409
48.52842 55.67568 185.71880 394
45.02642 56.79745 188.30325 391
41.40959 57.92792 190.97220 389
37.64279 59.11819 193.74294 386
33.71448 60.33846 196.58455 384
29.34670 61.74390 199.56320 371
24.69369 63.21747 202.63354 368
19.81531 64.76038 205.85124 365
80.18160 44.67974 175.48924 430
77.74041 45.43348 177.51085 426
75.08846 46.28820 179.58768 308
58.43783 51.43989 178.50789 421
55.45123 52.37104 180.88725 412
52.35617 53.30591 183.33963 409
49.17449 54.30134 185.87958 407
45.77930 55.32640 188.43390 392
42.15469 56.47934 191.10034 390
38.46500 57.64389 193.87831 387
34.57597 58.80968 196.70192 385
30.41783 60.13985 199.67538 372
25.84558 61.52852 202.74847 369
21.03714 62.99914 205.90598 366
80.45285 43.64246 175.62834 431
78.02186 44.37381 177.67470 427
74.85825 45.33818 179.57271 308
58.80280 50.20865 178.68874 422
55.90781 51.10770 181.06464 412
52.85804 52.01881 183.48560 410
49.68295 52.96911 185.99042 408
46.43201 53.97060 188.58894 405
42.91779 55.01905 191.24255 391
39.26629 56.12757 194.02376 388
35.40055 57.29736 196.81830 386
31.47375 58.51216 199.78336 383
26.92915 59.84977 202.85718 370
22.20603 61.33383 206.03282 367
80.72373 42.60591 175.76012 431
78.34193 43.30589 177.80504 428
74.63721 44.41078 179.56985 308
59.19901 49.01028 178.83214 422
56.36232 49.81159 181.21338 413
53.33566 50.73828 183.66086 411
50.21663 51.67514 186.14247 408
46.95673 52.60604 188.70186 406
43.60818 53.62238 191.39392 403
40.03119 54.65242 194.11449 389
36.24745 55.77919 196.97194 386
32.33347 56.97943 199.87944 384
28.01089 58.20947 202.90387 371
23.35396 59.61256 206.10782 368
80.99596 41.55939 175.89488 432
78.60265 42.24404 177.91885 428
74.42488 43.48458 179.59767 308
59.56849 47.75468 178.94135 423
56.78853 48.60470 181.32936 421
53.79853 49.43872 183.78052 411
50.68470 50.35658 186.25327 409
47.46949 51.27953 188.85992 407
44.20311 52.24667 191.48087 404
40.74473 53.21687 194.22983 402
37.06425 54.30341 197.04391 387
33.21247 55.43203 199.97211 385
29.11878 56.59772 203.00348 372
24.50470 57.93139 206.15999 369
81.27329 40.53446 176.03224 433
78.89875 41.19852 178.07986 429
74.19052 42.55064 179.60153 308
59.95916 46.57443 179.11649 424
57.15516 47.36975 181.46129 421
54.29165 48.16422 183.91245 412
51.18778 49.04433 186.40367 410
48.03591 49.95321 188.97678 407
44.75401 50.86810 191.61238 405
41.34145 51.82265 194.32655 402
37.84868 52.86389 197.16861 400
34.04706 53.93834 200.09727 386
30.06563 55.05456 203.10358 383
25.58723 56.32464 206.25963 370
-5496.84180 1620.08667 119.55111 478
81.55547 39.53045 176.16652 433
79.16378 40.18052 178.18404 430
73.99692 41.61679 179.56639 308
60.32003 45.37885 179.23680 424
57.57775 46.13166 181.61266 422
54.73007 46.91319 184.02745 420
51.72372 47.76412 186.52443 411
48.52325 48.64161 189.08916 408
45.27244 49.55278 191.74074 406
41.92638 50.49399 194.43922 403
38.42679 51.45786 197.29099 400
34.81699 52.45065 200.17825 398
30.93549 53.48676 203.16641 384
26.71329 54.70397 206.27533 371
