# .PCD v.7 - Point Cloud Data file format
VERSION .7
FIELDS x y z rgb
SIZE 4 4 4 4
TYPE F F F U
COUNT 1 1 1 1
WIDTH 1406
HEIGHT 1
VIEWPOINT 6375.365234 -1859.972778 147.828323 -0.748867 -0.069324 -0.116018 0.648793
POINTS 1406
DATA ascii
415.28723 18.72256 171.94141 309
429.78363 20.08258 172.05086 305
446.55338 21.68575 172.25874 301
491.61005 25.95168 167.73009 455
391.37143 17.44519 171.68521 317
402.51096 18.58843 171.81448 313
415.19427 19.83884 171.91533 309
429.63818 21.34863 172.03763 305
446.36359 23.05531 172.21106 301
490.38684 27.46660 167.96413 455
2674.41260 249.12578 54.84490 471
2682.78271 249.53722 95.11198 424
391.24744 18.46075 171.68161 317
402.37656 19.66162 171.80061 313
415.03329 21.02647 171.94275 309
429.48666 22.58307 172.04178 305
446.19055 24.37927 172.21487 301
489.14209 29.01113 168.13564 456
2671.87817 263.57645 55.30463 472
2677.66602 264.74020 95.31966 495
2684.28735 264.87347 135.83182 471
391.09363 19.47000 171.68088 317
402.22531 20.76796 171.80760 313
414.90509 22.19934 171.93983 309
429.31339 23.83353 172.08072 305
446.05533 25.74466 172.21858 301
488.73550 30.56639 168.20570 294
390.97318 20.46280 171.69528 317
402.10278 21.81299 171.80067 313
414.71902 23.30968 171.94611 309
429.19284 25.07640 172.04799 305
445.87177 27.04413 172.25136 301
488.63358 32.19855 168.15677 294
390.81848 21.47288 171.71059 317
401.94843 22.88171 171.78096 313
414.57425 24.47300 171.91074 309
428.97198 26.28883 172.07381 305
481.02713 32.85624 165.12248 300
488.53909 33.83633 168.10251 294
390.64697 22.47739 171.67734 317
401.80035 23.93717 171.80469 313
414.37344 25.65040 171.90445 309
428.82425 27.55928 172.03325 305
480.86768 34.41297 165.10298 300
488.39197 35.46316 168.08882 294
390.49588 23.49210 171.69542 317
401.60178 25.03299 171.77933 313
414.23044 26.76523 171.92381 309
428.60440 28.78731 172.04172 305
480.66489 36.02046 165.10031 300
488.19620 37.03682 168.12399 294
390.34509 24.51580 171.69228 317
401.43246 26.09663 171.79182 313
414.01221 27.93687 171.89702 309
428.42676 30.00967 172.06020 305
480.41342 37.51210 165.12170 300
488.06555 38.67609 168.09019 294
390.14017 25.49478 171.67493 317
401.23569 27.19937 171.76465 313
413.86026 29.09869 171.88980 309
428.20612 31.26465 172.02223 305
480.13162 39.07685 165.11104 300
487.91797 40.27292 168.04272 294
389.98447 26.50400 171.70183 317
401.07941 28.25873 171.77837 313
413.61633 30.21848 171.91196 309
428.03778 32.48574 172.05351 305
479.03183 40.53197 165.29794 443
487.74152 41.90044 168.01860 293
389.77884 27.51750 171.67778 316
400.88071 29.31931 171.77599 313
413.41235 31.36131 171.91608 309
427.79987 33.72372 172.06638 305
477.59018 41.86979 165.50352 444
487.50830 43.49440 168.06006 293
63052.40234 10283.30957 3345.31396 1000
389.61240 28.50678 171.69991 316
400.65887 30.41721 171.79411 313
413.23209 32.50966 171.90967 309
427.57626 34.98758 172.01559 305
476.12738 43.22500 165.77248 445
389.43845 29.52366 171.69681 316
400.47449 31.45440 171.78117 313
413.00696 33.68554 171.89127 309
427.32416 36.18995 172.01529 305
474.67944 44.52550 166.01651 446
389.23264 30.48934 171.67952 316
400.27832 32.52167 171.78606 313
412.76151 34.80431 171.92197 309
427.13785 37.43509 172.02896 305
473.29001 45.84801 166.18129 447
388.99063 31.49398 171.67247 316
400.05078 33.58845 171.79318 313
412.52963 35.98478 171.89722 309
426.84174 38.64006 172.01004 305
471.92184 47.19711 166.40475 447
388.78806 32.50291 171.68332 316
399.82367 34.67603 171.75916 313
412.29745 37.07485 171.90553 309
426.60071 39.90053 172.05147 305
470.50369 48.43856 166.64381 448
388.58557 33.50934 171.67711 316
399.56921 35.70818 171.75781 313
412.05267 38.23135 171.88107 309
458.33109 47.59098 164.98782 304
469.12320 49.77590 166.84712 449
388.34137 34.49465 171.68672 316
399.36212 36.80772 171.75316 313
411.81958 39.35297 171.89061 309
458.07803 48.97252 164.94794 304
467.80136 51.01883 167.06462 450
388.09698 35.49663 171.63741 316
399.10150 37.82927 171.75935 313
411.56650 40.49347 171.91293 309
457.76602 50.41172 164.96742 304
466.45248 52.25870 167.30804 451
387.89413 36.46642 171.63617 316
398.87064 38.90223 171.75204 313
411.30246 41.66496 171.87361 309
457.44254 51.82638 164.99246 304
465.11948 53.52766 167.45070 452
387.65607 37.49343 171.66820 316
398.61319 39.98596 171.77000 313
410.99655 42.81254 171.90230 309
457.04590 53.23594 164.98344 303
463.77194 54.79441 167.64555 453
387.40854 38.44983 171.64531 316
398.32721 41.04342 171.74162 313
410.71951 43.93176 171.87746 309
456.73279 54.63889 164.98627 303
462.43924 55.97895 167.83968 453
387.15036 39.44626 171.64723 316
398.07513 42.10472 171.75494 313
410.47290 45.03510 171.84940 309
456.37967 56.10020 164.95331 303
461.67361 57.34711 167.91959 297
386.89267 40.43345 171.66920 316
397.80026 43.11350 171.77106 313
410.15924 46.17219 171.86241 309
455.99567 57.52484 164.93610 303
461.34647 58.83608 167.95026 297
386.62729 41.42573 171.64528 316
397.51996 44.19695 171.76480 313
409.84503 47.31839 171.84288 309
455.60715 58.89513 164.95932 303
460.97839 60.26326 167.89529 297
386.32211 42.39888 171.64554 316
397.20132 45.24375 171.74669 313
409.55020 48.46791 171.87865 309
455.25641 60.27407 164.94724 303
460.68704 61.73612 167.91565 297
386.07812 43.39465 171.65718 316
396.91504 46.28418 171.71970 312
409.24515 49.59185 171.84746 309
453.58121 61.36580 165.22078 425
460.35934 63.18967 167.89285 297
385.78955 44.40314 171.61966 316
396.63434 47.32674 171.75018 312
408.90277 50.70650 171.84210 309
451.84482 62.42999 165.55798 426
459.99561 64.62957 167.88435 297
385.48608 45.34578 171.64159 316
396.30145 48.38003 171.75708 312
437.41214 59.85459 164.85672 308
450.12286 63.41287 165.85712 427
459.58783 66.06624 167.85828 297
385.16733 46.35241 171.62386 316
396.00592 49.43979 171.72586 312
437.04153 61.17434 164.87944 308
448.45090 64.41549 166.09882 428
459.22644 67.54885 167.87045 297
384.90027 47.32825 171.63171 316
395.68958 50.47125 171.74156 312
436.65619 62.49693 164.87993 308
446.78854 65.45041 166.39685 429
384.56104 48.31116 171.62955 316
395.36365 51.55165 171.73761 312
436.23328 63.73731 164.83998 308
445.20001 66.41722 166.65639 430
384.24619 49.28936 171.60503 316
395.01035 52.58374 171.70790 312
435.85260 65.04745 164.85312 308
443.50977 67.39512 166.95155 431
383.92184 50.27757 171.62502 316
394.70892 53.60109 171.73169 312
435.40707 66.36784 164.88206 308
441.94131 68.38744 167.20889 432
383.62094 51.20168 171.59634 316
394.35446 54.63484 171.71011 312
434.99832 67.63213 164.83855 308
440.31128 69.34605 167.47449 433
1896.26208 534.11530 43.70139 360
1883.53003 530.20721 73.81424 360
383.30307 52.20384 171.60114 316
393.99466 55.66162 171.73500 312
434.57025 68.91623 164.88623 308
438.70523 70.26174 167.74548 420
1873.45996 538.21558 45.43605 359
1861.06128 534.17548 75.52322 361
1862.37964 534.63599 103.50667 282
382.93347 53.14689 171.59172 316
393.61151 56.74281 171.71156 312
434.07959 70.16498 164.86382 308
437.70361 71.38286 167.88257 301
1850.92981 541.72559 47.50451 360
1833.35425 535.91339 77.63197 364
1837.84314 537.27545 105.23160 372
382.58731 54.14471 171.62566 316
393.27988 57.73694 171.71732 312
433.58310 71.42999 164.85950 308
437.27979 72.71439 167.85323 301
1828.81702 545.19678 49.43481 360
1813.54565 540.18439 79.00256 363
1817.81860 541.33777 106.41985 373
382.26645 55.11546 171.59439 316
392.92361 58.78693 171.71642 312
433.16595 72.72224 164.87180 308
436.81979 74.02137 167.83708 301
1806.97827 548.65033 51.69011 362
1792.42676 543.53107 80.55469 361
1798.07263 545.74744 107.17737 374
381.90598 56.05089 171.58147 316
392.52603 59.82682 171.68434 312
431.71573 73.67850 165.12703 423
436.37341 75.31779 167.79230 301
1786.12463 552.13159 53.33043 361
1767.26660 545.57788 82.07237 375
1778.62622 549.78705 108.22555 375
381.55463 57.03536 171.60173 316
418.08304 70.21379 164.76562 312
430.04111 74.45673 165.40509 424
435.91602 76.64006 167.79082 301
1765.17480 555.34290 55.22998 362
1746.83423 548.60663 83.81345 377
1760.58594 553.55994 109.26573 365
381.15689 57.98252 171.60255 316
417.63745 71.38145 164.80975 312
428.34210 75.28788 165.71335 425
435.49490 77.93372 167.79379 301
1744.44409 558.44153 56.88388 364
1727.71069 552.55054 85.27945 351
1742.95715 558.24017 110.48357 364
380.78668 58.91895 171.56097 316
417.16745 72.54075 164.78430 312
426.73315 76.10075 165.96762 426
435.04858 79.19451 167.76546 301
1724.24829 561.48395 58.91246 365
1713.64294 557.55219 86.00798 272
1727.06274 562.31293 111.16833 326
380.41486 59.91513 171.57153 316
416.66354 73.69991 164.79535 312
425.07437 76.91270 166.26347 427
434.53961 80.51226 167.75760 301
1704.55444 564.50909 60.41830 366
1697.31885 561.82928 87.34573 381
1712.37646 567.48962 112.07623 327
380.05194 60.85102 171.55374 316
416.21191 74.88454 164.78011 312
423.47226 77.70080 166.55232 428
1703.93115 574.64050 33.90177 374
1685.13977 567.47931 62.30662 367
1679.33972 565.11346 88.58231 383
1705.78076 575.15820 112.27483 264
379.67319 61.78075 171.58220 316
415.70944 76.03644 164.79652 312
421.84039 78.47035 166.81522 429
1685.65198 578.01697 35.51727 376
1666.29004 570.35394 63.82032 369
1662.14575 568.44891 89.75198 384
1816.92407 629.94763 104.07648 498
379.27994 62.76902 171.55931 316
415.19275 77.22427 164.80261 312
420.25824 79.27322 167.07735 430
1668.31677 581.29706 37.17587 377
1648.28735 573.22455 65.42369 364
1645.00305 571.82428 91.00620 385
1663.39575 579.12616 114.79145 356
378.83878 63.69521 171.54729 316
414.66409 78.38722 164.79286 312
418.70160 80.02444 167.34712 431
1651.02856 584.36310 39.25812 378
1630.76929 576.17664 66.58538 365
1628.37329 575.45996 92.00262 387
1801.36426 645.99274 104.84059 311
378.44049 64.64553 171.57588 316
414.16537 79.53670 164.76950 312
417.19424 80.75984 167.62933 432
1633.90149 587.90582 40.62379 379
1613.87378 578.94489 68.05736 366
1612.06189 578.41187 93.16792 388
1799.09082 656.73279 104.59061 286
378.02570 65.58934 171.55553 316
413.64612 80.63873 164.81276 312
415.93378 81.65531 167.81476 305
1617.33313 590.63458 42.30016 380
1596.73438 582.14795 69.57832 367
1596.04578 581.53625 94.47225 389
1801.86938 669.13330 104.27795 278
377.63388 66.50598 171.57114 316
413.06445 81.81386 164.80054 312
415.44485 82.84693 167.78194 305
1600.92834 593.61053 43.88295 367
1579.74084 584.45270 71.06819 360
1580.01965 584.54919 95.29565 390
1805.58594 681.71222 103.72142 277
400.58099 77.74695 164.67665 316
412.52499 82.95404 164.82727 312
414.93768 84.01662 167.77338 305
1584.06384 596.46240 45.42622 359
1562.28992 586.78412 72.52278 361
1564.49438 587.89716 96.50742 391
1573.70691 591.82794 119.79189 425
400.09055 78.81620 164.68324 316
411.15503 83.69640 165.06189 436
414.44675 85.21799 167.76254 305
1566.81897 598.75732 47.13135 360
1544.92578 589.08545 73.79116 363
1549.19470 590.92194 97.52591 392
1560.65796 595.79272 120.48091 395
399.59991 79.87325 164.72415 317
409.65399 84.42069 165.28255 436
413.95547 86.35441 167.73547 305
1550.76843 601.22736 49.05312 361
1528.19788 591.00415 75.37878 361
1534.02820 593.54230 98.57272 394
1545.50354 598.93561 121.31055 396
399.04001 80.92643 164.68404 317
408.20740 85.16325 165.54646 437
413.40839 87.52579 167.73499 305
1534.60901 603.64001 50.56094 362
1512.13953 593.14301 76.74938 394
1519.35950 596.40497 99.65299 395
1530.81995 601.83917 122.06149 397
398.54773 82.01794 164.68845 317
406.73331 85.82991 165.82509 419
412.90054 88.69780 167.74367 305
1518.94141 606.04865 51.94745 363
1496.48730 595.64136 78.04086 404
1504.93140 599.48047 100.70919 396
1516.61560 605.08081 122.75511 399
397.96796 83.05614 164.72469 317
405.08972 86.42781 166.13441 420
412.30817 89.85932 167.71585 305
1503.33301 608.34833 53.52239 364
1482.74817 598.47015 79.01629 405
1490.96423 602.46997 101.47446 408
1502.33008 607.78601 123.81916 400
397.41684 84.10799 164.72598 317
403.43509 87.01139 166.41888 421
411.81253 91.05365 167.69878 305
1488.64014 610.76923 54.73386 367
1471.28381 602.66461 80.15027 383
1478.25574 605.77032 102.31183 428
1488.48938 610.91119 124.40354 401
396.86792 85.16644 164.72247 317
401.76251 87.54131 166.69283 422
411.25616 92.22619 167.67705 305
1474.23926 613.60425 56.18703 375
1463.50378 607.92194 80.38548 425
1467.24573 609.92426 103.06148 429
1475.78479 614.07928 125.10706 429
1477.91736 615.20111 147.84511 421
396.30444 86.22615 164.73369 317
400.18604 88.09866 167.02248 423
1461.35962 616.63239 57.28822 391
1452.56506 612.09235 81.15573 436
1456.70544 614.28107 103.59719 440
1465.01941 618.32507 125.77988 436
1466.77686 619.43329 148.32495 431
395.77069 87.25361 164.70512 317
398.56894 88.70451 167.30612 424
1470.29187 630.38837 32.45945 369
1449.45349 619.92267 58.62646 394
1442.27026 616.41638 82.11653 440
1446.56250 618.64844 104.24226 441
1454.29639 622.68103 125.89350 437
395.13443 88.27493 164.74037 317
397.01208 89.20735 167.58273 425
1458.13611 633.83929 33.94770 382
1438.68982 623.63947 59.33204 394
1432.53113 620.58478 82.69346 443
1436.98071 622.87085 104.51678 449
1444.28809 626.69885 126.54090 492
394.56720 89.33926 164.69928 317
395.97791 90.05565 167.70798 311
1446.57825 637.44873 34.88062 383
1427.86902 627.82104 60.40545 399
1423.07678 625.25696 83.10342 449
1427.75879 627.76031 105.22176 450
1440.35547 634.23090 126.59176 492
393.91614 90.31013 164.78841 426
395.38190 91.11290 167.70657 311
1435.89917 641.35461 35.99863 389
1417.48364 631.70398 61.17508 399
1413.74329 629.87366 83.65159 453
1419.00427 632.45831 105.49380 455
1435.84277 641.39429 126.74665 488
392.33511 90.80472 165.05429 427
394.82266 92.13564 167.72243 311
1425.33032 645.28375 37.05558 386
1407.83215 635.78125 61.98455 404
1405.20020 634.36993 84.20008 457
1411.16382 637.52368 106.02296 407
1430.99146 648.23529 126.63036 488
390.84564 91.36897 165.30382 428
394.22327 93.21432 167.69203 309
1415.53149 649.53778 37.94376 399
1398.22253 639.96240 62.59631 405
1396.90576 639.18744 84.75996 458
1403.30078 642.68640 106.48629 408
1431.24792 657.83929 126.16119 429
389.39053 91.86542 165.59419 429
393.69693 94.21861 167.67786 309
1405.73425 653.45605 38.49048 400
1388.73059 643.93079 63.27934 406
1388.04187 643.95056 85.26841 460
1400.22180 650.41266 106.03337 299
1433.29224 668.44556 125.98400 428
387.89722 92.38950 165.86783 430
393.12482 95.29773 167.68689 309
1396.22656 657.67181 39.43940 401
1379.47400 648.30267 64.11657 412
1380.09143 648.68701 86.02667 461
1404.86841 662.38586 105.42432 292
1435.20630 679.57794 125.37280 427
386.44357 92.86523 166.13672 431
392.52963 96.33394 167.65857 309
1387.20105 662.08447 40.24774 401
1370.74060 652.66669 64.56976 412
1372.14539 653.24127 86.21630 462
1406.75195 673.03387 105.03985 315
1437.15002 690.52161 125.02263 426
384.97720 93.39639 166.39555 432
391.95630 97.38882 167.68124 309
1378.19543 666.17151 40.82011 402
1362.24524 656.79272 65.33416 413
1364.11157 658.08887 86.82081 467
1412.43250 685.92267 103.80653 364
1439.30029 701.66168 124.51597 426
383.56631 93.85649 166.63757 433
391.32330 98.45580 167.62050 309
1369.54285 670.72729 41.62763 403
1353.86499 661.30713 65.63964 418
1356.76135 663.01422 87.15929 471
1422.21399 701.62592 102.46796 363
1441.15234 712.23462 123.93974 427
382.14999 94.40015 166.90399 434
390.71463 99.46043 167.65356 309
1360.82678 674.74554 42.52669 408
1345.52808 665.76190 66.21917 419
1349.16870 668.06616 87.49956 471
1591.79492 811.81696 85.90064 375
1443.57654 723.98230 123.39675 423
380.72305 94.84550 167.18013 435
1352.27710 679.14386 43.14693 409
1337.51477 670.23053 66.80390 419
1341.86548 673.02954 87.82600 481
1587.02563 820.20874 86.02703 494
1446.00024 735.53979 122.97783 423
379.34732 95.32938 167.38998 436
1344.17212 683.73126 43.47882 410
1329.96667 675.02258 67.39112 428
1334.98816 678.30914 88.05431 479
1583.53967 829.64832 85.73824 485
1448.18262 746.95538 122.41612 422
378.01587 95.84674 167.61682 315
1336.29443 688.44891 44.06332 419
1322.64734 679.90826 67.95087 428
1328.17163 683.31677 88.44848 479
1576.07275 836.39154 85.93636 415
1450.08020 758.67664 121.94320 421
377.41302 96.78175 167.63992 315
1328.80383 692.98749 44.57117 420
1315.06470 684.24988 68.11086 384
1321.57776 688.68243 88.87389 484
1464.13708 778.13800 96.49155 408
1452.59656 770.58240 121.48679 420
376.76300 97.73168 167.62947 315
1321.17285 697.87054 45.31799 420
1307.32812 689.10480 68.62090 384
1315.16541 693.97772 89.08768 485
1450.22400 779.63599 97.18669 409
1454.07288 782.12848 120.70308 422
376.17227 98.66597 167.61781 315
1313.94983 702.68127 45.71651 426
1300.39014 693.99652 69.20953 484
1309.11462 699.37640 89.35198 478
1442.29919 785.46851 97.75729 481
1457.19067 794.49219 120.22211 418
375.56033 99.63129 167.60663 315
1307.19897 707.64862 46.15280 427
1293.39758 698.41528 69.39881 392
1302.82043 704.78363 89.38615 479
1440.56177 794.83087 97.30219 481
1459.33679 807.02521 119.68371 417
374.89258 100.56306 167.62799 315
1299.99658 712.49878 46.31219 427
1286.63159 703.44611 69.72273 485
1296.23999 709.96521 89.69674 479
1438.68787 804.07849 97.00045 480
1461.60571 819.38477 119.08939 416
374.26138 101.47690 167.59959 315
1292.87683 717.16205 46.90934 428
1280.09766 708.50989 70.00938 485
1290.10193 715.09436 89.93655 480
1436.70056 813.58221 96.74985 479
1464.16003 831.73871 118.41486 415
373.63916 102.39835 167.59869 315
1286.22534 721.95947 47.27859 428
1273.52307 713.67499 70.24654 486
1283.90466 720.45654 90.28409 478
1435.03271 822.94666 96.40431 479
1488.00073 859.05237 116.10152 489
372.99869 103.29725 167.61694 315
1279.16870 726.77161 47.50608 428
1266.90723 718.71729 70.67529 486
1278.00122 725.89734 90.17055 479
1433.23804 832.86719 96.18316 302
372.33508 104.24004 167.58383 315
1272.55530 731.67444 47.85160 429
1260.80798 723.64264 71.04567 430
1272.07043 731.47772 90.48106 479
1433.04333 843.46625 95.45119 303
371.71194 105.17871 167.59972 313
1265.48669 736.48413 48.30374 437
1255.09009 729.06110 71.00764 489
1266.10266 736.81049 90.51797 472
1432.03210 854.19977 95.00027 303
371.05643 106.09698 167.60481 313
1258.29590 741.14380 48.98022 437
1249.92090 734.84125 71.30134 273
1260.51208 742.46179 90.70576 470
370.37332 107.01382 167.59459 313
1251.54480 745.62268 49.25104 442
1245.08362 741.10852 71.03531 477
1255.10583 748.12408 90.77921 470
1245.01465 750.58319 49.58017 443
1239.56018 746.51331 71.43002 474
1249.50000 753.96515 91.09605 470
1238.30481 755.47809 49.93964 447
1233.85413 751.71796 71.45609 474
1244.41345 759.47125 90.94991 458
1231.74731 759.99158 50.30478 451
1228.16467 757.37396 71.74888 474
1239.00854 765.26483 91.11034 457
1225.52820 765.08838 50.26162 452
1222.59705 762.68182 71.82216 471
1233.70410 771.19629 91.13810 457
1219.31152 769.62878 50.65751 452
1217.28467 768.36395 71.90585 471
1228.74939 777.11292 91.35796 457
1213.13623 775.02338 50.89697 475
1211.83923 773.82532 71.91943 471
1223.57922 783.05969 91.25536 457
1210.16187 782.45709 50.53611 273
1206.35486 779.13153 72.26670 472
1217.28442 787.94958 91.54768 364
1217.12891 797.83392 48.75446 273
1200.68323 784.92065 72.14550 472
1199.41016 793.46240 71.75021 374
37388.01953 31340.08203 -9453.35156 1000
23662.51758 29687.87891 -4135.00830 1000
404.85370 2537.60718 -34.04225 370
404.93512 2539.51758 7.69457 370
405.17728 2541.98462 49.50092 370
405.35089 2544.21997 90.70604 432
405.50983 2546.20117 133.07227 432
405.60037 2548.91016 174.16054 432
-147.05550 2121.53467 4.42844 345
-146.90697 2121.43896 39.86317 345
-147.17339 2121.68750 75.54084 345
-147.36409 2121.40527 110.70562 345
-147.21504 2121.64697 146.13893 346
-147.35939 2121.56982 180.93375 412
-726.28241 1682.15491 26.33504 291
-725.39667 1681.20911 58.40747 428
-725.57056 1681.39172 89.91441 428
-725.60156 1682.06348 121.48997 473
-726.17389 1682.57715 153.36969 497
-726.56311 1683.61523 185.08069 497
-727.51788 1684.83618 216.58623 496
-735.88269 1675.43445 26.69799 359
127.54868 148.29871 169.65414 485
126.57520 147.96606 169.53889 441
124.73866 148.90361 169.09784 489
123.33758 149.15385 168.79903 277
120.73850 149.30902 168.38646 489
119.41280 149.43558 168.11395 273
117.01275 151.01013 167.39986 316
116.17225 150.31709 167.41222 316
115.34736 149.67870 167.42122 316
114.49535 149.02788 167.43480 316
111.35377 151.51088 166.38000 314
110.48540 150.86017 166.40852 314
109.60255 150.14600 166.39642 314
108.76493 149.48286 166.41000 314
107.91190 148.79649 166.37511 314
107.08111 148.04909 166.39867 314
106.22207 147.36595 166.39133 314
105.36574 146.64519 166.37740 314
104.08538 146.55272 166.15427 422
96.37862 156.14355 166.38805 310
102.49604 146.71054 165.88683 421
95.47090 155.39728 166.36356 310
100.96221 146.85110 165.57784 420
94.54065 154.60439 166.38063 310
99.37370 147.01025 165.25432 418
93.64983 153.86064 166.34233 310
97.74886 147.17905 164.95425 417
92.80383 153.05550 166.34608 310
96.16257 147.33008 164.60785 427
91.88902 152.27330 166.35469 310
94.59525 147.35657 164.30418 426
91.03203 151.51340 166.33829 309
93.02525 147.45171 164.03183 425
90.16405 150.68925 166.36369 309
91.39625 147.48619 163.70969 424
89.31049 149.90022 166.37071 309
89.77399 147.56464 163.38045 423
88.40212 149.06758 166.36162 309
88.99941 146.71135 163.38893 307
87.56961 148.28360 166.36211 309
88.22423 145.84193 163.45987 307
86.50261 147.66389 166.26944 421
87.49333 144.92790 163.47821 307
84.84656 147.75900 165.93401 420
86.73910 143.96559 163.49222 307
83.12183 147.84212 165.64671 419
74.64408 156.83067 166.29242 305
85.98491 143.06209 163.53653 307
81.41216 147.90105 165.34451 418
73.73673 155.89087 166.25047 305
85.28680 142.16945 163.56314 307
79.67768 147.93584 164.96530 417
72.84866 154.99394 166.24428 305
84.56339 141.20097 163.61287 307
77.89940 148.04076 164.66109 416
71.93291 154.08731 166.26488 305
104.55946 119.38165 171.53598 316
76.10590 148.08081 164.34590 415
71.08522 153.12129 166.25648 305
103.91496 118.63903 171.53259 316
74.29956 148.18024 163.95236 414
70.19501 152.24600 166.24092 305
103.26145 117.90006 171.53943 316
72.44025 148.24994 163.63655 413
69.32194 151.28078 166.27930 305
102.60863 117.17787 171.55722 316
70.63634 148.23523 163.28677 304
68.40842 150.35745 166.23351 305
101.99319 116.40561 171.54466 316
69.91586 147.18596 163.35524 304
67.54044 149.40884 166.25922 305
101.34849 115.63821 171.56177 316
69.15798 146.15710 163.38934 304
66.73451 148.49956 166.24118 305
100.73000 114.86810 171.53259 316
68.43150 145.08485 163.38246 304
64.76994 148.54317 165.90201 409
100.11884 114.13128 171.54367 316
67.71646 144.08446 163.45203 304
62.81301 148.62262 165.56430 408
99.48421 113.35468 171.58325 316
67.01873 143.02739 163.46704 304
60.82255 148.68153 165.16711 407
51.20132 157.45171 166.15207 301
98.84930 112.61008 171.57416 316
90.36734 120.21655 171.64835 312
58.79716 148.75220 164.83560 406
50.33633 156.37015 166.13641 301
98.26849 111.81432 171.55205 316
89.71629 119.41066 171.65726 312
56.67701 148.84705 164.40541 404
49.40825 155.30457 166.19148 301
97.66721 111.01535 171.59032 316
89.06828 118.59184 171.67203 312
54.61274 148.90703 164.05669 403
48.52225 154.27539 166.19553 301
97.06461 110.25635 171.59375 316
88.42447 117.74471 171.63130 312
52.45476 149.00145 163.65295 402
47.68562 153.15334 166.18338 301
96.47692 109.45940 171.59669 316
87.82126 116.87925 171.67102 312
50.30032 149.11867 163.20959 401
46.81804 152.10231 166.17975 301
95.84337 108.64902 171.57985 316
87.18974 116.04929 171.66699 312
49.49313 148.00905 163.24844 300
45.91111 151.00656 166.13829 301
95.26747 107.85636 171.61122 316
86.53613 115.20889 171.64476 312
48.76616 146.80547 163.26164 300
45.05745 149.97681 166.16791 301
94.68187 107.08813 171.61264 316
85.92581 114.33591 171.69691 312
48.06609 145.66048 163.33165 300
43.56340 149.34317 165.99234 398
-3556.48438 3128.78564 -24.63633 391
94.10732 106.27869 171.61598 316
85.29846 113.47942 171.69600 312
75.30160 121.65077 171.78452 308
41.25775 149.43506 165.55240 397
93.57267 105.46359 171.62769 316
84.67366 112.62597 171.66019 312
74.63337 120.75906 171.79317 308
38.96481 149.53670 165.17703 396
92.97503 104.65807 171.63464 316
84.05531 111.74660 171.68973 312
73.93735 119.82430 171.75375 308
36.52407 149.65112 164.73409 394
25.55369 158.38979 166.03238 297
92.43378 103.80887 171.63687 316
83.48359 110.89239 171.70757 312
73.30847 118.88582 171.79408 308
34.13375 149.72789 164.26910 393
24.66314 157.15659 166.01111 297
91.86061 103.01463 171.61163 316
82.85754 110.01046 171.72127 312
72.67027 117.95268 171.80630 308
31.62286 149.78421 163.83070 392
23.77948 155.94482 166.02699 297
91.34004 102.19709 171.63477 316
82.26451 109.10431 171.68602 312
72.02637 116.98648 171.78632 308
29.14980 149.90721 163.43944 391
22.86480 154.67722 166.02858 297
90.77013 101.35374 171.65057 316
81.72275 108.22704 171.72168 312
71.39381 116.05283 171.80487 308
27.24007 149.48262 163.14433 296
21.99931 153.43906 166.05565 297
-3151.35522 2558.53931 8.78029 475
90.22643 100.51319 171.63657 316
81.12617 107.33857 171.74255 312
70.78096 115.06154 171.80945 308
26.57407 148.13751 163.17577 296
21.11629 152.20679 166.05095 297
89.68636 99.67695 171.67197 316
80.52452 106.47196 171.70436 312
70.15314 114.15065 171.79491 308
58.26348 122.91512 171.90089 304
20.26930 150.96846 166.06035 295
89.14734 98.88540 171.65314 316
79.99333 105.55501 171.70554 312
69.51703 113.18811 171.82877 308
57.58399 121.88092 171.90240 304
18.66878 150.27907 165.83232 389
88.61124 98.00761 171.66742 316
79.41994 104.68380 171.71764 312
68.93938 112.21871 171.79283 308
56.90469 120.86161 171.91367 304
15.93456 150.34106 165.39828 388
88.09474 97.19853 171.67905 316
78.83936 103.76710 171.75021 312
68.33412 111.26489 171.80525 308
56.24160 119.81947 171.95068 304
13.19652 150.43837 164.92230 387
87.60389 96.34640 171.67566 316
78.31467 102.85179 171.76299 312
67.74525 110.27547 171.84660 308
55.61563 118.76594 171.94460 304
10.38929 150.46770 164.42729 385
87.07715 95.50072 171.64616 316
77.72166 101.95359 171.75443 312
67.10915 109.27915 171.83087 308
54.98252 117.69782 171.94543 304
7.54002 150.60040 163.94148 384
-5.18001 159.33058 165.67735 290
-2681.66455 2012.20642 43.19029 462
86.59265 94.62670 171.66058 316
77.17509 101.02059 171.77483 312
66.54272 108.34425 171.86508 308
54.37355 116.68400 171.91122 304
4.66252 150.67227 163.50882 383
-6.02177 157.91165 165.62790 290
86.06833 93.79333 171.66899 316
76.63995 100.14752 171.75322 312
65.94745 107.36452 171.83409 308
53.69314 115.58134 171.97070 304
1.68416 150.74583 162.97878 382
-6.96408 156.52834 165.67546 290
85.58450 92.93585 171.70583 316
76.12096 99.20706 171.77876 312
65.41571 106.34427 171.85631 308
53.11303 114.52362 171.96864 304
38.86277 124.00002 172.07095 300
-7.90029 155.12997 165.64294 291
-10643.40430 7234.22119 2371.60132 1000
85.10399 92.05012 171.68164 316
75.61100 98.29694 171.74442 312
64.85091 105.34911 171.87846 308
52.46252 113.48939 171.93559 304
38.16889 122.84001 172.09218 300
-8.77269 153.72374 165.65373 291
84.61853 91.16594 171.66942 316
75.05958 97.34147 171.77234 312
64.28374 104.38320 171.87057 308
51.86129 112.38771 171.95010 304
37.52784 121.73530 172.07489 300
-9.66871 152.25267 165.61710 291
84.11714 90.30478 171.68172 316
74.55511 96.45078 171.76442 312
63.70266 103.38695 171.84251 308
51.24873 111.35389 171.94344 304
36.87720 120.54813 172.05978 300
-10.83145 150.99631 165.56955 377
83.64840 89.45782 171.71907 316
74.03249 95.48116 171.76274 312
63.16423 102.36522 171.86926 308
50.69533 110.23363 171.97505 304
36.23516 119.39930 172.07732 300
-14.07843 151.07014 165.06834 376
83.19421 88.58414 171.70055 316
73.54499 94.54353 171.78360 312
62.61865 101.34606 171.87332 308
50.09377 109.15328 171.97450 304
35.56451 118.22470 172.07864 300
-17.40346 151.16362 164.49574 374
82.72621 87.71474 171.72862 316
73.03436 93.60919 171.78473 312
62.07763 100.36233 171.88570 308
49.50280 108.09634 171.99403 304
34.92672 117.00986 172.10356 300
-20.84031 151.27106 163.98830 373
82.24463 86.80618 171.72035 316
72.55822 92.66746 171.81354 312
61.55203 99.37169 171.88919 308
48.93836 106.99300 171.98395 304
34.30453 115.81990 172.07576 300
-24.37509 151.36746 163.37537 372
81.82726 85.92253 171.73831 316
72.07853 91.73740 171.78119 312
60.99702 98.33972 171.87910 308
48.35723 105.90482 172.00679 304
33.71466 114.67075 172.10619 300
16.49767 124.88908 172.22382 296
-41.83430 159.81030 165.13861 286
81.34153 85.04350 171.72559 316
71.59898 90.76867 171.78600 312
60.48057 97.32202 171.90489 308
47.82694 104.81696 172.02031 304
33.09200 113.47396 172.12865 300
15.82909 123.65751 172.27898 296
-42.71465 158.16698 165.13399 286
80.92625 84.15971 171.71664 316
71.10134 89.83468 171.81944 312
59.99359 96.27344 171.89343 308
47.21285 103.70141 172.03052 304
32.45834 112.29771 172.11278 300
15.15254 122.34200 172.28201 296
-43.64487 156.44385 165.10478 286
80.47023 83.23522 171.70847 316
70.62177 88.88721 171.82761 312
59.49364 95.30187 171.88036 308
46.70713 102.62069 172.00594 304
31.90745 111.06289 172.12146 300
14.49341 121.03123 172.25081 296
-44.46153 154.76659 165.12534 286
80.05961 82.34924 171.74295 316
70.20477 87.94511 171.79210 312
58.99277 94.25477 171.88409 308
46.15474 101.48736 172.02106 304
31.27151 109.88967 172.15250 300
13.83513 119.71604 172.28270 296
-45.33152 153.17288 165.11139 286
79.59267 81.44366 171.74718 316
69.70560 86.96336 171.81729 312
58.46030 93.19809 171.92572 308
45.62733 100.36720 172.00261 304
30.72161 108.64904 172.13380 300
13.23112 118.41392 172.30066 296
-47.02219 151.91138 164.97481 364
79.19410 80.55471 171.76155 316
69.25170 86.02792 171.80252 312
58.01135 92.18501 171.91512 308
45.06541 99.27563 172.04324 304
31.67462 106.63201 172.48422 272
12.58139 117.10966 172.31053 296
-50.82174 151.86690 164.44359 372
78.76672 79.67226 171.72159 316
68.83237 85.04366 171.83824 312
57.50328 91.14955 171.90529 308
44.57824 98.16879 171.99924 304
38.04085 101.68150 174.03671 320
23.70728 109.42485 174.70570 272
-54.64664 151.82062 163.83122 371
78.37853 78.77345 171.75938 316
68.36394 84.04890 171.83311 312
57.04854 90.11508 171.91936 308
46.38102 95.76845 172.62169 322
40.59897 98.85101 174.78152 321
34.07522 102.32227 176.98981 273
16.76144 111.59979 177.41451 273
77.95770 77.85951 171.75171 316
67.96761 83.09479 171.82571 312
56.58605 89.07806 171.90588 308
48.73798 93.19390 173.29013 324
43.10120 96.11137 175.43631 323
37.33410 99.14559 177.78354 321
27.27752 104.44153 179.50562 274
8.64151 114.22643 180.08742 288
77.57877 76.92803 171.76375 316
67.50090 82.14598 171.85002 312
56.22177 87.98684 171.93724 327
50.98177 90.64786 173.94763 325
45.51363 93.51768 176.11771 324
39.90595 96.38368 178.42041 322
29.19210 101.93272 179.96826 292
7.98380 112.90430 180.09831 288
77.16521 75.99686 171.77135 316
67.09219 81.14651 171.83603 312
58.25363 85.66966 172.63043 328
53.21002 88.19557 174.62096 326
47.84237 90.92068 176.74231 325
42.42090 93.69099 179.05487 323
28.69314 100.72955 179.93303 292
7.40162 111.57083 180.11034 288
76.80080 75.09688 171.76547 316
66.65744 80.16951 171.83112 312
60.24026 83.40681 173.25124 329
55.35099 85.87215 175.27458 327
50.16102 88.43851 177.33917 326
44.86895 91.07857 179.60176 324
28.17636 99.51280 179.93843 292
6.81015 110.20465 180.12437 288
76.40900 74.17612 171.74496 316
66.26397 79.18980 171.84402 312
61.11823 81.70580 173.60674 387
57.42014 83.53457 175.86638 328
52.36961 86.06152 177.93237 326
45.30978 89.54745 179.81813 296
27.59304 98.24809 179.93073 292
2.88292 110.45026 179.57402 290
-20.09285 121.88683 180.37532 284
76.02606 73.23225 171.78992 316
65.83704 78.20000 171.84477 312
61.84576 80.16264 173.90921 388
58.83446 81.63219 176.31955 386
54.48401 83.71193 178.53575 328
44.83409 88.42980 179.82527 296
-6.10778 113.21826 173.84422 288
-6.16671 113.24202 178.19592 289
-20.75895 120.34060 180.37694 284
75.66295 72.31309 171.75266 316
65.99504 76.94228 172.01410 378
62.52936 78.60306 174.21080 389
59.57255 80.00440 176.61031 387
56.53114 81.49020 179.05290 385
44.40628 87.29118 179.83868 296
7.82322 104.78136 176.49666 285
-14.44593 115.43549 176.95598 345
-21.38912 118.79002 180.34807 284
75.29041 71.40206 171.77199 316
66.70037 75.47289 172.28491 379
63.26858 77.05634 174.45898 390
60.31081 78.44301 176.87041 388
57.25849 79.87355 179.33160 386
43.93497 86.17447 179.83575 296
14.37345 100.08335 177.82527 286
-18.69335 115.65421 176.37584 343
-22.00304 117.29181 180.37366 284
74.94024 70.47318 171.76018 316
67.41785 73.98150 172.61336 380
63.94130 75.58018 174.77951 391
61.01594 76.91872 177.16484 389
58.05457 78.32574 179.60196 387
43.49026 85.04683 179.80748 296
20.53828 95.66542 179.03474 287
6.36982 102.24908 180.53859 285
-23.02866 115.94556 180.27756 342
74.55293 69.51715 171.79770 316
68.08248 72.50739 172.91898 381
64.61313 74.09132 175.04588 392
61.74907 75.39421 177.42499 390
58.11249 77.03883 179.68459 300
29.98206 89.88093 177.24092 334
23.45775 92.86256 179.69455 317
12.99176 97.60552 181.74252 286
-5.57896 106.10608 182.91045 267
74.20005 68.59450 171.76498 316
68.79462 71.03664 173.21342 382
65.27648 72.58664 175.29030 393
62.44506 73.88110 177.68925 391
57.75104 75.99875 179.71837 300
31.97104 87.56858 177.68396 336
25.85265 90.34660 180.22144 333
18.17732 93.80020 182.64838 315
5.03995 99.65774 184.55844 285
73.88880 67.65774 171.78568 316
69.46533 69.59782 173.51164 383
66.03666 71.13428 175.57018 380
63.13878 72.41837 177.93893 392
57.35939 74.97277 179.72952 300
33.90193 85.34043 178.20779 337
27.89953 87.94950 180.67610 334
21.11877 90.97456 183.17955 316
11.73368 95.09645 185.61775 286
-6.82288 103.34457 187.19250 267
73.55315 66.73586 171.80368 316
70.13387 68.19860 173.75688 384
66.71015 69.69217 175.85599 381
63.85629 70.91954 178.16690 393
56.94718 73.90378 179.69930 300
35.78647 83.15224 178.67511 338
29.89629 85.67177 181.12265 335
23.70177 88.37240 183.72475 333
15.75651 91.85212 186.21648 315
3.75311 97.02229 188.58441 285
74.02889 65.41325 172.03555 387
70.80785 66.80257 174.07275 384
67.40977 68.22648 176.13110 382
64.53944 69.46085 178.44548 394
56.59801 72.88335 179.74107 300
37.58559 80.96304 179.10014 339
31.89345 83.41980 181.55011 336
25.81491 86.00101 184.09070 334
18.76209 89.05788 186.75148 316
10.18345 92.70384 189.45918 314
-7.91124 100.44463 191.38152 267
74.67393 64.06604 172.31421 388
71.47082 65.44127 174.33130 385
68.11848 66.84544 176.38448 383
65.19799 68.04393 178.66586 395
56.22418 71.82238 179.71233 300
39.43088 78.88248 179.54874 340
33.79462 81.26624 181.97490 338
27.87492 83.71210 184.51352 335
21.58460 86.37547 187.21655 333
13.34070 89.80562 189.87410 315
2.59004 94.39036 192.55270 285
75.26789 62.76240 172.60524 389
72.11217 64.09096 174.61337 386
68.79247 65.43101 176.67061 384
65.89786 66.62530 178.90091 396
55.89906 70.78678 179.74391 300
40.91669 76.92266 179.90962 373
35.65650 79.14367 182.35507 339
29.87237 81.52283 184.87979 336
23.75283 84.02954 187.61267 334
16.39833 87.04423 190.36057 316
7.74270 90.61341 193.16765 313
-8.84456 97.49935 195.59734 267
-33570.29297 13952.32227 8741.26855 1000
75.91325 61.45020 172.87637 390
72.72590 62.72596 174.83934 387
69.50896 64.06216 176.91725 385
66.52904 65.23252 179.13461 397
55.53758 69.73010 179.70715 300
41.89462 75.26115 180.17657 374
37.49366 77.03426 182.79520 340
31.80772 79.32055 185.27077 337
25.82796 81.77811 187.95798 335
19.37779 84.36174 190.74005 317
11.00349 87.78466 193.54659 315
1.40183 91.67262 196.54211 285
76.43557 60.20091 173.12109 420
73.40984 61.40919 175.12785 388
70.16679 62.68328 177.14857 386
67.17592 63.89656 179.37308 398
46.60766 72.07225 177.90826 388
42.81171 73.62710 180.43121 375
38.55617 75.30894 183.03320 373
33.72136 77.20756 185.65701 338
27.85782 79.54552 188.28239 336
21.65461 82.03897 191.07059 334
14.08913 85.02529 193.95670 316
5.28585 88.58325 196.92108 313
-9.65345 94.52045 199.80469 267
76.75356 59.05224 173.27669 420
74.04188 60.12054 175.38445 389
70.84689 61.33031 177.39319 387
67.86229 62.54082 179.61971 399
47.34040 70.54892 178.15376 389
43.65366 71.96482 180.68336 387
39.51339 73.58429 183.24924 374
35.12597 75.29533 185.95746 371
29.84216 77.39249 188.66989 337
23.83026 79.72932 191.39653 335
17.12515 82.36648 194.33168 317
8.62381 85.71159 197.24876 314
-0.62797 89.31358 200.52469 312
77.03208 57.88939 173.46022 421
74.37909 58.92242 175.53340 419
71.50934 60.00234 177.64244 388
67.65923 61.47529 179.65477 304
48.03619 69.01762 178.36476 390
44.42088 70.46285 180.92584 388
40.46915 71.93637 183.51503 374
36.16259 73.62648 186.19257 372
31.67949 75.33168 188.93045 369
25.90630 77.52473 191.73979 336
19.60113 79.93521 194.60216 333
11.79629 82.94806 197.62276 315
2.86588 86.42678 200.79897 313
-10.41330 91.49555 203.99515 267
77.29201 56.74026 173.62927 422
74.69839 57.72829 175.71996 419
72.02290 58.75866 177.84222 417
67.34283 60.49525 179.64441 304
48.75871 67.52536 178.57913 391
45.14716 68.90551 181.13387 389
41.39628 70.30632 183.71687 386
37.14808 71.93263 186.39359 373
32.68044 73.59971 189.13846 370
27.90119 75.42685 192.00127 337
21.77123 77.73567 194.88745 334
14.82560 80.30330 197.89563 317
6.23119 83.59429 201.06102 314
-3.14557 87.13456 204.41586 311
77.58957 55.62236 173.79268 422
74.99886 56.59883 175.84981 420
72.31578 57.55750 177.99699 418
67.07077 59.52862 179.65544 304
49.45703 66.05552 178.83371 392
45.86417 67.38288 181.33794 389
42.14091 68.77203 183.95511 387
38.08653 70.24245 186.59625 374
33.75598 71.89686 189.37206 371
29.16456 73.58219 192.21121 369
23.92558 75.51965 195.14407 336
17.54034 77.84787 198.19331 333
9.43894 80.85712 201.32390 315
0.37362 84.25450 204.60732 313
77.88404 54.49313 173.93813 423
75.28988 55.46580 176.01859 421
72.66541 56.42661 178.15269 419
66.79739 58.52558 179.62308 304
50.15631 64.61553 179.05412 393
46.61366 65.85342 181.52451 390
42.90840 67.22565 184.11444 388
39.06146 68.61217 186.81281 375
34.75754 70.21105 189.55396 372
30.21580 71.83445 192.37469 370
25.53694 73.55854 195.37590 367
19.79360 75.63035 198.43108 334
12.57473 78.25342 201.51906 316
3.85398 81.43427 204.85875 314
78.17272 53.40174 174.10318 424
75.59470 54.31345 176.17868 422
72.94146 55.25226 178.30870 419
66.49453 57.55450 179.64847 304
50.84929 63.14640 179.22701 394
47.34504 64.41685 181.72554 391
43.71276 65.70776 184.30351 389
39.90714 67.01406 186.98792 386
35.73637 68.52087 189.72112 373
31.28822 70.10884 192.55421 371
26.65565 71.74901 195.55638 368
21.76609 73.53203 198.59953 365
15.50803 75.74452 201.77960 333
7.11163 78.73187 205.01283 315
78.43041 52.29797 174.23183 425
75.87657 53.19387 176.33105 422
73.27399 54.12394 178.43979 420
66.20898 56.57505 179.65620 304
51.51825 61.73303 179.46881 394
48.04930 62.95621 181.93993 392
44.45258 64.21661 184.53204 390
40.68336 65.47219 187.16185 387
36.71962 66.88255 189.93138 374
32.36431 68.40678 192.76543 371
27.72617 70.02772 195.68909 369
22.96200 71.68349 198.74384 366
17.78486 73.48822 201.95952 334
10.36148 76.11928 205.22916 316
78.70264 51.18845 174.39882 425
76.17654 52.05416 176.46529 423
73.60184 52.98228 178.61496 421
65.95650 55.60178 179.66631 304
52.16775 60.29114 179.67867 395
48.76099 61.49104 182.16769 393
45.16117 62.69122 184.67966 391
41.51814 63.97944 187.33417 388
37.65333 65.26111 190.11626 386
33.40333 66.77376 192.88440 372
28.86258 68.32566 195.85899 370
24.11948 69.92274 198.86708 367
19.16608 71.61221 202.06912 365
13.43879 73.60445 205.40897 317
79.00205 50.12959 174.56648 426
76.49693 50.93510 176.59346 424
73.88380 51.84774 178.74217 421
65.68085 54.57409 179.65100 304
52.86318 58.89394 179.87962 396
49.44989 60.07034 182.35394 394
45.93898 61.24072 184.88998 391
42.27487 62.45958 187.52144 389
38.48228 63.75705 190.25029 386
34.41064 65.08202 193.09726 373
29.92903 66.62583 195.96808 371
25.25718 68.19629 199.01729 368
20.37374 69.84491 202.17819 365
15.21364 71.55135 205.53995 363
79.29386 49.01307 174.69189 428
76.77726 49.87516 176.76909 424
74.19827 50.69077 178.89287 422
65.42999 53.60737 179.63914 304
53.53107 57.51365 180.06204 397
50.13498 58.62593 182.55357 395
46.65492 59.77313 185.06233 392
43.02428 60.98949 187.68373 390
39.29321 62.19725 190.41661 387
35.39061 63.50389 193.25157 374
30.98926 64.91007 196.10519 372
26.37214 66.47848 199.16628 369
21.54086 68.02610 202.28380 366
16.47902 69.73895 205.58858 364
79.57337 47.97013 174.81754 429
77.07616 48.76295 176.91446 425
74.49674 49.58939 179.00055 423
65.17919 52.58164 179.65721 304
54.19006 56.12299 180.25648 398
50.84624 57.23598 182.69472 395
47.33659 58.36150 185.23048 393
43.75912 59.50937 187.86205 391
40.04879 60.67584 190.58621 388
36.25879 61.93096 193.38753 386
32.03392 63.29769 196.27670 373
27.48825 64.76111 199.28583 370
22.69285 66.29368 202.39093 367
17.73956 67.90696 205.64595 365
-61345.68750 19858.20508 5520.41650 1000
79.86076 46.89777 175.00073 430
77.36015 47.67198 177.05748 426
74.83090 48.45455 179.13753 424
57.78128 53.84787 178.05809 413
54.75216 54.83265 180.45757 411
51.50162 55.82750 182.88266 396
48.08611 56.90971 185.44254 394
44.55790 58.05651 188.02679 392
40.88850 59.20777 190.70840 389
37.05884 60.40977 193.49329 387
33.03679 61.65236 196.41098 373
28.53834 63.11009 199.40053 371
23.83788 64.60081 202.47868 368
18.96033 66.15129 205.76598 365
80.12669 45.84323 175.11934 430
77.65053 46.60084 177.16528 426
75.10989 47.35957 179.27428 424
58.19874 52.58556 178.17500 414
55.18384 53.52996 180.59470 412
52.08311 54.52296 183.06126 409
48.77965 55.50307 185.56696 395
45.28891 56.60394 188.19043 392
41.63742 57.70984 190.84566 390
37.87004 58.87263 193.63469 387
33.99646 60.07255 196.56384 385
29.63027 61.42072 199.50661 372
25.01041 62.84904 202.62917 369
20.15980 64.37754 205.86243 366
80.40437 44.78661 175.27684 431
77.92837 45.50619 177.29152 427
75.43826 46.30219 179.39192 425
58.65817 51.36510 178.37535 422
55.64910 52.26937 180.75278 412
52.55140 53.17897 183.21513 410
49.39001 54.13991 185.75743 408
45.97846 55.15889 188.32545 393
42.39619 56.25245 191.01093 391
38.66216 57.37770 193.77650 388
34.81840 58.54330 196.64342 386
30.65929 59.78907 199.61806 373
26.08046 61.22367 202.71764 370
21.30163 62.63443 205.89886 367
80.67290 43.72546 175.38936 432
78.24515 44.46576 177.43594 428
75.73187 45.18868 179.55292 426
59.02600 50.13483 178.47897 422
56.14066 51.00388 180.91965 413
53.08569 51.90315 183.37086 411
49.92093 52.80803 185.89915 408
46.63596 53.80768 188.49673 406
43.17637 54.83361 191.17390 392
39.49623 55.91992 193.89853 389
35.63118 57.03540 196.76181 387
31.69482 58.20406 199.71301 384
27.20437 59.54428 202.78058 371
22.50283 60.96699 206.01265 368
80.96391 42.68991 175.51825 432
78.52592 43.37371 177.54814 428
75.70121 44.22860 179.55084 308
59.43091 48.93140 178.63261 423
56.57158 49.73558 181.02608 421
53.52507 50.59931 183.47333 412
50.41716 51.52299 186.02934 409
47.17709 52.47515 188.60971 407
43.81601 53.44946 191.25894 404
40.29285 54.42955 194.06865 390
36.49123 55.52659 196.87306 387
32.57626 56.65746 199.83943 385
28.29470 57.91068 202.86501 372
23.62290 59.26022 206.06375 369
81.23568 41.65516 175.65605 433
78.83804 42.31958 177.70334 429
75.48766 43.28344 179.56458 308
59.78599 47.72055 178.76947 424
56.97687 48.49911 181.15114 422
54.03285 49.34216 183.62389 412
50.93595 50.24198 186.13902 410
47.68487 51.11493 188.70444 407
44.36912 52.09816 191.41434 405
40.94947 53.03690 194.15601 402
37.30864 54.04954 196.99083 388
33.38994 55.16950 199.95512 386
29.34979 56.33188 203.01242 373
24.75088 57.62984 206.16057 370
81.50280 40.65576 175.77090 434
79.11115 41.27990 177.84502 430
75.31502 42.32643 179.58807 308
60.19107 46.52591 178.90202 425
57.39519 47.29388 181.31531 422
54.49308 48.07849 183.76857 413
51.40135 48.94630 186.24049 411
48.20752 49.81765 188.85030 408
44.93180 50.72077 191.51678 406
41.51342 51.68799 194.23236 403
38.02905 52.64443 197.09612 401
34.25403 53.68992 200.02650 386
30.26449 54.78223 203.05663 384
25.87173 55.98136 206.20493 371
81.75030 39.60875 175.91858 434
79.39422 40.27028 177.93764 430
75.12225 41.41859 179.56102 308
60.54043 45.32288 179.02141 425
57.75397 46.06540 181.44864 423
54.94761 46.84307 183.91153 421
51.91502 47.66914 186.37773 411
48.73553 48.52925 188.94521 409
45.47729 49.40305 191.60130 406
42.10675 50.28122 194.34406 404
38.60880 51.24336 197.20593 401
34.99084 52.23147 200.09676 399
31.15390 53.22758 203.13858 385
27.00180 54.39563 206.24846 372
-187.71344 112.22987 202.37688 495
82.03249 38.60954 176.01816 435
79.69033 39.24375 178.08299 431
74.91457 40.48108 179.57239 308
60.90980 44.17729 179.14574 426
58.15770 44.89374 181.55722 424
55.32955 45.63596 183.98473 421
52.38976 46.40580 186.50032 412
49.26800 47.21805 189.06657 410
46.01213 48.07117 191.73502 407
42.64745 48.93416 194.44968 405
39.20297 49.87499 197.28497 402
35.60804 50.82949 200.18811 399
31.90630 51.75478 203.21962 397
27.96754 52.82581 206.36479 383
22.30090 54.32749 209.53694 263
82.34055 37.61414 176.17319 435
79.97639 38.19986 178.19696 432
74.73644 39.54979 179.58774 308
61.31181 42.97192 179.31441 427
58.55085 43.70553 181.66339 424
55.76953 44.37666 184.13367 422
52.86517 45.14818 186.60843 420
49.77648 45.93080 189.17302 410
46.56597 46.77503 191.84712 408
43.24537 47.61137 194.56709 405
39.80935 48.51120 197.36597 403
36.23497 49.43268 200.26141 400
32.55735 50.32173 203.28818 397
28.72496 51.35263 206.38799 395
24.20273 52.48081 209.64317 341
82.57876 36.57936 176.28178 436
80.25906 37.17662 178.30739 432
74.56807 38.60855 179.58609 308
61.66676 41.79805 179.43254 427
58.94397 42.49418 181.79901 425
56.17077 43.16954 184.21411 423
53.27034 43.90174 186.74478 420
50.28935 44.66076 189.30484 411
47.09664 45.46560 191.92026 409
43.78635 46.28452 194.64091 406
40.37707 47.13631 197.40981 403
36.82896 48.02056 200.34993 401
33.19605 48.93995 203.30894 398
29.40304 49.85042 206.45787 395
25.21515 50.93317 209.63440 356
-188.33202 104.26672 209.46326 295
82.84585 35.58180 176.40187 437
80.56451 36.14311 178.41734 433
74.41199 37.67643 179.59044 308
62.04654 40.64473 179.56961 428
59.32524 41.34688 181.90297 426
56.56722 41.99622 184.36299 423
53.69194 42.68684 186.85570 421
50.77257 43.38615 189.39105 419
47.61630 44.18245 192.03328 409
44.35979 44.96519 194.70345 407
40.94865 45.77420 197.53001 404
37.41762 46.62706 200.39934 402
33.83345 47.51908 203.41582 399
30.03441 48.44756 206.50677 396
25.95172 49.46495 209.66479 357
-186.87140 101.22939 209.52008 485
83.13951 34.59105 176.52316 437
80.84298 35.15757 178.54166 433
74.25517 36.70771 179.58736 308
62.39210 39.50326 179.67410 429
59.74896 40.16155 182.01273 426
56.95349 40.79849 184.47420 424
54.13126 41.48539 186.93022 422
51.22720 42.16079 189.50322 419
