# .PCD v.7 - Point Cloud Data file format
VERSION .7
FIELDS x y z rgb
SIZE 4 4 4 4
TYPE F F F U
COUNT 1 1 1 1
WIDTH 1356
HEIGHT 1
VIEWPOINT 6614.124512 69.131905 144.293488 -0.623536 -0.100262 -0.082350 0.770953
POINTS 1356
DATA ascii
60.48244 -42.34273 180.42401 426
57.85807 -43.04630 182.72874 424
55.13730 -43.75070 185.13045 422
52.30765 -44.45601 187.55141 420
49.32377 -45.24973 190.00667 410
46.19870 -46.03899 192.59088 408
42.93810 -46.86760 195.20476 405
39.60753 -47.74379 197.92932 402
36.13578 -48.61510 200.74814 400
32.54490 -49.52446 203.65562 397
28.83236 -50.51242 206.71602 394
-188.38234 -106.30518 202.58881 484
80.99683 -38.02650 177.37199 435
78.73174 -38.64525 179.32820 431
62.74522 -42.84692 178.02400 428
60.14351 -43.50298 180.30516 426
57.47136 -44.23661 182.59303 423
54.70504 -44.93394 184.98376 421
51.87624 -45.72351 187.39165 412
48.81073 -46.51655 189.89062 409
45.64975 -47.35164 192.47923 407
42.38723 -48.19092 195.12213 404
39.04195 -49.07288 197.85072 402
35.52853 -50.00600 200.65604 399
31.95189 -50.96216 203.63202 396
28.19806 -51.95743 206.65892 394
-188.37445 -108.98615 202.56465 483
80.75925 -39.05200 177.19197 434
78.43217 -39.64708 179.16412 430
69.71745 -42.02043 179.64351 308
59.79622 -44.68720 180.13374 425
57.12130 -45.43735 182.46454 423
54.32325 -46.14898 184.85733 421
51.38517 -46.94235 187.29158 411
48.32568 -47.81968 189.74748 409
45.13261 -48.66742 192.32393 406
41.86242 -49.51910 195.01895 404
38.42557 -50.44586 197.74396 401
34.92734 -51.38894 200.59496 398
31.26417 -52.39365 203.53957 396
27.29660 -53.44541 206.61955 382
-187.84850 -111.60970 202.64331 495
80.51913 -40.04298 177.04359 433
78.20114 -40.70024 179.03899 430
69.99970 -42.96960 179.65598 308
59.41993 -45.89891 180.00290 424
56.73711 -46.62288 182.29724 422
53.93303 -47.41167 184.68965 413
50.90885 -48.24454 187.12164 410
47.79630 -49.11625 189.62791 408
44.61234 -49.97897 192.22591 405
41.27102 -50.93007 194.91406 403
37.87641 -51.84972 197.64523 400
34.32420 -52.81226 200.51784 398
30.43361 -53.91750 203.47935 384
26.27564 -55.07180 206.51346 370
-187.18546 -114.08171 202.55666 495
80.27099 -41.06852 176.90146 433
77.89257 -41.72331 178.89223 429
70.29467 -43.89233 179.64053 308
59.07109 -47.08558 179.81349 424
56.32774 -47.87127 182.18896 421
53.45638 -48.68425 184.56558 412
50.42643 -49.52701 187.00349 410
47.30763 -50.41986 189.49275 407
44.06076 -51.33016 192.12877 405
40.71210 -52.26978 194.80788 402
37.26411 -53.26028 197.56203 400
33.48574 -54.32098 200.41620 385
29.59682 -55.44986 203.39227 383
25.17435 -56.70306 206.45737 369
79.99783 -42.10109 176.76909 431
77.65409 -42.79107 178.73288 428
70.59708 -44.85048 179.64488 308
58.72027 -48.27832 179.67180 423
55.95222 -49.10019 182.04375 421
52.98785 -49.92336 184.39374 411
49.95999 -50.83451 186.86253 409
46.79895 -51.73631 189.39932 406
43.51517 -52.69238 192.00645 404
40.14172 -53.64630 194.70241 401
36.50577 -54.71337 197.44568 387
32.66181 -55.80300 200.30275 385
28.59834 -56.99205 203.28528 371
24.03878 -58.29992 206.37222 369
79.74880 -43.15143 176.59177 430
77.38185 -43.84359 178.57065 428
70.88300 -45.75423 179.63924 308
58.31766 -49.47268 179.52618 422
55.52102 -50.30362 181.85278 413
52.52513 -51.23348 184.25871 411
49.45645 -52.10652 186.72499 408
46.25598 -53.05427 189.25421 406
42.95124 -54.03947 191.85162 403
39.41089 -55.13280 194.53618 389
35.68615 -56.23843 197.31845 386
31.78170 -57.36426 200.19766 384
27.51033 -58.63201 203.20082 370
22.87011 -60.03536 206.28452 368
79.47440 -44.18044 176.43396 429
77.11302 -44.89381 178.42395 427
71.17791 -46.68840 179.64204 308
57.97181 -50.73705 179.35901 422
55.09179 -51.57397 181.68777 412
52.04266 -52.49546 184.07225 410
48.94660 -53.43909 186.54695 407
45.74305 -54.44835 189.10828 405
42.24444 -55.48027 191.68958 391
38.60439 -56.59327 194.41483 388
34.83786 -57.72602 197.19591 385
30.87918 -58.93603 200.10724 372
26.40136 -60.31250 203.09819 369
21.71228 -61.71682 206.23433 367
79.23273 -45.25347 176.28162 429
76.84310 -45.97995 178.28502 426
71.50455 -47.65587 179.64532 308
57.59352 -51.93632 179.18930 414
54.60785 -52.87116 181.50647 411
51.60645 -53.83031 183.90843 409
48.43734 -54.78051 186.41806 407
45.05488 -55.82538 188.94260 392
41.48776 -56.94332 191.56337 390
37.81614 -58.05988 194.27333 387
34.01102 -59.27899 197.08044 385
29.81765 -60.55970 199.95486 371
25.26877 -61.97726 202.96767 369
20.54527 -63.42994 206.12357 366
78.98261 -46.29744 176.10445 428
76.56152 -47.06987 178.12558 426
71.84776 -48.58683 179.60429 308
57.16010 -53.23814 179.00827 413
54.16981 -54.17890 181.38091 411
51.09276 -55.12683 183.74483 408
47.77558 -56.19696 186.22556 394
44.32645 -57.26106 188.75494 391
40.74569 -58.42477 191.38324 389
37.03308 -59.57304 194.12019 386
33.15340 -60.80392 196.96573 384
28.74304 -62.20466 199.81631 370
24.14881 -63.68586 202.85638 368
19.33187 -65.17325 206.04053 365
-41003.84766 -13056.55078 3049.02954 1000
78.70208 -47.36709 175.97012 427
76.27878 -48.15458 177.94223 425
72.18436 -49.50992 179.62891 308
56.71262 -54.52052 178.85184 412
53.68548 -55.46317 181.16438 410
50.46720 -56.54178 183.56853 395
47.08110 -57.58844 186.02855 393
43.55494 -58.76291 188.60219 390
39.96258 -59.89018 191.21896 388
36.20789 -61.10380 193.97876 385
32.16092 -62.42974 196.78133 372
27.67223 -63.86161 199.69925 369
23.00297 -65.38207 202.78963 367
18.11978 -66.96333 205.97084 364
78.47511 -48.46873 175.79109 426
76.00481 -49.28574 177.78351 424
72.49254 -50.43204 179.62048 308
56.26709 -55.80542 178.62007 411
53.07533 -56.83260 180.97441 397
49.78560 -57.90362 183.36276 394
46.34579 -59.06878 185.83318 392
42.81501 -60.24919 188.40877 390
39.15459 -61.44250 191.05356 387
35.37823 -62.68201 193.82935 385
31.10168 -64.10064 196.63382 371
26.55289 -65.56557 199.58234 369
21.86160 -67.14005 202.64153 366
16.90742 -68.79339 205.83925 363
78.21317 -49.52865 175.61183 426
75.72390 -50.39261 177.63701 424
72.83271 -51.36092 179.60124 308
55.65741 -57.14761 178.40302 398
52.43727 -58.23222 180.76831 396
49.09250 -59.36131 183.15823 394
45.65798 -60.50374 185.63135 391
42.07812 -61.74391 188.24022 389
38.38701 -62.95993 190.86922 386
34.44515 -64.30872 193.64015 373
30.01301 -65.77502 196.49326 370
25.47225 -67.33057 199.47034 368
20.64439 -68.92851 202.50977 365
15.64655 -70.64373 205.77547 362
77.94167 -50.64904 175.43626 425
75.43593 -51.48356 177.48737 423
72.90404 -52.35354 179.54936 421
55.04853 -58.52420 178.21524 397
51.77549 -59.61209 180.54814 395
48.42945 -60.80890 182.93372 393
44.90327 -62.00970 185.46486 390
41.31694 -63.23052 188.04855 388
37.59725 -64.53748 190.72702 385
33.39365 -65.93816 193.48335 372
28.95193 -67.48819 196.29996 369
24.29621 -69.10543 199.28555 367
19.45578 -70.75608 202.40442 364
14.36292 -72.49601 205.66898 361
77.65778 -51.73462 175.29482 424
75.15712 -52.60576 177.30609 422
72.62591 -53.50803 179.37164 420
54.41402 -59.91113 177.94188 397
51.14561 -61.07093 180.30078 394
47.71260 -62.23433 182.73615 392
44.18019 -63.47455 185.26309 389
40.55508 -64.74030 187.86995 387
36.72474 -66.12210 190.51439 374
32.36551 -67.66160 193.30328 371
27.88982 -69.23360 196.13681 368
23.16553 -70.87951 199.18121 366
18.23250 -72.59760 202.27881 363
11.61940 -74.91946 205.53406 315
77.39526 -52.85143 175.11542 424
74.91938 -53.73814 177.12457 421
72.35009 -54.65522 179.21249 419
62.44259 -58.20720 179.70468 304
50.44934 -62.51149 180.05341 393
47.03212 -63.73907 182.53462 391
43.44966 -64.97614 185.03827 389
39.78836 -66.30708 187.64091 386
35.72032 -67.74047 190.32266 373
31.31869 -69.34467 193.08716 370
26.75750 -70.94489 195.97090 367
21.98815 -72.66251 199.01663 365
16.30422 -74.68246 202.10719 332
8.36055 -77.52508 205.29404 314
77.15533 -53.96767 174.93500 423
74.63861 -54.87134 176.95692 421
72.05694 -55.85293 179.07365 419
62.85484 -59.18706 179.71065 304
49.80322 -63.95255 179.85364 392
46.32228 -65.23672 182.30766 390
42.71546 -66.53272 184.85843 388
38.94543 -67.88053 187.45544 374
34.70065 -69.44044 190.14932 372
30.27932 -71.03944 192.94279 369
25.63950 -72.77202 195.85052 367
20.47478 -74.64405 198.87190 334
13.71485 -77.12753 201.91451 316
5.00659 -80.28245 205.10315 313
76.86511 -55.10872 174.75276 422
74.34303 -56.03687 176.77687 420
71.73241 -57.00959 178.89133 418
63.22852 -60.20097 179.70169 304
49.07301 -65.41411 179.62991 392
45.56832 -66.76476 182.08669 389
41.94288 -68.07595 184.64261 387
38.02374 -69.56938 187.23868 373
33.69781 -71.17212 189.90871 371
29.19342 -72.81549 192.74408 368
24.44866 -74.57284 195.63153 335
18.23987 -76.90067 198.60501 333
10.54904 -79.78143 201.66460 314
1.58312 -83.09833 204.89430 312
76.61256 -56.23299 174.53445 422
74.03909 -57.19837 176.62318 419
71.42332 -58.21916 178.69356 417
63.63108 -61.16462 179.68362 304
48.41350 -66.90903 179.34644 391
44.83720 -68.25231 181.82411 388
41.15781 -69.65237 184.41432 386
37.05074 -71.21090 187.02271 372
32.65363 -72.89416 189.73074 370
28.07991 -74.59895 192.54938 367
22.35137 -76.77282 195.39250 334
15.77842 -79.30178 198.34711 316
7.22422 -82.53053 201.39034 313
-2.05322 -86.05302 204.68390 311
76.36333 -57.38660 174.37907 421
73.78098 -58.39374 176.41458 419
71.10289 -59.44347 178.54593 387
64.05115 -62.13338 179.67735 304
47.72496 -68.46033 179.13527 390
44.12663 -69.81024 181.59355 387
40.28949 -71.29541 184.15454 374
36.01313 -72.91995 186.76338 371
31.63896 -74.62959 189.51704 369
26.34147 -76.65894 192.25821 335
20.14770 -79.06322 195.07539 333
12.67167 -81.98511 198.02943 315
3.85403 -85.34270 201.10648 312
-5.75042 -89.03047 204.49118 310
76.07024 -58.54429 174.17061 420
73.49145 -59.55431 176.24551 418
70.42890 -60.79066 178.24980 387
64.42487 -63.13206 179.69009 304
47.02282 -69.98465 178.85760 389
43.35234 -71.38985 181.35959 386
39.32637 -72.98738 183.93221 373
35.01498 -74.67847 186.52786 371
30.22239 -76.54948 189.20546 337
24.25307 -78.90514 191.91115 334
17.90930 -81.41254 194.81502 316
9.44192 -84.70406 197.70174 314
0.27401 -88.34791 200.83032 311
75.81343 -59.71899 174.00093 419
72.94962 -60.89286 175.96263 388
69.78038 -62.12906 177.97319 386
64.84399 -64.10259 179.69395 304
46.30844 -71.52721 178.63380 388
42.55892 -73.03119 181.14714 375
38.38501 -74.71861 183.67068 372
33.99403 -76.47700 186.26669 338
28.20189 -78.79113 188.88600 336
22.10101 -81.20589 191.60892 333
14.79739 -84.14835 194.44557 315
6.11771 -87.56908 197.35210 312
-5.13647 -92.11617 200.43001 266
75.39134 -60.94641 173.74304 389
72.33172 -62.22989 175.68538 387
69.09972 -63.51523 177.72813 385
65.26932 -65.09218 179.70364 304
45.60255 -73.11452 178.35291 387
41.64307 -74.72626 180.83057 374
37.38804 -76.41410 183.41827 371
32.03878 -78.62014 185.88965 337
26.13469 -80.98588 188.51384 335
19.90718 -83.53124 191.27473 332
11.64367 -86.89890 194.03836 314
2.66419 -90.58950 196.97102 311
-23.02343 -100.98935 199.07431 265
74.78992 -62.28547 173.45135 388
71.67521 -63.60370 175.40605 386
68.43018 -64.91561 177.45467 384
65.72086 -66.06438 179.70377 304
44.83347 -74.70050 178.08141 375
40.70768 -76.41486 180.56136 373
35.79531 -78.43279 183.02713 338
30.07222 -80.83923 185.51610 336
24.02573 -83.29719 188.14018 334
17.00220 -86.24410 190.82591 315
8.39126 -89.81683 193.61090 313
-5.06349 -95.37035 196.28885 266
74.21806 -63.64500 173.13290 387
71.03681 -64.95094 175.11018 385
67.75595 -66.32811 177.17787 383
65.05109 -67.49083 179.41360 394
53.15758 -72.49762 179.79535 300
39.45638 -78.26484 180.19093 340
33.90039 -80.58525 182.56206 337
28.05880 -83.07246 185.09450 335
21.87976 -85.70150 187.76518 332
13.85636 -89.06097 190.34578 314
4.09554 -93.16233 193.08356 285
73.59076 -65.00259 172.84222 387
70.39817 -66.37573 174.82260 384
67.08159 -67.77332 176.87498 382
64.38976 -68.94964 179.13998 393
53.61312 -73.57335 179.76344 300
37.68011 -80.40860 179.73526 339
31.99247 -82.84139 182.13449 336
26.01568 -85.36422 184.64951 334
19.17464 -88.32197 187.27525 316
10.65806 -91.95869 189.91203 313
-4.77639 -98.61772 192.03308 266
72.98035 -66.35870 172.52341 386
69.72025 -67.81373 174.51016 383
66.41867 -69.21405 176.59552 394
63.67468 -70.41905 178.90767 392
54.08171 -74.58746 179.80214 300
35.80927 -82.55505 179.26482 337
29.99860 -85.12227 181.68272 335
23.85961 -87.76414 184.23320 333
16.10062 -91.14299 186.72847 314
4.98088 -95.99483 189.12970 285
72.34219 -67.75945 172.21187 385
69.05988 -69.21272 174.21648 382
65.75737 -70.67912 176.28940 393
63.01382 -71.92320 178.60497 391
54.57493 -75.64745 179.79881 300
33.90987 -84.82155 178.78772 336
27.99672 -87.40189 181.24005 334
21.35446 -90.38580 183.72652 316
12.76733 -94.20806 186.19638 286
-4.42727 -101.78282 187.84753 266
71.68421 -69.20922 171.88287 384
68.40427 -70.67059 173.91081 381
65.10784 -72.15415 176.02968 392
62.27078 -73.45032 178.30681 390
55.06820 -76.66695 179.77081 300
31.98267 -87.11228 178.31584 335
25.91106 -89.84089 180.71449 333
18.35487 -93.22663 183.13588 315
5.92857 -98.80665 185.10750 285
71.92212 -70.22382 171.84135 316
67.71938 -72.18607 173.60789 381
64.41447 -73.66569 175.68515 391
61.58318 -74.99373 178.06021 389
55.53621 -77.71794 179.74898 300
29.99038 -89.44450 177.77023 334
23.62188 -92.38335 180.20523 316
13.75128 -96.88445 182.28360 286
-3.90445 -104.95074 183.57367 266
72.42477 -71.16674 171.83612 316
67.02931 -73.66235 173.27489 380
63.75043 -75.21511 175.41400 390
60.85231 -76.54202 177.74133 388
56.09111 -78.78971 179.74141 300
27.95820 -91.86469 177.26910 333
20.68328 -95.26962 179.57362 315
7.04000 -101.62554 181.08200 285
-24.83050 -116.38644 180.44795 284
72.86053 -72.11254 171.80737 316
66.34626 -75.18513 172.91035 379
63.03604 -76.73872 175.12254 389
60.16909 -78.13432 177.47705 387
56.58597 -79.78686 179.77380 300
41.62083 -86.85403 179.85997 296
14.88000 -99.54435 178.37135 286
-19.67616 -115.84338 176.59035 344
-24.07371 -117.97069 180.40750 284
73.32346 -73.02798 171.82265 316
65.64279 -76.75597 172.60445 378
62.34545 -78.33082 174.76598 388
59.39606 -79.73627 177.16867 386
56.38151 -81.18829 179.57442 384
42.17926 -88.00314 179.87065 296
8.14548 -104.32047 177.02122 285
-15.29644 -115.64161 177.20410 345
-23.36655 -119.49149 180.42194 284
73.81381 -73.96140 171.80867 316
64.91962 -78.28771 172.24559 377
61.62560 -79.92792 174.48116 387
58.66962 -81.33705 176.84277 385
54.66732 -83.28835 179.11484 327
42.75911 -89.10938 179.89467 296
-8.04130 -113.91486 173.97272 289
-8.03672 -113.88541 178.26982 289
-22.59042 -121.01500 180.45587 284
74.27790 -74.89621 171.80315 316
64.16103 -79.88548 171.88139 312
60.90468 -81.53461 174.15582 386
57.45703 -83.25433 176.44505 328
52.46422 -85.69747 178.48630 327
43.29942 -90.23972 179.89406 296
25.67638 -98.95826 180.03000 292
1.20711 -111.13824 179.70390 291
74.76492 -75.80472 171.80054 316
64.70496 -80.87638 171.88266 312
60.17742 -83.13691 173.80702 385
55.32917 -85.57467 175.78552 327
50.20275 -88.17674 177.86108 326
43.88630 -91.36227 179.89528 296
26.30244 -100.19514 180.00430 292
5.09590 -110.91469 180.16927 288
75.26870 -76.75169 171.80023 316
65.20324 -81.86590 171.90942 312
58.18179 -85.43251 173.14694 328
53.14075 -88.01003 175.09908 326
47.91171 -90.74674 177.18417 325
42.46363 -93.47730 179.48569 323
26.97075 -101.42908 180.03342 292
5.76884 -112.20709 180.19292 288
75.78537 -77.65510 171.79124 316
65.75284 -82.84917 171.90036 312
56.07974 -87.86295 172.41689 326
50.90465 -90.56886 174.44084 324
45.46111 -93.37650 176.55286 323
39.88934 -96.27460 178.82912 321
27.55778 -102.63696 180.02693 292
6.49170 -113.61440 180.16927 288
76.30586 -78.57322 171.80580 316
66.30733 -83.83414 171.88231 312
54.95458 -89.80144 172.00436 308
48.60600 -93.16952 173.71140 323
42.99135 -96.11075 175.86925 322
37.23653 -99.08399 178.14163 320
27.49152 -104.21105 179.85420 274
7.20679 -114.96266 180.20767 288
76.78403 -79.49030 171.80997 316
66.84193 -84.81768 171.88525 312
55.51916 -90.83082 171.96971 308
46.18888 -95.80755 172.98608 322
40.42864 -98.89799 175.11932 321
33.97134 -102.35648 177.29720 272
16.57464 -111.64430 177.68329 272
77.31657 -80.35755 171.79831 316
67.38867 -85.77881 171.86539 312
56.06984 -91.89604 171.96460 308
43.71101 -98.62495 172.19949 321
37.76820 -101.82114 174.35518 320
23.06070 -109.78601 174.93964 271
-54.50850 -151.88086 164.16931 372
77.83491 -81.26716 171.76836 316
67.91456 -86.72291 171.89598 312
56.66664 -92.93506 171.95801 308
43.79823 -100.01035 172.09341 304
30.81387 -107.11683 172.62343 272
11.41863 -117.82941 172.31897 296
-50.64534 -151.92897 164.78978 373
78.34774 -82.19238 171.78864 316
68.48058 -87.72283 171.88142 312
57.26418 -93.97842 171.93887 308
44.41467 -101.12893 172.08293 304
29.59001 -109.45226 172.17775 300
12.15900 -119.16988 172.33266 296
-47.28603 -152.33475 165.18045 286
78.89297 -83.07225 171.78464 316
69.01620 -88.64892 171.85452 312
57.88546 -95.01331 171.97652 308
45.11266 -102.26289 172.05374 304
30.29169 -110.61956 172.20691 300
12.90553 -120.43838 172.31081 296
-46.28246 -154.04120 165.15369 286
79.41576 -84.00689 171.76172 316
69.63242 -89.60895 171.86255 312
58.48791 -95.99738 171.97287 308
45.72376 -103.35063 172.08107 304
30.92712 -111.83619 172.15785 300
13.67719 -121.74776 172.30547 296
-45.32211 -155.64297 165.16263 286
79.99062 -84.90242 171.79242 316
70.19458 -90.58448 171.87672 312
59.09733 -97.06281 171.95699 308
46.38942 -104.43661 172.06107 304
31.67128 -113.05877 172.17952 300
14.39010 -123.11660 172.32512 296
-44.35132 -157.28709 165.23691 286
80.52618 -85.77166 171.75262 316
70.77901 -91.51768 171.85327 312
59.72287 -98.09270 171.94972 308
47.07056 -105.58173 172.07719 304
32.39919 -114.24928 172.15640 300
15.18938 -124.40714 172.30017 296
-43.33974 -158.93321 165.22963 286
81.07519 -86.65674 171.74841 316
71.34019 -92.51885 171.82733 312
60.33774 -99.09611 171.93227 308
47.73994 -106.67908 172.02811 304
33.05951 -115.42184 172.13901 300
-27.14128 -151.52652 163.12721 371
-42.30495 -160.60287 165.23312 286
81.61407 -87.58070 171.73965 316
71.96172 -93.44412 171.81926 312
60.94576 -100.12962 171.91637 308
48.40896 -107.72718 172.04453 304
33.84110 -116.57777 172.16859 300
-23.54153 -151.46368 163.69780 372
82.20184 -88.43318 171.74789 316
72.53635 -94.39013 171.82611 312
61.60432 -101.14116 171.93080 308
49.09466 -108.84323 172.06319 304
34.54453 -117.77231 172.14647 300
-19.98305 -151.35965 164.31097 374
82.77084 -89.33629 171.76459 316
73.12933 -95.31678 171.85472 312
62.26198 -102.11500 171.91563 308
49.73106 -109.96257 172.05724 304
35.26099 -118.98570 172.14421 300
-16.47630 -151.26033 164.80870 375
83.30968 -90.18691 171.73418 316
73.77824 -96.27532 171.81525 312
62.91542 -103.13142 171.90565 308
50.42976 -111.04092 172.04225 304
36.00661 -120.14011 172.16783 300
-13.05424 -151.19514 165.34854 376
83.90524 -91.07523 171.75124 316
74.38557 -97.17923 171.82819 312
63.52689 -104.13635 171.91898 308
51.12831 -112.08780 172.02344 304
36.80474 -121.32745 172.14044 300
-10.50632 -151.66049 165.69380 291
84.48625 -91.93340 171.75517 316
75.00031 -98.11228 171.83983 312
64.21259 -105.16006 171.90660 308
51.85416 -113.17934 172.03702 304
37.54412 -122.49777 172.10757 300
-9.55112 -153.06165 165.66837 291
85.09416 -92.83783 171.72620 316
75.63388 -99.04940 171.79579 312
64.89508 -106.10685 171.92381 308
52.59678 -114.27190 172.01648 304
38.29156 -123.62680 172.12173 300
-8.50805 -154.48364 165.74625 291
85.66450 -93.69405 171.70422 316
76.24951 -99.96265 171.82457 312
65.57434 -107.10915 171.87439 308
53.28382 -115.32994 172.02443 304
0.57322 -150.53394 162.87602 285
-7.46374 -155.88979 165.68620 291
86.28450 -94.52763 171.70065 316
76.90383 -100.87553 171.78761 312
66.25178 -108.13990 171.89055 308
54.01667 -116.37448 172.02069 304
3.17225 -150.82280 163.29332 382
-6.46884 -157.28439 165.73177 290
86.91051 -95.39330 171.72388 316
77.51727 -101.83174 171.79063 312
66.90484 -109.11989 171.87439 308
54.74027 -117.48147 171.96710 304
6.21214 -150.71930 163.81725 383
-5.42746 -158.70729 165.74995 290
87.51799 -96.24020 171.70680 316
78.17033 -102.73970 171.76930 312
67.61718 -110.07495 171.88443 308
55.47042 -118.48533 171.99582 304
9.24460 -150.69699 164.29039 385
88.12725 -97.10121 171.69434 316
78.86584 -103.63593 171.79448 312
68.31663 -111.08347 171.86864 308
56.23040 -119.59161 171.97281 304
12.15308 -150.57523 164.75061 386
88.72915 -97.98266 171.67854 316
79.52924 -104.56463 171.79282 312
68.99451 -112.01915 171.84233 308
56.99649 -120.60293 171.95293 304
15.03352 -150.53058 165.23172 387
89.37174 -98.78117 171.71405 316
80.18173 -105.42544 171.79514 312
69.72705 -112.98741 171.85933 308
57.78210 -121.67628 171.97281 304
17.91277 -150.47368 165.73473 388
90.01418 -99.65385 171.67384 316
80.85364 -106.34710 171.76486 312
70.41272 -113.96220 171.85687 308
58.53045 -122.71801 171.94998 304
20.55637 -150.47466 166.11853 295
90.62090 -100.47652 171.68864 316
81.48675 -107.23273 171.74290 312
71.16035 -114.90617 171.82974 308
26.93567 -147.68050 163.29279 296
21.49265 -151.74835 166.08945 297
91.27142 -101.34502 171.67079 316
82.20467 -108.15402 171.77019 312
71.88492 -115.88641 171.83180 308
27.75444 -149.04883 163.23621 296
22.43087 -152.97849 166.11742 297
91.93964 -102.15697 171.68811 316
82.87744 -109.01881 171.76881 312
72.60722 -116.86891 171.83902 308
28.89952 -150.08499 163.27824 390
23.42422 -154.27264 166.09183 297
92.57937 -102.98203 171.65355 316
83.56350 -109.92207 171.74135 312
73.35037 -117.79488 171.81683 308
31.57648 -149.95576 163.74146 391
24.41286 -155.49800 166.12799 297
93.21726 -103.82602 171.65964 316
84.27628 -110.78102 171.74954 312
74.11192 -118.75841 171.82251 308
34.19254 -149.87260 164.20778 392
25.46390 -156.71666 166.08542 297
93.89003 -104.63008 171.65492 316
84.95638 -111.68946 171.75423 312
74.86422 -119.70140 171.84749 308
36.70285 -149.78041 164.63452 394
26.47568 -157.93410 166.14180 297
94.57592 -105.42902 171.65024 316
85.70203 -112.56470 171.74814 312
75.59631 -120.59581 171.79222 308
39.26560 -149.68513 165.05850 395
27.47146 -159.14149 166.12405 297
95.24693 -106.26821 171.65846 316
86.37616 -113.44009 171.73552 312
76.33900 -121.58131 171.82552 308
41.72484 -149.63582 165.50757 396
95.91685 -107.05941 171.64146 316
87.10123 -114.28220 171.69350 312
49.33515 -145.28839 163.42039 300
44.16126 -149.49600 165.90282 397
96.60014 -107.89282 171.62737 316
87.86008 -115.14742 171.70438 312
50.15464 -146.46594 163.35020 300
46.35862 -149.64876 166.24799 301
-31304.50781 -26197.84375 -5181.70215 1000
97.27135 -108.67163 171.62047 316
88.58074 -116.02194 171.70763 312
50.96080 -147.66797 163.36136 300
47.28511 -150.71654 166.21030 301
97.97218 -109.46545 171.64084 316
89.31003 -116.86590 171.70325 312
51.72756 -148.83241 163.27687 300
48.31837 -151.80710 166.24184 301
98.66242 -110.28870 171.64017 316
90.05045 -117.69245 171.68596 312
53.57427 -149.18005 163.55815 401
49.30062 -152.85522 166.23456 301
99.36063 -111.04312 171.60347 316
90.77621 -118.57973 171.70268 312
55.86005 -149.06743 163.96735 403
50.27525 -153.93098 166.25371 301
100.07800 -111.85706 171.62456 316
91.55033 -119.40797 171.66760 312
58.05733 -149.02399 164.34978 404
51.25353 -155.01703 166.22038 301
-1681.38428 -1686.76746 91.22043 336
100.77185 -112.62257 171.59703 316
92.30634 -120.25694 171.69684 312
60.25863 -148.93387 164.73875 405
52.27017 -156.10625 166.24336 301
-1664.76636 -1693.05347 92.17417 499
-1668.14905 -1695.91406 133.52992 499
101.50761 -113.40396 171.61707 316
69.07265 -142.80981 163.55475 304
62.42799 -148.81609 165.11545 406
53.22876 -157.15816 166.23187 301
102.22334 -114.20820 171.59612 316
69.88807 -143.83307 163.54726 304
64.56026 -148.74155 165.51691 407
102.96168 -114.95888 171.57893 316
70.75163 -144.86984 163.51521 304
66.66428 -148.64442 165.85506 408
103.67915 -115.70961 171.57545 316
71.55463 -145.95103 163.45511 304
68.75731 -148.58926 166.21564 409
104.43919 -116.49223 171.57315 316
72.39362 -147.00331 163.40009 304
70.02052 -149.26460 166.35329 306
105.16399 -117.25051 171.55655 316
73.21537 -148.01939 163.40855 304
70.98907 -150.17152 166.36827 306
105.89109 -117.99141 171.55467 316
74.78895 -148.38823 163.59943 412
71.95624 -151.09053 166.33574 306
106.63940 -118.74615 171.53763 316
76.73469 -148.30820 163.94215 413
72.97678 -152.04283 166.32991 306
107.41335 -119.48325 171.55026 316
78.68415 -148.22420 164.28673 414
73.96145 -152.99304 166.34952 306
87.51223 -141.16344 163.68849 311
80.59803 -148.13152 164.64075 415
74.92660 -153.90965 166.37497 306
-2812.13257 -3076.49561 146.10063 294
88.34245 -142.03693 163.67006 311
82.51079 -148.06276 165.02042 417
75.91315 -154.83179 166.38681 306
-2742.16235 -3042.01660 76.80662 305
-2852.16846 -3155.39429 143.67012 286
89.20972 -142.99290 163.64334 311
84.34438 -148.00732 165.30771 418
76.90044 -155.71727 166.35719 305
-2629.29663 -2962.60596 81.38765 269
-2869.12500 -3210.82153 143.68471 461
90.02917 -143.88162 163.60454 307
86.21271 -147.93134 165.65099 419
77.91685 -156.60454 166.38745 305
-2562.93945 -2930.55176 83.42728 328
-2692.42822 -3065.44385 146.78345 356
90.90918 -144.81212 163.56729 307
88.01073 -147.84653 165.98587 420
-2507.71460 -2906.91919 86.00126 329
-2640.68237 -3049.24170 148.49342 426
91.72043 -145.71545 163.55899 307
89.81887 -147.80089 166.30234 421
-2453.05249 -2884.82764 87.96333 330
-2631.12622 -3076.65723 147.40956 426
92.61591 -146.64992 163.48976 307
91.19089 -148.20782 166.45732 310
-2399.88184 -2862.19751 89.80010 331
-2538.32471 -3012.80273 149.75975 473
93.48059 -147.55162 163.45479 307
92.17320 -149.00713 166.45497 310
-2348.47021 -2841.63965 90.65945 332
-2439.15332 -2941.09619 151.82713 362
95.10706 -147.56873 163.73798 423
93.12165 -149.80370 166.42271 310
-2298.75977 -2820.78418 92.95517 362
-2432.08276 -2969.66235 151.44275 469
-2498.10596 -3042.90356 216.78252 370
-2486.54883 -3030.58447 283.43796 385
96.79854 -147.51111 164.04512 414
94.05845 -150.62097 166.47066 310
-2251.04858 -2803.23389 93.97679 363
-2422.08765 -2996.05103 150.92952 471
98.61887 -147.34505 164.38438 415
95.08079 -151.41144 166.44661 310
-2204.99829 -2785.12256 95.03569 365
-2411.45996 -3021.12817 151.35014 471
-2349.17944 -2949.60107 280.27390 444
100.39551 -147.19054 164.73836 416
96.03185 -152.19379 166.43550 310
-2164.47241 -2773.07935 96.72865 425
-2401.84814 -3047.82568 150.95769 470
-2338.78809 -2974.92017 281.09293 444
102.14933 -146.96930 165.05013 417
97.00469 -152.98296 166.43257 310
-2133.91284 -2770.46802 96.87101 427
-2391.42554 -3073.30688 150.68074 473
-2328.83398 -3000.79224 280.84631 437
103.88575 -146.82338 165.38474 418
98.00873 -153.80498 166.45770 310
-2103.93530 -2769.94604 97.47762 400
-2376.93408 -3094.25073 149.92845 346
-2319.22461 -3026.85156 280.84140 436
105.58173 -146.63795 165.74342 419
99.00915 -154.57420 166.46951 310
-2169.11450 -2883.54004 93.46444 465
-2310.69165 -3054.54004 215.87328 385
107.23316 -146.51874 166.01746 420
99.96059 -155.36174 166.46925 310
-2159.14917 -2907.60205 93.35712 464
108.90857 -146.31615 166.33669 421
100.96443 -156.13110 166.47957 310
-2149.52271 -2932.24658 92.51479 462
110.13493 -146.71706 166.46545 314
-2139.88647 -2957.62061 92.48258 461
111.05443 -147.44287 166.47383 314
-2130.13086 -2983.43506 92.46099 461
112.04080 -148.14854 166.48352 314
-2121.25000 -3008.45410 91.03201 460
112.97385 -148.82335 166.48773 314
-2083.53320 -2998.47437 92.31436 421
114.80746 -148.35074 166.87665 428
-2052.66382 -2996.03613 93.67414 422
116.34053 -148.26482 167.11523 438
-2022.99438 -2996.46436 93.52437 351
117.78058 -148.25092 167.37343 439
117.21761 -149.09970 170.29121 438
118.92246 -148.66046 167.42534 316
118.66920 -149.08286 170.49756 439
120.08197 -149.09299 167.50282 490
119.61134 -149.70044 170.52872 312
120.82812 -150.00603 167.42818 316
120.56862 -150.37262 170.50192 312
121.76580 -150.71982 167.41583 316
124.39838 -148.95041 168.22008 489
-24668.66406 -35809.95312 11139.93359 1000
-3407.04761 -11006.79199 1742.39417 1000
-2159.28296 -10341.80664 2691.14014 1000
-3455.46851 -16894.68750 499.31204 1000
-3072.79028 -48853.03516 3425.44897 1000
171.89404 -1073.35291 75.14872 403
171.96925 -1076.66248 92.52402 336
178.84181 -1067.71216 76.05586 457
178.78677 -1069.33911 93.57994 457
178.93086 -1070.96387 111.02377 457
178.73151 -1073.24377 128.36905 411
178.46913 -1076.81946 145.87039 385
185.53815 -1065.84717 76.34279 499
185.49921 -1067.27222 93.89126 499
185.64502 -1068.48120 111.20347 499
185.42747 -1070.31409 128.75076 497
185.53134 -1071.10962 146.35980 499
185.45271 -1072.65491 163.70959 499
192.17403 -1066.52307 76.21357 484
192.28487 -1068.36108 93.79972 484
192.05519 -1069.94031 111.32332 484
191.97050 -1072.08948 128.73636 452
192.01347 -1073.53699 146.22276 447
191.70633 -1076.86072 163.57629 390
198.52122 -1069.93982 75.69197 446
198.66498 -1072.19153 93.35414 446
198.60463 -1075.41479 110.62746 389
205.10789 -1078.19080 74.56615 319
147.63391 -3415.93018 48.72092 1000
708.69183 -7051.70508 -1677.05493 1000
4397.36084 -19672.52539 4904.97021 1000
3302.62598 -10583.82031 216.56485 1000
1226.69800 -2670.70703 734.85748 1000
1219.36145 -1926.02832 110.43565 482
1229.39966 -1917.37000 110.58537 463
1240.06616 -1908.94238 110.77147 464
1250.71924 -1900.36926 110.76624 453
1263.73315 -1924.82080 145.08377 268
1261.36658 -1891.93030 110.68570 451
1273.15112 -1913.50842 145.51971 268
1272.12427 -1884.87524 110.74519 449
1282.02222 -1902.39124 145.72598 262
1283.44312 -1877.14172 110.85039 448
1291.61462 -1892.68018 145.61797 367
1294.07678 -1870.24109 110.85365 449
1302.19189 -1883.39209 145.57867 394
1305.14539 -1862.60034 110.81400 449
1312.67896 -1875.03198 145.59763 395
1308.68628 -1855.66382 111.97517 449
1315.26746 -1866.12891 146.97742 394
1319.89050 -1848.36890 112.21079 449
1325.70544 -1858.46338 146.69356 394
1330.81079 -1841.04993 111.76512 449
1335.96179 -1850.16492 146.77670 394
1341.89294 -1834.50635 111.89559 448
1346.95557 -1842.41638 146.63091 429
1353.24890 -1827.84082 112.10352 448
1357.65259 -1834.64136 146.56636 429
1364.85498 -1821.50806 111.78489 445
1368.73840 -1827.02063 146.94827 447
1476.14905 -1999.24207 179.17424 352
1376.55286 -1815.09192 111.84306 445
1380.07434 -1820.69360 146.77766 446
1473.22632 -1967.65649 179.05087 353
1388.71606 -1809.73218 111.95065 443
1391.64441 -1813.59937 146.68315 459
1470.40784 -1936.22217 179.81122 473
1401.00708 -1804.28235 111.83933 443
1403.34363 -1808.00610 146.72630 465
1467.74036 -1906.32617 180.17978 356
1412.89136 -1798.87524 111.41805 439
1415.47412 -1801.75793 146.73393 465
1464.79468 -1877.33105 180.55055 357
1425.73633 -1793.69751 111.18029 439
1427.43762 -1796.22607 146.36037 491
1462.23633 -1848.50842 181.26517 358
1438.55042 -1789.00208 110.96263 441
1440.09717 -1791.52673 146.46347 492
1459.64832 -1820.36292 181.60190 360
1451.13708 -1784.76379 111.17944 439
1452.47693 -1785.96497 146.72110 491
1462.67383 -1801.02539 181.90387 481
1464.64221 -1780.39709 110.97276 439
1464.93701 -1780.90503 146.57674 487
1471.51733 -1789.93030 181.87804 478
1478.40637 -1776.81543 110.44851 439
1477.95630 -1776.40723 146.06343 488
1481.70764 -1781.84314 181.47385 487
1492.00842 -1773.34070 110.65493 431
1491.56726 -1772.15210 145.98407 483
1495.04236 -1777.89417 181.56007 484
1506.78748 -1770.65466 110.05749 431
1505.25317 -1768.81262 145.71719 483
1509.17798 -1773.75000 181.42906 476
1521.99146 -1768.65979 109.77213 424
1519.80469 -1766.26721 145.45940 472
1524.53064 -1772.09656 181.68805 467
1537.06323 -1767.07202 109.01857 422
1535.44019 -1764.18323 145.72319 465
1539.74146 -1769.74890 181.24211 467
1552.79395 -1765.29187 108.76860 428
1550.70520 -1762.35120 145.37692 464
1569.18579 -1763.80066 108.57539 427
1566.72058 -1760.62720 144.87526 463
1585.15576 -1763.29004 108.22376 426
1582.51819 -1758.79590 144.81242 462
1601.64575 -1762.13806 107.74543 426
1598.41028 -1757.12219 144.56914 462
1618.46838 -1760.92432 107.12764 431
1614.45447 -1755.92102 144.00356 461
1634.69592 -1759.11523 106.79365 430
1630.73962 -1754.21802 143.68242 458
1650.43030 -1757.38574 106.43694 429
1647.11523 -1752.56299 143.69418 459
1667.36853 -1755.37720 105.80603 429
1663.09912 -1750.78711 143.11249 458
1683.80457 -1753.40723 105.62147 428
1679.79968 -1748.73193 142.76567 457
1699.99011 -1751.66748 104.91566 427
1696.46729 -1746.99011 142.88283 457
1717.30017 -1749.86316 104.58227 439
1713.61865 -1744.93469 142.18622 456
1734.67114 -1748.33643 103.88413 438
1730.26624 -1743.43835 141.93842 455
1751.80640 -1746.75305 103.21156 437
1747.41418 -1741.42664 141.51726 454
1770.04126 -1745.28076 102.95641 437
1764.48889 -1739.87488 141.09238 453
1787.89697 -1743.89954 102.11115 436
1782.19141 -1737.86816 141.26775 452
1805.68665 -1742.68274 101.92867 435
1799.72485 -1736.22144 140.41605 451
1823.75903 -1741.03113 101.05989 436
1817.53040 -1733.73621 140.33241 450
1842.13562 -1739.38562 100.69032 435
1835.47693 -1732.37195 139.78697 450
1860.43054 -1737.71753 99.96874 433
1853.29053 -1730.24573 139.28085 449
1879.01013 -1735.81775 99.41389 433
1871.68469 -1728.39709 138.96779 448
1897.84912 -1734.33972 99.27730 432
1889.84985 -1726.30334 138.94098 447
33417.73047 -34442.07031 3365.24683 1000
1913.51477 -1729.17859 98.39266 423
1921.87500 -1738.18140 137.66904 406
1936.55396 -1731.48218 97.89089 433
20262.68555 -17075.66211 -4566.79150 1000
376.52707 -104.99329 167.65884 313
377.09891 -104.08215 167.63231 313
377.67566 -103.13661 167.65623 313
378.22925 -102.18368 167.65398 313
378.83975 -101.24790 167.69557 315
379.39813 -100.28879 167.66278 315
379.99762 -99.35960 167.70262 315
380.54196 -98.39197 167.66850 315
381.09851 -97.44124 167.67426 315
381.67514 -96.48259 167.67583 315
382.21381 -95.51994 167.68867 315
382.93439 -94.65927 167.64429 435
1121.40955 -537.38184 79.25778 397
1125.66626 -539.77802 96.12553 328
384.31635 -94.16416 167.35828 434
1119.88965 -529.13672 79.98601 453
1122.36951 -530.41577 96.92451 453
1124.57251 -532.01398 113.79898 452
1127.73157 -533.72919 130.75938 446
1132.03406 -536.17242 147.71249 487
385.69763 -93.70042 167.14290 433
1121.04138 -522.45441 80.33389 499
1123.19434 -523.60828 97.15926 499
1125.36414 -524.98517 114.29291 488
1127.85938 -526.46075 131.17513 491
1129.88037 -527.30640 148.21002 493
1131.94238 -528.71423 165.30713 489
387.12137 -93.22189 166.84561 432
395.39853 -98.00764 167.70738 309
1124.68542 -517.11591 80.40837 486
1126.98694 -518.32263 97.28438 486
1129.20044 -519.80457 114.02198 486
1131.98364 -521.37946 131.11751 486
1134.07886 -522.35681 148.04788 456
1136.73389 -523.97510 165.26199 449
388.52914 -92.74038 166.57263 431
395.96906 -96.93685 167.69473 309
1129.91321 -512.90839 79.82759 450
1132.81909 -514.43268 96.87274 449
1136.10181 -516.22144 113.66693 393
1140.87988 -518.94006 130.40837 387
389.98181 -92.22405 166.28732 430
396.45731 -95.87495 167.71048 309
1138.93286 -510.69580 79.19595 393
391.42429 -91.73923 166.04198 429
396.97095 -94.77833 167.72409 309
392.87247 -91.20305 165.74181 428
397.52399 -93.73285 167.71143 309
394.36426 -90.70149 165.44614 427
398.00729 -92.63419 167.77435 309
395.87979 -90.14753 165.18295 426
398.50980 -91.58744 167.78021 309
397.40533 -89.65142 164.87100 425
399.04147 -90.46819 167.77107 311
398.14243 -88.70809 164.79535 317
399.51105 -89.41361 167.78624 311
398.69571 -87.68263 164.79947 317
400.50046 -88.60480 167.63609 423
399.19678 -86.62147 164.75340 317
402.08310 -88.01082 167.35321 422
399.73627 -85.55495 164.75417 317
403.67767 -87.48370 167.06152 421
400.24066 -84.50345 164.77879 317
405.27884 -86.89812 166.71623 420
414.67236 -91.42700 167.78105 305
400.74237 -83.44736 164.78453 317
406.90936 -86.33618 166.41220 439
415.15237 -90.28143 167.78012 305
401.21631 -82.32418 164.77702 317
408.32794 -85.65865 166.18085 438
415.66901 -89.06447 167.75551 305
401.67847 -81.25685 164.78082 317
409.76425 -84.95119 165.94370 437
416.15652 -87.91085 167.75073 305
402.13696 -80.22248 164.74954 317
411.21521 -84.26740 165.66034 436
416.60153 -86.74356 167.77783 305
402.62045 -79.11344 164.77708 317
412.66138 -83.52801 165.37143 435
417.07428 -85.49899 167.80841 305
403.07715 -78.01917 164.75546 317
414.13266 -82.82951 165.13834 434
417.55249 -84.33539 167.77881 305
403.51132 -76.93262 164.77452 317
415.56534 -82.11485 164.86018 312
418.00363 -83.13747 167.81454 305
380.38065 -65.88618 171.60356 316
416.01251 -80.92030 164.84341 312
418.44968 -81.93326 167.84140 305
380.73871 -64.94301 171.61046 316
416.53650 -79.75937 164.87398 312
418.84848 -80.74892 167.81415 305
381.08044 -64.00027 171.59842 316
417.00137 -78.62178 164.86969 312
420.14566 -79.91489 167.60097 431
381.44907 -63.03925 171.63110 316
417.46973 -77.41518 164.85832 312
421.73737 -79.12123 167.34561 430
381.80576 -62.07560 171.61061 316
417.91702 -76.27057 164.85690 312
423.29617 -78.40807 167.09068 429
382.14328 -61.09299 171.63544 316
418.35251 -75.05122 164.82063 312
424.87897 -77.62891 166.77345 428
382.47067 -60.14250 171.62987 316
418.77136 -73.91032 164.84128 312
426.47290 -76.79902 166.50047 427
436.73029 -80.72783 167.79436 301
35111.33203 -13215.81738 -1000.78357 1000
382.81479 -59.18274 171.61699 316
419.23633 -72.69134 164.81924 312
428.13977 -76.03693 166.18945 426
437.13251 -79.37200 167.82117 301
383.10764 -58.17992 171.61960 316
419.65842 -71.52394 164.85141 312
429.73828 -75.23067 165.91414 425
437.56265 -78.05617 167.80438 301
383.44052 -57.23086 171.65063 316
420.08328 -70.32417 164.82039 312
431.45496 -74.43163 165.57187 424
437.98691 -76.75332 167.84068 301
383.72690 -56.28106 171.66200 316
420.49289 -69.16347 164.80411 312
433.12741 -73.61086 165.28394 423
438.38910 -75.42535 167.85274 301
384.04422 -55.29078 171.64391 316
394.71036 -58.95573 171.75468 312
434.82962 -72.76017 164.93192 422
438.72391 -74.09985 167.86299 301
384.32288 -54.31514 171.63187 316
395.01147 -57.88617 171.76855 312
435.41928 -71.54089 164.90141 308
439.12854 -72.75933 167.84518 301
384.61850 -53.32324 171.66728 316
395.35928 -56.85812 171.74985 312
435.86499 -70.23032 164.91202 308
439.52197 -71.46735 167.87532 301
384.93094 -52.32813 171.67381 316
395.63440 -55.82067 171.77429 312
436.26727 -68.97227 164.89111 308
439.98477 -70.17878 167.84297 434
385.19025 -51.35197 171.63150 316
395.95297 -54.75072 171.73383 312
436.62656 -67.69776 164.92679 308
441.57233 -69.21691 167.57832 433
385.45792 -50.37646 171.63519 316
396.24442 -53.68945 171.75504 312
437.01526 -66.38670 164.90393 308
443.14941 -68.25325 167.33659 432
385.76144 -49.37263 171.67278 316
396.53622 -52.66258 171.78154 312
437.38062 -65.04080 164.91290 308
444.78125 -67.29681 167.08269 431
385.98880 -48.42284 171.68076 316
396.80002 -51.58513 171.74223 312
437.73926 -63.74394 164.90956 308
446.38251 -66.29456 166.74084 430
386.25745 -47.39159 171.66348 316
397.08026 -50.55179 171.75690 312
438.09323 -62.47971 164.94070 308
448.00470 -65.31520 166.47891 429
386.53787 -46.41351 171.64088 316
397.36862 -49.49848 171.75549 313
438.45331 -61.11221 164.91292 307
449.70129 -64.31513 166.17830 428
386.75671 -45.44433 171.64706 316
397.60187 -48.44739 171.74889 313
438.79742 -59.84676 164.92307 307
451.38425 -63.30509 165.92174 427
461.00006 -65.96099 167.93738 297
387.02023 -44.40601 171.66489 316
397.89349 -47.35859 171.75652 313
410.20999 -50.70877 171.91716 309
453.08939 -62.29463 165.58899 426
461.33545 -64.49540 167.93102 297
387.23920 -43.42451 171.68153 316
398.10129 -46.31458 171.75902 313
410.46539 -49.54207 171.87199 309
454.84558 -61.28253 165.30200 425
461.61108 -63.07314 167.96649 297
387.48184 -42.45643 171.65833 316
398.38135 -45.21736 171.79349 313
410.74219 -48.41811 171.87407 309
456.46371 -60.17804 164.98967 303
461.90744 -61.59415 167.97638 297
387.67670 -41.46564 171.67139 316
398.57767 -44.17419 171.79030 313
410.99377 -47.26435 171.88704 309
456.78610 -58.76747 165.00389 303
462.25195 -60.13403 167.98470 297
387.90039 -40.43198 171.67448 316
398.85135 -43.09783 171.80267 313
411.23026 -46.16061 171.92490 309
457.14896 -57.36096 164.98088 303
462.50256 -58.66211 167.97903 297
388.11276 -39.42588 171.66260 316
399.03421 -42.03534 171.77956 313
411.47592 -45.01796 171.92162 309
457.43359 -55.89056 165.02180 303
462.73972 -57.18114 167.97890 297
388.32025 -38.46036 171.67891 316
399.27185 -40.98490 171.78406 313
411.69376 -43.86032 171.91064 309
457.73257 -54.50861 164.96320 303
463.36172 -55.78687 167.91960 453
388.50662 -37.42939 171.68489 316
399.49530 -39.88906 171.77132 313
411.94788 -42.71491 171.91496 309
458.04462 -53.05955 164.97005 304
464.71039 -54.53819 167.74228 452
388.73004 -36.44009 171.69449 316
399.66772 -38.81303 171.79567 313
412.16653 -41.52929 171.92616 309
458.30951 -51.61440 164.99036 304
466.01169 -53.28374 167.50536 451
388.89301 -35.42707 171.69954 316
399.87512 -37.76141 171.80988 313
412.37665 -40.41982 171.89699 309
458.59140 -50.20833 164.99316 304
467.38446 -52.00880 167.31206 450
389.08969 -34.38769 171.67426 316
400.07285 -36.66259 171.77101 313
412.57114 -39.25668 171.90007 309
458.88297 -48.72188 165.02844 304
468.72574 -50.78399 167.10930 450
389.24554 -33.41327 171.66353 316
400.26782 -35.59576 171.81967 313
412.80621 -38.09907 171.89954 309
427.09198 -40.93673 172.07507 305
470.10870 -49.49267 166.88258 449
389.41983 -32.40514 171.67766 317
400.45413 -34.49810 171.78009 313
412.97916 -36.93140 171.93019 309
427.31442 -39.71178 172.08267 305
471.46564 -48.23154 166.62422 448
389.57864 -31.36707 171.67007 317
400.62341 -33.45497 171.79472 313
413.18817 -35.75592 171.92979 309
427.48288 -38.43887 172.05051 305
472.89471 -46.92747 166.38889 447
389.72327 -30.38557 171.70610 317
400.81723 -32.34043 171.80486 313
413.33319 -34.60976 171.91168 309
427.73160 -37.19217 172.05664 305
474.26895 -45.58385 166.18927 446
389.90891 -29.37439 171.67801 317
400.98083 -31.28959 171.81703 313
413.53439 -33.46961 171.92523 309
427.91101 -35.97545 172.05659 305
475.70560 -44.22729 165.90247 445
390.03333 -28.36886 171.70840 317
401.12784 -30.17509 171.80949 313
413.69479 -32.30047 171.94604 309
428.06927 -34.68726 172.06097 305
477.15384 -42.91505 165.71530 444
487.86639 -44.68768 168.06674 293
390.16528 -27.35206 171.67516 317
401.26517 -29.10064 171.79639 313
413.86713 -31.14875 171.90021 309
428.25882 -33.46934 172.07480 305
478.58029 -41.60826 165.46735 443
487.97656 -43.07907 168.06702 293
390.29324 -26.31152 171.68414 317
401.41772 -28.02300 171.82634 313
414.02713 -29.97314 171.89999 309
428.42831 -32.23049 172.06963 305
480.03497 -40.21890 165.16159 442
488.17545 -41.47775 168.08105 294
390.43011 -25.31540 171.67725 317
401.54480 -26.95047 171.80528 313
414.15076 -28.82767 171.94301 309
428.59756 -30.93366 172.04079 305
480.54877 -38.68688 165.16158 300
488.28400 -39.85135 168.08745 294
390.54132 -24.28193 171.68648 317
401.66360 -25.87908 171.82368 313
414.28986 -27.68403 171.90883 309
428.73495 -29.72277 172.07684 305
480.76450 -37.12561 165.17148 300
488.41058 -38.18233 168.12802 294
390.65390 -23.29043 171.71768 317
401.77588 -24.78324 171.82663 313
414.42389 -26.49101 171.91393 309
428.83725 -28.44101 172.09773 305
480.92593 -35.55160 165.11063 300
488.50732 -36.54889 168.16754 294
390.78360 -22.22837 171.69173 317
401.89026 -23.68045 171.80710 313
414.53210 -25.32266 171.95599 309
428.99011 -27.22559 172.04636 305
481.10153 -33.97421 165.12444 300
488.56427 -34.95890 168.16418 294
390.84445 -21.21416 171.67937 317
402.02582 -22.60006 171.83388 313
414.69159 -24.15449 171.95258 309
429.15451 -25.93828 172.10106 305
445.85690 -27.99315 172.25000 301
488.64444 -33.31847 168.16039 294
2021.23511 -222.36897 157.53125 275
390.94583 -20.22744 171.71365 317
402.14203 -21.48892 171.80275 313
414.76758 -22.98493 171.93213 309
429.27200 -24.68040 172.09660 305
446.00067 -26.66648 172.22733 301
488.71124 -31.68412 168.18143 294
1994.08325 -207.79675 128.85968 334
1987.25061 -207.24748 158.26877 331
391.06750 -19.19302 171.69238 317
402.21982 -20.40077 171.81252 313
414.90970 -21.84107 171.90604 309
429.35046 -23.46026 172.10107 305
446.13437 -25.32590 172.22574 301
488.88461 -30.01870 168.20334 457
1964.99365 -193.84979 130.72209 377
1962.69116 -193.61626 159.15556 391
1996.24536 -197.48721 187.42628 317
391.11893 -18.19137 171.71045 317
402.32782 -19.31336 171.78758 313
414.98279 -20.66893 171.92555 309
429.49625 -22.16962 172.10316 305
446.22705 -23.96682 172.25551 301
490.13257 -28.53709 167.97806 456
1958.40723 -182.16998 131.16864 456
1956.77588 -182.00063 159.72337 459
1982.44690 -184.57617 187.86256 352
391.19720 -17.13910 171.72365 317
402.41522 -18.23271 171.79962 313
415.05435 -19.49016 171.95856 309
429.56903 -20.93159 172.08826 305
446.34946 -22.55170 172.21973 301
491.33817 -26.98896 167.78348 455
1952.77832 -170.81999 131.05458 459
1951.35901 -170.83191 159.77737 451
1983.32849 -173.91412 187.80365 331
391.29660 -16.14005 171.68451 317
402.49744 -17.14571 171.81766 313
415.17816 -18.31730 171.92110 309
429.69394 -19.67330 172.07927 305
446.45731 -21.19626 172.22629 301
492.58032 -25.46214 167.56299 454
2038.39124 -168.28838 97.09477 327
1946.63293 -159.85147 131.51363 482
1946.54553 -159.61011 159.79276 485
1981.56213 -163.26953 187.94719 343
391.36383 -15.10114 171.68703 317
402.52292 -16.04778 171.81918 313
415.21509 -17.13294 171.92743 309
429.77670 -18.38430 172.07793 305
446.52359 -19.86559 172.26016 301
493.80640 -23.90117 167.34430 453
1993.63953 -153.39127 100.09813 277
1942.09167 -148.91380 131.71088 460
1942.23035 -149.02846 160.06334 465
1990.85791 -152.99475 187.41048 303
391.42841 -14.09214 171.68498 317
402.60648 -14.97034 171.80849 313
415.28595 -15.99385 171.92642 309
429.84094 -17.11923 172.10112 305
446.60379 -18.49533 172.26425 301
495.06757 -22.34584 167.14072 452
2009.31433 -143.45197 98.99622 384
1936.81494 -137.83638 131.95885 467
1938.21814 -137.74533 160.37274 457
2040.39807 -146.13605 187.00171 261
391.47418 -13.04870 171.68413 317
402.68790 -13.89481 171.81459 313
415.39246 -14.83398 171.93814 309
429.91272 -15.88705 172.07675 305
446.67792 -17.12523 172.24759 301
496.36484 -20.77579 166.95738 451
1998.70166 -131.50430 99.87020 408
1931.96252 -126.56577 132.25154 467
1934.51050 -126.92944 160.45331 455
1990.18652 -131.02670 187.67934 392
391.53259 -12.00915 171.70078 317
402.70941 -12.76639 171.79851 313
415.43280 -13.63303 171.93323 309
429.95096 -14.62205 172.05760 305
446.80643 -15.75726 172.23792 301
497.23392 -19.20619 166.82346 483
1948.35803 -117.37264 103.56555 341
1927.02271 -116.10026 132.93515 468
1930.78015 -116.14017 160.39087 456
1992.21887 -120.27215 187.34836 495
391.56305 -10.99926 171.68237 317
402.78552 -11.66289 171.78838 313
415.47409 -12.46167 171.92999 309
430.04971 -13.34729 172.08249 305
446.83221 -14.40758 172.21655 301
497.89935 -17.51875 166.70381 482
1939.05530 -106.17490 103.79831 341
1922.25952 -105.28195 133.21530 469
