# .PCD v.7 - Point Cloud Data file format
VERSION .7
FIELDS x y z rgb
SIZE 4 4 4 4
TYPE F F F U
COUNT 1 1 1 1
WIDTH 1396
HEIGHT 1
VIEWPOINT 6366.550781 -1248.076904 147.123505 -0.681205 -0.089467 -0.100672 0.719598
POINTS 1396
DATA ascii
47.61268 -1.30339 202.22026 440
44.94676 -1.34783 204.90497 437
42.25522 -1.35218 207.64638 434
39.43111 -1.35667 210.48767 432
-159.83157 -3.24359 222.84286 499
-163.67923 -3.34207 229.18140 252
-150.95767 -3.14190 234.89668 474
-151.50356 -3.15493 241.03142 420
-162.67032 -3.27588 248.03888 499
-189.95638 -3.56038 257.02118 468
-193.03206 -3.55731 264.23108 466
-181.70099 -3.44178 269.60599 487
-133.38832 -2.94523 275.07434 288
-111.62135 -2.78982 277.05276 495
83.08681 -1.83412 179.52371 316
70.66663 -2.03001 178.80516 463
68.59750 -2.05224 180.91927 461
66.44866 -2.09416 183.06851 459
64.28304 -2.10207 185.27295 457
62.04183 -2.15984 187.52422 454
59.75644 -2.19036 189.83644 452
57.45525 -2.20931 192.20416 450
55.05806 -2.22724 194.58047 447
52.58853 -2.30455 197.05573 445
50.07394 -2.30036 199.60052 442
47.49230 -2.34471 202.22859 440
44.83445 -2.39759 204.87965 437
42.10696 -2.43905 207.66130 434
39.29374 -2.50972 210.49243 432
-159.83037 -5.62143 222.80244 499
-162.19322 -5.66363 229.15207 499
-150.87434 -5.48670 234.89702 497
-151.36580 -5.44091 240.94289 438
-162.75221 -5.61708 248.00388 499
-168.32484 -5.69503 254.96751 414
-160.87807 -5.61437 260.52731 498
-153.67720 -5.49432 265.92856 280
-153.72368 -5.48007 272.15240 497
-133.27548 -5.18301 275.03232 288
-111.36414 -4.81578 276.99326 495
-198.43134 -6.21524 300.07132 495
-198.43748 -6.15535 307.14481 494
-198.36990 -6.13928 314.42523 493
-198.36238 -6.19563 321.68686 492
83.14857 -2.66466 179.52386 316
70.62492 -2.93540 178.77420 463
68.50314 -2.95924 180.89226 461
66.35999 -3.00815 183.03923 459
64.18595 -3.08303 185.24893 457
61.95121 -3.13249 187.48375 454
59.65422 -3.15869 189.81760 452
57.31316 -3.23344 192.15323 450
54.93425 -3.24485 194.55460 447
52.47549 -3.32440 197.05013 445
49.96592 -3.37041 199.57852 442
47.40114 -3.44894 202.20296 440
44.72974 -3.46501 204.87537 437
41.98093 -3.55872 207.62132 434
39.17121 -3.60043 210.47327 431
-159.86914 -7.89987 222.77806 499
-162.24191 -8.03846 229.13573 499
-150.88901 -7.74960 234.83746 497
-151.29227 -7.77737 240.94183 438
-162.77203 -8.01978 248.06836 499
-167.43629 -8.12479 254.86543 344
-160.85120 -7.97749 260.54840 498
-153.51382 -7.73981 265.85168 280
-153.00188 -7.74259 272.06152 378
-135.74008 -7.35242 275.46005 496
-111.59222 -6.87488 277.07379 295
-198.48814 -8.74228 300.08987 495
-198.41203 -8.78172 307.18552 494
-198.40463 -8.75552 314.40143 493
-198.39421 -8.73947 321.64294 492
83.24368 -3.48864 179.53221 316
70.52589 -3.86020 178.74408 463
68.42001 -3.90127 180.85118 461
66.29843 -3.96743 183.00949 459
64.08620 -4.02512 185.21196 456
61.87885 -4.10765 187.47414 454
59.58764 -4.16507 189.76321 452
57.24961 -4.20254 192.13614 449
54.81283 -4.26838 194.55405 447
52.38061 -4.35395 197.00481 445
49.86811 -4.40601 199.57312 442
47.25500 -4.50882 202.18910 439
44.57561 -4.56831 204.85651 437
41.84809 -4.65821 207.61499 434
39.03170 -4.72560 210.47125 431
-159.86742 -10.24780 222.86780 499
-178.22035 -10.83935 229.69499 476
-151.18123 -10.02775 234.89044 470
-151.72958 -10.03759 240.98817 416
-181.69861 -10.81681 269.65402 487
-180.66408 -10.79899 276.20850 281
-146.53523 -9.88945 277.24582 291
-115.80883 -9.06083 277.79581 288
83.30951 -4.34843 179.50493 316
70.46793 -4.76728 178.72197 463
68.34705 -4.85789 180.83720 461
66.19106 -4.92025 183.00017 458
63.99710 -4.98453 185.20549 456
61.75150 -5.06702 187.43765 454
59.47947 -5.14667 189.75478 452
57.11423 -5.22278 192.10228 449
54.72025 -5.28915 194.54384 447
52.24672 -5.37376 197.02406 444
49.73463 -5.46487 199.52786 442
47.13154 -5.57202 202.17545 439
44.46751 -5.63174 204.86838 437
41.71621 -5.75099 207.61705 434
38.90254 -5.82152 210.46729 431
-159.85593 -12.65888 222.82861 499
-152.27304 -12.35970 234.89082 469
-152.89452 -12.35318 241.14314 416
-181.72885 -13.31241 269.69638 487
-189.55873 -13.58271 277.49298 286
-149.93394 -12.25483 277.83881 284
83.40874 -5.17145 179.50848 316
70.38780 -5.72805 178.68376 462
68.27284 -5.77296 180.78145 460
66.10902 -5.86203 182.95947 458
63.91906 -5.98092 185.16859 456
61.69727 -6.03166 187.39491 454
59.36717 -6.15368 189.73965 451
57.05829 -6.25416 192.07768 449
54.64477 -6.33297 194.50618 447
52.13950 -6.41346 196.98703 444
49.63246 -6.54085 199.52211 442
47.01322 -6.62848 202.15662 439
44.36096 -6.75415 204.82898 436
41.61134 -6.84408 207.57980 434
38.78374 -6.96736 210.46376 431
-179.61176 -15.69997 223.17174 384
-153.36272 -14.62911 234.96101 468
-154.35754 -14.71881 241.19742 358
-181.65794 -15.84891 269.70923 487
-191.88203 -16.20176 277.93845 286
83.48742 -6.01565 179.53400 316
70.33109 -6.62620 178.64142 462
68.20709 -6.74519 180.73383 460
66.04922 -6.83428 182.91055 458
63.85457 -6.91301 185.10912 456
61.57358 -7.03587 187.37260 454
59.28328 -7.16540 189.70117 451
56.94414 -7.23454 192.07411 449
54.51633 -7.38243 194.47867 446
52.04764 -7.47280 196.96681 444
49.51303 -7.57428 199.51746 441
46.91523 -7.72601 202.10413 439
44.21979 -7.84583 204.83763 436
41.48664 -7.98048 207.59109 433
38.63966 -8.11388 210.46552 431
-179.58452 -18.21608 223.19014 384
-156.18033 -17.09177 235.14651 396
-181.69255 -18.32781 269.68668 487
83.57558 -6.88684 179.53221 316
70.27075 -7.58699 178.57083 462
68.14462 -7.68439 180.69986 460
65.94199 -7.78421 182.86531 458
63.75066 -7.89071 185.08965 456
61.48494 -8.01828 187.32060 453
59.18416 -8.15074 189.67688 451
56.85795 -8.26443 192.00920 449
54.42885 -8.38446 194.44749 446
51.93127 -8.54264 196.91206 444
49.40036 -8.64702 199.48970 441
46.79253 -8.78863 202.10414 439
44.08187 -8.91165 204.81271 436
41.35218 -9.05547 207.56651 433
38.48159 -9.21266 210.42004 431
-179.58900 -20.64197 223.22084 384
-163.04095 -19.83011 235.52209 294
-181.65916 -20.71450 269.75354 486
83.67074 -7.70451 179.52354 316
70.18488 -8.51504 178.54271 462
68.08482 -8.63785 180.66168 460
65.87706 -8.73215 182.82596 457
63.68328 -8.85978 185.05440 456
61.41819 -9.03185 187.30363 453
59.12353 -9.13886 189.63751 451
56.74094 -9.27230 191.97656 449
54.32234 -9.42721 194.42213 446
51.81857 -9.56095 196.93279 444
49.27215 -9.70631 199.48247 441
46.66682 -9.87226 202.09692 438
43.96748 -10.02924 204.79843 436
41.20008 -10.20790 207.56671 433
38.34908 -10.35765 210.45207 430
-179.60887 -23.18572 223.19353 384
-130.76421 -7.66039 17.37107 486
83.76805 -8.56734 179.50333 316
70.14034 -9.45113 178.52332 462
68.00937 -9.59135 180.62312 459
65.81305 -9.72211 182.80727 457
63.59375 -9.84272 185.00175 455
61.33855 -10.00214 187.25839 453
59.02429 -10.14029 189.60997 451
56.62238 -10.31416 191.96527 448
54.21601 -10.47946 194.39116 446
51.71109 -10.61450 196.86728 443
49.16260 -10.79622 199.44067 441
46.55871 -10.93231 202.08723 438
43.84360 -11.13891 204.78249 436
41.07278 -11.31663 207.57710 433
38.22820 -11.47600 210.41508 430
-179.59468 -25.64857 223.16867 384
-181.63852 -25.67909 269.79889 486
83.87823 -9.40961 179.51729 316
70.07643 -10.37744 178.46274 461
67.92819 -10.52335 180.57140 459
65.74209 -10.70015 182.73759 457
63.50815 -10.83288 184.95789 455
61.22615 -11.01855 187.24232 453
58.90207 -11.18093 189.54596 451
56.56444 -11.34656 191.94356 448
54.13543 -11.48445 194.34979 446
51.61158 -11.65840 196.86133 443
49.04333 -11.84322 199.39738 441
46.42245 -12.05526 202.05017 438
43.73873 -12.23175 204.74829 435
40.94397 -12.45245 207.53290 433
38.10198 -12.63711 210.41753 430
-179.63518 -28.11154 223.16040 384
-181.57903 -28.17764 269.73798 486
83.90935 -10.25334 179.47549 464
70.01752 -11.31993 178.40868 461
67.87250 -11.48685 180.53456 459
65.69405 -11.64914 182.72018 457
63.44811 -11.79949 184.92046 455
61.16097 -12.01335 187.17697 452
58.80581 -12.15957 189.51762 450
56.45485 -12.33733 191.89523 448
54.03392 -12.55159 194.32455 445
51.53650 -12.71168 196.82924 443
48.96017 -12.90864 199.39159 440
46.30347 -13.12010 202.01608 438
43.59124 -13.34916 204.75864 435
40.80697 -13.54068 207.54419 432
37.97061 -13.77009 210.41374 430
-179.63251 -30.55509 223.23665 384
-181.61401 -30.65254 269.86996 486
83.83388 -11.10437 179.44164 463
69.96024 -12.23534 178.36313 461
67.80303 -12.42256 180.50491 459
65.63767 -12.60432 182.67212 457
63.36781 -12.79894 184.89679 454
61.07913 -12.97403 187.15562 452
58.75443 -13.18899 189.46025 450
56.34084 -13.36161 191.85545 448
53.93059 -13.57467 194.31105 445
51.39251 -13.77856 196.80832 443
48.83291 -13.99106 199.37123 440
46.21595 -14.20873 202.00874 438
43.48954 -14.46303 204.74718 435
40.71111 -14.65511 207.53496 432
37.82697 -14.92546 210.41025 430
-179.66673 -33.03448 223.23654 384
-181.60258 -33.20853 269.91040 486
83.79253 -11.96151 179.38531 463
69.90627 -13.21947 178.30782 461
67.77785 -13.40032 180.47540 459
65.57167 -13.57948 182.62001 456
63.29721 -13.76677 184.86462 454
61.01547 -13.98729 187.13184 452
58.65588 -14.20992 189.44873 450
56.24023 -14.40931 191.83852 447
53.79231 -14.64462 194.29326 445
51.31566 -14.86434 196.78999 443
48.71595 -15.07391 199.35223 440
46.10676 -15.32111 201.99315 437
43.34021 -15.55642 204.71576 435
40.55479 -15.80350 207.49747 432
37.67546 -16.06684 210.36908 429
-179.67683 -35.54967 223.23279 384
-181.53430 -35.60248 269.86752 486
-186.86430 -36.09003 277.39279 496
-186.71994 -36.11796 284.29819 495
-186.74310 -36.09767 291.23212 495
83.73603 -12.81770 179.35429 463
69.86764 -14.13802 178.25557 461
67.67930 -14.33894 180.41148 458
65.47502 -14.53724 182.60474 456
63.23553 -14.76892 184.80640 454
60.94789 -14.99306 187.07312 452
58.60078 -15.22567 189.43359 449
56.18759 -15.44767 191.79883 447
53.72358 -15.66092 194.23071 445
51.20041 -15.90932 196.74124 442
48.61245 -16.17452 199.31297 440
45.96409 -16.42203 201.95505 437
43.22608 -16.67065 204.71194 434
40.42449 -16.92366 207.49557 432
37.54057 -17.21566 210.39278 429
-179.63766 -37.93474 223.19261 383
-181.50204 -38.15456 269.91394 486
83.69335 -13.66879 179.27794 463
69.79018 -15.11198 178.20837 460
67.63464 -15.32594 180.36546 458
65.42933 -15.51365 182.53767 456
63.15981 -15.74174 184.78052 454
60.87362 -15.98522 187.03433 451
58.52647 -16.22379 189.35034 449
56.09809 -16.46952 191.74590 447
53.64944 -16.75228 194.21098 444
51.08134 -17.00008 196.73006 442
48.50623 -17.27200 199.29753 440
45.85570 -17.53576 201.92793 437
43.09954 -17.82187 204.69281 434
40.28411 -18.10651 207.49924 432
37.38753 -18.36941 210.35780 429
-179.61050 -40.45355 223.20027 383
-181.57101 -40.58678 270.00586 486
83.65733 -14.55068 179.23680 463
69.73412 -16.06489 178.15340 460
67.59652 -16.26752 180.30690 458
65.38670 -16.51471 182.50073 456
63.09522 -16.76178 184.70094 454
60.79962 -17.01551 186.98479 451
58.42708 -17.24047 189.35114 449
56.03394 -17.52751 191.74016 446
53.55693 -17.80810 194.19460 444
51.01492 -18.05937 196.70100 441
48.38125 -18.35859 199.26817 439
45.72192 -18.60354 201.92279 437
43.01612 -18.93547 204.66083 434
40.15690 -19.22683 207.44557 431
37.29037 -19.55549 210.34181 429
-179.67242 -42.95278 223.27931 383
-181.53476 -43.16963 270.05878 485
83.59069 -15.40128 179.19640 462
69.70971 -17.01512 178.10632 460
67.50365 -17.24420 180.25063 458
65.32794 -17.50791 182.44501 456
63.07109 -17.75416 184.67145 453
60.72948 -17.99639 186.94342 451
58.36626 -18.30206 189.28851 449
55.93128 -18.54284 191.70860 446
53.44386 -18.84923 194.12836 444
50.93098 -19.14284 196.66048 441
48.27500 -19.44964 199.26625 439
45.60980 -19.75568 201.92113 436
42.87198 -20.03405 204.62984 434
40.04793 -20.34823 207.46324 431
37.12508 -20.72463 210.36197 428
-179.71529 -45.47156 223.26732 383
83.57484 -16.27578 179.12442 462
69.65921 -17.96127 178.06444 460
67.45730 -18.19387 180.21950 458
65.25928 -18.49795 182.40160 455
62.99900 -18.77171 184.61139 453
60.68335 -19.03389 186.91309 451
58.27429 -19.32665 189.25833 448
55.88219 -19.60876 191.63974 446
53.36012 -19.91332 194.12096 443
50.80725 -20.20128 196.61641 441
48.20535 -20.51136 199.23897 438
45.52601 -20.84549 201.89688 436
42.76893 -21.19096 204.61615 433
39.92799 -21.54158 207.45605 431
36.98856 -21.89255 210.36079 428
-179.71875 -48.00119 223.27327 383
83.52220 -17.16067 179.07544 462
69.59234 -18.91212 177.99556 459
67.40496 -19.20255 180.15652 457
65.18267 -19.47803 182.33759 455
62.92004 -19.73816 184.57787 453
60.59174 -20.05997 186.86740 450
58.20399 -20.33679 189.23064 448
55.77473 -20.65997 191.61852 446
53.31173 -20.98401 194.08269 443
50.74501 -21.28751 196.61792 441
48.07711 -21.63728 199.19156 438
45.40588 -21.94776 201.85312 436
42.62289 -22.34137 204.59891 433
39.79486 -22.66837 207.42729 431
36.84454 -23.06596 210.35768 428
-179.75890 -50.45356 223.30659 383
83.46519 -18.01494 179.02194 462
76.01569 -18.99924 179.59763 312
67.34917 -20.15138 180.09785 457
65.11375 -20.46149 182.29434 455
62.86441 -20.75265 184.51930 453
60.54679 -21.04422 186.83943 450
58.12843 -21.37267 189.15518 448
55.73100 -21.72466 191.59627 445
53.20321 -22.05779 194.04192 443
50.63593 -22.39185 196.58768 440
48.02507 -22.74432 199.15195 438
45.31139 -23.09966 201.85056 435
42.52705 -23.47670 204.56671 433
39.63418 -23.81597 207.39536 430
36.71801 -24.21523 210.31642 427
-179.70668 -52.92233 223.20769 383
83.44224 -18.91346 178.95981 461
76.17687 -19.92177 179.59937 312
67.30121 -21.13351 180.04922 457
65.06439 -21.44773 182.23042 455
62.78795 -21.75143 184.46666 452
60.48579 -22.09425 186.78835 450
58.07655 -22.42915 189.11787 448
55.64604 -22.76799 191.52267 445
53.13669 -23.10372 194.01125 443
50.53874 -23.47108 196.53169 440
47.92921 -23.81480 199.11290 438
45.19983 -24.22021 201.79688 435
42.42015 -24.60113 204.56934 432
39.53752 -24.98599 207.38753 430
36.59734 -25.41358 210.28746 427
-179.70277 -55.46593 223.23425 383
83.38683 -19.76249 178.89107 461
76.34499 -20.77959 179.59079 312
67.26469 -22.12160 180.01151 456
65.03326 -22.43543 182.21010 454
62.73344 -22.77559 184.43576 452
60.41041 -23.11431 186.73470 450
58.00017 -23.48400 189.07855 447
55.55335 -23.80715 191.50159 445
53.05699 -24.17077 193.95883 442
50.49140 -24.55488 196.51041 440
47.82409 -24.93305 199.12267 437
45.11742 -25.33986 201.77490 435
42.30465 -25.75122 204.56129 432
39.42007 -26.17571 207.38742 429
36.46342 -26.59555 210.29161 427
-179.79045 -58.03442 223.28362 383
83.36276 -20.63868 178.86957 461
76.54617 -21.70157 179.55910 312
67.18631 -23.10018 179.93504 456
64.98318 -23.46426 182.12004 454
62.67837 -23.81162 184.39622 452
60.32369 -24.16048 186.66626 449
57.94642 -24.50777 189.03751 447
55.49757 -24.89853 191.46063 445
52.97039 -25.27699 193.95023 442
50.39484 -25.64137 196.47186 440
47.72757 -26.05418 199.08354 437
45.01832 -26.44279 201.77119 434
42.19210 -26.90962 204.53343 432
39.30085 -27.32298 207.36623 429
36.26921 -27.78054 210.31323 409
-180.23241 -60.62745 223.24541 361
83.29679 -21.55495 178.79698 461
76.73076 -22.59907 179.56995 312
67.17739 -24.09878 179.86263 456
64.90459 -24.46412 182.09500 454
62.60277 -24.78931 184.31778 451
60.29086 -25.16979 186.65173 449
57.87558 -25.56362 189.00076 447
55.39262 -25.93733 191.41833 444
52.86932 -26.33731 193.86778 442
50.30503 -26.72874 196.45593 439
47.61147 -27.15808 199.03055 437
44.90667 -27.60831 201.75079 434
42.07875 -28.04866 204.51564 414
38.96111 -28.55167 207.34091 412
35.64082 -29.04272 210.25523 402
-180.94705 -63.19344 223.26698 361
83.28392 -22.42888 178.73671 460
76.91792 -23.46597 179.59045 312
67.12762 -25.06452 179.79189 456
64.87579 -25.42861 182.01797 453
62.55768 -25.81572 184.29060 451
60.21889 -26.21722 186.59436 449
57.82267 -26.59087 188.95465 447
55.33885 -27.00539 191.38750 444
52.81694 -27.43677 193.86469 442
50.20922 -27.83376 196.40041 439
47.55028 -28.27769 199.02539 437
44.63539 -28.76607 201.67601 416
41.59957 -29.25278 204.44901 414
38.44809 -29.78616 207.27541 411
35.04046 -30.35544 210.23688 401
-181.55708 -65.85621 223.31816 361
83.23306 -23.33186 178.67188 460
77.09774 -24.37640 179.57370 312
67.03955 -26.08953 179.75380 455
64.80420 -26.46966 181.95903 453
62.48918 -26.84989 184.21376 451
60.15155 -27.25325 186.51979 449
57.75144 -27.67318 188.90944 446
55.27787 -28.10640 191.30171 444
52.72412 -28.52501 193.79823 441
49.99231 -28.99799 196.34540 421
47.11410 -29.48281 198.96118 418
44.17923 -29.97381 201.63669 416
41.10817 -30.48252 204.40874 413
37.89695 -31.02694 207.24561 404
34.46272 -31.61068 210.22334 401
-182.19702 -68.59268 223.35268 361
83.19794 -24.22164 178.61392 460
77.30935 -25.26050 179.57971 312
67.03234 -27.06018 179.70160 455
64.75497 -27.47779 181.90608 453
62.44003 -27.88580 184.15327 451
60.06731 -28.30057 186.46176 448
57.65953 -28.72957 188.83743 446
55.12011 -29.19038 191.26401 425
52.40622 -29.66884 193.74403 423
49.55737 -30.16814 196.26067 420
46.66437 -30.68179 198.90669 418
43.69736 -31.20185 201.56737 415
40.62080 -31.71620 204.36928 412
37.30725 -32.33020 207.20947 403
33.82679 -32.93268 210.18797 400
-182.89091 -71.19796 216.59511 425
-183.00093 -71.28275 223.37141 323
83.16794 -25.10065 178.52155 459
77.53310 -26.12106 179.58736 312
66.96423 -28.05758 179.64294 455
64.68548 -28.47945 181.84367 453
62.38451 -28.89460 184.12617 450
60.01265 -29.36679 186.44026 429
57.41496 -29.83827 188.75378 427
54.71959 -30.32459 191.16995 424
51.94622 -30.81396 193.62679 422
49.15392 -31.32714 196.20932 419
46.24808 -31.87884 198.79712 417
43.22274 -32.43486 201.53859 414
40.11680 -32.99267 204.29939 405
36.72469 -33.62171 207.18692 402
33.18712 -34.26931 210.16422 399
-182.87347 -73.77946 216.67181 425
-185.55756 -74.25850 223.49149 322
83.12704 -26.01465 178.45758 459
77.72413 -27.02549 179.55295 312
66.90159 -29.05822 179.57283 454
64.63698 -29.52258 181.77235 452
62.19221 -29.96624 184.03621 431
59.62573 -30.43633 186.28569 428
57.00088 -30.97212 188.65625 426
54.31059 -31.45887 191.06116 424
51.54500 -32.00455 193.56516 421
48.72067 -32.50450 196.11557 419
45.77597 -33.07667 198.73126 416
42.77475 -33.64285 201.46770 414
39.49691 -34.25220 204.23119 404
36.12476 -34.92265 207.12206 402
32.57825 -35.55466 210.12715 399
-182.86107 -76.41718 216.59430 425
-188.15962 -77.31985 223.46933 322
83.09190 -26.91350 178.38307 459
77.94340 -27.90166 179.56573 312
66.79635 -30.12232 179.48938 435
64.34412 -30.56482 181.65744 432
61.82700 -31.06964 183.90417 430
59.25040 -31.55958 186.20970 428
56.62743 -32.10541 188.54486 426
53.93433 -32.62619 190.96222 423
51.15994 -33.14066 193.48495 421
48.26654 -33.70225 196.04230 418
45.34540 -34.29945 198.67725 416
42.27384 -34.91301 201.38303 406
38.93946 -35.54632 204.17773 404
35.52887 -36.20862 207.07393 401
31.94057 -36.90189 210.10580 398
-182.79239 -79.00030 216.70068 424
-190.68385 -80.45052 223.51169 321
83.04235 -27.82145 178.30768 458
78.19335 -28.80780 179.56917 312
66.43268 -31.16926 179.35086 434
64.01331 -31.65187 181.52272 432
61.46740 -32.18200 183.77264 430
58.91668 -32.71783 186.07764 427
56.22755 -33.24474 188.45480 425
53.53202 -33.76048 190.86601 423
50.69923 -34.36170 193.39380 420
47.83636 -34.92111 195.96849 418
44.87925 -35.50736 198.62334 415
41.70487 -36.15942 201.34361 406
38.34991 -36.85809 204.14957 403
34.92183 -37.52117 207.06723 400
31.33154 -38.27271 210.07545 397
-182.87469 -81.57251 216.66440 424
83.00869 -28.73941 178.23792 458
78.41222 -29.70184 179.57660 312
66.13120 -32.26510 179.20058 433
63.66344 -32.75499 181.41014 431
61.10208 -33.31071 183.63719 429
58.50525 -33.84855 185.98584 427
55.83142 -34.36964 188.33476 424
53.13409 -34.95464 190.78181 422
50.31316 -35.52834 193.26480 419
47.38409 -36.13668 195.88608 417
44.38763 -36.76336 198.54660 414
41.15312 -37.44482 201.24173 405
37.78656 -38.14120 204.08852 402
34.29041 -38.87432 206.98900 400
30.65931 -39.62091 210.04236 362
-182.77814 -84.19640 216.66206 439
83.00875 -29.63524 178.16998 458
78.66166 -30.55684 179.54800 312
65.79430 -33.31644 179.05788 433
63.33603 -33.84644 181.27470 431
60.78841 -34.39835 183.54189 428
58.12715 -34.95086 185.85799 426
55.45255 -35.54856 188.22575 424
52.69799 -36.14865 190.69653 421
49.88371 -36.73367 193.20538 419
46.92783 -37.37130 195.76210 416
43.85853 -38.02290 198.44962 407
40.57014 -38.73082 201.18124 404
37.17927 -39.44791 204.02623 402
33.63863 -40.22507 206.94865 399
29.95445 -41.03297 210.02972 362
-182.68115 -86.68563 216.70267 439
-2542.84351 -593.96918 404.28787 1000
82.97681 -30.56137 178.09966 457
78.86972 -31.45685 179.54602 312
65.45239 -34.40707 178.90163 432
62.99492 -34.94907 181.14264 430
60.42788 -35.51727 183.40115 428
57.79945 -36.12271 185.74673 425
55.07151 -36.72968 188.09694 423
52.27779 -37.33116 190.57423 421
49.42848 -37.96468 193.11758 418
46.48528 -38.63624 195.71855 416
43.33853 -39.32628 198.37299 406
40.02058 -40.03584 201.13365 404
36.60661 -40.78791 203.96959 401
33.05193 -41.59260 206.93321 398
29.26056 -42.42625 209.98683 361
-188.38403 -90.53578 209.83189 436
-184.09317 -89.63560 216.62715 296
82.91743 -31.44795 178.01810 438
79.13024 -32.34571 179.55664 312
65.12634 -35.49725 178.77225 431
62.62240 -36.11180 180.98830 429
60.04927 -36.69889 183.26944 427
57.39985 -37.25572 185.62422 425
54.70677 -37.92081 187.99811 422
51.87635 -38.53881 190.47911 420
49.02770 -39.18895 192.99895 417
45.97293 -39.86383 195.61752 408
42.76139 -40.58860 198.26045 405
39.43095 -41.34584 201.03450 403
35.95396 -42.13734 203.91759 400
32.37487 -42.98108 206.88374 397
28.57773 -43.84853 209.95117 358
-188.06715 -93.23797 209.72221 485
-190.92607 -93.85970 216.68507 295
82.68923 -32.44724 177.87355 437
79.36353 -33.19889 179.54904 312
64.82363 -36.61739 178.62125 431
62.26596 -37.22718 180.85674 429
59.68455 -37.84169 183.15935 426
57.02314 -38.43974 185.49452 424
54.27643 -39.09595 187.87976 422
51.46124 -39.75814 190.37251 419
48.57702 -40.43620 192.92656 417
45.44308 -41.16471 195.52489 407
42.19622 -41.90613 198.20720 405
38.84641 -42.67545 200.97493 402
35.37053 -43.52939 203.85684 399
31.78455 -44.35891 206.83636 397
27.87751 -45.28815 209.92963 357
-187.66150 -95.75426 209.74319 485
82.44422 -33.43324 177.75674 437
79.65402 -34.07801 179.56096 312
64.47654 -37.74029 178.46210 430
61.95298 -38.33139 180.70363 428
59.30244 -38.99160 182.98598 426
56.63156 -39.61486 185.37799 423
53.86533 -40.27207 187.77086 421
51.05407 -40.95811 190.23528 419
48.09758 -41.67471 192.77556 409
44.94702 -42.43851 195.40501 407
41.68094 -43.24276 198.12549 404
38.27013 -44.05722 200.87483 401
34.76894 -44.86652 203.77695 399
31.11728 -45.76076 206.77496 396
27.12056 -46.74339 209.88664 357
-187.17555 -98.33128 209.79970 485
82.20236 -34.41565 177.62645 436
79.87962 -34.94981 179.55524 312
64.13618 -38.84799 178.32376 429
61.58829 -39.47258 180.57861 427
58.96989 -40.15724 182.86418 425
56.25826 -40.82015 185.23991 423
53.49636 -41.49134 187.64903 420
50.65905 -42.21022 190.12790 418
47.60106 -42.94151 192.67801 408
44.38748 -43.73779 195.33086 406
41.07130 -44.56919 197.99507 403
37.68181 -45.38783 200.80505 401
34.15924 -46.26240 203.73911 398
30.43929 -47.16324 206.73618 395
26.38267 -48.18608 209.85741 356
-186.71564 -100.83975 209.77473 485
81.94501 -35.39629 177.48775 435
79.67346 -35.95235 179.41577 432
63.83174 -39.97845 178.20262 429
61.24521 -40.65625 180.44159 427
58.60452 -41.30698 182.75403 424
55.87615 -42.00107 185.07698 422
53.09939 -42.69101 187.50562 420
50.19358 -43.46461 190.04582 410
47.06924 -44.26194 192.57498 408
43.84819 -45.07394 195.22784 405
40.51313 -45.90241 197.92242 403
37.06307 -46.79147 200.76036 400
33.49023 -47.68084 203.64697 397
29.78649 -48.59353 206.65540 395
25.64978 -49.66817 209.77707 355
-188.83334 -104.06712 209.72284 294
81.70434 -36.37997 177.32506 435
79.40884 -36.98788 179.26889 431
63.49089 -41.14127 178.03656 428
60.88137 -41.81540 180.26888 426
58.20061 -42.51470 182.59805 424
55.49791 -43.22829 184.95366 421
52.66496 -43.94445 187.38536 419
49.68650 -44.72808 189.91100 410
46.57391 -45.52006 192.47293 407
43.31266 -46.38014 195.12105 404
39.96899 -47.24563 197.85600 402
36.49562 -48.13221 200.65469 399
32.85706 -49.07291 203.57419 397
29.11954 -50.05468 206.62715 394
24.89938 -51.17535 209.78053 355
81.42397 -37.40060 177.19312 434
79.16182 -38.02718 179.15292 430
70.47225 -40.34383 179.65213 308
60.55072 -42.97058 180.14684 425
57.83010 -43.68890 182.47002 423
55.10962 -44.44872 184.83934 421
52.26974 -45.19043 187.29691 418
49.22058 -45.98058 189.75188 409
46.02616 -46.86480 192.35014 406
42.78059 -47.71698 194.99252 404
39.35444 -48.60312 197.75952 401
35.87766 -49.57735 200.59865 399
32.26109 -50.50143 203.53748 396
28.46472 -51.54623 206.57516 393
22.82006 -53.05682 209.69043 263
81.19444 -38.41914 177.01794 434
78.86545 -39.03222 179.00064 430
70.78727 -41.27362 179.61632 308
60.16631 -44.15120 179.96077 425
57.45695 -44.91782 182.32712 422
54.69811 -45.65801 184.70708 420
51.78957 -46.46362 187.14227 411
48.69053 -47.30700 189.66165 408
45.52801 -48.15992 192.22568 406
42.21345 -49.08327 194.90796 403
38.77816 -50.00783 197.63190 400
35.24960 -50.94801 200.51263 398
31.61667 -51.95866 203.47728 395
27.64627 -53.03387 206.49989 381
-187.79552 -111.96314 202.66762 495
80.92294 -39.44367 176.88414 433
78.62811 -40.09535 178.86325 429
71.05520 -42.21296 179.61478 308
59.81162 -45.34446 179.82452 424
57.09025 -46.10677 182.14178 422
54.29708 -46.89874 184.54291 419
51.32508 -47.71003 187.02316 410
48.21272 -48.59615 189.48907 407
44.97256 -49.50397 192.09117 405
41.66660 -50.42744 194.77705 402
38.22004 -51.40729 197.56329 400
34.64966 -52.37210 200.39159 397
30.84246 -53.48455 203.36833 383
26.65053 -54.63670 206.43192 370
80.67200 -40.46054 176.74658 432
78.33321 -41.12864 178.70377 429
71.36476 -43.12592 179.63539 308
59.47147 -46.54360 179.66953 423
56.71060 -47.32771 182.03787 421
53.88384 -48.15572 184.41745 411
50.82734 -49.02430 186.86980 409
47.67624 -49.91806 189.40163 407
44.41336 -50.86079 191.98579 404
41.08087 -51.81263 194.66249 402
37.60300 -52.80295 197.47482 399
33.90994 -53.87469 200.29538 385
29.93705 -55.01861 203.28432 382
25.54384 -56.28805 206.36858 369
80.44787 -41.52134 176.58847 432
78.06700 -42.17945 178.53606 428
71.70307 -44.07785 179.63837 308
59.10238 -47.75020 179.50650 423
56.33092 -48.54954 181.88704 420
53.40660 -49.41521 184.27859 411
50.30824 -50.30531 186.72385 408
47.13994 -51.26490 189.23152 406
43.87261 -52.21077 191.87346 403
40.51944 -53.20119 194.55164 401
36.89083 -54.27367 197.33354 387
33.04277 -55.42240 200.23132 384
28.98413 -56.60399 203.18086 371
24.43463 -57.92030 206.31966 368
80.18415 -42.56606 176.41588 431
77.79149 -43.27708 178.40450 427
71.99811 -45.00349 179.64021 308
58.73689 -48.97548 179.37468 422
55.94639 -49.82833 181.68317 412
52.93627 -50.73195 184.11873 410
49.82389 -51.66390 186.56662 408
46.64289 -52.60413 189.08656 405
43.33190 -53.59119 191.75322 403
39.81799 -54.63997 194.44986 388
36.07919 -55.75341 197.22682 386
32.18909 -56.92715 200.12021 383
27.91874 -58.21099 203.12709 370
23.27177 -59.63548 206.19559 367
79.92465 -43.59733 176.26068 430
77.53901 -44.32677 178.23132 427
72.35132 -45.94759 179.60362 308
58.39045 -50.19709 179.18053 421
55.48310 -51.10383 181.55328 412
52.46584 -52.00424 183.93300 409
49.34896 -52.97488 186.42567 407
46.09406 -53.93914 188.98102 404
42.68995 -55.01430 191.59480 390
39.02371 -56.12570 194.26376 387
35.24467 -57.29592 197.09814 385
31.29532 -58.49283 200.01384 382
26.80867 -59.90226 203.00986 369
22.07922 -61.32934 206.12740 366
79.67164 -44.67365 176.07239 428
77.25698 -45.39912 178.09016 426
72.68839 -46.86182 179.60075 308
58.02882 -51.47087 179.03003 420
55.04898 -52.38927 181.34421 411
51.97814 -53.33526 183.78951 409
48.83992 -54.33751 186.24969 406
45.46711 -55.39324 188.83047 392
41.90071 -56.49977 191.45325 389
38.21437 -57.65706 194.15189 387
34.37705 -58.81717 196.94540 384
30.26534 -60.12955 199.87567 371
25.68370 -61.56150 202.89433 368
20.86756 -63.04176 206.03996 365
79.41062 -45.73906 175.92035 427
76.97574 -46.50052 177.92564 425
72.98817 -47.77241 179.63510 308
57.58930 -52.73877 178.82556 413
54.58823 -53.65794 181.18346 410
51.50381 -54.66590 183.60129 408
48.21427 -55.69241 186.08846 393
44.75253 -56.81428 188.61414 391
41.15395 -57.95959 191.28809 388
37.43660 -59.15533 193.99750 386
33.53593 -60.40561 196.84517 383
29.19375 -61.83000 199.75131 370
24.53428 -63.28531 202.80205 367
19.71232 -64.86487 205.97423 364
79.15375 -46.79192 175.74550 427
76.72710 -47.59259 177.78522 424
73.33530 -48.68877 179.60349 308
57.14704 -54.01743 178.63556 412
54.10521 -55.00157 181.01852 409
50.91018 -56.02348 183.42877 395
47.52860 -57.12962 185.91545 392
43.99319 -58.31540 188.43759 390
40.37086 -59.46536 191.10030 387
36.60085 -60.69687 193.86382 385
32.57956 -62.05575 196.69861 371
28.05800 -63.48700 199.60629 369
23.38300 -65.03078 202.70657 366
18.47413 -66.66475 205.90248 363
78.92297 -47.89051 175.56406 426
76.46227 -48.70462 177.60742 424
73.70451 -49.61217 179.59714 308
56.71897 -55.29446 178.48195 411
53.54271 -56.35247 180.81757 396
50.27065 -57.45858 183.19771 394
46.82512 -58.59213 185.69844 391
43.25328 -59.80193 188.27676 389
39.57974 -61.00835 190.91345 387
35.75513 -62.30345 193.68842 384
31.52585 -63.71742 196.56181 371
26.95283 -65.20694 199.48820 368
22.19052 -66.81451 202.58040 365
17.19628 -68.49624 205.77260 363
78.63348 -48.96706 175.39056 425
76.19569 -49.83533 177.44490 423
73.66029 -50.70700 179.49615 421
56.18393 -56.62491 178.24492 398
52.90282 -57.73433 180.57991 395
49.57101 -58.85981 183.00810 393
46.10178 -60.05701 185.53122 391
42.51233 -61.26534 188.06717 388
38.79403 -62.52847 190.75752 386
34.87925 -63.87003 193.54068 372
30.43466 -65.37484 196.35132 370
25.83184 -66.94276 199.33527 367
20.97505 -68.59592 202.46710 364
15.94560 -70.33517 205.72325 362
78.39230 -50.08175 175.24939 425
75.90500 -50.96494 177.24898 422
73.35719 -51.81999 179.34229 420
55.53107 -58.01469 178.03630 397
52.27308 -59.15532 180.35944 394
48.85591 -60.34379 182.78889 392
45.34393 -61.55931 185.31436 390
41.72594 -62.82329 187.90498 387
37.95190 -64.11111 190.59822 385
33.85200 -65.57117 193.34760 371
29.38527 -67.09692 196.22656 369
24.69344 -68.71803 199.18132 366
19.77779 -70.41183 202.35446 363
14.67815 -72.22025 205.58990 361
78.10945 -51.20832 175.04539 424
75.62289 -52.06912 177.06892 422
73.05830 -53.01413 179.17090 419
63.29727 -56.43229 179.69200 304
51.61193 -60.56624 180.14162 394
48.18319 -61.82893 182.56915 391
44.60955 -63.08416 185.10381 389
40.97468 -64.34839 187.70537 386
37.17730 -65.70991 190.39038 373
32.81016 -67.23965 193.14789 370
28.28895 -68.84576 196.04578 368
23.53315 -70.52308 199.06087 365
18.51937 -72.27116 202.22789 363
12.17403 -74.52184 205.47397 315
77.85909 -52.29929 174.85936 423
75.34315 -53.21320 176.91879 421
72.77545 -54.17064 179.02165 419
63.71211 -57.44910 179.67963 304
50.91800 -62.04873 179.89661 393
47.46176 -63.30651 182.37138 390
43.85658 -64.57749 184.87677 388
40.16591 -65.90643 187.52890 386
36.16715 -67.39809 190.19081 372
31.76465 -68.94572 192.97113 369
27.14556 -70.60791 195.89247 367
22.35977 -72.39191 198.94557 364
16.80535 -74.38836 202.03874 332
8.92137 -77.22742 205.25948 313
77.58814 -53.43268 174.70784 423
75.07640 -54.38337 176.73732 420
72.45269 -55.34592 178.84897 418
64.08727 -58.41518 179.70560 304
50.24209 -63.50378 179.65002 392
46.74470 -64.81078 182.15483 389
43.14732 -66.12509 184.67676 387
39.37970 -67.51275 187.34502 385
35.12060 -69.08938 190.03265 371
30.64941 -70.71779 192.81052 369
26.03285 -72.43465 195.69168 366
20.98069 -74.27879 198.76410 333
14.23765 -76.77764 201.83026 315
5.49003 -79.98737 205.04980 312
77.33592 -54.59636 174.52855 422
74.80057 -55.54261 176.54840 420
72.15961 -56.53358 178.67926 417
64.47126 -59.39663 179.69435 304
49.56251 -64.97639 179.44130 391
46.03693 -66.35262 181.92444 389
42.38336 -67.72554 184.47221 386
38.45293 -69.14104 187.07042 373
34.12788 -70.78634 189.77458 370
29.57899 -72.46483 192.58894 368
24.84422 -74.24074 195.51974 365
18.68204 -76.58708 198.52489 332
11.02043 -79.43120 201.60405 314
1.95495 -82.81634 204.87202 311
77.06908 -55.72165 174.33199 421
74.50722 -56.70149 176.35974 419
71.88734 -57.70626 178.51407 417
64.89906 -60.40741 179.68675 304
48.84723 -66.50227 179.20897 390
45.28595 -67.85307 181.66736 388
41.60115 -69.27517 184.24512 385
37.45699 -70.87949 186.86307 372
33.07476 -72.52011 189.55704 369
28.49406 -74.27394 192.41602 367
22.87580 -76.47083 195.28239 333
16.33249 -78.91389 198.25983 315
7.74147 -82.24133 201.31749 313
-1.64597 -85.81783 204.61024 310
76.80016 -56.88146 174.13313 420
74.22837 -57.90492 176.18788 418
71.56032 -58.91881 178.29672 416
65.31110 -61.36889 179.70099 304
48.15358 -68.04401 178.92860 389
44.55618 -69.45228 181.42679 387
40.77936 -70.93470 184.01598 373
36.46893 -72.58847 186.65366 371
32.03232 -74.34058 189.34383 368
26.88094 -76.29116 192.12701 335
20.66308 -78.76358 194.97148 332
13.17746 -81.65641 197.96246 314
4.24802 -85.14175 201.05243 312
-5.44479 -88.90424 204.44749 309
76.52613 -58.06088 173.93315 420
73.93921 -59.09902 176.02162 417
71.01939 -60.25734 178.06981 386
65.72236 -62.32596 179.66663 304
47.45679 -69.59837 178.70041 388
43.81194 -71.00848 181.20569 386
39.79532 -72.63912 183.77425 372
35.49125 -74.30569 186.38705 370
30.79684 -76.19241 189.10364 336
24.75644 -78.60340 191.81804 334
18.35716 -81.09006 194.70259 331
9.91691 -84.47585 197.62160 313
0.67624 -88.13332 200.75848 310
76.28259 -59.25676 173.74309 419
73.55135 -60.35220 175.78227 387
70.38341 -61.63064 177.80238 385
66.16681 -63.33204 179.69128 304
46.76018 -71.13863 178.45345 387
43.06940 -72.64349 180.93669 374
38.81703 -74.33022 183.51213 372
34.44750 -76.12637 186.13747 369
28.77812 -78.38981 188.75522 335
22.55736 -80.90626 191.50412 333
15.34117 -83.81315 194.31430 314
6.50063 -87.38186 197.24287 312
-4.36938 -91.73396 200.36961 283
75.98344 -60.44241 173.55339 418
72.88828 -61.69845 175.47687 386
69.71598 -63.02980 177.51741 384
66.60381 -64.28548 179.65324 304
46.02629 -72.72431 178.18230 387
42.10457 -74.36193 180.66479 373
37.85180 -76.07673 183.21342 371
32.63303 -78.24088 185.79826 336
26.67009 -80.64392 188.38019 334
20.36364 -83.23633 191.16476 332
12.17084 -86.62682 193.91318 313
3.00220 -90.39920 196.93707 311
-22.80665 -100.98859 199.00121 264
75.41394 -61.78581 173.23232 388
72.25818 -63.09652 175.21587 386
68.99765 -64.41807 177.24768 383
66.16311 -65.60522 179.47321 395
45.30104 -74.35426 177.90338 386
41.15999 -76.06238 180.37958 372
36.43444 -78.03148 182.88179 338
30.62097 -80.43323 185.35811 335
24.56159 -83.00353 187.97765 333
17.49873 -85.91328 190.70340 315
8.79270 -89.57785 193.49565 312
-4.04524 -94.96729 196.22711 265
74.80187 -63.12009 172.93228 387
71.61751 -64.46764 174.90761 385
68.31536 -65.88774 176.94888 382
65.47005 -67.06655 179.20491 394
54.51034 -71.77224 179.76083 300
40.12732 -77.83797 180.07961 339
34.49342 -80.23793 182.44576 337
28.63040 -82.73418 184.97491 334
22.33231 -85.42275 187.61548 332
14.34212 -88.75849 190.28851 313
4.75390 -92.87733 192.98485 284
-3404.31372 -1541.14526 155.23180 496
-3410.73193 -1543.17065 219.73212 493
74.17127 -64.50918 172.61481 386
70.96209 -65.86644 174.62917 384
67.63126 -67.30424 176.64099 381
64.80138 -68.56870 178.93750 393
54.99743 -72.81111 179.79689 300
38.30664 -80.01357 179.62210 338
32.58602 -82.45387 182.00668 336
26.49341 -85.08943 184.50317 333
19.70902 -88.05451 187.17059 315
11.10183 -91.73583 189.81241 312
-3.92788 -98.22228 192.02724 265
73.55670 -65.90842 172.32132 385
70.32497 -67.32664 174.32106 383
66.95408 -68.79919 176.36804 380
64.13814 -70.04434 178.67250 392
55.48543 -73.84937 179.74619 300
36.43315 -82.23412 179.11861 337
30.57510 -84.75566 181.53366 334
24.33509 -87.52564 184.09235 332
16.64783 -90.92479 186.65627 314
5.59091 -95.75975 189.02797 284
72.91459 -67.29892 171.99017 384
69.63465 -68.78600 173.98163 382
66.25565 -70.31368 176.05626 379
63.42591 -71.55168 178.39038 391
55.93220 -74.87949 179.78848 300
34.50345 -84.44464 178.64330 336
28.51561 -87.16500 181.06944 333
21.95188 -90.05737 183.56825 315
13.40434 -93.88667 186.05569 313
-3.67482 -101.49881 187.78532 265
72.84068 -68.49647 171.84016 316
68.96185 -70.26035 173.68155 381
65.52274 -71.78493 175.78075 392
62.71535 -73.09858 178.10648 390
56.43466 -75.90053 179.75543 300
32.53548 -86.79491 178.11746 335
26.40923 -89.56614 180.57062 332
18.87436 -92.94197 183.01523 314
6.57322 -98.55856 185.00891 284
73.28960 -69.43745 171.82343 316
68.28369 -71.76247 173.36905 380
64.86874 -73.30711 175.46606 391
62.00463 -74.65510 177.81920 389
56.97318 -76.93703 179.74825 300
30.50065 -89.15730 177.58325 333
24.19293 -92.10858 180.08746 315
14.51951 -96.55066 182.20943 285
-3.20388 -104.72860 183.53740 265
73.79978 -70.35823 171.80942 316
67.56809 -73.26375 173.02907 379
64.15789 -74.86871 175.12746 390
61.27844 -76.20177 177.48141 388
57.47551 -78.00536 179.75162 300
42.44675 -85.05779 179.85190 296
21.21164 -94.98243 179.43736 314
7.59066 -101.34949 180.93571 284
-23.67753 -116.04998 180.46303 343
74.24899 -71.27380 171.80367 316
66.90358 -74.78598 172.70766 378
63.45237 -76.40713 174.85251 389
60.55914 -77.82681 177.18904 387
57.54525 -79.27336 179.63242 385
43.01599 -86.15427 179.86472 296
15.59882 -99.26009 178.29800 285
-19.25878 -115.82812 176.43974 344
-22.93006 -117.54195 180.44963 284
74.73068 -72.20585 171.82466 316
66.15659 -76.33250 172.34267 377
62.77902 -77.98241 174.49405 388
59.81538 -79.43998 176.91141 386
56.74244 -80.92554 179.37340 384
43.60934 -87.28162 179.88332 296
8.69994 -104.15425 176.90686 284
-14.94835 -115.63093 177.07538 346
-22.20198 -119.12225 180.42477 284
75.22189 -73.11189 171.80443 316
65.46590 -77.93791 171.97525 376
62.04542 -79.61413 174.21478 387
59.06186 -81.09613 176.56702 385
55.27268 -82.92425 178.89151 327
44.19830 -88.36940 179.87671 296
-7.21307 -113.67022 173.82352 290
-7.25541 -113.64909 178.16193 290
-21.43541 -120.64957 180.40932 284
75.73449 -74.07296 171.78934 316
65.58529 -79.12824 171.87697 312
61.31909 -81.23000 173.87933 386
58.14244 -82.86653 176.23370 327
53.03853 -85.38625 178.27039 325
44.75690 -89.50008 179.86989 296
27.10333 -98.33200 180.03360 292
1.87607 -110.91022 179.59166 291
76.24777 -74.95803 171.80045 316
66.12068 -80.06385 171.89314 312
60.57669 -82.92655 173.54784 385
55.97234 -85.26140 175.57249 326
50.72818 -87.87885 177.64154 325
45.33505 -90.61464 179.87589 296
27.70861 -99.57880 180.03204 292
6.42829 -110.37681 180.19191 288
76.71952 -75.90163 171.79379 316
66.67230 -81.06407 171.88524 312
58.83511 -85.07829 172.91983 327
53.77053 -87.73586 174.90173 325
48.39739 -90.47791 177.01460 324
42.91468 -93.26275 179.21712 322
28.40367 -100.80056 180.02496 292
7.15006 -111.69539 180.19402 288
77.26275 -76.82327 171.80417 316
67.23701 -82.06416 171.86717 312
56.70048 -87.56074 172.18198 326
51.45118 -90.25108 174.18147 324
45.95306 -93.16704 176.29646 323
40.32002 -96.11076 178.60066 321
29.05605 -102.00984 179.97688 292
7.82788 -113.08647 180.19434 288
77.77515 -77.72007 171.78046 316
67.77895 -83.00602 171.88701 312
56.41766 -89.01171 171.96375 308
49.12849 -92.89901 173.47502 323
43.45869 -95.92155 175.60675 322
37.64531 -99.01447 177.88675 319
27.89259 -104.15675 179.66414 273
8.53164 -114.37830 180.19780 288
78.28323 -78.63553 171.80103 316
68.30198 -83.97980 171.88779 312
56.99768 -90.06429 171.97293 308
46.65375 -95.61707 172.70230 321
40.81718 -98.75779 174.84749 320
34.71747 -102.06471 177.16687 272
16.48666 -111.82342 177.38670 272
78.79681 -79.54124 171.78700 316
68.86075 -84.94603 171.86198 312
57.62112 -91.12495 171.96288 308
44.64553 -98.20726 172.04807 304
38.16300 -101.72633 174.11218 319
23.38381 -109.76541 174.67535 270
-53.74322 -151.89174 164.15887 372
79.34615 -80.44966 171.78284 316
69.45242 -85.92580 171.85266 312
58.21196 -92.16541 171.96886 308
45.32234 -99.32058 172.06651 304
31.39226 -106.98038 172.40150 271
12.84802 -117.26077 172.37381 296
-49.84685 -151.99767 164.64532 374
79.89924 -81.34508 171.77295 316
70.02811 -86.86295 171.85709 312
58.79991 -93.16332 171.94081 308
45.96788 -100.38304 172.04480 304
31.08480 -108.77325 172.17976 300
13.60449 -118.59200 172.35500 296
-45.90186 -152.00650 165.20615 287
80.44431 -82.23681 171.77310 316
70.59341 -87.85047 171.87286 312
59.39342 -94.21243 171.94183 308
46.60569 -101.52968 172.06520 304
31.76399 -109.97364 172.20860 300
14.37657 -119.87130 172.31297 296
-44.89786 -153.68648 165.17892 286
80.97565 -83.14761 171.75690 316
71.16131 -88.82536 171.83884 312
60.02262 -95.24425 171.94373 308
47.28894 -102.63663 172.07536 304
32.46002 -111.19790 172.16298 300
15.10852 -121.23862 172.31335 296
-43.88498 -155.30031 165.18657 286
81.56249 -84.00857 171.74226 316
71.76194 -89.74364 171.86101 312
60.68134 -96.26809 171.91278 308
47.92297 -103.74516 172.03479 304
33.19632 -112.37949 172.15527 300
15.87378 -122.52551 172.32433 296
-42.89088 -156.96010 165.24773 286
82.09038 -84.92043 171.77582 316
72.36537 -90.69672 171.83549 312
61.31340 -97.26013 171.91508 308
48.62297 -104.81388 172.06210 304
33.92640 -113.52849 172.18510 300
16.69577 -123.78020 172.33270 296
-41.86335 -158.58167 165.24432 286
82.68044 -85.81965 171.74603 316
72.98699 -91.64066 171.84564 312
61.94543 -98.28808 171.91197 308
49.30880 -105.90771 172.05702 304
34.64899 -114.72051 172.17494 300
17.50091 -125.10226 172.29512 296
-40.86098 -160.27568 165.17467 286
83.24958 -86.66820 171.75494 316
73.56014 -92.60548 171.84790 312
62.57139 -99.31255 171.91136 308
49.96482 -106.98992 172.04041 304
35.39453 -115.92135 172.17860 300
-22.70724 -151.47041 163.61897 373
83.81279 -87.54176 171.72308 316
74.17359 -93.54082 171.82407 312
63.24209 -100.34441 171.93785 308
50.66794 -108.07034 172.01738 304
36.12799 -117.11211 172.17659 300
-19.13210 -151.31401 164.15897 374
84.40553 -88.43743 171.74162 316
74.82370 -94.48820 171.83293 312
63.88752 -101.34206 171.90422 308
51.37641 -109.19949 172.03426 304
36.90448 -118.29768 172.15123 300
-15.60655 -151.27155 164.71175 375
-11593.62695 -7424.54541 684.18542 1000
85.01508 -89.32203 171.71004 316
75.39991 -95.42193 171.82567 312
64.57320 -102.35014 171.90726 308
52.07621 -110.24658 171.98125 304
37.64127 -119.46473 172.15210 300
-12.14148 -151.18752 165.25089 377
85.57449 -90.16020 171.74763 316
76.03301 -96.31239 171.79674 312
65.22707 -103.31487 171.87392 308
52.81914 -111.32916 172.00323 304
38.41798 -120.59702 172.13304 300
-8.83687 -151.12099 165.72319 291
86.18746 -91.05202 171.73328 316
76.70195 -97.24316 171.79982 312
65.91401 -104.30625 171.89037 308
53.51533 -112.42773 171.99422 304
39.17826 -121.78963 172.10455 300
-7.81773 -152.55721 165.75632 291
86.78651 -91.90295 171.73573 316
77.33175 -98.17719 171.81264 312
66.57001 -105.30315 171.86639 308
54.24036 -113.50366 172.01335 304
39.95197 -122.94790 172.10823 300
-6.77328 -153.95715 165.75505 291
87.41394 -92.79975 171.69769 316
77.96033 -99.09698 171.76613 312
67.24220 -106.30811 171.85965 308
54.97159 -114.52872 171.98093 304
40.76067 -124.07427 172.07716 300
-5.70369 -155.34865 165.77838 291
88.02400 -93.65212 171.71098 316
78.60016 -100.03057 171.79788 312
67.94971 -107.29330 171.87823 308
55.71525 -115.59818 172.00136 304
4.07507 -150.80978 163.11482 383
-4.69603 -156.72832 165.75417 290
88.61679 -94.48193 171.68799 316
79.26727 -100.92373 171.76532 312
68.66010 -108.26941 171.87186 308
56.48143 -116.66010 171.95688 304
7.08837 -150.74602 163.61908 384
-3.62388 -158.15866 165.77039 290
-18346.46484 -12809.51855 4721.90527 1000
89.25862 -95.32109 171.70576 316
79.95585 -101.86459 171.79022 312
69.36330 -109.24445 171.86197 308
57.23273 -117.74297 171.94838 304
10.13516 -150.61922 164.10034 385
-2.58307 -159.49742 165.74074 290
-23526.10352 -16597.32617 2614.26587 1000
89.87260 -96.21206 171.69646 316
80.62386 -102.76507 171.74973 312
70.07533 -110.22751 171.84579 308
58.00900 -118.76279 171.96654 304
13.02645 -150.54715 164.56456 386
90.51302 -97.04873 171.68990 316
81.30301 -103.67004 171.77670 312
70.78404 -111.17688 171.85307 308
58.75230 -119.80206 171.93732 304
15.94503 -150.53017 165.01740 388
91.15048 -97.87070 171.66339 316
81.94196 -104.57703 171.75621 312
71.52708 -112.12619 171.86150 308
59.53582 -120.85796 171.96660 304
18.80382 -150.44751 165.46701 389
91.82708 -98.72073 171.68396 316
82.64375 -105.45941 171.76181 312
72.25400 -113.12772 171.82442 308
60.33272 -121.86284 171.96074 304
21.60628 -150.37595 165.94122 387
92.46897 -99.55756 171.66667 316
83.31403 -106.33756 171.72328 312
72.98866 -114.05537 171.85667 308
61.11249 -122.95346 171.94414 304
23.32712 -151.06458 166.12268 297
93.10081 -100.36749 171.67307 316
84.05796 -107.22912 171.76071 312
73.72098 -115.04189 171.84793 308
29.68952 -148.26430 163.28130 296
24.31091 -152.28511 166.16324 297
93.75478 -101.23222 171.64969 316
84.72313 -108.14467 171.71867 312
74.44878 -115.96848 171.80087 308
30.50536 -149.62093 163.22127 296
25.30578 -153.57724 166.13199 297
94.42566 -102.03110 171.66646 316
85.43291 -109.02016 171.74469 312
75.19573 -116.92736 171.82462 308
32.52987 -149.96933 163.53262 392
26.35493 -154.77827 166.15961 297
95.09297 -102.87744 171.66844 316
86.13128 -109.88972 171.71704 312
75.95218 -117.89085 171.80690 308
35.18285 -149.83464 163.92422 393
27.34870 -155.95866 166.10043 297
95.79720 -103.65022 171.66580 316
86.85229 -110.74649 171.71933 312
76.73389 -118.79224 171.80643 308
37.76479 -149.77135 164.37904 394
28.34484 -157.21042 166.11928 297
96.46472 -104.48475 171.63704 316
87.56651 -111.62547 171.68898 312
77.48312 -119.72972 171.77600 308
40.27747 -149.66325 164.82510 395
29.42293 -158.45378 166.12959 297
97.15094 -105.30490 171.64595 316
88.33969 -112.48477 171.70593 312
78.28585 -120.66043 171.80803 308
42.75489 -149.57907 165.21451 397
97.86015 -106.12448 171.63411 316
89.03470 -113.37827 171.72198 312
79.06614 -121.59304 171.76193 308
45.24149 -149.47321 165.66646 398
98.54638 -106.91146 171.59872 316
89.80194 -114.20009 171.67194 312
52.20204 -145.55452 163.44458 300
47.64610 -149.39925 166.07582 399
99.21356 -107.71681 171.63631 316
90.55259 -115.06578 171.69922 312
53.05497 -146.73364 163.38852 300
49.33857 -149.90498 166.21815 301
99.93710 -108.48349 171.61896 316
91.28262 -115.92885 171.70703 312
53.88643 -147.95711 163.35802 300
50.35895 -150.97354 166.27559 301
100.67419 -109.31304 171.61391 316
92.03278 -116.77315 171.66592 312
54.70839 -149.10094 163.28348 300
51.33241 -152.04504 166.23849 301
101.36265 -110.06193 171.58958 316
92.77045 -117.59385 171.65373 312
56.94548 -149.02158 163.70328 403
52.34458 -153.11934 166.24797 301
102.10086 -110.84245 171.59299 316
93.55752 -118.43498 171.67632 312
59.21846 -148.98233 164.10823 404
53.35663 -154.18196 166.27759 301
