# .PCD v.7 - Point Cloud Data file format
VERSION .7
FIELDS x y z rgb
SIZE 4 4 4 4
TYPE F F F U
COUNT 1 1 1 1
WIDTH 1399
HEIGHT 1
VIEWPOINT 4296.397461 -4098.085449 133.178360 -0.001621 -0.111960 0.002441 0.993708
POINTS 1399
DATA ascii
395.70258 -32.61794 171.73576 313
408.15372 -34.87805 171.87274 309
422.42715 -37.42188 172.03233 305
473.25665 -46.52615 165.17825 446
481.53137 -48.07405 168.00414 293
268.01334 -9.39412 203.50552 314
395.87387 -31.55450 171.74593 313
408.38132 -33.73388 171.87119 309
422.66071 -36.16699 172.00432 305
474.11563 -45.08060 165.08333 300
481.75827 -46.44662 168.04123 293
268.06635 -9.10238 203.50623 314
396.06442 -30.47061 171.75903 313
408.60745 -32.56324 171.86870 309
422.90225 -34.96534 172.00427 305
474.37317 -43.54650 165.06598 300
481.96875 -44.83739 168.06693 293
268.11285 -8.81721 203.49931 314
396.28787 -29.37906 171.77057 313
408.77542 -31.42047 171.87810 309
423.07678 -33.68449 171.99190 305
474.62924 -41.98819 165.07515 300
482.17584 -43.20895 168.06186 293
268.16086 -8.51163 203.50049 314
396.41241 -28.30479 171.77568 313
408.95169 -30.22545 171.87335 309
423.28937 -32.43177 172.03484 305
474.86832 -40.39103 165.08412 300
482.36539 -41.56363 168.09802 293
268.21591 -8.22203 203.50151 314
396.59064 -27.23425 171.74004 313
409.16949 -29.09430 171.90218 309
423.50241 -31.22589 172.03706 305
475.12741 -38.85151 165.09482 300
482.58371 -39.93685 168.13664 293
268.25293 -7.92411 203.50565 314
396.76895 -26.14864 171.76349 313
409.32690 -27.91717 171.85583 309
423.65948 -29.94766 172.00017 305
440.26007 -32.31995 172.18433 301
482.74591 -38.33609 168.10059 294
268.29788 -7.62966 203.50179 314
396.90265 -25.02888 171.74324 313
409.46298 -26.74645 171.85568 309
423.87341 -28.69614 172.04898 305
440.48547 -30.94466 172.21193 301
483.38983 -36.79978 168.01082 460
268.35052 -7.33802 203.50583 314
397.07468 -23.98113 171.75684 313
409.63293 -25.58837 171.86076 309
424.04855 -27.48471 172.00099 305
440.63150 -29.58595 172.19214 301
484.63800 -35.31129 167.86281 459
268.38541 -7.03714 203.49847 314
397.23053 -22.87689 171.76242 313
409.79712 -24.42190 171.86203 309
424.18921 -26.23270 172.00577 305
440.79349 -28.26333 172.21434 301
485.85349 -33.79061 167.65215 458
268.42026 -6.75003 203.50934 314
397.35556 -21.82027 171.78163 313
409.92801 -23.29668 171.90921 309
424.33737 -24.97605 172.01291 305
440.96365 -26.92117 172.20969 301
487.00998 -32.31330 167.52502 457
268.45670 -6.44312 203.50554 314
271.81784 -6.81642 203.50110 282
410.10077 -22.11432 171.89151 309
424.46732 -23.72974 172.04228 305
441.14325 -25.57492 172.18671 301
488.26935 -30.76003 167.29910 456
268.49533 -6.14796 203.51024 314
271.84079 -6.49472 203.50592 310
410.21567 -20.92867 171.89537 309
424.62698 -22.46395 172.00954 305
441.32962 -24.21748 172.19044 301
489.49951 -29.20108 167.06969 456
46094.39844 -4798.16357 -2829.95166 1000
268.53220 -5.85436 203.50969 314
271.87744 -6.18422 203.50842 310
410.32700 -19.74929 171.91455 309
424.74805 -21.21593 172.05150 305
441.47626 -22.80754 172.20735 301
490.76709 -27.65582 166.94550 455
268.56204 -5.55922 203.50891 314
271.90930 -5.86988 203.49837 310
410.44647 -18.60856 171.90732 309
424.89282 -19.91177 172.05615 305
441.59296 -21.45572 172.18080 301
492.01123 -26.09314 166.72456 454
268.58176 -5.26424 203.49905 314
271.94312 -5.54756 203.50162 310
410.55908 -17.42318 171.88766 309
425.02579 -18.68222 172.02139 305
441.69498 -20.11680 172.16898 301
493.30173 -24.54924 166.54146 453
268.61212 -4.96778 203.49979 314
271.97125 -5.22703 203.50916 310
410.65378 -16.26405 171.88791 309
425.14832 -17.42018 172.01772 305
441.83978 -18.77115 172.20122 301
494.64545 -22.97728 166.29887 452
36612.89453 -2909.86621 797.10370 1000
268.63940 -4.66426 203.50711 314
271.99185 -4.90773 203.50073 310
410.76996 -15.09883 171.91849 309
425.22903 -16.18867 172.06116 305
441.96094 -17.40191 172.20699 301
495.89319 -21.35453 166.06613 451
268.66608 -4.36210 203.50423 314
272.01947 -4.59508 203.50485 310
410.82513 -13.91997 171.87389 309
425.34302 -14.88636 172.06219 305
442.05463 -16.01020 172.18170 301
461.61789 -17.39119 172.41699 297
268.68024 -4.07335 203.50755 314
272.04437 -4.27691 203.50197 310
410.93066 -12.75271 171.87309 309
425.39093 -13.66521 172.05643 305
442.17114 -14.66882 172.20668 301
461.71307 -15.87917 172.37056 297
268.70508 -3.76645 203.49966 314
272.06442 -3.95639 203.50348 310
411.03210 -11.61628 171.89442 309
425.51889 -12.39421 172.04073 305
442.21411 -13.28615 172.16612 301
461.81525 -14.40663 172.38419 297
268.71838 -3.46771 203.50005 314
272.07947 -3.63857 203.50037 310
411.08023 -10.43876 171.88280 309
425.55023 -11.15378 172.02583 305
442.30698 -11.94471 172.20648 301
461.91446 -12.92471 172.36948 297
268.74274 -3.17848 203.50069 314
272.10651 -3.31700 203.50845 310
411.15405 -9.25763 171.90195 309
425.63815 -9.89670 172.03096 305
442.39044 -10.59419 172.17076 301
462.01813 -11.43399 172.37482 297
268.75272 -2.86900 203.50352 314
272.11948 -2.99517 203.50400 310
411.16525 -8.09923 171.87553 309
425.70444 -8.59556 172.03601 305
442.46756 -9.25259 172.22450 301
462.03693 -9.95518 172.40797 297
268.76981 -2.57462 203.50529 314
272.13275 -2.67433 203.50648 310
411.24692 -6.90838 171.89276 309
425.74124 -7.37397 172.01572 305
442.50311 -7.83849 172.17528 301
462.12976 -8.43668 172.40642 297
268.77264 -2.28351 203.49742 314
272.14886 -2.36127 203.50316 310
411.25433 -5.70788 171.90367 309
425.81680 -6.08724 172.03113 305
442.55917 -6.47917 172.21242 301
462.21805 -6.95981 172.36987 297
268.78363 -1.97805 203.50841 314
272.15121 -2.04201 203.51039 310
411.28857 -4.56171 171.88268 309
425.83032 -4.83122 172.06320 305
442.63342 -5.11220 172.20221 301
462.22443 -5.50191 172.42154 297
511.65414 -6.40465 168.29990 288
268.79187 -1.68600 203.50468 314
272.16632 -1.72373 203.49919 310
411.32489 -3.38824 171.87418 309
425.83899 -3.58510 172.02769 305
442.63144 -3.73726 172.21590 301
462.26279 -3.98046 172.37511 297
511.70956 -4.63815 168.31398 288
268.80130 -1.37485 203.49873 314
272.16129 -1.39551 203.50209 310
411.37555 -2.19138 171.89532 309
425.89249 -2.30078 172.03261 305
442.69247 -2.41574 172.22044 301
451.48886 -2.42775 174.33905 425
511.60855 -2.78342 168.32051 288
268.79755 -1.08524 203.50690 314
272.16705 -1.08245 203.50253 310
411.37390 -1.03285 171.87019 309
425.91928 -1.02456 172.05272 305
442.69473 -1.03420 172.21236 301
462.30515 -1.04197 172.38600 297
511.62903 -1.06589 168.31355 288
268.79666 -0.77991 203.50288 314
272.16769 -0.75706 203.50642 310
411.36017 0.12637 171.91313 309
425.90024 0.22094 172.02811 305
442.71762 0.31027 172.22569 301
462.30692 0.47666 172.40617 297
511.62659 0.78810 168.26892 288
268.80414 -0.48720 203.50609 314
272.17697 -0.44200 203.50894 310
411.40152 1.30960 171.89957 309
425.93259 1.46571 172.01259 305
442.71164 1.68240 172.20036 301
451.65161 1.78190 174.35161 422
511.68686 2.53661 168.30179 288
268.79642 -0.18980 203.50444 314
272.16537 -0.11880 203.49825 310
411.37259 2.48021 171.87964 309
425.87994 2.76208 172.03238 305
442.68222 3.08541 172.19470 301
462.30481 3.42789 172.35440 297
511.79007 4.33032 168.32047 288
268.79391 0.11568 203.50368 314
272.16815 0.19543 203.51047 310
411.36880 3.67074 171.88905 309
425.89856 3.99351 172.03125 305
442.65891 4.43443 172.19606 301
462.31168 4.93439 172.41890 297
268.78961 0.41269 203.50243 314
272.15689 0.51227 203.50842 310
411.33167 4.80637 171.88708 309
425.86707 5.26562 172.02173 305
442.62350 5.79731 172.21004 301
462.25070 6.37334 172.38194 297
268.78397 0.71631 203.50375 314
272.15494 0.83977 203.50400 310
411.31253 5.99604 171.88889 309
425.85349 6.55084 172.04774 305
442.60538 7.14497 172.19391 301
462.24591 7.85723 172.37422 297
268.77661 1.01066 203.50752 314
272.14752 1.15241 203.50043 310
411.29108 7.20219 171.88286 309
425.81244 7.78530 172.02415 305
442.54523 8.53577 172.18791 301
462.19278 9.39437 172.39607 297
268.76617 1.31429 203.49954 314
272.12369 1.47243 203.49742 310
411.20145 8.36027 171.89784 309
425.71774 9.03686 172.04219 305
442.54739 9.91192 172.17307 301
462.14352 10.87837 172.36223 297
268.74417 1.60233 203.50237 314
272.11374 1.78945 203.50862 310
411.18320 9.53192 171.91176 309
425.69656 10.29865 172.03220 305
442.48727 11.27231 172.17339 301
462.08850 12.36801 172.35849 297
268.73242 1.91204 203.49789 314
272.09766 2.10717 203.50862 310
411.12195 10.71778 171.91025 309
425.62613 11.55975 172.01395 305
442.41437 12.59055 172.16249 301
462.00241 13.83439 172.40381 297
268.71964 2.20845 203.50992 314
272.07620 2.43277 203.50383 310
411.05862 11.87684 171.88837 309
425.58896 12.87384 172.03429 305
442.32278 13.99831 172.22131 301
461.96716 15.33464 172.36491 297
268.70047 2.50797 203.49854 314
272.05878 2.75518 203.49710 310
410.96866 13.03976 171.87872 309
425.47089 14.09880 172.00044 305
442.23697 15.35666 172.21761 301
461.85123 16.76560 172.34535 297
268.68246 2.80747 203.50125 314
272.03537 3.06978 203.50456 310
410.92914 14.18958 171.89516 309
425.43552 15.35940 172.03418 305
442.16031 16.68980 172.16675 301
495.67389 20.97984 166.16220 452
268.66110 3.09604 203.50891 314
272.01089 3.39188 203.50471 310
410.80490 15.40885 171.90582 309
425.34213 16.63795 171.99947 305
442.09225 18.06805 172.19652 301
494.38348 22.60230 166.42355 453
4958.27002 406.63336 293.56952 435
268.63229 3.39424 203.50272 314
271.99002 3.71434 203.49869 310
410.72293 16.56756 171.86523 309
425.20105 17.90738 172.02898 305
441.95206 19.46690 172.20013 301
493.08429 24.17693 166.57365 454
4935.61816 434.36685 292.85373 435
268.60361 3.70309 203.50487 314
271.96893 4.03199 203.50568 310
410.61646 17.72358 171.88907 309
425.12640 19.15983 172.02873 305
441.86093 20.80049 172.16803 301
491.83362 25.72527 166.80354 455
4913.50391 461.44092 292.50613 477
268.57913 3.99820 203.50021 314
271.93124 4.34602 203.49802 310
410.51849 18.89329 171.89622 309
425.02597 20.38764 172.02217 305
441.71692 22.15912 172.17406 301
490.53107 27.25075 167.01569 456
4890.47363 488.37521 293.02762 331
268.54956 4.29854 203.49774 314
271.89783 4.66808 203.50987 310
410.39148 20.08403 171.90219 309
424.85800 21.68575 172.02203 305
441.63397 23.55589 172.17079 301
489.29532 28.85008 167.17854 457
4869.40430 514.95312 292.28818 340
268.51456 4.58645 203.50551 314
271.86395 4.98800 203.49826 310
410.30618 21.24078 171.87668 309
424.77643 22.91936 172.00169 305
441.48703 24.90191 172.20389 301
488.06619 30.33359 167.44144 457
4857.31055 542.19696 292.61667 440
268.47891 4.88229 203.49944 314
271.83865 5.30007 203.50230 310
410.20047 22.42955 171.85634 309
424.61450 24.15920 172.02155 305
441.35266 26.24697 172.18492 301
486.83676 31.86970 167.58195 458
4846.67090 569.95093 292.56284 440
268.45444 5.18835 203.49977 314
271.80237 5.62162 203.50360 310
410.04562 23.57672 171.87218 309
424.48105 25.42862 172.01427 305
441.16312 27.62800 172.16975 301
485.63132 33.39932 167.78453 459
4838.14258 597.56085 291.94348 443
268.41187 5.47844 203.50813 314
271.75302 5.93911 203.50069 310
409.88019 24.74774 171.85236 309
424.33350 26.67697 171.99365 305
441.00928 28.96928 172.16248 301
484.43591 34.85856 168.00766 460
4829.33936 625.39832 291.45819 443
4931.65820 638.49738 371.59277 266
268.37152 5.77690 203.50531 314
271.71985 6.25442 203.50204 310
409.77631 25.91401 171.85916 309
424.15646 27.93887 172.02545 305
440.81454 30.34768 172.14900 301
483.40634 36.36517 168.08636 294
4822.82031 652.23438 291.79068 498
4899.56006 663.17047 371.10150 499
268.33865 6.07141 203.50760 314
271.66666 6.57476 203.50322 310
409.61880 27.08344 171.88306 309
423.98785 29.18061 171.98454 305
475.83664 36.89496 165.08659 300
483.28595 38.02713 168.08568 294
4817.73047 680.92029 292.36676 498
268.29355 6.36590 203.50821 314
271.63052 6.88719 203.50018 310
409.46481 28.22535 171.84959 309
423.82462 30.44098 172.02838 305
475.66156 38.46980 165.10263 300
483.14835 39.61010 168.08907 293
4813.86182 709.77112 292.34497 498
268.25101 6.66919 203.50557 314
271.58853 7.20268 203.49698 282
409.25253 29.38529 171.84241 309
423.64511 31.73840 171.99667 305
475.44229 40.04836 165.09041 300
483.00211 41.28045 168.06754 293
4810.64795 737.38989 292.57556 498
268.19977 6.96626 203.49954 314
271.62582 7.54033 203.48100 282
409.11945 30.54138 171.87057 309
423.46371 32.98790 171.97678 305
475.21213 41.62819 165.07445 300
482.81796 42.90776 168.06831 293
4808.06348 766.28058 292.15619 497
4899.15283 780.56622 371.59860 275
268.14969 7.25891 203.50035 314
396.35873 29.53468 171.73502 313
408.91653 31.70813 171.87997 309
423.28748 34.23486 172.00095 305
474.92664 43.15491 165.06189 300
482.64484 44.51406 168.05922 293
4806.69873 794.02057 292.80984 497
4937.87402 817.89514 450.79080 314
268.10065 7.54993 203.50450 314
396.16122 30.62639 171.74016 313
408.70685 32.90286 171.87279 309
423.07141 35.48359 171.98164 305
474.51395 44.69051 165.13779 446
482.45236 46.11677 168.01953 293
4804.01514 823.72583 292.22241 497
4923.58789 844.58252 451.20789 498
268.05209 7.84733 203.50873 314
396.00500 31.71240 171.74960 313
408.51523 34.06579 171.83183 309
422.88193 36.72927 172.02628 305
473.03766 46.09802 165.31654 447
482.29443 47.78528 168.01866 293
4802.67773 852.25031 293.00168 497
267.99673 8.14178 203.50436 314
395.81653 32.76608 171.75131 313
408.34814 35.20966 171.84337 309
422.66736 37.98189 172.02075 305
471.66959 47.41212 165.58107 448
482.09058 49.37892 168.00586 293
4800.72754 880.47424 292.38608 497
4942.66504 907.94989 373.92923 498
267.94461 8.43227 203.50699 314
395.62222 33.88542 171.74210 313
408.11429 36.36317 171.84625 309
422.42590 39.19708 171.99532 305
470.25180 48.74811 165.83246 449
4797.98584 909.67511 292.85883 496
267.89102 8.73352 203.50211 314
395.42065 34.97290 171.75304 313
407.87708 37.48631 171.86382 309
422.22186 40.42369 171.99547 305
468.83142 50.05357 166.02586 450
4796.90039 938.53369 292.88638 496
267.82050 9.02342 203.50793 314
395.20004 36.01303 171.71776 313
407.70364 38.64821 171.87238 309
421.95731 41.71156 171.97354 305
467.42188 51.34964 166.28285 451
4794.27002 967.12775 292.12061 496
4936.28174 997.31647 373.78076 282
4964.90527 1003.28564 454.34366 423
267.76367 9.31259 203.50577 314
395.01135 37.12621 171.71057 313
407.46814 39.80145 171.86584 309
421.69104 42.93293 171.95699 305
466.07538 52.58574 166.47725 451
4792.60645 996.23761 293.31805 496
267.70230 9.60753 203.50655 314
394.77414 38.18713 171.73260 313
407.22604 40.99003 171.83821 309
453.20392 51.29578 164.96346 303
464.66873 53.89961 166.68372 452
4790.29053 1025.57324 293.33835 496
267.63455 9.89752 203.50824 314
394.52255 39.24218 171.72391 313
406.94040 42.12208 171.82860 309
452.92767 52.72946 164.94391 303
463.33447 55.18473 166.89255 453
4788.57617 1053.85120 292.76920 495
267.57355 10.18924 203.50549 314
394.29126 40.33545 171.72159 313
406.70776 43.28142 171.86285 309
452.58737 54.20364 164.97238 303
461.91171 56.41841 167.13159 421
4787.48291 1083.68811 293.67068 495
267.51157 10.48238 203.49939 314
394.08057 41.41402 171.72084 313
406.44116 44.42150 171.81017 309
452.28149 55.58749 164.91826 303
460.03406 57.53667 167.41389 422
4785.29102 1112.76416 293.01865 495
267.43433 10.78076 203.50865 314
393.79822 42.48468 171.71162 313
406.21149 45.57127 171.85315 309
451.94864 57.02355 164.92099 303
458.19098 58.60961 167.72711 423
4783.10156 1142.33569 293.54092 494
267.36206 11.06328 203.50931 314
393.53412 43.52370 171.69121 313
405.94601 46.70925 171.81367 309
451.59830 58.48548 164.93221 303
456.85995 59.82128 167.95358 297
4780.80225 1170.90259 293.56702 494
267.29782 11.35959 203.50853 314
393.28503 44.59962 171.70003 313
405.64301 47.85059 171.85228 309
451.20001 59.86718 164.94453 303
456.50577 61.24841 167.91618 297
4779.97998 1200.18530 293.16824 494
267.21234 11.65413 203.49925 314
393.04169 45.69363 171.68852 312
405.36279 49.00014 171.81941 309
450.82574 61.32676 164.93030 303
456.17758 62.76572 167.92392 297
4780.56934 1230.47205 293.60580 469
267.13779 11.94382 203.50558 314
392.77072 46.71633 171.70557 312
405.08752 50.16981 171.81813 309
450.46173 62.70646 164.95378 303
455.87872 64.21511 167.89748 297
4788.95215 1263.74170 294.14926 468
267.05731 12.23162 203.49835 314
392.48569 47.81178 171.69009 312
404.75812 51.29517 171.82138 309
449.33997 63.88948 165.07210 428
455.56366 65.67171 167.86063 297
4796.27783 1296.28564 294.28238 467
266.98557 12.52136 203.50774 314
392.20853 48.84404 171.68544 312
404.46991 52.44653 171.80431 309
447.65057 64.97009 165.41571 429
455.23727 67.14876 167.88454 297
266.89783 12.80151 203.50769 314
391.90558 49.90755 171.70213 312
404.17017 53.55312 171.79219 309
445.97177 65.94838 165.70143 430
454.82614 68.59825 167.87442 297
266.81149 13.09073 203.50597 314
391.58447 50.97236 171.68762 312
432.43369 63.33992 164.83824 308
444.29678 66.97742 165.99916 431
454.53174 70.09373 167.82806 297
266.73608 13.38100 203.50729 314
391.31656 52.01134 171.69725 312
432.04965 64.67667 164.83781 308
442.64050 67.95682 166.26009 432
266.63925 13.66080 203.50450 314
390.99811 53.09163 171.67369 312
431.62485 65.98866 164.84470 308
440.99142 68.91656 166.52373 433
266.55801 13.95670 203.50821 314
390.65021 54.14942 171.66223 312
431.27103 67.30826 164.86488 308
439.39725 69.90865 166.78821 434
266.46384 14.24080 203.49796 314
390.31744 55.20205 171.66560 312
430.81134 68.57800 164.87057 308
437.61002 70.83244 167.08374 420
266.37610 14.52753 203.50342 314
390.01004 56.22621 171.69202 312
430.40488 69.89183 164.84081 308
435.80112 71.68919 167.41354 421
266.33698 14.83214 203.49361 287
389.66739 57.30871 171.69276 312
429.96469 71.16548 164.84959 308
434.00650 72.52019 167.69400 422
378.69211 54.61709 171.57396 316
389.34137 58.33798 171.68657 312
429.49661 72.42125 164.84235 308
433.07980 73.68532 167.86221 301
378.35968 55.59209 171.54807 316
388.98419 59.37376 171.65875 312
429.00229 73.70592 164.82312 308
432.65109 74.98652 167.84648 301
378.02292 56.52956 171.54572 316
388.64771 60.44103 171.65305 312
428.52084 74.97342 164.87807 308
432.22891 76.32867 167.84109 301
377.67706 57.54362 171.53043 316
388.24936 61.48016 171.63562 312
427.11853 75.93472 165.06433 426
431.80801 77.65228 167.77844 301
377.35522 58.50431 171.56500 316
413.60333 72.26615 164.74303 312
425.47479 76.71319 165.42175 427
431.40427 78.97388 167.77306 301
376.98608 59.44666 171.55934 316
413.15170 73.45380 164.74689 312
423.81784 77.52979 165.66260 428
430.96442 80.27526 167.75739 301
376.61551 60.45535 171.52068 316
412.66559 74.57849 164.74112 312
422.14890 78.32739 165.98698 429
430.47147 81.59676 167.75420 301
376.26248 61.39055 171.52423 316
412.24216 75.77259 164.77187 312
420.54117 79.11953 166.26427 430
430.03131 82.92217 167.74719 301
375.86612 62.34693 171.55376 316
411.70563 76.93727 164.79950 312
418.98691 79.90640 166.51447 431
375.52774 63.31091 171.53723 316
411.21902 78.10247 164.79584 312
417.40475 80.68226 166.80327 432
375.14603 64.28511 171.50479 316
410.75571 79.29252 164.77824 312
415.83020 81.43483 167.08058 433
374.72742 65.24771 171.50566 316
410.23361 80.47175 164.75954 312
414.26218 82.21310 167.31943 434
374.33972 66.19231 171.51608 316
409.72540 81.65452 164.79762 312
412.72717 82.96049 167.59933 435
373.96756 67.15461 171.51125 316
409.20715 82.77602 164.79471 312
411.53946 83.81271 167.76122 305
373.55743 68.10123 171.52119 316
408.72101 83.93615 164.78366 312
411.05597 84.97825 167.78369 305
396.32202 79.65968 164.66437 316
408.16281 85.07848 164.78207 312
410.56192 86.20815 167.75673 305
395.84729 80.73938 164.68515 316
406.77142 85.85932 165.05110 418
410.07492 87.40623 167.71881 305
395.36661 81.82764 164.64873 317
405.02496 86.43313 165.34494 419
409.59177 88.55047 167.70680 305
394.83563 82.88506 164.65897 317
403.35214 87.03091 165.67516 421
409.04984 89.75401 167.73218 305
394.27444 83.98721 164.69313 317
401.71722 87.61176 166.00826 422
408.59003 90.90594 167.72487 305
393.73798 85.03876 164.68866 317
400.06641 88.12857 166.29210 423
408.05270 92.08884 167.71765 305
393.20575 86.10754 164.70354 317
398.42279 88.70284 166.62016 424
407.51981 93.28851 167.72174 305
392.64255 87.13251 164.66969 317
396.87082 89.28358 166.88371 425
392.08975 88.21606 164.71436 317
395.24448 89.80378 167.19398 426
391.54312 89.22572 164.70343 317
393.69281 90.36380 167.49016 427
390.95178 90.27248 164.72369 317
392.35025 90.99398 167.70143 311
390.42432 91.34239 164.68788 317
391.81042 92.05257 167.67111 311
389.10049 91.97656 164.93575 429
391.24130 93.12497 167.70746 311
387.61676 92.48984 165.21992 430
390.68292 94.17966 167.70122 311
386.14838 92.96867 165.50870 431
390.11856 95.23563 167.66293 309
384.67484 93.49604 165.77525 432
389.54117 96.32901 167.64987 309
383.22958 93.98430 166.07162 433
388.99188 97.36976 167.63277 309
381.80173 94.50909 166.32649 434
388.40442 98.41529 167.65685 309
380.38840 95.00465 166.57202 435
387.82849 99.46678 167.62782 309
378.93802 95.48267 166.83786 436
387.26199 100.51507 167.64983 309
377.58307 95.96986 167.05144 437
376.17545 96.42635 167.30014 438
374.85645 96.90130 167.56845 439
374.08997 97.75619 167.63641 315
373.49033 98.71771 167.62343 315
372.87900 99.67965 167.62881 315
372.24960 100.57816 167.60953 315
371.67795 101.55149 167.61299 315
371.05371 102.49525 167.60376 315
370.41061 103.42651 167.56752 315
34568.42969 23873.78906 4344.48926 1000
369.76270 104.36247 167.56277 315
369.15503 105.28236 167.60367 315
368.48557 106.16779 167.58109 315
367.86029 107.09109 167.56085 313
367.25150 108.02559 167.58299 313
4712.67676 4716.69336 324.72412 458
4690.94336 4752.96240 324.36487 466
4669.78711 4788.43115 324.16422 467
4650.51367 4827.16943 325.61310 473
4631.18555 4864.85449 324.36832 480
4615.75684 4908.80371 324.53204 466
4602.22070 4954.40674 325.04892 458
3580.55273 3846.98242 300.63635 478
4590.26367 5064.65088 326.65875 412
4589.83203 5128.10059 327.59558 411
4590.10889 5191.81689 328.85687 410
4589.40723 5258.15430 329.41241 408
4591.14209 5323.75732 329.67252 407
4591.33447 5391.29395 331.45169 406
19009.66406 26334.43164 -6215.69922 1000
3230.55664 4951.90869 216.97392 443
766.69879 1036.38025 122.07817 487
766.99042 1036.24451 141.29564 499
766.89563 1036.31665 160.54756 499
766.84558 1036.62854 179.60066 487
767.25470 1036.68774 198.96286 487
767.47498 1036.89685 218.13033 450
767.49225 1037.53052 237.36601 450
768.10706 1038.24719 256.49539 394
768.61707 1039.01624 275.95056 394
769.31018 1040.63672 295.38553 324
762.39117 1043.33728 179.52380 327
761.91644 1042.14966 198.83984 397
761.47198 1041.34229 218.19247 452
761.18323 1040.69116 237.38966 452
761.12646 1040.41138 256.73639 487
760.99744 1040.12708 275.91934 487
760.78369 1039.98206 294.87857 487
760.85278 1039.76453 314.18832 499
760.98547 1039.87195 333.79758 498
3116.27173 5931.98389 334.39279 283
3081.22559 5953.35596 226.24478 349
3073.98853 5939.51270 334.78757 485
3022.66113 5922.65723 227.08731 376
3074.95142 6034.57373 337.23499 469
2953.16113 5868.38965 226.16780 286
2896.02808 5842.52881 226.58115 396
2847.55688 5829.44189 226.77211 440
2801.25146 5822.76172 226.90230 445
2818.92505 5862.08936 332.03763 479
2823.38696 5873.03955 437.48651 412
2758.20044 5819.54443 227.53078 470
2776.30518 5860.81250 331.56311 479
2782.68433 5874.17920 436.97195 412
2714.57153 5816.39941 226.04745 475
2731.63037 5856.33691 331.78912 475
2738.52490 5874.77881 435.62491 413
2672.71484 5817.05029 226.74725 479
2688.54126 5856.76074 330.15143 480
2696.64062 5876.03320 435.56967 413
2630.54688 5816.27539 227.48451 479
2649.87231 5862.53955 330.72733 476
2654.86206 5876.24121 434.63623 413
2588.43115 5817.48926 226.48314 480
2608.12866 5863.03662 330.74051 482
2613.89575 5878.34912 435.50290 414
2546.53638 5816.99756 226.37610 481
2565.07153 5862.24854 330.14062 482
2571.54590 5879.35156 435.16309 414
2505.46753 5816.76709 226.93617 481
2531.00928 5879.37500 330.97116 483
2531.18872 5880.55176 434.41360 415
2465.15771 5817.66113 226.01921 481
2531.39111 5991.45166 332.41302 338
2513.64502 5942.60059 436.26019 483
1438.16333 3213.80786 165.66017 262
1457.16602 3264.96362 222.42070 299
2533.53442 6103.71094 333.85165 337
2472.36084 5944.61572 436.06082 486
1371.68311 3094.92969 167.94086 294
1437.90637 3272.92261 221.91118 323
1342.17346 3073.11182 168.50035 312
1418.64124 3282.32275 222.33936 498
1325.78064 3089.22681 168.06232 399
1398.75623 3292.20190 222.65294 498
1314.45178 3116.58862 167.54884 392
1424.95764 3431.42847 222.27498 488
1302.56506 3144.84302 167.27519 381
1405.73950 3444.21313 222.83929 312
1291.22205 3173.31567 167.00401 383
1465.78442 3692.52124 223.13194 491
1279.22449 3203.38037 166.85194 376
1310.22168 3296.29199 221.86235 309
1267.69165 3235.83350 166.23357 362
1288.70251 3301.03931 221.90430 309
1257.60742 3273.89331 165.83191 344
1267.39124 3305.42993 222.34294 308
1250.08167 3318.08569 165.29008 339
1250.96069 3321.37329 222.21127 338
1245.20923 3377.50781 164.99886 299
1238.00146 3353.51489 222.53543 340
2075.03369 6110.44775 331.81375 484
1252.99048 3478.11133 163.54698 289
1238.93335 3433.83496 221.98596 302
1259.16125 3578.95508 162.09311 297
1262.09668 3591.08325 222.74373 256
1267.33386 3693.11841 160.30870 295
1259.71204 3667.54468 222.31653 280
1272.86951 3803.56958 158.15106 296
258.22690 1538.84534 117.91812 469
258.21237 1538.85461 143.08070 469
258.31046 1538.41345 168.49097 469
258.47559 1537.94019 193.89633 469
258.50073 1537.95654 218.99951 422
258.17322 1537.96423 243.97107 422
258.26532 1538.11072 269.31528 358
258.38010 1538.68579 294.60422 357
258.23370 1539.75525 320.07715 282
249.02486 1543.38477 168.47137 293
249.01311 1540.79492 193.83386 367
248.90051 1539.23364 218.95682 367
248.88646 1538.36035 244.01436 429
248.88826 1537.02576 269.31900 429
249.06546 1536.07495 294.57651 429
248.69229 1535.32410 319.71423 474
-1422.19360 22266.97070 1349.72937 1000
-251.82118 2042.51880 82.34682 481
-251.40367 2042.40723 116.67102 499
-251.56207 2042.86743 150.76788 499
-251.72574 2043.57471 185.33501 492
-251.88306 2044.43896 219.68272 462
-252.13107 2046.39771 253.99571 410
-253.66916 2050.60205 288.70981 267
127.36897 148.11723 169.52805 485
126.15774 148.00421 169.40202 441
124.44383 148.65463 168.98607 489
120.29882 148.92577 168.31682 489
117.47978 151.18430 167.44403 316
-24763.16211 36900.20312 -7093.08643 1000
116.55431 150.51964 167.42323 316
115.65479 149.85001 167.41512 316
114.74778 149.20694 167.44051 316
111.54967 151.71675 166.38988 314
110.60879 151.03764 166.37265 314
109.64701 150.37358 166.39995 314
108.74146 149.71523 166.39130 314
107.80013 148.99123 166.36484 314
106.92728 148.33452 166.41690 314
105.97393 147.61839 166.37274 314
105.08254 146.91597 166.40335 314
103.84718 146.56020 166.24431 423
102.27929 146.74403 165.94046 422
95.02118 155.75198 166.40099 309
100.62421 146.92279 165.65149 421
94.09197 155.02209 166.39632 309
99.01414 147.06366 165.33597 420
93.11916 154.21831 166.34221 309
97.32508 147.22917 165.03691 419
92.16789 153.45738 166.34827 309
95.71939 147.35443 164.69368 428
91.17017 152.69281 166.36566 309
94.09286 147.38272 164.43846 427
90.23132 151.86839 166.35649 309
92.46727 147.44325 164.10344 426
89.30892 151.10545 166.34656 309
90.80956 147.49709 163.83031 425
88.34747 150.27348 166.33864 309
89.11120 147.60255 163.51273 424
87.45473 149.49408 166.33418 309
87.90392 147.10814 163.36469 307
86.52278 148.70108 166.33708 309
87.06330 146.20602 163.44640 307
85.58224 147.87119 166.34070 309
86.22338 145.30144 163.42767 307
83.97034 147.81779 166.10666 422
85.44776 144.40849 163.47583 307
82.21554 147.85849 165.75999 421
84.63799 143.51022 163.51750 307
80.47016 147.93062 165.44711 420
72.37012 156.50523 166.24281 305
83.78918 142.57947 163.57263 307
78.65861 147.99370 165.11066 419
71.40986 155.54407 166.29298 305
83.00458 141.61714 163.59700 307
76.83615 148.07126 164.79341 418
70.50485 154.67192 166.28741 305
102.93677 119.45318 171.52812 315
74.98420 148.12148 164.46396 416
69.49702 153.75990 166.27177 305
102.23567 118.73653 171.55315 315
73.11481 148.23479 164.14709 415
68.59325 152.79865 166.27132 305
101.52625 117.99503 171.54047 315
71.20483 148.27054 163.81105 414
67.61455 151.89233 166.26350 305
100.77628 117.25843 171.52983 315
69.32567 148.36563 163.45671 413
66.68082 150.93134 166.23062 305
100.09840 116.48525 171.55728 315
68.03084 147.76042 163.33409 303
65.70660 150.01393 166.23941 305
99.38797 115.71159 171.58293 315
67.22531 146.74266 163.37167 303
64.78333 149.05486 166.24539 305
98.67439 114.96272 171.54749 315
66.41241 145.70680 163.38046 303
63.39356 148.58635 166.08856 410
97.98781 114.20271 171.57878 315
65.62518 144.66568 163.44189 303
61.33601 148.67024 165.72383 409
97.29568 113.42900 171.59448 315
64.87418 143.59988 163.46059 303
59.28665 148.75105 165.37717 408
96.61697 112.67243 171.57500 315
88.19833 120.40257 171.63640 312
57.22793 148.80380 165.00587 407
48.10496 157.17476 166.17905 301
95.92346 111.86733 171.57776 315
87.42822 119.59417 171.66748 312
55.11145 148.91875 164.64049 406
47.13491 156.07712 166.14148 301
95.28767 111.08400 171.58214 315
86.71322 118.72443 171.68517 312
52.97543 149.00079 164.20625 405
46.21375 155.03001 166.17982 301
94.61861 110.30633 171.60939 316
86.00828 117.89977 171.66675 312
50.76973 149.08087 163.84221 404
45.25193 153.99016 166.16704 301
93.92351 109.52654 171.61366 316
85.31505 117.08279 171.66878 312
48.57282 149.15521 163.46425 403
44.32729 152.86305 166.15804 301
93.29997 108.73065 171.63359 316
84.58448 116.23450 171.67082 312
46.85451 148.79158 163.21904 300
43.38395 151.80608 166.13377 301
92.63249 107.92248 171.61603 316
83.89684 115.36324 171.68733 312
46.06771 147.59679 163.23605 300
42.43559 150.70708 166.13606 301
91.95728 107.14075 171.62204 316
83.19901 114.48882 171.70319 312
45.30176 146.39688 163.30457 300
41.45361 149.60768 166.12755 301
91.35461 106.30910 171.64563 316
82.54600 113.63199 171.71703 312
72.53362 121.93111 171.77722 308
39.38159 149.50436 165.81180 398
90.71414 105.51366 171.63321 316
81.84969 112.79106 171.70720 312
71.82001 121.03848 171.80255 308
36.94576 149.59210 165.42500 397
90.08015 104.72764 171.62057 316
81.16866 111.92325 171.69963 312
71.06261 120.06911 171.80917 308
34.52096 149.67325 164.96004 396
89.43124 103.89290 171.66338 316
80.52052 111.04597 171.73608 312
70.36318 119.16170 171.79701 308
32.10143 149.80948 164.54332 395
21.66285 158.16862 166.00233 297
88.81620 103.08533 171.63596 316
79.82316 110.16255 171.72302 312
69.67284 118.22461 171.79317 308
29.58564 149.88365 164.10933 394
20.70617 156.91769 166.01999 295
88.18098 102.24403 171.64725 316
79.18687 109.27889 171.70802 312
68.93858 117.25902 171.80284 308
27.03777 149.96767 163.67747 392
19.70172 155.73885 165.98026 295
87.55766 101.43385 171.67516 316
78.52049 108.40462 171.73001 312
68.24664 116.33324 171.79974 308
24.41380 150.07088 163.19524 391
18.72413 154.49202 165.99820 295
86.97625 100.60236 171.67755 316
77.87134 107.51015 171.74550 312
67.56538 115.37132 171.81630 308
23.20508 149.14870 163.12428 296
17.70188 153.24500 165.97389 295
86.33968 99.77834 171.67714 316
77.21880 106.60023 171.74425 312
66.86630 114.38811 171.84482 308
54.96885 123.31484 171.94661 304
16.73013 152.02882 165.98811 295
85.75928 98.92030 171.67206 316
76.57957 105.73125 171.73901 312
66.17139 113.45769 171.84682 308
54.25219 122.27811 171.96686 304
15.77682 150.82877 165.99753 295
85.17915 98.09885 171.67525 316
75.94598 104.81864 171.77939 312
65.49172 112.48563 171.82567 308
53.51135 121.27414 171.94850 304
13.68975 150.41786 165.67256 389
84.55077 97.23410 171.67607 316
75.29826 103.94543 171.78711 312
64.82534 111.52550 171.84058 308
52.80467 120.19753 171.97264 304
10.90340 150.49564 165.24469 388
83.96896 96.38586 171.69774 316
74.71354 102.99992 171.78789 312
64.14489 110.57050 171.86736 308
52.04821 119.14221 171.98524 304
8.09340 150.56604 164.79761 387
83.40817 95.54582 171.69875 316
74.08752 102.11363 171.77795 312
63.48993 109.54757 171.85724 308
51.36274 118.11719 171.97467 304
5.22849 150.65227 164.33377 386
82.83750 94.70142 171.71800 316
73.45030 101.17580 171.77060 312
62.85208 108.58052 171.89731 308
50.63424 117.04509 171.93982 304
2.24865 150.68173 163.81610 384
-10.07839 159.29231 165.57727 290
82.27406 93.83509 171.71840 316
72.87796 100.28569 171.77194 312
62.18771 107.57859 171.86835 308
49.96041 116.01942 171.98337 304
-0.71202 150.78313 163.31342 383
-11.05567 157.88837 165.58112 290
81.70059 92.99320 171.73387 316
72.25156 99.38543 171.80640 312
61.56229 106.60925 171.87788 308
49.29188 114.93010 172.00330 304
-3.77600 150.85281 162.81389 382
-12.04410 156.44571 165.61871 290
81.14902 92.12141 171.71176 316
71.68880 98.41975 171.81122 312
60.91478 105.61668 171.89948 308
48.56471 113.85791 172.00497 304
34.26192 123.44038 172.08801 300
-13.04438 155.03700 165.55385 291
80.59679 91.25479 171.72627 316
71.07248 97.50063 171.78198 312
60.28920 104.62337 171.90927 308
47.88202 112.80461 171.98576 304
33.56307 122.22156 172.10611 300
-13.96817 153.58069 165.55309 291
80.04525 90.36323 171.71053 316
70.50294 96.57690 171.82056 312
59.68391 103.65080 171.89339 308
47.20493 111.70247 171.99095 304
32.81207 121.05219 172.12897 300
-14.98858 152.19688 165.57228 291
79.50190 89.50292 171.73218 316
69.91898 95.63387 171.81616 312
59.05275 102.60511 171.91678 308
46.57965 110.65248 171.98567 304
32.13054 119.89687 172.15527 300
-16.57540 151.16730 165.41727 377
78.93462 88.62804 171.76303 316
69.33994 94.72443 171.81842 312
58.44078 101.64637 171.91820 308
45.91936 109.57185 171.98848 304
31.40788 118.70892 172.10971 300
-19.91879 151.25479 164.90361 376
78.41737 87.75996 171.74669 316
68.75814 93.76102 171.84184 312
57.84492 100.59885 171.93758 308
45.28697 108.43638 172.04512 304
30.70095 117.55346 172.14143 300
-23.39818 151.31783 164.36754 375
77.89552 86.86827 171.77078 316
68.22238 92.82671 171.82153 312
57.24539 99.59554 171.89926 308
44.63772 107.39587 172.04906 304
30.00508 116.35442 172.16893 300
-26.83977 151.44667 163.82594 373
77.36819 85.95843 171.77261 316
67.64407 91.88857 171.84128 312
56.61201 98.59975 171.93095 308
43.99267 106.27193 172.02852 304
29.31201 115.18703 172.17363 300
-30.43063 151.52579 163.26868 372
76.85338 85.07841 171.73434 316
67.13097 90.94733 171.82730 312
56.04943 97.55850 171.92641 308
43.31954 105.16727 172.00528 304
28.65036 114.01822 172.18243 300
11.41001 124.31808 172.27164 296
-47.76380 159.76384 165.02647 288
76.32409 84.20656 171.74052 316
66.54771 89.99416 171.85745 312
55.44456 96.52742 171.91336 308
42.74246 104.05985 172.02666 304
27.94684 112.77105 172.18362 300
10.68678 122.99261 172.28291 296
-48.72395 158.05429 165.08232 288
75.85633 83.32662 171.76050 316
66.00231 89.02543 171.82834 312
54.87780 95.50306 171.92621 308
42.09274 102.98711 172.05458 304
27.29532 111.59761 172.19208 300
9.92453 121.68111 172.27420 296
-49.56261 156.39719 165.08781 288
75.36002 82.40747 171.78938 316
65.46799 88.06346 171.84477 312
54.29087 94.51653 171.92517 308
41.49617 101.83126 172.04919 304
26.61495 110.38181 172.15836 300
9.20990 120.42463 172.29904 296
-50.42900 154.69751 165.09218 288
74.83735 81.50329 171.75238 316
64.95737 87.11467 171.87839 312
53.77120 93.44097 171.95741 308
41.29276 100.49277 172.17369 317
31.75027 105.95407 173.51375 269
8.52577 119.05613 172.30917 296
-51.38247 153.03046 165.10123 288
74.36459 80.61374 171.75938 316
64.43091 86.15104 171.87732 312
53.19138 92.44939 171.96628 308
43.89598 97.61797 172.95624 318
37.94199 100.92602 175.07542 317
23.12372 109.19327 175.52040 269
-53.16466 151.79276 164.92877 374
73.89375 79.68150 171.78690 316
63.92315 85.17943 171.86690 312
52.61584 91.36529 171.97313 308
46.37212 94.84114 173.69308 320
40.61025 98.00975 175.81721 318
34.58064 101.29947 178.02927 316
16.15331 111.42557 178.13290 270
73.40096 78.80698 171.76895 316
63.42000 84.22501 171.85280 312
54.18326 89.18898 172.53476 323
48.81575 92.12946 174.45094 321
43.21613 95.18588 176.52455 320
37.37117 98.29398 178.71075 318
25.34198 104.85619 179.96576 292
72.92216 77.88567 171.80791 316
62.92073 83.22279 171.86295 312
56.37854 86.70599 173.25282 324
51.12423 89.51018 175.15918 322
45.70387 92.41090 177.23018 321
40.03214 95.43085 179.39656 319
24.68410 103.63115 179.99004 292
3.59081 114.97359 180.15140 288
72.44511 76.96545 171.80197 316
62.41205 82.22844 171.89665 312
58.47921 84.30459 173.92313 325
53.38377 86.98795 175.83101 323
48.13025 89.76501 177.88663 322
41.60280 93.19542 179.82214 296
24.12016 102.45900 180.00726 292
2.90779 113.56558 180.15979 288
71.99605 76.06802 171.77921 316
63.13487 80.65927 172.23763 373
60.03114 82.23816 174.48904 383
55.56657 84.55865 176.52208 324
50.45983 87.22994 178.51086 323
41.05709 92.09035 179.83347 296
23.49848 101.21400 180.01839 292
2.20133 112.22127 180.16451 288
71.53541 75.11187 171.79344 316
63.86207 79.04971 172.57263 374
60.74392 80.63705 174.78648 384
57.71825 82.17037 177.14301 326
52.68758 84.76937 179.12601 325
40.51565 90.95502 179.87515 296
1.62831 110.86843 176.06749 293
1.53582 110.89964 180.15775 293
71.08688 74.22346 171.83104 316
64.61368 77.46329 172.91011 375
61.48576 79.02348 175.10103 385
58.50920 80.55547 177.44673 383
54.81096 82.37955 179.74501 300
39.99829 89.86917 179.87807 296
-6.83177 113.38323 174.63744 292
-6.84742 113.44286 178.86046 292
-25.43529 122.76441 180.42429 284
70.63165 73.29426 171.81204 316
65.28712 75.94482 173.24535 376
62.19397 77.46635 175.41568 386
59.24421 78.93431 177.77153 384
54.32150 81.35889 179.76541 300
39.45354 88.75270 179.87987 296
6.04555 105.30168 177.15436 282
-14.44710 115.43291 177.76933 348
-26.13699 121.28258 180.39055 284
70.19787 72.34877 171.83821 316
66.01498 74.40958 173.57581 377
62.88418 75.91894 175.74115 387
59.99481 77.35043 178.03952 385
53.87177 80.34890 179.75383 300
25.06043 94.38900 177.08234 314
13.12057 100.18378 178.52980 283
-18.59369 115.71336 177.16751 346
-26.90094 119.71117 180.39302 284
70.05328 71.28380 171.91524 380
66.67626 72.88678 173.89125 378
63.54665 74.42633 176.02959 388
60.71866 75.75423 178.32840 386
53.38407 79.29771 179.74222 300
27.35591 91.82491 177.66722 331
19.79870 95.46954 179.85530 285
4.81496 102.64719 181.13466 282
-27.53012 118.15504 180.40967 284
70.72591 69.82071 172.24478 381
67.37101 71.41503 174.18073 379
64.24371 72.89503 176.30354 389
61.40438 74.23253 178.59567 387
52.91869 78.26474 179.77367 300
29.39333 89.40490 178.15401 332
22.78572 92.53870 180.52190 314
11.95965 97.64164 182.38695 283
-28.22318 116.64378 180.43190 284
71.37704 68.41238 172.54823 382
68.05878 69.96510 174.52670 380
64.88618 71.44029 176.63110 390
62.13734 72.69414 178.90483 388
52.44170 77.22388 179.74933 300
31.40888 86.99105 178.65236 333
25.27930 89.86536 181.08087 331
17.44790 93.52834 183.38423 313
3.67097 99.91719 185.16119 282
71.99155 67.01907 172.85751 383
68.74435 68.52653 174.81448 380
65.54890 69.93778 176.90985 391
62.81131 71.21664 179.16348 389
52.01524 76.15104 179.74188 300
33.34594 84.73105 179.17563 334
27.34228 87.43295 181.56467 332
20.48153 90.62470 184.02249 314
10.91531 94.95824 186.30098 284
-11.03624 105.07114 187.30299 264
72.63686 65.63773 173.17445 384
69.37926 67.09227 175.10677 381
66.20552 68.49399 177.17149 392
63.50158 69.75416 179.45074 390
51.52417 75.15708 179.77574 300
35.30095 82.48137 179.68275 335
29.44124 85.09299 182.01707 333
23.22332 87.90327 184.50209 330
15.16594 91.53607 186.98589 312
2.66806 97.13283 189.17693 282
73.25775 64.29413 173.46346 385
70.07590 65.67283 175.40398 382
66.88279 67.10620 177.42299 393
64.05575 68.36070 179.68309 304
42.53474 77.86673 177.90062 339
37.13236 80.29848 180.15350 336
31.38570 82.78120 182.49208 334
25.32177 85.47750 184.99117 332
18.23774 88.68287 187.49333 314
9.53756 92.52265 190.10107 311
-11.53351 101.83795 191.60570 264
73.83424 62.91285 173.77220 386
70.68482 64.31785 175.67287 383
67.52339 65.68919 177.70532 394
63.60810 67.37756 179.67685 304
43.51703 76.15711 178.21182 373
38.95359 78.16485 180.59926 337
33.38683 80.58779 182.93404 335
27.43006 83.13103 185.35776 333
21.19539 85.90234 187.99097 330
12.81060 89.53172 190.54794 312
1.76411 94.34179 193.13705 282
74.44193 61.60189 174.07018 387
71.36023 62.92844 175.99554 384
68.12498 64.30082 177.99634 395
63.25005 66.39458 179.69212 304
44.36484 74.46901 178.51305 374
40.24654 76.26624 180.95529 371
35.26204 78.39590 183.33311 336
29.47411 80.89890 185.79276 334
23.34364 83.47206 188.38809 331
15.98981 86.64660 191.05156 313
7.25259 90.41222 193.75359 311
-11.80693 98.55446 195.90771 264
75.03806 60.31076 174.33772 387
71.99380 61.61128 176.27844 385
68.77289 62.94793 178.22227 383
62.84087 65.46132 179.65913 304
45.14672 72.91687 178.75580 385
41.16291 74.54082 181.22377 372
36.96568 76.32505 183.75064 370
31.49533 78.62614 186.17668 335
25.47025 81.17323 188.78282 332
19.01678 83.91573 191.44228 315
10.56140 87.46314 194.21344 312
0.90023 91.57558 197.05983 283
75.38505 59.09475 174.52965 418
72.60603 60.24826 176.52357 386
69.43599 61.54322 178.49689 384
62.42998 64.48082 179.68112 304
45.83727 71.31284 179.00166 386
42.12616 72.86662 181.51756 373
37.94559 74.61073 184.00163 371
33.39993 76.49380 186.57692 336
27.55767 78.92796 189.13307 334
21.39941 81.44724 191.84892 331
13.79834 84.62203 194.57652 313
4.91287 88.28896 197.47055 311
-11.92244 95.27684 200.10487 264
75.65316 57.94565 174.70645 419
73.09026 58.98212 176.77504 416
70.12037 60.20489 178.77115 385
62.06171 63.50945 179.68579 304
46.55516 69.77665 179.26082 387
42.93911 71.25346 181.73770 385
38.89722 72.91029 184.25879 371
34.57409 74.66800 186.85152 369
29.62258 76.67365 189.46675 335
23.54731 79.13041 192.13438 332
16.86022 81.88297 194.96088 314
8.27818 85.34109 197.80672 312
-1.04629 89.14913 200.95547 309
75.90016 56.81947 174.89890 419
73.37693 57.83827 176.93451 417
70.76419 58.87171 179.01442 415
61.68526 62.51216 179.67789 304
47.28578 68.28669 179.53793 388
43.70920 69.67953 181.96812 386
39.82975 71.25441 184.52051 372
35.58040 72.92747 187.05449 370
31.14375 74.69289 189.76562 367
25.65466 76.92274 192.50232 333
19.39442 79.38564 195.28139 331
11.55238 82.56259 198.15939 313
2.55077 86.17542 201.26634 310
76.17232 55.69667 175.10303 420
73.65960 56.66387 177.11377 418
71.06866 57.68275 179.20383 416
61.31892 61.51085 179.68698 304
47.95603 66.78813 179.74651 389
44.40176 68.13532 182.22752 387
40.76239 69.58261 184.73486 384
36.57121 71.26643 187.32806 371
32.20594 72.96114 190.01152 368
27.63307 74.74614 192.76888 366
21.63607 77.08996 195.56813 332
14.73061 79.80613 198.51524 314
6.02413 83.23613 201.53639 311
-3.46536 86.92646 204.82436 309
76.45547 54.54473 175.27878 421
73.92755 55.53639 177.27112 419
71.35828 56.52786 179.33588 416
60.95978 60.56770 179.69347 304
48.64138 65.29631 179.98886 390
45.15239 66.65691 182.40208 387
41.53995 68.02329 184.94824 385
37.51585 69.58191 187.50893 372
33.21159 71.25169 190.20113 369
28.74097 72.98331 192.98805 367
23.81069 74.87707 195.84508 333
17.46961 77.29821 198.78722 331
9.35429 80.40924 201.76062 313
0.23485 83.94069 205.05019 310
76.71097 53.46637 175.45224 422
74.19711 54.38617 177.43697 419
71.66543 55.38842 179.51942 417
52.69637 62.57139 177.88206 393
49.34851 63.81923 180.23871 391
45.88691 65.15043 182.65233 388
42.25376 66.50207 185.14635 386
38.49097 67.93403 187.73729 373
34.22456 69.53193 190.41920 370
29.79425 71.18735 193.13654 368
25.18929 72.97010 196.02254 365
19.73519 75.05747 199.00955 332
12.58085 77.75424 202.01663 314
3.76505 81.07059 205.20668 311
76.98962 52.33889 175.58963 422
74.49409 53.26472 177.61577 420
71.67034 54.31474 179.62056 308
53.36693 61.13117 178.08849 394
50.00756 62.35057 180.45503 392
46.58589 63.62779 182.87436 389
43.00367 64.94254 185.37976 387
39.33486 66.34836 187.95856 384
35.26070 67.83357 190.58513 371
30.86294 69.50187 193.34236 369
26.31272 71.21178 196.21573 366
21.50080 72.97407 199.22456 363
15.52521 75.17477 202.26910 330
7.12858 78.26808 205.44672 312
77.23689 51.25485 175.77440 423
74.79988 52.14133 177.79128 421
71.33006 53.40668 179.58817 308
53.97546 59.72557 178.35016 395
50.66590 60.93830 180.67909 392
47.27993 62.19751 183.05167 390
43.78672 63.44704 185.57819 388
40.14310 64.77912 188.15178 385
36.25132 66.22205 190.79248 372
31.89969 67.80785 193.50116 369
27.39562 69.41527 196.34747 367
22.70309 71.16624 199.34404 364
17.73505 72.94189 202.46782 362
10.47488 75.62587 205.62326 313
77.50382 50.15511 175.95963 424
75.04926 51.02385 177.92087 421
71.03337 52.47367 179.61209 308
54.62166 58.36242 178.59247 396
51.34671 59.52654 180.89215 393
47.99987 60.73554 183.26065 391
44.52165 61.97102 185.76433 389
40.89605 63.28535 188.33028 386
37.15982 64.62389 190.95706 384
32.93605 66.11398 193.72141 370
28.46849 67.67793 196.50897 368
23.81707 69.37054 199.50150 365
18.95506 71.13277 202.59236 362
13.52677 73.06450 205.82245 330
77.77834 49.07945 176.08264 424
75.35255 49.92596 178.08618 422
70.68291 51.55806 179.60686 308
55.23378 57.00370 178.80782 397
51.98314 58.10877 181.08574 394
48.64471 59.27606 183.48055 392
45.23734 60.50398 185.97719 389
41.64114 61.77017 188.51674 387
37.97516 63.07571 191.17393 385
33.92805 64.44890 193.88518 371
29.57391 65.99226 196.68590 369
24.97487 67.62361 199.61909 366
20.17525 69.29591 202.69815 363
15.09938 71.08251 205.89882 361
78.05966 47.99187 176.25499 425
75.60274 48.83710 178.23257 423
70.37381 50.63314 179.60759 308
55.83443 55.65087 179.03421 410
52.66044 56.76885 181.31435 395
49.37267 57.88468 183.68312 393
45.95864 59.03693 186.16951 390
42.41832 60.24383 188.70895 388
38.74313 61.54066 191.31651 385
34.95430 62.83712 194.05984 372
30.59244 64.31069 196.85106 370
26.09447 65.90253 199.72751 367
21.34012 67.53979 202.83562 364
16.37351 69.20088 205.99397 362
78.30743 46.93930 176.44289 426
75.90050 47.76612 178.40005 424
70.07240 49.70771 179.60532 308
56.27089 54.38570 179.18378 411
53.29962 55.37497 181.54018 396
50.02395 56.48768 183.89020 394
46.62363 57.61477 186.35359 391
43.12481 58.80563 188.87817 389
39.55314 60.02956 191.46129 386
35.77756 61.27773 194.19029 384
31.67749 62.68122 196.96494 371
27.19972 64.20647 199.88799 368
22.48242 65.74385 202.89450 365
17.60598 67.42873 206.06636 363
78.55524 45.89167 176.56049 426
76.16455 46.69120 178.57416 424
69.80334 48.77828 179.61595 308
56.71552 53.10836 179.39716 412
53.76488 54.09014 181.68425 409
50.68544 55.10703 184.08218 394
47.36743 56.20459 186.52293 392
43.90443 57.35212 189.03651 390
40.31785 58.51009 191.64778 387
36.58359 59.74037 194.32474 385
32.68110 61.03791 197.12141 371
28.24381 62.51224 199.98792 369
23.63592 64.03482 203.02596 366
18.82375 65.62936 206.19080 363
