# .PCD v.7 - Point Cloud Data file format
VERSION .7
FIELDS x y z rgb
SIZE 4 4 4 4
TYPE F F F U
COUNT 1 1 1 1
WIDTH 1425
HEIGHT 1
VIEWPOINT 6490.739746 -511.192963 145.708466 -0.625947 -0.099291 -0.088605 0.768427
POINTS 1425
DATA ascii
-247.07765 835.34125 90.53532 393
-244.14221 830.24481 107.01659 449
-245.67094 832.74091 122.53494 451
-249.26959 839.23016 137.62831 399
-262.95932 851.63428 71.31944 383
-254.38661 836.62268 89.96401 392
-250.71341 830.21344 106.70234 281
-252.70924 833.73987 122.06143 450
-349.03668 1003.24292 122.04476 495
-270.89807 853.42908 70.36851 382
-262.05124 838.03015 89.15767 388
-256.24814 828.23560 106.52666 450
-260.03174 834.45642 121.61208 450
-354.63947 999.39270 122.06512 495
-279.03403 855.74475 69.58389 371
-269.83783 839.70013 88.58748 388
-263.58917 829.03931 106.15179 449
-267.38684 835.58173 121.33669 445
-360.70953 995.66339 122.09041 495
-287.52917 858.09534 68.68906 370
-277.62866 841.51947 87.67796 382
-270.67944 829.47784 105.78899 408
-274.82581 836.65430 120.77104 438
-366.25931 991.27545 122.16325 494
-296.10880 860.41699 67.55231 369
-285.85828 843.40112 87.15865 382
-277.91055 830.23096 105.08267 438
-282.61526 838.04669 120.41389 439
-371.85449 987.16449 122.20034 495
-304.46561 862.88141 66.63004 371
-294.09589 845.37042 86.11909 381
-285.57837 831.56378 104.50834 437
-290.21698 839.39111 119.72548 438
-302.41574 859.06287 133.97229 273
-313.36938 865.44702 65.71566 365
-302.37018 847.73651 85.38848 380
-293.38745 832.71851 103.88422 436
-298.17819 840.90338 119.26449 428
-308.08746 856.92822 133.93269 273
127.53721 148.33958 169.41750 485
-322.63254 868.36346 64.65988 367
-311.11935 849.86536 84.47723 375
-301.11606 834.22998 103.29003 429
-306.31012 842.57697 118.65230 430
-313.96454 854.42340 133.86620 273
-331.64825 871.05389 63.57585 366
-320.09769 852.59546 83.49866 374
-309.25290 835.98450 102.57121 428
-314.54941 844.07971 118.15620 429
-319.57767 852.16626 133.80769 273
124.75587 148.91293 168.86679 489
-328.93536 855.38702 82.59576 373
-318.09152 838.20404 101.82149 347
-323.06714 845.79510 117.39398 428
-327.28354 852.60779 133.49718 381
123.26400 149.23647 168.57939 278
-338.65503 858.67719 81.55291 363
-326.76599 840.46466 101.10881 413
-331.83441 848.37170 116.79153 411
-336.36548 855.08618 132.86285 380
-348.36441 862.24353 80.42741 356
-336.35806 844.03918 100.09770 338
-340.66467 850.70563 116.03932 410
-345.39902 857.60773 132.28300 366
120.72906 149.28290 168.13129 489
-358.84747 866.34399 79.28622 352
-346.69064 848.31396 99.19975 364
-350.00162 853.16656 115.47167 402
-354.71075 860.48694 131.81058 366
118.29877 150.98454 167.43701 316
-369.61362 871.00879 78.02838 352
-356.82953 851.97559 98.21616 358
-359.42422 856.07452 114.60559 400
-364.52057 863.42102 131.16998 383
117.44285 150.32535 167.42868 316
-380.76270 875.82526 76.67385 351
-367.18549 856.29669 96.93414 357
-369.22845 859.01050 113.95303 399
-374.49261 866.67322 130.45030 382
116.60124 149.67415 167.41669 316
-391.80368 880.47302 75.14841 350
-377.84045 860.51703 95.78519 356
-379.05054 862.00525 113.04819 400
-384.48318 870.02893 129.62062 380
115.74184 148.98331 167.42310 316
-402.91855 884.79156 73.91672 362
-388.99261 864.96747 94.62473 355
-388.67691 864.90686 112.24561 398
-395.02942 873.79327 128.78275 374
114.87133 148.30894 167.40906 316
-413.80713 888.75861 72.82324 361
-400.02087 869.56464 93.63705 354
-398.59869 867.79517 111.51949 397
-405.68829 877.39874 128.04012 382
111.76132 150.79874 166.38066 314
-411.55795 874.23407 92.26740 353
-408.77725 870.51971 110.59825 396
-416.65414 881.27081 127.35452 381
110.88147 150.12206 166.38594 314
-423.20807 879.09302 91.31280 352
-419.30774 873.81897 109.90243 386
-428.01462 885.77631 126.48740 362
110.02023 149.43709 166.41725 314
-435.02722 884.00934 89.95920 352
-429.83914 877.17169 108.96485 388
-440.08499 890.80005 125.67780 361
109.16138 148.78664 166.41034 314
-447.31906 889.32391 88.53788 351
-440.84497 880.63495 107.95523 372
-451.75037 895.13336 124.61176 364
108.30719 148.08549 166.36960 314
-459.65704 893.98627 87.11765 354
-452.62650 884.66180 107.09016 374
-464.58447 900.74463 123.80022 353
107.43776 147.36438 166.38824 314
-472.53409 899.49200 85.94398 353
-462.58978 886.66901 106.23602 277
-476.70914 905.03265 122.75517 352
106.59553 146.69791 166.37389 314
-473.46899 889.47827 105.33883 350
105.40878 146.42302 166.23328 423
97.66837 156.24908 166.37766 310
-486.32404 894.83820 104.02986 366
103.87471 146.56999 165.92906 422
96.73293 155.47845 166.39688 310
-499.95029 900.81543 102.96666 365
102.30801 146.71237 165.65202 421
95.82994 154.69611 166.39755 309
100.72440 146.89691 165.33603 420
94.94770 153.94150 166.39713 309
99.11023 147.07425 165.01276 419
94.07829 153.15904 166.39328 309
97.53528 147.20576 164.71301 418
93.18192 152.40991 166.38565 309
95.94073 147.32080 164.38997 427
92.24918 151.60837 166.34865 309
94.32496 147.35545 164.08691 426
91.40276 150.81297 166.36993 309
92.77396 147.43698 163.79897 425
90.50901 150.01117 166.38249 309
91.12980 147.48689 163.45549 424
89.65621 149.20261 166.34486 309
90.16867 146.89200 163.43420 307
88.76604 148.40033 166.36227 309
-1827.31885 2288.03003 65.50983 499
-1827.86304 2288.20239 116.10709 499
-1828.71960 2288.99194 166.20467 487
-1828.50098 2289.63721 217.25117 487
-1829.90698 2290.47656 266.90076 452
89.38715 145.97183 163.44962 307
87.85399 147.65657 166.32002 423
88.60210 145.08804 163.45685 307
86.19131 147.72673 166.05574 422
87.86024 144.18594 163.50540 307
84.50112 147.74135 165.73659 421
75.92174 157.05276 166.29903 305
87.09884 143.25990 163.53780 307
82.82518 147.83591 165.39319 420
74.96343 156.13109 166.26591 305
86.35694 142.33977 163.53758 307
81.09333 147.89929 165.06105 419
74.08734 155.21072 166.29140 305
85.65884 141.38066 163.60211 307
79.31217 147.98466 164.74670 417
73.19582 154.29225 166.25609 305
105.45846 119.42612 171.49568 316
77.50955 148.02835 164.43991 416
72.28765 153.43387 166.27873 305
104.80106 118.68545 171.53807 316
75.75355 148.09303 164.09595 415
71.40898 152.50610 166.29997 305
104.13697 117.94264 171.50296 316
73.91227 148.16852 163.75621 414
70.48771 151.55278 166.25687 305
103.52821 117.18044 171.52776 316
72.03353 148.25922 163.37230 413
69.63960 150.66243 166.27769 305
102.85255 116.43019 171.51216 316
71.04147 147.48866 163.35710 303
68.73489 149.72684 166.26918 305
102.19781 115.67915 171.52701 316
70.25449 146.45680 163.34526 303
67.85294 148.76773 166.26395 305
101.57989 114.93759 171.56049 316
69.57323 145.39053 163.42177 304
66.30143 148.47032 166.05515 410
100.93537 114.14378 171.55318 316
68.83521 144.34653 163.45692 304
64.37103 148.52757 165.68306 409
100.33844 113.40831 171.53479 316
68.08137 143.31717 163.49382 304
62.35315 148.65295 165.34166 408
52.44053 157.81261 166.13872 301
99.66883 112.63980 171.53943 316
91.30296 120.34006 171.65166 312
60.35549 148.73608 164.94380 407
51.52845 156.77492 166.14438 301
99.07927 111.86356 171.56609 316
90.60957 119.51130 171.61876 312
58.31726 148.81023 164.55927 406
50.63464 155.76141 166.17813 301
98.44400 111.06469 171.58215 316
89.96585 118.66646 171.63132 312
56.22441 148.84230 164.20323 405
49.75236 154.67244 166.18938 301
97.84037 110.27707 171.56857 316
89.32372 117.84193 171.65276 312
54.13762 148.96263 163.78061 404
48.85637 153.56334 166.14377 301
97.25271 109.49612 171.59001 316
88.67406 117.01207 171.66080 312
51.97222 149.00467 163.42484 402
47.98757 152.49474 166.19783 301
96.63637 108.70147 171.59077 316
88.00736 116.14954 171.65479 312
50.53883 148.42209 163.22443 300
47.10970 151.48314 166.18347 301
96.05464 107.94567 171.61513 316
87.37520 115.32722 171.67963 312
49.84906 147.29660 163.30421 300
46.19004 150.33762 166.19089 301
95.47231 107.14123 171.60376 316
86.73942 114.47695 171.66295 312
49.13721 146.07870 163.29646 300
45.30532 149.28166 166.17294 301
94.87467 106.30238 171.62695 316
86.12369 113.59586 171.66853 312
76.16166 121.89658 171.75574 308
43.02806 149.39761 165.77582 398
94.27283 105.53520 171.62836 316
85.49358 112.73833 171.69388 312
75.49109 120.94688 171.77469 308
40.70443 149.45671 165.35008 397
93.73562 104.71790 171.61275 316
84.88548 111.85906 171.67575 312
74.83904 120.03870 171.78139 308
38.34870 149.57556 164.94107 396
26.77726 158.94670 166.01805 297
93.16209 103.91990 171.63957 316
84.27728 111.03021 171.67513 312
74.14538 119.06451 171.75580 308
35.98590 149.65218 164.50719 395
25.87508 157.69589 166.07368 297
92.57121 103.07310 171.64066 316
83.67193 110.15131 171.71820 312
73.50129 118.12482 171.77850 308
33.49556 149.72374 164.07040 393
24.93381 156.50313 166.01555 297
92.02824 102.27856 171.62680 316
83.07320 109.23984 171.71611 312
72.84799 117.22886 171.78442 308
30.99735 149.83698 163.63423 392
24.03565 155.24133 166.01419 297
91.45052 101.42194 171.64642 316
82.44308 108.38083 171.68617 312
72.21696 116.27984 171.78818 308
28.51826 149.92325 163.14865 391
23.17530 154.05461 166.05695 297
90.90555 100.60330 171.62044 316
81.88557 107.50500 171.69656 312
71.58495 115.30858 171.77620 308
27.55596 148.77336 163.12378 296
22.26369 152.81781 166.07774 297
90.36417 99.80859 171.64999 316
81.30022 106.60279 171.69997 312
70.94006 114.35543 171.80353 308
59.11814 123.26152 171.92491 304
21.43578 151.53249 166.07704 297
89.81806 98.95393 171.62817 316
80.67880 105.73427 171.72270 312
70.33986 113.43176 171.78410 308
58.45661 122.19544 171.89200 304
20.54055 150.30034 166.01273 295
89.31200 98.09569 171.62845 316
80.14165 104.83399 171.72366 312
69.70001 112.46243 171.79988 308
57.80158 121.16851 171.92738 304
17.99301 150.34091 165.62260 389
88.76066 97.27295 171.66826 316
79.53407 103.92064 171.73460 312
69.07133 111.49465 171.81422 308
57.11841 120.12277 171.89389 304
15.25267 150.34435 165.15042 388
88.23567 96.45071 171.67369 316
78.99828 103.04906 171.71365 312
68.50283 110.52908 171.83331 308
56.44180 119.12563 171.93973 304
12.49322 150.47740 164.71559 387
87.72675 95.56741 171.67020 316
78.42239 102.11503 171.72472 312
67.88602 109.53439 171.84830 308
55.79688 118.05934 171.91434 304
9.71806 150.50923 164.20741 386
-2200.82495 1706.32349 71.07251 493
-2200.03882 1706.50916 119.42286 493
-2199.22437 1705.55627 168.17720 494
-2198.58057 1704.85437 216.91054 494
-2197.28149 1704.45422 265.18823 494
87.18185 94.70544 171.69038 316
77.86715 101.18899 171.76147 312
67.26518 108.57631 171.85100 308
55.12647 117.01463 171.91194 304
6.81784 150.59872 163.72980 384
-4.88296 158.71245 165.69089 290
-6817.61865 4892.51660 -769.32349 1000
86.70648 93.89571 171.65471 316
77.30343 100.30096 171.73946 312
66.72424 107.58376 171.86411 308
54.48988 115.95430 171.95847 304
3.87843 150.64868 163.21382 383
-5.76556 157.26753 165.69511 290
86.17947 93.03436 171.68802 316
76.79575 99.36605 171.73225 312
66.09991 106.62064 171.86584 308
53.87201 114.89079 171.95128 304
1.27815 150.47752 162.81187 285
-6.63711 155.83063 165.63170 291
85.67741 92.14322 171.66893 316
76.26524 98.44208 171.76904 312
65.50741 105.63642 171.82657 308
53.28026 113.79289 171.96355 304
39.01639 123.33892 172.04016 300
-7.61679 154.46826 165.63885 291
85.18505 91.31930 171.69624 316
75.71379 97.56175 171.74350 312
64.99551 104.61673 171.85519 308
52.62628 112.72457 171.96800 304
38.38096 122.14249 172.07109 300
-8.51469 153.06306 165.63142 291
84.70614 90.41418 171.69513 316
75.20766 96.60625 171.78699 312
64.41701 103.63039 171.85719 308
51.99853 111.69170 171.94992 304
37.70314 121.00391 172.05905 300
-9.43097 151.65265 165.61818 291
84.21290 89.57483 171.68652 316
74.65777 95.66431 171.76541 312
63.85637 102.63688 171.88284 308
51.44494 110.61794 171.94855 304
37.03212 119.79404 172.08087 300
-11.59786 151.03050 165.35458 377
83.72959 88.67732 171.68504 316
74.16920 94.74349 171.75908 312
63.27364 101.62746 171.84488 308
50.82055 109.50346 171.95894 304
36.36678 118.64223 172.09074 300
-14.87287 151.15575 164.83058 376
83.26301 87.80869 171.70110 316
73.67307 93.82960 171.76556 312
62.74225 100.61794 171.85799 308
50.23139 108.42874 171.99530 304
35.76315 117.51157 172.09573 300
-18.25576 151.23996 164.28015 375
82.81831 86.93872 171.72644 316
73.14583 92.86866 171.78954 312
62.18118 99.61575 171.86113 308
49.64538 107.32899 171.95396 304
35.13312 116.32246 172.11891 300
-21.72885 151.28635 163.75192 373
82.34975 86.06113 171.73473 316
72.64493 91.90359 171.81610 312
61.68325 98.59528 171.86386 308
49.03520 106.27363 171.96974 304
34.49547 115.14459 172.08434 300
-25.22431 151.41405 163.16031 372
-40.69229 160.76163 165.13921 286
81.85548 85.14268 171.70808 316
72.15957 90.97448 171.77525 312
61.12606 97.59821 171.86986 308
48.50357 105.14130 171.99438 304
33.85501 113.93803 172.12021 300
16.70743 124.19613 172.27185 296
-41.57339 159.07976 165.18280 286
81.44552 84.25955 171.72824 316
71.67905 90.06001 171.79251 312
60.62224 96.55637 171.90286 308
47.94314 104.08626 171.99954 304
33.24980 112.74749 172.10452 300
16.05301 122.89275 172.28529 296
-42.50075 157.44766 165.14615 286
80.96312 83.36416 171.71364 316
71.18536 89.10508 171.82977 312
60.07598 95.54662 171.91467 308
47.38390 102.95554 172.00902 304
32.61866 111.52309 172.09680 300
15.35561 121.62435 172.28720 296
-43.33599 155.77846 165.13409 286
80.54132 82.47141 171.71809 316
70.73009 88.12624 171.81453 312
59.55508 94.52290 171.88203 308
46.80870 101.83493 171.98489 304
31.99704 110.34910 172.10559 300
14.70057 120.29248 172.25673 296
-44.26197 154.15717 165.16104 286
80.09766 81.58424 171.72754 316
70.24354 87.15533 171.81465 312
59.08099 93.49906 171.89992 308
46.27161 100.77637 172.01292 304
31.43120 109.17633 172.15080 300
14.01793 118.96140 172.28024 296
-45.10524 152.48071 165.16663 286
79.65568 80.69135 171.73994 316
69.79243 86.18667 171.79582 312
58.58479 92.48731 171.91548 308
45.71736 99.63869 172.01089 304
30.85740 107.94408 172.12349 300
13.43081 117.66589 172.28796 296
-47.95702 151.89618 164.79727 374
79.24017 79.78765 171.73511 316
69.32067 85.25279 171.81776 312
58.06215 91.40323 171.89719 308
45.17923 98.53632 172.00880 304
36.59419 103.24569 173.56636 272
17.15498 113.94501 173.17957 270
-51.70774 151.84557 164.21544 373
78.80902 78.88678 171.72096 316
68.90754 84.27184 171.84920 312
57.62402 90.39397 171.91690 308
45.30836 97.03836 172.15916 321
39.40244 100.27515 174.34506 320
28.73073 106.04504 175.74786 271
9.97116 116.22829 175.95323 271
78.40943 77.97278 171.74568 316
68.43774 83.29672 171.83847 312
57.13707 89.33572 171.92346 308
47.75963 94.39349 172.91701 322
41.98389 97.41209 175.04837 321
36.06636 100.60896 177.33168 319
21.61151 108.29888 178.24921 273
77.98540 77.04899 171.76883 316
68.01813 82.34227 171.85289 312
56.62309 88.31668 171.92181 308
50.06226 91.76031 173.59215 323
44.48741 94.71285 175.70523 322
38.74472 97.74113 178.00146 320
29.90121 102.39799 179.93318 292
8.81437 113.46890 180.14734 288
77.58372 76.14059 171.74274 316
67.58144 81.37243 171.85326 312
57.54448 86.55776 172.26495 327
52.34483 89.26561 174.25378 325
46.91889 92.07734 176.37141 324
41.35147 94.94061 178.67412 322
29.36187 101.16103 179.96404 292
8.20612 112.09418 180.08472 288
77.18005 75.23363 171.75186 316
67.11993 80.39840 171.84143 312
59.57378 84.22646 172.95074 328
54.53699 86.83642 174.91949 326
49.23616 89.52042 177.04166 325
43.82189 92.25925 179.29208 323
28.85877 99.96863 179.93610 292
7.61050 110.76492 180.12003 288
76.80746 74.30388 171.77983 316
66.69840 79.37663 171.84102 312
60.91348 82.33942 173.41631 385
56.67434 84.42666 175.56012 327
51.53543 87.04357 177.63921 325
45.89502 89.87713 179.82597 296
28.30825 98.73895 179.95694 292
7.05896 109.45322 180.10590 288
76.41689 73.40436 171.75395 316
66.29044 78.43581 171.85458 312
61.62601 80.73619 173.73433 386
58.63178 82.23884 176.15590 384
53.73807 84.63210 178.21899 326
45.43153 88.77176 179.82317 296
27.78773 97.49448 179.95259 292
-0.47666 111.52460 179.00891 290
-19.84936 121.09637 180.34735 284
76.02092 72.48557 171.75438 316
65.89532 77.42249 171.85098 312
62.34918 79.14796 174.04306 387
59.38364 80.61994 176.42686 385
55.85232 82.29778 178.82175 327
44.94610 87.63869 179.79297 296
3.94107 107.61401 175.65207 283
-9.63516 114.27579 177.58739 289
-20.47057 119.55139 180.39038 284
75.63867 71.56361 171.78128 316
66.52353 75.91422 172.16530 378
63.05473 77.58221 174.31764 388
60.11847 79.01823 176.71890 386
57.03138 80.47342 179.14885 384
44.49161 86.50500 179.81999 296
11.00651 102.59512 177.09605 285
-15.91517 115.53601 176.68155 345
-21.16551 118.04148 180.32997 284
75.26762 70.63316 171.78368 316
67.23573 74.39983 172.43469 379
63.76411 76.06699 174.57646 389
60.84830 77.47131 177.00661 387
57.81992 78.86095 179.41885 385
44.05528 85.39419 179.81026 296
17.51033 97.91396 178.36546 286
2.50344 105.04514 179.75583 284
-21.74647 116.50037 180.38557 284
74.93632 69.70448 171.80002 316
67.97500 72.92330 172.74426 380
64.44532 74.57703 174.87680 390
61.58470 75.88647 177.26488 388
58.56026 77.31045 179.70410 386
43.62432 84.26707 179.84515 296
22.11928 94.25165 179.30640 315
9.57741 100.09755 181.00436 285
-24.61219 115.99432 180.04599 342
74.55933 68.74962 171.79543 316
68.64991 71.48569 173.08316 381
65.13587 73.06368 175.17760 391
62.25328 74.38105 177.50533 389
58.21479 76.22219 179.71039 300
31.12773 88.62847 177.43974 334
24.87859 91.47540 179.90784 332
16.17647 95.47829 182.20691 286
1.21181 102.35432 183.85628 284
74.20745 67.82494 171.77589 316
69.33047 70.00002 173.35999 382
65.85363 71.57066 175.46220 379
62.97924 72.88765 177.79021 390
57.82483 75.20428 179.70694 300
33.08138 86.35245 177.89957 335
26.99285 89.08652 180.38306 333
19.74246 92.34473 182.85896 315
8.31720 97.49529 185.00264 285
73.86664 66.85598 171.78117 316
69.98993 68.60065 173.66331 382
66.60281 70.12116 175.70575 380
63.68387 71.39089 178.02901 391
57.45087 74.16292 179.73941 300
35.04368 84.10107 178.39180 336
29.05980 86.73272 180.86717 334
22.66378 89.54820 183.43391 316
14.24139 93.30492 185.90256 314
-0.09774 99.63851 187.94963 284
73.94039 65.74915 171.93420 386
70.69645 67.18398 173.93900 383
67.29887 68.65466 176.01054 381
64.39294 69.93123 178.31190 392
57.04904 73.12935 179.70851 300
36.93236 81.87885 178.87291 338
31.07687 84.43210 181.26025 335
24.90386 87.15015 183.83318 333
17.34493 90.41229 186.42148 315
7.08288 94.90288 188.95284 285
74.59351 64.40388 172.19086 387
71.32690 65.76558 174.21024 384
67.99952 67.19413 176.26527 382
65.06754 68.48333 178.53424 393
56.64601 72.06645 179.73856 300
38.74979 79.75580 179.32753 339
33.05302 82.20863 181.71091 336
26.99591 84.76884 184.25999 334
20.33224 87.65729 186.91203 316
11.87259 91.25603 189.57986 313
-1.27250 96.88790 192.06642 284
75.21174 63.06781 172.46425 388
72.02974 64.40630 174.48624 385
68.69485 65.80146 176.53474 383
65.75439 67.05527 178.79472 394
56.30714 71.01122 179.71729 300
40.53036 77.66398 179.74797 340
34.95149 80.00410 182.14632 337
29.04390 82.50243 184.68069 335
22.81718 85.10985 187.37872 333
14.97284 88.43027 190.04196 315
5.97696 92.20909 192.88866 285
-18.45461 102.48775 194.64536 265
75.82968 61.71652 172.76353 388
72.65994 63.05385 174.72224 386
69.39874 64.42962 176.78941 384
66.39544 65.64274 179.02797 395
55.95921 69.95940 179.75533 300
41.58942 75.92316 180.05219 373
36.82672 77.87297 182.55078 338
31.03047 80.28022 185.05458 336
24.95332 82.80769 187.73438 334
18.04373 85.64823 190.51028 316
9.45849 89.24835 193.27597 313
-2.35164 94.10023 196.13635 284
76.42666 60.43008 173.04315 389
73.28454 61.70338 175.02353 387
70.04987 63.03248 177.06966 385
67.09480 64.22543 179.26495 396
55.60942 68.91126 179.75821 300
42.48856 74.23820 180.31219 374
38.20782 75.95100 182.86627 372
32.97626 78.10120 185.47382 337
27.01651 80.55540 188.08582 335
20.72287 83.07511 190.91367 332
12.69283 86.36690 193.67749 314
3.62606 90.04877 196.70915 312
-19.15562 99.29781 199.07817 265
76.71305 59.27032 173.19919 419
73.93535 60.38205 175.28427 388
70.74314 61.69156 177.30489 386
67.71058 62.89019 179.50934 397
47.11064 71.07348 177.98189 388
43.44520 72.56938 180.52875 386
39.18383 74.26809 183.14555 372
34.81560 76.05846 185.82866 370
29.10902 78.31759 188.44247 336
22.90794 80.79664 191.19116 333
15.73875 83.65228 194.08228 315
7.01180 87.11517 197.06079 313
-3.44268 91.31527 200.17488 284
77.01591 58.11097 173.38753 420
74.36523 59.13050 175.47972 418
71.40827 60.30803 177.54788 387
68.01563 61.64852 179.63684 304
47.85214 69.58770 178.23541 389
44.16215 70.99128 180.77777 387
40.17891 72.58977 183.39175 373
35.78859 74.30255 186.03856 371
31.08606 76.18575 188.80603 337
25.06219 78.54330 191.55022 335
18.67189 81.05103 194.46426 332
10.31874 84.33727 197.40411 314
1.15315 87.89038 200.53372 312
-2588.23364 1104.67566 265.67523 431
77.31019 56.97408 173.52252 421
74.69476 58.00024 175.62448 419
72.01559 59.00661 177.78442 416
67.70698 60.66908 179.64812 304
48.56127 68.05077 178.46770 390
44.92638 69.43806 180.99077 387
41.12828 70.91481 183.57790 374
36.81288 72.61166 186.26724 372
32.34459 74.29037 189.00786 369
27.12135 76.30621 191.81435 336
20.88958 78.74148 194.70010 333
13.52748 81.54908 197.73427 315
4.64022 85.01165 200.86763 313
-5.01641 88.71606 204.21671 310
77.56937 55.81490 173.69957 422
75.00317 56.84496 175.80838 419
72.32511 57.83795 177.95509 417
67.41035 59.69895 179.64359 304
49.27839 66.55406 178.68582 391
45.64624 67.89928 181.18544 388
41.96123 69.32639 183.81732 386
37.78841 70.86799 186.46901 373
33.38182 72.55595 189.20619 370
28.77319 74.32162 192.07013 368
23.05915 76.45683 195.01892 334
16.54294 78.95406 197.98949 316
7.94529 82.21242 201.12352 314
-1.32881 85.72324 204.47073 311
77.86517 54.69707 173.87030 422
75.26051 55.67382 175.94563 420
72.62860 56.63487 178.10678 418
67.08062 58.71673 179.65361 304
49.97247 65.07560 178.93658 392
46.41669 66.41151 181.42050 389
42.71111 67.76739 184.01578 387
38.76206 69.20415 186.70740 374
34.39621 70.83833 189.40601 371
29.83868 72.52029 192.26178 369
25.12349 74.34651 195.24409 366
18.83651 76.64162 198.24779 333
11.23451 79.49765 201.35649 315
2.21330 82.80222 204.66432 312
78.14256 53.60823 174.02852 423
75.56642 54.54495 176.09233 421
72.92675 55.48123 178.24370 419
66.78546 57.70378 179.61980 304
50.67774 63.60219 179.15804 393
47.12737 64.89707 181.62381 390
43.47701 66.24120 184.20406 388
39.71782 67.60428 186.88318 385
35.43446 69.19398 189.61832 372
30.95619 70.80504 192.45372 369
26.23046 72.51925 195.38020 367
21.08962 74.37775 198.46542 334
14.31599 76.86942 201.58197 316
5.59709 80.04707 204.87317 313
78.42773 52.47710 174.18723 424
75.89013 53.40363 176.27042 422
73.25217 54.34160 178.38583 419
66.51550 56.72708 179.64603 304
51.34370 62.15082 179.37225 393
47.85744 63.41964 181.84100 391
44.22721 64.69009 184.38173 389
40.50737 66.06117 187.08868 386
36.44154 67.51319 189.81375 373
31.97004 69.10522 192.63893 370
27.37818 70.76740 195.56366 368
22.53469 72.49757 198.62727 365
16.85669 74.52106 201.81210 333
8.95202 77.32520 205.05206 315
78.71587 51.36662 174.33875 424
76.17063 52.28012 176.38525 422
73.57975 53.16388 178.54239 420
66.25342 55.75932 179.62903 304
52.04045 60.73016 179.53323 394
48.54602 61.94908 182.02397 392
44.99659 63.20168 184.59297 389
41.26319 64.48774 187.22978 387
37.44119 65.85113 190.01210 374
33.04699 67.38245 192.78387 371
28.48915 68.97610 195.69490 369
23.68119 70.65257 198.75688 366
18.72078 72.41537 201.96355 363
12.11222 74.72578 205.24036 316
79.00176 50.25750 174.51193 427
76.48062 51.13079 176.55206 423
73.90550 52.02104 178.69507 421
65.97487 54.74281 179.64673 304
52.71669 59.33020 179.77620 395
49.28997 60.49958 182.22754 393
45.69696 61.70663 184.76300 390
42.04776 62.95634 187.39420 388
38.22203 64.27620 190.13411 385
34.07905 65.73145 192.95795 372
29.56892 67.27357 195.88698 370
24.82158 68.90360 198.88338 367
19.89370 70.60380 202.06166 364
14.76484 72.38829 205.43246 362
79.27519 49.20503 174.65794 427
76.78198 50.01659 176.69946 424
74.19772 50.90635 178.79463 421
65.69028 53.74676 179.64964 304
53.37357 57.90245 179.95921 396
49.94440 59.08140 182.42314 394
46.46893 60.25250 184.98872 391
42.80145 61.45081 187.60468 389
39.03229 62.73813 190.33800 386
35.09036 64.07983 193.10843 373
30.61131 65.55972 196.00189 371
25.97568 67.12579 199.04306 368
21.09549 68.76592 202.18001 365
16.00975 70.53580 205.47290 363
79.55054 48.09562 174.79897 428
77.04440 48.94219 176.84979 424
74.49803 49.77629 178.93115 422
65.41941 52.78148 179.67052 304
54.02126 56.51659 180.18420 397
50.68028 57.67060 182.63448 395
47.20268 58.81038 185.14676 392
43.60199 60.01277 187.74458 390
39.87056 61.24270 190.49217 387
35.97822 62.47961 193.28874 385
31.68300 63.92550 196.15498 371
27.10278 65.43289 199.17674 369
22.31352 67.04795 202.30363 366
17.26471 68.67145 205.55443 364
79.81831 47.04746 174.92235 429
77.35338 47.84269 176.96649 425
74.80279 48.67611 179.07217 423
65.16200 51.77279 179.67949 304
54.63240 55.19429 180.35635 410
51.36700 56.26099 182.78165 395
47.93000 57.34903 185.30072 393
44.34094 58.50719 187.94321 391
40.67132 59.69002 190.63312 388
36.84735 60.95828 193.39221 386
32.73598 62.27396 196.28752 372
28.18315 63.71490 199.27005 370
23.46392 65.25949 202.38892 367
18.50740 66.86418 205.63741 364
80.08389 45.98620 175.08669 429
77.64374 46.75063 177.11920 426
75.12193 47.57296 179.23787 423
58.13107 52.91561 178.10410 413
55.11127 53.87109 180.53224 411
51.96817 54.86554 183.00334 409
48.60687 55.94885 185.47699 394
45.09397 57.06997 188.10954 391
41.43668 58.20710 190.76277 389
37.67007 59.41704 193.54066 386
33.70163 60.66346 196.44269 384
29.31564 62.05713 199.38782 371
24.57921 63.56160 202.48831 368
19.74057 65.08928 205.71918 365
80.38448 44.90771 175.22197 430
77.94160 45.68030 177.27838 426
75.41303 46.42712 179.34731 424
58.56546 51.65148 178.29277 421
55.58604 52.62359 180.64465 412
52.48340 53.55932 183.14439 409
49.28611 54.52884 185.66325 407
45.81450 55.62411 188.26328 392
42.19917 56.74683 190.94681 390
38.47107 57.91157 193.67468 387
34.57531 59.10015 196.55971 385
30.37371 60.39095 199.51573 372
25.73723 61.83124 202.62364 369
20.90404 63.32849 205.81598 366
80.66388 43.87712 175.33620 431
78.21851 44.61503 177.41180 427
75.71019 45.34579 179.47293 425
58.98050 50.45349 178.41290 422
56.02391 51.32437 180.82095 412
52.97656 52.26162 183.26788 410
49.77725 53.23238 185.80949 408
46.51801 54.22514 188.40797 405
42.95884 55.29998 191.07091 391
39.29816 56.39008 193.82962 388
35.44490 57.58365 196.69522 386
31.42160 58.77770 199.63791 372
26.84399 60.16830 202.69810 370
22.11120 61.60346 205.89449 367
80.91882 42.82913 175.50800 431
78.50223 43.52842 177.53346 428
75.86327 44.33046 179.56268 308
59.34209 49.19564 178.58005 422
56.52085 50.05023 180.99527 413
53.45438 50.98076 183.40164 411
50.32846 51.88282 185.95413 408
47.04995 52.84645 188.53329 406
43.72138 53.86282 191.17987 403
40.05734 54.94446 193.95079 389
36.23541 56.07256 196.77754 386
32.32069 57.22828 199.73184 384
27.97253 58.53846 202.80458 371
23.25660 59.93654 205.99408 368
81.19666 41.77122 175.60770 432
78.82473 42.47650 177.67938 428
75.63721 43.38260 179.56549 308
59.74252 48.00901 178.70847 423
56.93913 48.80069 181.12204 421
53.96537 49.68838 183.54184 411
50.80550 50.59689 186.08763 409
47.59456 51.50908 188.66811 407
44.27706 52.49023 191.31766 404
40.84814 53.47679 194.06758 402
37.09125 54.55075 196.90474 387
33.19347 55.68634 199.82434 385
29.05758 56.89968 202.91507 372
24.40130 58.25660 206.05003 369
81.49258 40.75839 175.74503 433
79.08092 41.43350 177.77159 429
75.42913 42.45822 179.55377 308
60.08403 46.81554 178.83394 424
57.30285 47.57812 181.23958 421
54.40662 48.40761 183.70726 412
51.32807 49.29109 186.21249 410
48.13433 50.18721 188.77138 407
44.81680 51.10745 191.44458 405
41.39174 52.12198 194.17287 402
37.89643 53.07826 197.02002 400
34.05469 54.16447 199.94223 386
30.03223 55.35215 202.98898 383
25.52650 56.60016 206.11226 370
81.74529 39.71997 175.87848 433
79.37382 40.37975 177.89297 430
75.26153 41.52245 179.56221 308
60.49009 45.59020 178.97499 424
57.70142 46.34680 181.37938 422
54.86327 47.14116 183.80418 420
51.80831 47.97612 186.30365 411
48.63049 48.87620 188.86996 408
45.33430 49.78493 191.55708 406
41.97071 50.74510 194.27196 403
38.46072 51.67690 197.08505 400
34.84367 52.67751 200.03488 398
30.92234 53.76245 203.04021 384
26.66303 54.98922 206.19951 371
-187.18060 114.16299 202.34412 495
82.05237 38.69321 176.00481 434
79.70763 39.32035 178.03497 430
75.08874 40.57646 179.59392 308
60.88367 44.42225 179.09860 425
58.11591 45.15429 181.48889 423
55.26819 45.89964 183.95270 421
52.29594 46.73161 186.45348 411
49.16159 47.57738 189.02049 409
45.88343 48.46325 191.65445 406
42.53232 49.38321 194.36575 404
39.08590 50.29105 197.19652 401
35.48601 51.26625 200.10628 399
31.76095 52.27936 203.14049 396
27.68297 53.35972 206.27060 382
22.41173 54.78212 209.47772 263
82.31398 37.70570 176.15704 435
79.98349 38.28383 178.15099 431
74.86698 39.65230 179.57414 308
61.25773 43.25054 179.25719 426
58.49148 43.97900 181.63420 424
55.68531 44.69414 184.05341 421
52.80434 45.46183 186.57703 419
49.67157 46.29277 189.14398 410
46.45061 47.15376 191.77293 407
43.11182 48.01435 194.47673 405
39.67162 48.93379 197.29269 402
36.08812 49.84761 200.16606 399
32.40545 50.82726 203.20178 397
28.53319 51.82928 206.29759 394
23.87384 53.09669 209.51245 340
82.58361 36.68938 176.24257 435
80.26180 37.29245 178.29732 432
74.71815 38.69686 179.59377 308
61.61980 42.08432 179.37057 426
58.87675 42.76273 181.74117 424
56.11757 43.47301 184.19649 422
53.21147 44.22291 186.68385 420
50.19601 44.97378 189.23186 410
46.97816 45.84313 191.86913 408
43.69025 46.69223 194.56834 405
40.27016 47.54059 197.38074 403
36.68693 48.44714 200.27724 400
33.05488 49.40401 203.25433 397
29.24157 50.37394 206.37119 395
25.07285 51.48124 209.57420 355
82.87057 35.68576 176.38847 436
80.52795 36.26300 178.40744 432
74.51709 37.76030 179.56392 308
61.98984 40.89799 179.48195 427
59.29731 41.60021 181.84383 425
56.48933 42.27310 184.27711 423
53.64915 42.98531 186.78885 420
50.68456 43.73986 189.33932 411
47.51698 44.52419 191.98297 408
44.23405 45.35434 194.66656 406
40.84226 46.21498 197.46901 403
37.33814 47.06485 200.29871 401
33.69243 47.97891 203.33882 398
29.91463 48.93124 206.37738 395
25.78717 49.95843 209.60603 356
-186.77049 103.18156 209.49376 485
83.12743 34.67374 176.51222 437
80.84639 35.25859 178.50653 433
74.37138 36.82141 179.58736 308
62.36279 39.73186 179.64607 428
59.68643 40.38425 181.96922 426
56.90922 41.08107 184.39952 423
54.08826 41.78176 186.87897 421
51.15423 42.46917 189.46899 418
48.05267 43.25698 192.04230 409
44.77100 44.00892 194.72647 407
41.40462 44.83890 197.51399 404
37.90649 45.68890 200.40488 401
34.29923 46.59426 203.39159 399
30.53245 47.50264 206.46451 396
26.56006 48.49592 209.63753 356
-186.82854 100.51046 209.44997 484
83.37760 33.68577 176.61150 437
81.09691 34.23733 178.62611 435
74.18059 35.87720 179.59502 308
62.71818 38.61007 179.76021 428
60.04650 39.25455 182.12093 426
57.29395 39.87305 184.52161 424
54.47528 40.55752 186.98732 422
51.57476 41.23223 189.55453 419
48.57619 41.96881 192.16017 410
45.34463 42.70681 194.84912 407
41.98293 43.51976 197.62740 405
38.48596 44.35025 200.47299 402
34.92268 45.17092 203.44717 400
31.23517 46.09459 206.49681 397
27.30354 46.99734 209.68748 357
-187.32504 97.98065 209.50081 485
83.66612 32.68809 176.74449 438
81.39926 33.21247 178.72704 436
74.06074 34.91977 179.60049 308
63.09885 37.44715 179.86899 429
60.44991 38.04992 182.23520 427
57.69473 38.72171 184.62979 425
54.92463 39.33562 187.08427 422
52.01578 40.01472 189.61243 420
49.05298 40.69315 192.22870 417
45.89168 41.41560 194.91882 408
42.54465 42.19580 197.66046 405
39.10568 42.97656 200.51379 403
35.53416 43.82409 203.49843 400
31.85364 44.67035 206.56186 398
27.97833 45.57701 209.70435 360
-187.78870 95.44447 209.45966 485
-195.82962 97.29528 216.44279 294
83.94124 31.74608 176.84506 438
81.67724 32.21836 178.83430 436
73.89783 33.97052 179.59242 308
63.48116 36.32938 180.01749 430
60.82678 36.90187 182.35246 428
58.09308 37.52249 184.72311 425
55.33299 38.13404 187.18907 423
52.45700 38.81049 189.73347 420
49.52092 39.43820 192.32629 418
46.43894 40.12894 195.00513 409
43.11900 40.91757 197.77649 406
39.67062 41.67731 200.60406 404
36.16604 42.45496 203.55231 401
32.52234 43.27933 206.60548 398
28.71707 44.11031 209.72737 361
-188.29337 92.88593 209.39070 485
-188.83684 92.98957 216.49228 296
84.08926 30.79912 176.93556 458
81.99039 31.22658 178.96056 437
73.76208 33.04807 179.59410 308
63.82254 35.16964 180.09067 430
61.20091 35.76809 182.45886 428
58.49604 36.38028 184.82552 426
55.72283 36.96622 187.27702 424
52.89164 37.58317 189.82552 421
49.95959 38.20634 192.39604 419
46.93206 38.88300 195.11281 416
43.64950 39.57920 197.84883 407
40.30109 40.34660 200.64581 404
36.78237 41.11740 203.58218 402
33.15402 41.88832 206.60295 399
29.40704 42.70001 209.75638 396
-182.87198 88.99869 216.38200 438
84.14574 29.85463 176.96898 458
82.04872 30.29651 179.01332 456
66.77261 33.54494 177.94534 433
64.19285 34.06865 180.21989 431
61.60339 34.63264 182.55438 429
58.87933 35.19734 184.95659 426
56.12793 35.79049 187.38358 424
53.28812 36.35545 189.92218 422
50.41840 36.99986 192.50218 419
47.40194 37.63217 195.18321 417
44.22547 38.29766 197.88429 408
40.85365 38.99509 200.71909 405
37.39193 39.75539 203.62386 402
33.78249 40.49746 206.66626 400
30.04441 41.31021 209.80920 397
-182.90051 86.34415 216.39439 439
84.20563 28.94548 177.04182 458
82.12286 29.34568 179.07767 456
67.08395 32.45685 178.09285 434
64.54562 32.94987 180.32681 432
61.98581 33.48196 182.64493 429
59.29673 34.06437 185.05753 427
56.56617 34.59850 187.49077 425
53.71607 35.17370 189.99364 422
50.84465 35.79963 192.59756 420
47.83875 36.41061 195.22305 417
44.80569 37.00630 197.96707 408
41.45794 37.69368 200.80795 406
38.00069 38.39214 203.67926 403
34.38888 39.14619 206.68732 400
30.68900 39.90654 209.80635 398
-183.05144 83.77447 216.40347 439
84.25040 28.01193 177.07210 459
82.16876 28.43406 179.11336 457
67.45229 31.33735 178.20049 434
64.94327 31.88353 180.43298 432
62.34826 32.37695 182.76842 430
59.66457 32.88070 185.12498 428
56.95420 33.46795 187.59029 425
54.13842 34.01098 190.08330 423
51.26207 34.58752 192.66441 421
48.32244 35.15509 195.32465 418
45.26537 35.77430 198.06163 416
42.03332 36.40252 200.85873 406
38.56836 37.08637 203.74754 404
35.03484 37.78804 206.72830 401
31.32305 38.55360 209.83871 398
-5197.49219 1078.14062 126.23045 335
-183.02069 81.23104 216.38109 424
84.31039 27.10812 177.11206 459
82.23673 27.50311 179.15462 457
67.80219 30.29135 178.29721 435
65.30151 30.77387 180.57047 433
62.72368 31.27559 182.89720 431
60.07585 31.78488 185.23239 428
57.33867 32.27407 187.70175 426
54.58100 32.84299 190.16318 424
51.70245 33.39352 192.74431 421
48.76299 33.92407 195.39430 419
45.73351 34.54407 198.13464 416
42.59802 35.13003 200.91550 407
39.20665 35.76487 203.82428 404
35.66953 36.47362 206.80986 402
31.99454 37.17545 209.86613 399
-183.02226 78.55283 216.44366 424
-189.81133 79.86372 223.34630 321
84.37591 26.20389 177.17517 459
82.28987 26.57471 179.21432 457
68.05469 29.20951 178.38736 455
65.64488 29.68172 180.69325 434
63.06894 30.13479 182.97649 431
60.44773 30.65076 185.35529 429
57.78050 31.16186 187.78014 427
55.00672 31.64749 190.27795 424
52.14409 32.17658 192.83557 422
49.23253 32.72402 195.44279 419
46.20319 33.27932 198.19205 417
43.11161 33.86163 200.95258 414
39.77539 34.50449 203.83456 405
36.25158 35.12207 206.79945 402
32.63002 35.83094 209.88307 400
-183.13029 75.99712 216.43903 424
-187.16580 76.78725 223.40388 322
84.42170 25.27742 177.19344 460
82.37698 25.62282 179.22922 458
68.13403 28.19559 178.44456 455
65.78606 28.61006 180.74031 453
63.39880 29.04969 183.05669 451
60.83074 29.52770 185.43462 430
58.16871 29.98185 187.84239 427
55.40865 30.48965 190.35475 425
52.60758 30.98311 192.88451 422
49.68364 31.52113 195.53391 420
46.66560 32.04795 198.23750 417
43.59512 32.63331 201.04643 415
40.37428 33.18950 203.91785 406
36.89527 33.83564 206.86449 403
33.29854 34.44761 209.90797 400
-183.09331 73.34902 216.43115 425
-184.64076 73.66695 223.34982 323
84.49429 24.35335 177.25308 460
82.45192 24.71389 179.30336 458
68.19238 27.20522 178.47714 455
65.84841 27.59696 180.77260 453
63.48487 27.99321 183.11624 451
61.05294 28.42753 185.50624 449
58.52367 28.87642 187.95262 446
55.81945 29.30320 190.42349 426
53.01534 29.79418 192.95952 423
50.10860 30.34239 195.60121 421
47.16364 30.84762 198.28308 418
44.09052 31.36830 201.05016 416
40.92100 31.91681 203.95866 413
37.48241 32.49305 206.89207 404
33.88374 33.15304 209.98064 401
-183.17824 70.78638 216.48517 425
-182.41263 70.67477 223.22295 361
84.53483 23.45812 177.29182 460
82.49025 23.79752 179.34004 458
68.26070 26.16790 178.51239 456
65.93253 26.55752 180.82585 454
63.53068 26.95849 183.15985 451
61.11216 27.37619 185.51320 449
58.64479 27.78311 187.98282 447
56.09543 28.19374 190.48701 444
53.44401 28.67201 193.05791 424
50.56172 29.12608 195.64680 421
47.59860 29.62937 198.33546 419
44.54889 30.14300 201.11604 416
41.40641 30.63983 204.01042 414
38.10986 31.23713 206.92842 404
34.54655 31.82296 209.98262 402
-181.85745 67.97507 223.22021 361
84.62774 22.55005 177.35168 461
82.55811 22.86117 179.35065 458
68.31231 25.15105 178.57892 456
66.01092 25.52788 180.84193 454
63.60924 25.91492 183.18724 452
61.19864 26.28477 185.57788 449
58.70033 26.70269 188.01590 447
56.15260 27.11100 190.49803 444
53.53711 27.54795 193.05600 442
50.87353 27.94410 195.72279 439
48.06400 28.40837 198.40062 419
45.03835 28.91793 201.19923 417
41.88249 29.43479 204.04193 414
38.66656 29.95664 206.98280 411
35.14179 30.50601 210.01668 402
-181.13736 65.24440 223.25235 361
84.66988 21.65240 177.38290 461
82.65083 21.93692 179.39159 459
68.42398 24.13591 178.58728 456
66.09126 24.49427 180.89127 454
63.68568 24.87366 183.21310 452
61.27421 25.24537 185.61780 450
58.81855 25.63256 188.03996 447
56.25298 26.03699 190.52010 445
53.65340 26.42874 193.08098 442
50.95360 26.85488 195.73578 440
48.21694 27.26638 198.42361 437
45.39977 27.72169 201.20660 435
42.39740 28.14969 204.08807 415
39.18397 28.65328 206.98941 412
35.80072 29.16968 210.01353 403
-180.54634 62.61761 223.15523 361
84.74225 20.73853 177.41702 461
82.68855 21.04931 179.44064 459
68.44798 23.15736 178.62672 457
66.14924 23.46534 180.93190 454
63.77206 23.83924 183.23396 452
61.35501 24.17303 185.64412 450
58.87483 24.55118 188.08626 447
56.35582 24.95434 190.56177 445
53.73973 25.34414 193.13356 443
51.07506 25.71742 195.78290 440
48.34467 26.12622 198.46803 437
45.53061 26.57723 201.23695 435
42.62012 26.96735 204.08527 432
39.63314 27.41516 207.01569 429
36.39601 27.91178 210.05539 410
-179.95114 59.97035 223.17282 361
84.79825 19.81088 177.46893 461
82.77364 20.13711 179.46107 459
68.54116 22.14122 178.66647 457
66.24100 22.47607 180.96838 455
63.88794 22.82356 183.28273 452
61.45173 23.15679 185.67900 450
58.97968 23.47468 188.08603 448
56.45052 23.86683 190.60371 445
53.85409 24.20959 193.15419 443
51.16871 24.62250 195.80429 440
48.41608 25.00231 198.48038 438
45.62202 25.37901 201.25827 435
42.71518 25.78448 204.11870 432
39.74361 26.20894 207.02449 430
36.69522 26.66013 210.08109 427
-179.61255 57.31579 223.19525 383
84.85664 18.91494 177.50084 462
82.81326 19.19729 179.50961 460
68.60389 21.13609 178.71953 457
66.29967 21.44139 180.97870 455
63.95261 21.75170 183.29987 453
61.53832 22.07570 185.68306 450
59.04374 22.44782 188.14832 448
56.53738 22.76401 190.64172 446
53.93923 23.10551 193.18954 443
51.29440 23.50870 195.82074 441
48.53578 23.85923 198.49260 438
45.71552 24.25953 201.25735 435
42.82120 24.60747 204.10234 433
39.86107 25.02494 207.03304 430
36.81118 25.44771 210.07266 428
-179.54903 54.85163 223.21938 383
84.95501 18.01072 177.51945 462
82.81003 18.32212 179.52734 312
68.68289 20.14653 178.76811 457
66.39234 20.44558 181.02391 455
64.02606 20.74250 183.33118 453
61.63493 21.06369 185.71487 451
59.16359 21.36412 188.16331 448
56.62217 21.70038 190.65498 446
54.04678 22.04712 193.18976 443
51.36601 22.39452 195.83308 441
48.64589 22.72963 198.53580 438
45.84537 23.07768 201.30661 436
42.97237 23.47142 204.10838 433
40.00612 23.84594 207.04289 431
36.96472 24.24185 210.09550 428
-179.58705 52.31538 223.10651 383
85.00853 17.13763 177.57188 462
82.75060 17.42575 179.51151 312
68.77329 19.11648 178.80489 458
66.48383 19.43129 181.05119 455
64.11208 19.71512 183.38275 453
61.73162 19.98412 185.76595 451
59.25196 20.29297 188.19112 448
56.71109 20.61465 190.67265 446
54.14173 20.92243 193.21503 444
51.47770 21.27491 195.83675 441
48.73753 21.58645 198.55859 439
45.93705 21.92320 201.28259 436
43.05945 22.28229 204.14412 434
40.15070 22.67584 207.05988 431
37.10474 23.06116 210.09729 428
-179.52829 49.72846 223.14629 383
85.09322 16.22587 177.58716 462
82.69019 16.51454 179.50922 312
68.86472 18.15706 178.80447 458
66.53763 18.40679 181.09746 456
64.22061 18.66925 183.40984 453
61.78296 18.94515 185.79559 451
59.32468 19.22891 188.19208 449
56.82563 19.52491 190.67821 446
54.22172 19.82625 193.26753 444
51.57590 20.17537 195.88901 441
48.87262 20.49956 198.55263 439
46.04210 20.79922 201.30013 436
43.18950 21.13928 204.14674 434
40.26149 21.45421 207.06490 431
37.27205 21.81315 210.10828 428
-179.55299 47.24948 223.14566 383
85.13644 15.33230 177.60448 463
82.65886 15.58989 179.52914 312
68.94789 17.12620 178.86552 458
66.62603 17.38102 181.11909 456
64.28399 17.65423 183.45247 454
61.89153 17.90766 185.81993 451
59.41875 18.16520 188.25677 449
56.90556 18.44160 190.70914 447
54.31081 18.75820 193.28581 444
51.66843 19.04772 195.90112 442
48.97280 19.32263 198.57149 439
46.17947 19.63564 201.34784 437
43.33777 19.98477 204.14546 434
40.41472 20.30268 207.11700 431
37.40536 20.64917 210.10825 429
-179.52299 44.62494 223.11389 383
85.22827 14.42468 177.63304 463
82.61519 14.70048 179.53925 312
69.01480 16.16062 178.88361 458
66.71860 16.36970 181.13373 456
64.39783 16.60792 183.47552 454
61.98473 16.87938 185.81583 452
59.53637 17.15962 188.27864 449
56.98877 17.37926 190.74805 447
54.44061 17.65291 193.27260 444
51.79571 17.91744 195.91785 442
49.10264 18.24643 198.56955 440
46.32729 18.49599 201.36554 437
43.45988 18.81237 204.17538 434
40.56437 19.10080 207.08176 432
37.51467 19.43605 210.10464 429
-179.49478 42.13256 223.10345 384
85.27332 13.56169 177.68068 463
82.60486 13.81267 179.52011 312
69.10504 15.16699 178.90660 458
66.78500 15.38860 181.18922 456
64.45634 15.61071 183.48962 454
62.04160 15.82651 185.86708 452
59.59650 16.05746 188.26622 449
57.10331 16.31421 190.74898 447
54.54746 16.56597 193.29259 445
51.88104 16.85664 195.90813 442
49.20462 17.09447 198.62932 440
46.45164 17.40125 201.35617 437
43.62188 17.64862 204.21898 435
40.69722 17.92998 207.11684 432
37.66644 18.23913 210.09964 429
-179.51552 39.66631 223.10188 384
-46850.51562 4634.63330 4876.22852 1000
85.37113 12.67532 177.68729 463
82.58345 12.91288 179.51724 312
69.15726 14.15618 178.95370 459
66.89656 14.34789 181.21849 457
64.53766 14.56920 183.52173 454
62.13963 14.81953 185.87228 452
59.71585 15.05029 188.28506 450
57.18067 15.23655 190.80438 447
54.63880 15.49428 193.31160 445
51.98922 15.74475 195.95050 443
49.31953 15.95665 198.64410 440
46.57841 16.23229 201.37335 437
43.73950 16.52503 204.22224 435
40.84657 16.75734 207.14244 432
37.82883 17.03926 210.12154 429
-179.54201 37.08897 223.19229 384
85.42592 11.77931 177.71292 464
82.55568 12.03446 179.50789 312
69.25555 13.15933 178.97946 459
66.98271 13.37039 181.22404 457
64.63271 13.54411 183.53639 454
62.25929 13.77765 185.88565 452
59.78301 13.95800 188.31767 450
57.28003 14.16261 190.82681 447
54.71688 14.41394 193.34857 445
52.14014 14.62439 195.97743 443
49.44049 14.84113 198.63171 440
46.68642 15.08135 201.38429 438
43.88015 15.36472 204.22897 435
40.94901 15.57424 207.12291 432
37.96873 15.83652 210.14859 430
-179.55264 34.55210 223.18391 384
85.50682 10.85789 177.75757 464
82.54278 11.12489 179.53757 312
69.33736 12.15752 178.96349 459
67.04292 12.36790 181.26910 457
64.73591 12.53816 183.57310 455
62.31883 12.73622 185.91841 452
59.90950 12.90208 188.33118 450
57.38088 13.11756 190.81590 448
54.87097 13.30412 193.35184 446
52.24349 13.55590 195.99300 443
49.56506 13.73948 198.64099 441
46.84141 13.97699 201.38332 438
44.00376 14.21577 204.23106 435
41.06720 14.42997 207.12543 433
38.07764 14.63573 210.14073 430
-179.55881 32.04881 223.16144 384
85.58429 9.98406 177.77878 464
82.53622 10.21481 179.52750 312
69.43610 11.17117 179.00694 459
67.12828 11.32632 181.28896 457
64.81933 11.53879 183.56602 455
62.42448 11.70879 185.96861 453
59.97996 11.85953 188.37625 450
57.50565 12.07176 190.86714 448
54.96465 12.26745 193.38260 446
52.38719 12.45652 196.01651 443
49.68214 12.60912 198.69260 441
46.93232 12.83698 201.39128 438
44.11573 13.01851 204.24559 435
41.21903 13.26337 207.16965 433
38.21600 13.46854 210.13602 430
-179.53282 29.50508 223.17389 384
85.67713 9.11946 177.78894 464
82.53108 9.30225 179.52185 312
69.51149 10.21461 179.00937 460
67.25136 10.33161 181.29417 457
64.90546 10.48148 183.62741 455
62.54325 10.67527 185.94980 453
60.09431 10.80624 188.36641 451
57.63031 11.01024 190.87628 448
55.08898 11.18997 193.41072 446
52.51043 11.32382 195.98615 443
49.80354 11.54004 198.65753 441
47.08961 11.71600 201.43327 438
44.28459 11.92360 204.22762 436
41.38538 12.10216 207.17668 433
38.39347 12.30807 210.12038 430
-179.48619 27.03779 223.14026 384
85.75775 8.22946 177.82309 464
82.51439 8.42483 179.50510 312
69.58006 9.20404 179.03592 460
67.33638 9.34884 181.29355 458
65.00758 9.47954 183.63148 455
62.62665 9.63002 185.99089 453
60.23283 9.78107 188.41356 451
57.75399 9.95259 190.87071 449
55.23189 10.08817 193.42845 446
52.59212 10.26109 196.03026 444
49.94124 10.41342 198.71265 441
47.23423 10.55826 201.43488 439
44.42236 10.75657 204.24286 436
41.52683 10.90817 207.16190 433
38.51614 11.10373 210.17123 430
-179.51018 24.51815 223.11830 384
-187.41731 25.00377 271.40671 305
-187.00529 24.99933 278.26807 361
-187.01772 24.93267 285.26666 360
-186.90799 24.99343 292.28189 360
85.82097 7.32662 177.84888 464
82.52266 7.49319 179.51451 312
69.66682 8.23512 179.09198 460
67.43337 8.33940 181.33586 458
65.09144 8.49622 183.62433 455
62.73446 8.61554 186.02362 454
60.32253 8.76025 188.40602 451
57.87382 8.88870 190.91617 449
55.33285 9.01370 193.44713 446
52.73770 9.16849 196.05550 444
50.08020 9.29530 198.73264 441
47.34776 9.46125 201.45451 439
44.54810 9.63494 204.28984 436
41.66580 9.78065 207.16621 433
