# .PCD v.7 - Point Cloud Data file format
VERSION .7
FIELDS x y z rgb
SIZE 4 4 4 4
TYPE F F F U
COUNT 1 1 1 1
WIDTH 1420
HEIGHT 1
VIEWPOINT 6380.556641 -1921.967041 147.952438 -0.760985 -0.067567 -0.117960 0.634367
POINTS 1420
DATA ascii
1526.00781 580.54138 122.89293 491
1532.61902 583.49286 145.75674 321
399.50400 79.84715 164.72490 317
409.65894 84.44463 165.28806 436
413.84644 86.34168 167.75258 305
1509.33118 582.38043 53.95770 396
1494.60815 575.95172 79.06351 399
1503.70691 580.00366 101.30780 452
1521.26428 588.01404 122.91675 487
1528.62512 591.19275 146.17574 490
398.99564 80.92057 164.69502 317
408.21365 85.12683 165.53464 437
413.33237 87.48875 167.75362 305
1499.07751 587.30847 54.78439 402
1488.16406 582.35236 79.38559 270
1494.46509 585.20398 101.53746 451
1516.94629 595.55652 122.86053 487
1525.83716 599.86316 146.05553 429
398.44833 81.98203 164.67581 317
406.75415 85.85610 165.77695 419
412.77200 88.68306 167.74118 305
1488.97266 592.20221 55.65538 403
1479.79297 587.93909 79.55437 450
1485.72583 590.59070 102.29150 452
1516.76086 605.25543 122.65886 432
1528.57788 610.40442 145.56754 429
397.91174 83.05773 164.72821 317
405.07434 86.43353 166.07961 420
412.27182 89.84837 167.73822 305
1479.11047 597.02142 56.50276 404
1471.47632 593.16760 80.19421 457
1476.72522 595.64624 102.70177 435
1519.48291 616.07599 122.24506 431
1530.99487 621.59235 145.30644 428
397.40036 84.08896 164.69273 317
403.40833 86.99635 166.42375 421
411.70590 91.02978 167.72527 305
1488.44385 610.84784 31.58230 399
1469.82129 601.86230 57.04427 410
1463.06995 598.46259 80.63092 458
1468.71472 601.44818 102.91341 437
1522.07300 626.86719 121.74057 430
1533.72168 632.55359 144.84424 427
396.80963 85.15742 164.73781 317
401.77960 87.55856 166.70903 422
411.14230 92.14823 167.72028 305
1479.39941 615.89203 32.32426 400
1460.60901 606.93127 57.76069 411
1454.90857 604.03625 81.35053 459
1461.02710 607.17346 103.22177 433
1524.61487 638.26764 121.55322 429
1536.45837 644.11810 144.30728 426
396.23563 86.19248 164.70439 317
400.16556 88.13165 167.00206 423
1470.19922 620.88562 33.15086 400
1451.62366 611.88263 58.66313 411
1446.86829 609.31396 81.67550 464
1453.73022 612.73480 103.57452 438
1527.23889 649.36328 120.72332 428
1538.97009 655.24872 144.20532 425
395.69687 87.23536 164.73964 317
398.57599 88.66122 167.25323 424
1460.75427 625.66571 33.91111 401
1442.88831 616.79181 59.18199 416
1439.19275 614.75800 82.04323 463
1446.50427 618.45325 104.01161 438
1529.42676 660.40692 120.42162 430
1542.11536 666.86993 143.97369 426
395.08124 88.28226 164.69720 317
396.99332 89.20683 167.56744 425
1451.68042 630.37158 34.64273 407
1434.52698 621.75348 59.83421 417
1431.31738 620.25092 82.55893 464
1444.05200 626.55933 103.93225 265
1532.59546 671.90466 120.00565 426
394.52625 89.30595 164.71475 317
395.87057 90.02354 167.71416 311
1442.88013 635.60785 35.29427 408
1426.04321 626.89130 60.33108 426
1424.15027 626.03589 83.14258 472
1681.30200 759.87494 81.67643 495
1535.03162 683.58618 119.56617 425
393.90231 90.30577 164.75723 426
395.32538 91.07867 167.71867 311
1434.49255 640.70966 35.87748 408
1418.29016 632.13281 60.82097 427
1417.41650 631.59027 83.35493 472
1677.66467 769.30151 81.55424 499
1538.01501 695.27026 118.90115 424
392.37360 90.79803 165.03737 427
394.72128 92.13007 167.72960 311
1426.04773 645.63263 36.59497 418
1410.96753 637.30023 61.47775 427
1410.57983 637.31116 83.46814 476
1671.78674 777.45856 81.66686 411
1540.44678 707.23267 118.19850 423
390.83051 91.37862 165.30215 428
394.16064 93.18340 167.71916 309
1418.56006 651.06335 37.06444 419
1403.52332 642.68231 61.79940 431
1404.00024 643.25336 84.10874 476
1552.94751 724.15594 92.03510 404
1543.46777 718.97986 117.92889 423
389.36603 91.89339 165.59352 429
393.58633 94.19945 167.69530 309
1410.61975 656.41925 37.69167 419
1396.42334 648.32764 62.00196 432
1397.48291 649.04181 84.11870 477
1538.20581 726.74475 93.11546 405
1546.07629 731.21033 117.29755 422
387.89969 92.37316 165.84305 430
393.02197 95.25556 167.70090 309
1403.36792 661.92950 38.39791 425
1389.11658 653.74115 62.52533 432
1391.18237 654.89752 84.47463 477
1530.48242 732.68610 93.65907 483
1549.03772 743.30524 116.81537 421
386.42926 92.88818 166.12825 431
392.47009 96.28508 167.68245 309
1396.30701 667.22052 38.62868 426
1382.15198 659.17444 63.00422 433
1384.74072 660.63251 84.71689 478
1528.93030 742.43726 93.02302 457
1551.80786 755.61548 116.09573 420
384.97324 93.37519 166.40286 432
391.86548 97.38952 167.68111 309
1388.93433 672.54034 39.02065 426
1374.92200 664.37610 63.57117 433
1378.13086 666.33929 84.95859 478
1527.47656 752.39954 92.88814 457
1554.61707 768.27881 115.76657 419
383.56866 93.88115 166.63577 433
391.25418 98.41328 167.66551 309
1381.87207 677.89728 39.57259 434
1367.92358 669.90936 63.90179 434
1371.79712 672.00598 85.40698 473
1526.03210 762.40277 92.68411 382
1557.57214 780.95917 115.03753 418
382.14899 94.38261 166.92108 434
390.66110 99.46875 167.65279 309
1374.51196 683.22345 40.01768 434
1361.23669 675.21759 64.03368 434
1365.48987 677.64648 85.70822 474
1524.98254 772.27240 92.26464 382
380.71411 94.89423 167.16539 435
1367.13477 688.45972 40.69101 435
1354.20068 680.54266 64.42796 435
1359.43225 683.78656 85.84628 474
1525.90222 783.86414 91.59405 391
379.32184 95.35726 167.37448 436
1359.85962 693.43414 41.12354 435
1347.46289 685.86151 64.97414 435
1353.35864 689.60181 86.06773 474
1509.72424 784.61078 92.96682 393
377.98825 95.82857 167.64250 437
1352.91455 698.59509 41.40472 436
1340.58569 690.95959 65.15765 439
1347.29382 695.07959 86.00764 471
1492.85828 785.30554 94.02167 376
377.34372 96.74478 167.61240 315
1345.90002 703.92450 41.76643 438
1334.04749 696.60883 65.47880 439
1341.89270 701.13312 86.42047 456
1475.07886 784.75452 95.22056 378
376.74384 97.72874 167.63713 315
1338.76648 708.83356 42.28334 444
1327.45154 701.70465 65.70101 440
1336.15808 707.49194 86.64825 456
1470.99780 793.10553 94.98454 264
376.13757 98.65237 167.61354 315
1339.31470 718.77429 41.39176 269
1320.61755 706.84747 66.18760 329
1330.73450 713.46014 86.69227 456
375.47894 99.57674 167.59233 315
1347.39062 733.63666 39.79570 269
1314.41199 712.25269 66.53950 494
1325.27795 719.60760 86.63451 441
7527.22021 4767.30615 501.49841 1000
374.87955 100.48920 167.63814 315
1355.50122 749.06018 37.73602 269
1308.37439 717.83301 66.58899 400
1319.87146 725.76550 86.85173 441
374.21033 101.45712 167.59479 315
1302.45288 723.58765 66.85525 494
1314.44836 731.61066 86.84480 441
373.57071 102.35786 167.63048 315
1296.71021 729.07007 67.20983 495
1309.28784 737.85962 87.17052 441
372.95389 103.26436 167.61996 315
1290.87769 734.95227 67.37920 495
1307.74231 746.44397 86.63307 350
372.28247 104.22747 167.60139 315
1285.25952 740.81451 67.28368 495
371.63129 105.13338 167.60803 313
1284.52258 749.99097 66.94473 415
370.99637 106.05372 167.56229 313
370.35745 106.95065 167.59274 313
44080.88281 39343.07422 10934.52051 1000
8886.49805 27348.53125 3521.10620 1000
2228.63501 13507.96973 218.57228 1000
558.02490 2519.54443 -33.36244 497
558.50659 2522.40625 8.10331 497
558.83917 2524.50049 49.71705 497
558.91943 2526.85913 91.55353 497
559.18103 2529.30933 133.65353 497
560.05139 2531.43481 175.15186 497
-6372.49170 67985.94531 -6500.51465 1000
-16.19945 2126.27490 -29.41881 313
-15.89604 2126.81396 6.10751 313
-16.00492 2126.85669 41.42179 313
-15.97342 2127.24658 76.54295 313
-16.29206 2127.40503 111.90547 313
-16.49875 2127.35205 147.12042 313
-16.45479 2127.78589 182.03983 313
-17367.20898 42757.43750 11003.05078 1000
-596.42981 1709.80530 61.24835 359
-596.09991 1709.63782 92.64955 423
-596.23199 1710.10657 123.66785 470
-596.89648 1711.02002 154.96544 496
-596.95844 1711.82593 185.68051 496
-597.61829 1712.98633 216.52061 497
-605.29822 1701.64941 -0.90957 428
-606.28674 1703.91284 30.26502 366
-16990.73828 31027.47070 -4450.19678 1000
127.57566 148.31966 169.59987 485
126.56783 147.99428 169.55843 441
124.76186 148.91183 169.06749 489
123.34622 149.18797 168.78636 277
120.77308 149.31961 168.36713 489
119.38612 149.41176 168.11528 273
117.06033 150.90657 167.42696 316
116.25076 150.23059 167.44922 316
115.37972 149.58081 167.41299 316
114.56660 148.93558 167.44679 316
111.42658 151.40807 166.38031 314
110.53455 150.72662 166.37105 314
109.71689 150.03456 166.36961 314
108.83656 149.36353 166.40323 314
107.98819 148.65839 166.39284 314
107.15244 147.95760 166.41028 314
106.32263 147.27969 166.39265 314
105.47422 146.56883 166.40012 314
104.08782 146.57861 166.16267 422
96.44759 156.02777 166.35765 309
102.53239 146.72833 165.81947 421
95.56409 155.25188 166.36050 309
100.96085 146.86374 165.55704 420
94.67067 154.52507 166.39641 309
99.38365 147.01622 165.21429 418
93.79115 153.73299 166.36502 309
97.78261 147.19252 164.91008 417
92.91704 152.95062 166.38972 309
96.15662 147.31952 164.55815 427
92.00888 152.16058 166.39221 309
94.61768 147.37048 164.28069 426
91.13232 151.39398 166.38527 309
93.04034 147.45033 164.00572 425
90.27795 150.55812 166.36394 309
91.46243 147.47420 163.66351 424
89.40585 149.79076 166.35832 309
89.91386 147.49446 163.37022 307
88.53268 148.95624 166.36420 309
89.14030 146.61247 163.41231 307
87.70610 148.16019 166.35703 309
88.38469 145.67422 163.45441 307
86.51561 147.71291 166.22775 421
87.61667 144.77718 163.46184 307
84.87609 147.74562 165.93668 420
86.90960 143.87976 163.48338 307
83.17168 147.80284 165.61678 419
74.76332 156.68143 166.27066 305
86.15736 142.95419 163.55733 307
81.42332 147.88245 165.25020 418
73.86515 155.74774 166.30884 305
85.44578 141.98306 163.58257 307
79.68520 147.95865 164.96895 417
73.03348 154.85101 166.27917 305
84.72096 141.06480 163.62515 307
77.92522 148.01138 164.59845 416
72.14906 153.93053 166.26312 305
104.72951 119.26408 171.50409 316
76.13822 148.09853 164.28529 415
71.22515 153.01204 166.25438 305
104.11721 118.53262 171.53412 316
74.29416 148.17329 163.91719 414
70.35443 152.09390 166.24153 305
103.43333 117.77383 171.53885 316
72.47639 148.21783 163.57741 413
69.47767 151.16635 166.27571 305
102.79614 117.00914 171.52898 316
70.84772 148.06522 163.32332 303
68.59804 150.24484 166.25346 305
102.17113 116.25089 171.52290 316
70.09093 147.00368 163.32149 304
67.76785 149.25972 166.22963 305
101.54166 115.53287 171.53880 316
69.37589 146.01448 163.35332 304
66.78682 148.45935 166.20052 410
100.93219 114.74494 171.56087 316
68.68507 144.97086 163.40758 304
64.86511 148.49565 165.83205 409
100.32549 113.99049 171.53300 316
67.98119 143.90422 163.44014 304
62.88505 148.61357 165.51270 408
99.68061 113.20177 171.53757 316
91.27351 120.91740 171.60706 312
60.86432 148.70094 165.10841 407
51.46370 157.26105 166.14203 301
-3358.45776 3271.27124 -21.96356 485
99.09312 112.43200 171.58797 316
90.62263 120.08257 171.63666 312
58.79734 148.76012 164.72630 405
50.51567 156.19925 166.15671 301
98.46960 111.64384 171.59296 316
89.96129 119.22709 171.62006 312
56.76446 148.81578 164.37437 404
49.63562 155.15912 166.13475 301
97.89333 110.88366 171.55988 316
89.33423 118.39003 171.64809 312
54.63658 148.92201 163.98315 403
48.77154 154.07919 166.19705 301
97.26164 110.08243 171.56073 316
88.68013 117.59557 171.62573 312
52.53719 149.01601 163.57307 402
47.94600 153.02383 166.16571 301
96.70066 109.31961 171.57632 316
88.03288 116.74153 171.66443 312
50.46973 148.99074 163.21213 300
47.03043 151.92848 166.14853 301
96.12342 108.51245 171.58034 316
87.40015 115.90366 171.65556 312
49.75890 147.79654 163.27448 300
46.16808 150.88596 166.18538 301
95.54002 107.73058 171.59744 316
86.79487 115.03342 171.68958 312
49.03694 146.65817 163.27844 300
45.31756 149.74889 166.15518 301
-2978.88062 2683.34888 11.66585 493
94.96037 106.89539 171.58868 316
86.19398 114.18990 171.66168 312
48.37992 145.44749 163.30490 300
43.68435 149.36075 165.95575 398
94.35439 106.09531 171.62389 316
85.57208 113.30736 171.69310 312
75.55930 121.49044 171.74855 308
41.33698 149.42693 165.50952 397
93.78880 105.32252 171.61797 316
84.93964 112.42915 171.69087 312
74.87803 120.55767 171.78969 308
39.00074 149.55463 165.09032 396
93.23166 104.49896 171.59505 316
84.33281 111.57156 171.69662 312
74.20411 119.61982 171.79781 308
36.61507 149.60504 164.66516 394
25.89387 158.22031 166.06407 297
92.68545 103.67715 171.61732 316
83.74745 110.71158 171.70947 312
73.57393 118.72021 171.79529 308
34.21230 149.72894 164.22646 393
24.94563 157.00656 166.07382 297
92.15288 102.85871 171.61053 316
83.17726 109.83344 171.68050 312
72.96502 117.75487 171.76074 308
31.72223 149.83121 163.77420 392
24.08303 155.77028 166.04198 297
91.58099 102.00832 171.61981 316
82.56266 108.93313 171.68932 312
72.33732 116.83268 171.76228 308
29.16235 149.89735 163.38065 391
23.22982 154.52948 166.02023 297
-2538.45483 2120.58325 45.49274 368
91.06534 101.17831 171.65878 316
82.01249 108.08215 171.71579 312
71.71184 115.88966 171.78059 308
27.54329 149.28165 163.12346 296
22.31064 153.24078 166.07574 297
90.49388 100.36920 171.66281 316
81.41032 107.18211 171.69157 312
71.06049 114.90801 171.77754 308
26.90971 147.98376 163.18420 296
21.49312 152.00511 166.04301 297
89.98207 99.54585 171.66829 316
80.82391 106.29851 171.73390 312
70.45816 113.96095 171.80916 308
58.57288 122.76422 171.87404 304
20.64522 150.76697 166.07802 295
89.45650 98.67921 171.63139 316
80.26165 105.37679 171.72325 312
69.85708 113.00937 171.82852 308
57.88784 121.70029 171.88632 304
18.71738 150.26711 165.81201 389
88.92177 97.87418 171.64296 316
79.69662 104.52048 171.70422 312
69.25496 112.04449 171.82071 308
57.25033 120.68255 171.89949 304
16.02926 150.32799 165.32306 388
88.40991 97.02962 171.63670 316
79.17101 103.57475 171.72484 312
68.65864 111.04746 171.80318 308
56.57098 119.61926 171.89427 304
13.24188 150.45294 164.84787 387
87.90474 96.16956 171.66339 316
78.63393 102.70490 171.74763 312
68.02956 110.10899 171.80206 308
55.95551 118.56152 171.95494 304
10.45679 150.46129 164.39595 385
87.37660 95.30983 171.67476 316
78.07240 101.75748 171.74196 312
67.44379 109.14527 171.83290 308
55.34232 117.53162 171.91118 304
7.60657 150.56078 163.89723 384
-4.77994 159.15431 165.67201 290
86.89906 94.45051 171.66795 316
77.54662 100.85165 171.77126 312
66.89062 108.12073 171.83141 308
54.69118 116.49661 171.95706 304
4.67275 150.60602 163.37952 383
-5.66886 157.70306 165.63924 290
86.41637 93.59306 171.67294 316
76.97462 99.95317 171.74216 312
66.29362 107.16038 171.85240 308
54.04819 115.40910 171.92029 304
1.73414 150.68863 162.92873 382
-6.54190 156.27432 165.68393 291
85.93006 92.77262 171.69429 316
76.44551 99.06332 171.77251 312
65.71279 106.16109 171.84856 308
53.46135 114.36633 171.92543 304
39.20921 123.79780 172.03952 300
-7.43663 154.84697 165.64001 291
85.44082 91.88253 171.70453 316
75.94758 98.13277 171.75011 312
65.20053 105.18262 171.82513 308
52.82265 113.26794 171.93980 304
38.56124 122.67293 172.09477 300
-8.38969 153.47292 165.61169 291
-34812.03906 23010.34961 10719.04395 1000
84.93227 91.04144 171.70161 316
75.44859 97.16686 171.76964 312
64.61767 104.18837 171.84016 308
52.26992 112.21494 171.97089 304
37.87191 121.51926 172.04338 300
-9.27444 152.07137 165.63528 291
84.44082 90.14922 171.67398 316
74.89371 96.25687 171.78003 312
64.08403 103.20076 171.87556 308
51.63166 111.16506 171.96272 304
37.22516 120.35880 172.07419 300
-10.73222 151.02466 165.49338 377
83.98332 89.30486 171.71228 316
74.39889 95.31172 171.78403 312
63.52528 102.19538 171.86401 308
51.02409 110.03841 171.94394 304
36.59618 119.18053 172.09225 300
-13.99107 151.06055 164.97409 376
83.51980 88.39306 171.72226 316
73.88641 94.37876 171.78731 312
62.98814 101.18384 171.85704 308
50.46445 109.00246 171.97707 304
35.96671 118.00671 172.10736 300
-17.33768 151.17451 164.48137 374
83.06258 87.51322 171.68727 316
73.44495 93.47015 171.79048 312
62.45518 100.18857 171.85544 308
49.89066 107.92045 171.97977 304
35.34140 116.83666 172.11752 300
-20.80834 151.26595 163.94025 373
82.63658 86.64196 171.72433 316
72.90250 92.49610 171.76598 312
61.91659 99.15984 171.86456 308
49.34090 106.79861 171.97484 304
34.75541 115.63979 172.10318 300
-24.29182 151.33926 163.37801 372
82.17966 85.77264 171.71472 316
72.46043 91.54152 171.81375 312
61.39284 98.17476 171.89937 308
48.77552 105.72427 171.98515 304
34.12667 114.46969 172.10992 300
16.93323 124.71675 172.27023 296
-41.33994 159.50177 165.13628 286
81.73256 84.87594 171.72418 316
71.98478 90.61268 171.79852 312
60.89182 97.14245 171.90591 308
48.19559 104.62340 171.99492 304
33.50881 113.27716 172.13980 300
16.24335 123.42215 172.22089 296
-42.27358 157.88371 165.17494 286
81.27380 83.99548 171.72966 316
71.50682 89.65425 171.81511 312
60.41077 96.14053 171.88519 308
47.65837 103.48930 171.97398 304
32.90973 112.07942 172.10629 300
15.63454 122.10069 172.26918 296
-43.09589 156.21745 165.16905 286
80.84116 83.09953 171.74379 316
71.03000 88.73239 171.80000 312
59.87815 95.10535 171.88152 308
47.08121 102.39655 172.00542 304
32.32766 110.88503 172.13902 300
15.00354 120.83272 172.24487 296
-43.98771 154.56544 165.16020 286
80.43068 82.20288 171.70645 316
70.59599 87.75839 171.79163 312
59.37687 94.09001 171.90710 308
46.58371 101.31692 172.02910 304
31.75529 109.69238 172.11407 300
14.36570 119.52599 172.24329 296
-44.81078 152.91743 165.19566 286
79.98068 81.28642 171.72298 316
70.10514 86.79068 171.82739 312
58.88869 93.07085 171.90811 308
46.07143 100.19057 172.02452 304
31.18100 108.47620 172.11708 300
13.67435 118.22108 172.30731 296
-46.93736 151.93411 164.94902 364
79.58031 80.42302 171.73164 316
69.65823 85.86130 171.83290 312
58.41256 92.00613 171.90164 308
45.51087 99.10603 172.00639 304
31.79412 106.63090 172.42516 272
13.11203 116.89593 172.29626 296
-50.72392 151.86388 164.40469 372
79.16133 79.51678 171.72488 316
69.21695 84.85706 171.79749 312
57.93783 90.97630 171.93983 308
45.03279 97.98396 172.04741 304
38.13443 101.65184 173.95990 320
23.82329 109.43075 174.61618 272
-54.57041 151.83240 163.80476 371
78.78824 78.57678 171.73724 316
68.79734 83.90072 171.82054 312
57.49288 89.91041 171.90295 308
46.45718 95.77143 172.52287 322
40.67275 98.89439 174.66533 321
34.24108 102.29377 176.89095 273
16.85875 111.58300 177.32593 273
78.35255 77.70290 171.76527 316
68.36349 82.93029 171.83868 312
57.02760 88.89115 171.94124 308
48.81689 93.19495 173.22977 324
43.18781 96.14290 175.33319 323
37.39505 99.14185 177.70850 321
27.34731 104.46944 179.36224 274
9.16113 113.99574 180.12727 288
77.96497 76.78397 171.74236 316
67.93917 81.95361 171.81856 312
56.55490 87.86140 171.94354 308
51.06796 90.69560 173.87329 325
45.61410 93.50678 175.99345 324
40.03347 96.39455 178.28755 322
29.72425 101.71387 179.93835 292
8.59244 112.64850 180.09647 288
77.59122 75.83368 171.75960 316
67.53056 80.95714 171.83878 312
58.35522 85.67057 172.54099 328
53.29914 88.23716 174.53658 326
47.94411 90.93393 176.62634 325
42.51766 93.68142 178.94157 323
29.23202 100.46422 179.91574 292
8.02494 111.29790 180.12573 288
77.19574 74.94798 171.78043 316
67.12297 80.01704 171.85313 312
60.36502 83.37489 173.17642 329
55.45282 85.85653 175.13593 327
50.21314 88.46808 177.24356 325
44.96377 91.13385 179.54500 324
28.70162 99.24323 179.93988 292
7.44119 109.95037 180.15022 288
76.83229 74.03044 171.77843 316
66.71054 79.00288 171.86484 312
61.21510 81.75273 173.51752 387
57.48250 83.56982 175.78801 328
52.43195 86.07929 177.88037 326
45.85675 89.30728 179.79889 296
28.20032 98.04820 179.96707 292
3.19174 110.40762 179.50763 290
-19.47456 121.61588 180.37982 284
76.45373 73.11662 171.76630 316
66.28229 78.02544 171.86354 312
61.92262 80.13766 173.80351 388
58.91737 81.62561 176.21764 386
54.58155 83.71493 178.46245 328
45.36445 88.18521 179.79536 296
-5.84364 113.09467 173.82159 288
-5.94342 113.12105 178.14084 289
-20.09237 120.06760 180.36526 284
76.10616 72.18459 171.78609 316
66.10414 76.96233 171.92674 378
62.62593 78.58479 174.09520 389
59.63269 80.03773 176.49124 387
56.58799 81.47919 178.98941 385
44.92471 87.11207 179.80882 296
8.01170 104.77010 176.43810 285
-14.35484 115.46007 176.86240 345
-20.70563 118.50133 180.38756 284
75.72522 71.22589 171.79036 316
66.80843 75.43861 172.23593 379
63.34228 77.08390 174.39429 390
60.39619 78.49240 176.78917 388
57.36598 79.89287 179.22264 386
44.48030 85.97104 179.84569 296
14.59145 100.05196 177.74734 286
-18.55950 115.65722 176.22505 343
-21.34714 116.99610 180.35490 284
75.36167 70.30424 171.78101 316
67.49570 73.95547 172.51657 380
64.01488 75.59410 174.65773 391
61.09501 76.90382 177.02754 389
58.13485 78.30899 179.50401 387
44.07717 84.80964 179.81580 296
20.77532 95.61799 178.98862 287
6.59469 102.19064 180.43553 285
-22.90965 115.88073 180.21309 342
75.01569 69.39642 171.75824 316
68.22068 72.49279 172.79588 381
64.73661 74.07858 174.90846 392
61.83750 75.40122 177.28804 390
58.64010 76.85020 179.70361 300
43.64223 83.70311 179.82286 296
23.63034 92.81728 179.57733 317
13.24334 97.55002 181.63464 286
-5.22625 105.97741 182.88527 267
74.69639 68.46140 171.80138 316
68.91252 71.04298 173.11757 382
65.42374 72.60213 175.19078 379
62.53782 73.90613 177.57410 391
58.26344 75.83007 179.68417 300
32.09247 87.53379 177.62894 336
25.98407 90.33642 180.09447 333
18.32848 93.77850 182.51921 315
5.27472 99.64445 184.47560 285
74.34512 67.51829 171.76907 316
69.58712 69.58473 173.38638 383
66.14075 71.13327 175.50182 380
63.26363 72.37637 177.80333 392
57.88371 74.77334 179.73174 300
34.06126 85.32044 178.11595 337
28.00598 87.94164 180.59369 334
21.28160 90.97608 183.07881 316
11.89719 95.06701 185.49207 286
-6.44542 103.19878 187.13429 267
73.98553 66.59114 171.77582 316
70.23531 68.20448 173.64838 384
66.84105 69.68317 175.77385 381
63.94950 70.92485 178.06223 393
57.50671 73.71741 179.71516 300
35.90162 83.11418 178.55986 338
30.06854 85.65621 181.01471 335
23.84852 88.32915 183.61226 333
15.93428 91.79665 186.12915 315
3.96887 96.99191 188.48232 285
74.18629 65.40759 171.92969 387
70.90810 66.79002 173.93933 384
67.56519 68.24477 176.01466 382
64.63068 69.48384 178.32440 394
57.13778 72.68330 179.73883 300
37.74492 80.96341 179.01880 339
32.01426 83.43568 181.46863 336
25.90854 85.99435 183.99962 334
18.90367 89.03506 186.63928 316
10.32773 92.66984 189.35216 314
-7.54082 100.33478 191.33432 267
74.79446 64.08810 172.19116 388
71.58830 65.44979 174.23062 385
68.25171 66.84753 176.30194 383
65.31735 68.08276 178.54301 395
56.78053 71.65582 179.72893 300
39.55601 78.90874 179.47214 340
33.94193 81.25714 181.87892 338
27.98634 83.71523 184.44325 335
21.69547 86.37600 187.11913 333
13.52398 89.81554 189.80045 315
2.76864 94.31351 192.50005 285
75.43085 62.73484 172.46532 389
72.23795 64.04465 174.48297 386
68.93963 65.40559 176.54613 384
65.95480 66.65910 178.81047 396
56.42825 70.57642 179.73169 300
41.03941 76.91869 179.82132 373
35.81652 79.07910 182.30516 339
30.00665 81.49262 184.84196 336
23.85548 84.06271 187.49113 334
16.54802 87.01903 190.23672 316
7.87193 90.65100 193.04623 313
-8.43334 97.39933 195.57123 267
76.00905 61.46322 172.74216 390
72.87998 62.74477 174.72752 387
69.63941 64.05206 176.81268 385
66.60925 65.24862 179.04454 397
56.09457 69.55067 179.73549 300
41.97474 75.28758 180.10052 374
37.61253 77.02187 182.65152 340
31.97071 79.35425 185.20840 337
25.93558 81.75963 187.82500 335
19.53779 84.39362 190.68555 317
11.14970 87.75661 193.45491 315
1.65068 91.59646 196.48866 285
76.58526 60.17124 173.00163 420
73.50832 61.40900 174.99081 388
70.31561 62.70123 177.03516 386
67.27335 63.89452 179.26404 398
55.75507 68.47926 179.72562 300
42.90084 73.58564 180.33858 375
38.64946 75.27446 182.92397 373
33.84547 77.22449 185.54173 338
28.02149 79.53292 188.19374 336
21.77660 81.99000 191.02774 334
14.27855 85.02721 193.85555 316
5.43706 88.52612 196.82594 313
-9.26157 94.38108 199.72490 267
76.87435 59.04080 173.17648 420
74.15904 60.07386 175.23741 389
70.96776 61.35467 177.31097 387
67.92669 62.54287 179.46429 399
47.45359 70.56530 178.04973 389
43.74751 71.97488 180.60402 387
39.61998 73.59184 183.19139 374
35.27230 75.30392 185.85223 371
29.98353 77.36687 188.51704 337
23.96187 79.77538 191.31374 335
17.24552 82.34016 194.20918 317
8.75288 85.71712 197.18423 314
-0.48545 89.30831 200.41710 312
77.13251 57.90833 173.33974 421
74.52119 58.88837 175.45650 419
71.61141 60.00101 177.55931 388
68.26151 61.32309 179.63564 304
48.16562 69.02446 178.27061 390
44.52246 70.41035 180.79326 388
40.58656 71.93134 183.42917 374
36.27980 73.62086 186.06757 372
31.70947 75.38508 188.86845 369
25.99727 77.53147 191.63954 336
19.73357 79.97390 194.50475 333
11.96989 82.96867 197.51677 315
2.99260 86.38791 200.67279 313
-9.98632 91.41149 203.94403 267
77.44942 56.75767 173.49683 422
74.80010 57.75064 175.61612 419
72.12021 58.73235 177.76796 417
67.95531 60.35336 179.63237 304
48.87065 67.52342 178.46204 391
45.27115 68.92170 181.02692 389
41.50016 70.33619 183.62061 386
37.27063 71.90894 186.30486 373
32.84761 73.58994 189.04002 370
28.03948 75.41576 191.91057 337
21.91133 77.70640 194.80025 334
15.02066 80.30054 197.83992 317
6.39275 83.58133 200.93175 314
-2.99344 87.08561 204.30022 311
77.70087 55.61739 173.64417 422
75.11644 56.60487 175.76834 420
72.44175 57.56383 177.89291 418
67.65968 59.35081 179.64673 304
49.55330 66.04665 178.70401 392
45.96586 67.36120 181.20273 389
42.29953 68.73460 183.82547 387
38.24149 70.23805 186.52232 374
33.85773 71.86167 189.27209 371
29.30571 73.57600 192.12134 369
24.03561 75.53963 195.04369 336
17.71336 77.82778 198.10980 333
9.60494 80.88924 201.21936 315
0.57050 84.20605 204.53964 313
78.01682 54.51548 173.80934 423
75.43183 55.43717 175.88455 421
72.79214 56.39932 178.03102 419
67.38583 58.35881 179.63219 304
50.24522 64.58403 178.93413 393
46.70705 65.88267 181.44762 390
43.05256 67.20655 184.03079 388
39.17792 68.59317 186.72812 375
34.87334 70.16470 189.42142 372
30.33566 71.85513 192.27226 370
25.64330 73.52377 195.27466 367
19.88571 75.60102 198.34138 334
12.74692 78.19773 201.42628 316
3.95736 81.39733 204.72792 314
78.27567 53.39023 173.95224 424
75.71794 54.29559 176.05057 422
73.08300 55.23013 178.21257 419
67.07506 57.39170 179.65451 304
50.93869 63.14137 179.14798 394
47.44172 64.38033 181.64484 391
43.79291 65.68559 184.24043 389
40.05725 67.03326 186.90173 386
35.85749 68.54239 189.63277 373
31.40499 70.12199 192.45901 371
26.74627 71.74417 195.45566 368
21.91148 73.49281 198.54654 365
15.64983 75.76328 201.68500 333
7.26634 78.70532 204.94054 315
78.54999 52.28170 174.14366 425
76.00520 53.17203 176.20381 422
73.40414 54.09507 178.34210 420
66.84334 56.39665 179.62512 304
51.63637 61.70479 179.32025 394
48.15714 62.91962 181.82898 392
44.54504 64.17997 184.39435 390
40.83679 65.47363 187.05545 387
36.85179 66.85372 189.81900 374
32.48380 68.40488 192.61739 371
27.89007 70.00636 195.59663 369
23.04615 71.67365 198.63557 366
17.89609 73.50275 201.85670 334
10.50215 76.06995 205.13097 316
78.83356 51.18775 174.27913 425
76.32119 52.07025 176.36377 423
73.70880 52.94344 178.46729 421
66.54308 55.40528 179.63867 304
52.30534 60.31394 179.53529 395
48.87066 61.46084 182.04535 393
45.28915 62.70509 184.60843 391
41.58564 63.96073 187.27290 388
37.78491 65.28277 189.99937 386
33.49065 66.73478 192.81145 372
28.97121 68.30581 195.73306 370
24.25315 69.93217 198.78151 367
19.26982 71.64488 202.00542 365
13.56868 73.59889 205.30754 332
79.10970 50.10329 174.41241 428
76.61345 50.93304 176.48096 424
74.01055 51.84251 178.62039 421
66.31732 54.42687 179.63448 304
52.98217 58.91919 179.74275 396
49.57738 60.03631 182.24506 394
46.04712 61.22231 184.78119 391
42.41058 62.45638 187.40729 389
38.59211 63.74238 190.17583 386
34.53804 65.07948 192.97934 373
30.02399 66.61568 195.87126 371
25.39154 68.17586 198.90118 368
20.46152 69.79735 202.06847 365
15.38849 71.56290 205.40776 363
79.41944 49.00840 174.56792 428
76.91825 49.83022 176.63956 424
74.32511 50.70461 178.77745 422
66.04275 53.45266 179.63783 304
53.64059 57.52339 179.95468 397
50.25840 58.60002 182.39964 395
46.77341 59.77060 184.98354 392
43.16607 60.97802 187.60704 390
39.39634 62.21484 190.29665 387
35.50720 63.49379 193.11099 385
31.09687 64.90868 195.99892 372
26.50653 66.46655 199.04221 369
21.68371 68.06253 202.19649 366
16.62584 69.72810 205.49194 364
79.70542 47.96482 174.71831 429
77.19824 48.73685 176.79767 425
74.65195 49.58906 178.88145 423
65.78861 52.42929 179.66844 304
54.27141 56.12317 180.14607 398
50.96019 57.20388 182.59811 395
47.49337 58.35160 185.14726 393
43.91664 59.51614 187.75302 391
40.20380 60.69823 190.46986 388
36.37578 61.93154 193.25511 386
32.14589 63.25874 196.19080 373
27.56547 64.73264 199.17014 370
22.84621 66.26841 202.28925 367
17.83667 67.88791 205.56172 365
79.97646 46.89680 174.84302 430
77.51408 47.65733 176.90504 426
74.96703 48.48003 179.03387 424
65.56900 51.41426 179.63792 304
54.83073 54.81984 180.33533 411
51.64090 55.83945 182.76219 396
48.20701 56.94572 185.33014 394
44.66876 58.03933 187.91820 392
40.98965 59.20415 190.60287 389
37.20779 60.40716 193.38399 387
33.19993 61.66151 196.28596 373
28.70125 63.09507 199.26158 371
23.97390 64.57593 202.41225 368
19.08588 66.13103 205.67769 365
80.24528 45.84685 175.01573 430
77.80778 46.57533 177.04443 426
75.24466 47.37823 179.16695 424
58.36662 52.56790 178.07407 414
55.31818 53.51720 180.45403 412
52.19651 54.52156 182.96661 409
48.90163 55.49399 185.49022 395
45.42004 56.58163 188.06352 392
41.76479 57.70210 190.77068 390
37.99792 58.87972 193.55377 387
34.11675 60.07459 196.42810 385
29.76941 61.43236 199.42633 372
25.13041 62.83598 202.50105 369
20.28032 64.39220 205.71671 366
80.53666 44.78015 175.11299 431
78.08463 45.49435 177.19415 427
75.56110 46.28812 179.26222 425
58.77759 51.34195 178.25235 422
55.77734 52.25110 180.64339 412
52.68513 53.21572 183.09364 410
49.52629 54.14526 185.64818 408
46.11263 55.15297 188.24506 393
42.54473 56.25412 190.89058 391
38.79226 57.41259 193.69569 388
34.94307 58.53098 196.54503 386
30.80589 59.83776 199.54239 373
26.23251 61.19205 202.58368 370
21.43142 62.65874 205.81783 367
80.80056 43.74548 175.25432 432
78.39865 44.46283 177.31331 428
75.86690 45.21113 179.42734 426
59.17974 50.13977 178.37251 422
56.23740 50.97151 180.77763 413
53.16547 51.88258 183.24025 411
50.04195 52.83167 185.75542 408
46.74614 53.80078 188.37239 406
43.30587 54.83806 191.04173 392
39.60795 55.92390 193.82014 389
35.77431 57.04546 196.64920 387
31.81645 58.23812 199.65483 384
27.32467 59.53338 202.69858 371
22.59422 60.91203 205.91231 368
81.09912 42.70715 175.40080 432
78.65203 43.40763 177.42894 428
76.18829 44.12305 179.54752 426
59.55786 48.93039 178.52266 423
56.71060 49.75644 180.90802 421
53.66198 50.60481 183.37321 412
50.54111 51.50830 185.88716 409
47.28851 52.47712 188.49446 407
43.93385 53.44734 191.15671 404
40.41077 54.46643 193.94690 390
36.62469 55.53610 196.79173 387
32.68842 56.65372 199.71014 385
28.40795 57.90576 202.79031 372
23.74867 59.28996 205.95319 369
81.35951 41.66826 175.51749 433
78.93967 42.33763 177.54892 429
76.10891 43.11839 179.57555 308
59.90588 47.71271 178.62262 424
57.11499 48.49163 181.03979 422
54.14498 49.33105 183.49313 412
51.04883 50.21631 186.01624 410
47.84947 51.13929 188.58716 407
44.49449 52.07145 191.28146 405
41.07645 53.04662 194.03195 402
37.42488 54.07404 196.88422 388
33.51686 55.16771 199.80167 386
29.49515 56.30122 202.86212 383
24.90793 57.57898 206.05641 370
81.63692 40.64660 175.63872 434
79.26700 41.30601 177.71535 430
75.93069 42.22301 179.56952 308
60.29425 46.52491 178.79866 425
57.53683 47.27284 181.16681 422
54.66142 48.08614 183.64505 413
51.54437 48.91100 186.15714 411
48.34059 49.80127 188.71582 408
45.06568 50.72968 191.36847 406
41.67418 51.67113 194.15202 403
38.14766 52.61370 196.97298 401
34.40853 53.64497 199.91382 386
30.40267 54.78579 202.97661 384
26.01263 55.94975 206.07452 371
81.91862 39.61042 175.77666 434
79.52376 40.26440 177.80087 430
75.75905 41.28662 179.58188 308
60.66024 45.35614 178.92969 425
57.91312 46.05884 181.31984 423
55.06939 46.81926 183.78612 421
52.05349 47.62766 186.27966 411
48.87611 48.51338 188.83434 409
45.58539 49.40896 191.49620 406
42.22077 50.31010 194.22844 404
38.75430 51.23850 197.09113 401
35.12821 52.18603 200.00002 399
31.25323 53.23990 203.05530 385
27.10195 54.34644 206.17615 372
21.35391 55.90464 209.41455 263
82.20372 38.61573 175.89496 435
79.84172 39.21870 177.94901 431
75.55527 40.32690 179.58963 308
61.04321 44.13450 179.05940 426
58.32251 44.84555 181.43295 424
55.48626 45.59651 183.89879 421
52.52828 46.40890 186.39827 412
49.37549 47.19504 188.96593 410
46.16531 48.08545 191.61537 407
42.76561 48.94657 194.31244 405
39.33010 49.83400 197.17143 402
35.73272 50.81218 200.09628 399
32.01430 51.75368 203.09059 397
28.07558 52.80507 206.22188 383
23.20323 54.11396 209.45801 340
82.45806 37.57637 176.01918 435
80.11889 38.19958 178.07190 432
75.39057 39.40226 179.57582 308
61.44183 42.97188 179.19350 427
58.70075 43.68498 181.56725 424
55.86910 44.37563 184.01547 422
52.99246 45.13731 186.52245 420
49.92429 45.93599 189.07166 410
46.67443 46.77375 191.68321 408
43.33969 47.62700 194.43085 405
39.88998 48.47725 197.24770 403
36.36586 49.42310 200.14725 400
32.65499 50.32137 203.15858 397
28.87142 51.30537 206.27452 395
24.44150 52.44429 209.51526 341
82.71672 36.59591 176.15585 436
80.40077 37.18894 178.18204 432
75.25391 38.46448 179.58275 308
61.78522 41.82206 179.30672 427
59.10429 42.50976 181.65332 425
56.30174 43.16625 184.10063 423
53.44848 43.91434 186.61575 420
50.42428 44.65994 189.17227 411
47.22865 45.47169 191.82430 409
43.89687 46.25994 194.52289 406
40.47693 47.15448 197.30484 403
36.97839 47.98880 200.21400 401
33.32003 48.94661 203.18915 398
29.51806 49.84949 206.30515 395
25.42918 50.88722 209.56187 356
-187.99045 104.13908 209.40096 295
83.01912 35.60814 176.25754 437
80.68763 36.15958 178.27211 433
75.06536 37.54111 179.55809 308
62.16835 40.65797 179.40799 428
59.48640 41.32606 181.79849 426
56.68658 42.01555 184.23491 423
53.83950 42.68351 186.71564 421
50.91172 43.41270 189.28847 419
47.73423 44.17656 191.91379 409
44.44830 44.96912 194.59959 407
41.08199 45.75973 197.41573 404
37.58746 46.64332 200.28084 402
33.93879 47.55092 203.28220 399
30.17790 48.45507 206.36176 396
26.16783 49.39399 209.57047 357
-186.85445 101.21510 209.39780 485
83.27963 34.59099 176.38071 437
80.97580 35.16105 178.38332 435
74.92893 36.57116 179.57896 308
62.55241 39.49738 179.55423 429
59.86632 40.11785 181.89587 426
57.12035 40.78380 184.33563 424
54.24614 41.45209 186.80516 422
51.36056 42.16286 189.36948 419
48.26939 42.87304 191.99034 410
45.00172 43.65014 194.69208 407
41.62456 44.44860 197.49249 405
38.17527 45.29614 200.34457 402
34.58840 46.12325 203.34418 400
30.80802 46.99216 206.44203 397
26.88939 47.96875 209.60268 357
-187.29646 98.61652 209.38922 485
83.55054 33.60591 176.48421 438
81.28542 34.12395 178.49544 436
74.76793 35.64106 179.58426 308
62.90029 38.37371 179.64151 429
60.23558 39.00133 182.03503 427
57.51158 39.61207 184.42722 425
54.68269 40.27848 186.92271 422
51.78545 40.93691 189.47778 420
48.81609 41.62846 192.11513 411
45.59170 42.37074 194.75911 408
42.21044 43.15248 197.55423 406
38.79052 43.90847 200.43637 403
35.18164 44.76759 203.40285 400
31.48410 45.60362 206.46892 398
27.60474 46.49305 209.61975 360
-187.76198 96.05481 209.40833 485
83.83481 32.62827 176.61308 438
81.54350 33.15659 178.60616 436
74.62413 34.69093 179.59698 308
63.27536 37.21162 179.80827 430
60.61852 37.83396 182.11200 428
57.90206 38.45751 184.52818 425
55.10262 39.04765 187.03809 423
52.20220 39.69207 189.55690 421
49.23259 40.34863 192.16942 418
46.10641 41.09787 194.84227 409
42.76837 41.80970 197.64363 406
39.34943 42.59187 200.47227 404
35.80809 43.39843 203.43134 401
32.16190 44.19404 206.48305 398
28.32613 45.02930 209.65393 396
-188.13896 93.54926 209.37595 485
-190.49837 93.97700 216.41379 296
84.09061 31.66374 176.74152 439
81.84188 32.14021 178.73643 437
74.50867 33.75739 179.57042 308
63.65177 36.09268 179.92218 430
61.01910 36.65317 182.24065 428
58.27427 37.26758 184.67076 426
55.52281 37.85138 187.11029 424
52.67361 38.51833 189.68028 421
49.69623 39.13942 192.27814 419
46.66651 39.78516 194.96153 410
43.35680 40.53517 197.69391 407
39.96595 41.24979 200.53079 404
36.40636 42.00554 203.48560 402
32.78399 42.81984 206.56090 399
28.97482 43.67103 209.71515 396
-183.70590 89.83658 216.35742 297
84.24371 30.70736 176.81059 458
82.11184 31.16196 178.84851 438
74.38686 32.81581 179.58226 308
64.04015 35.00143 180.03407 431
61.37486 35.54263 182.36252 429
58.67160 36.11045 184.73213 427
55.91787 36.71067 187.19586 424
53.06367 37.29461 189.77408 422
50.17707 37.90491 192.37083 419
47.13204 38.53148 195.02109 417
43.88938 39.22250 197.77750 408
40.55116 39.91833 200.60283 405
37.01107 40.65797 203.56502 402
33.40051 41.44505 206.60451 400
29.64474 42.21367 209.70242 397
-182.93121 87.10941 216.40050 439
84.26531 29.81529 176.82591 458
82.18793 30.22405 178.87782 456
74.24841 31.85221 179.60629 308
64.38672 33.85361 180.14673 432
61.79081 34.40088 182.48337 429
59.07996 34.94125 184.85806 427
56.35717 35.53658 187.32196 425
53.53236 36.10986 189.82964 422
50.57739 36.67019 192.41896 420
47.60310 37.31826 195.09798 418
44.45979 37.93985 197.87218 408
41.13242 38.65350 200.69109 406
37.62043 39.36261 203.57433 403
34.03984 40.10105 206.64493 400
30.31759 40.81731 209.76508 398
-183.06404 84.55266 216.44345 439
84.33269 28.86797 176.87366 459
82.28510 29.29567 178.93591 457
67.28316 32.26995 177.96187 435
64.77769 32.76175 180.23300 432
62.14555 33.28464 182.54314 430
59.47928 33.80884 184.96521 428
56.76501 34.35284 187.40573 425
53.92672 34.90918 189.92494 423
51.05489 35.46632 192.50879 421
48.05303 36.05046 195.19765 418
44.99982 36.66726 197.91376 416
41.68660 37.34683 200.73177 406
38.26410 38.02194 203.66644 404
34.67257 38.70652 206.68233 401
30.94562 39.45916 209.80145 398
-183.05420 81.86355 216.37860 424
84.38448 27.97982 176.92929 459
82.34777 28.37149 178.99051 457
67.65256 31.15586 178.08698 435
65.11072 31.64711 180.35478 433
62.51352 32.17407 182.65573 431
59.85993 32.65904 185.07310 428
57.13641 33.21550 187.47984 426
54.33777 33.74221 189.98895 424
51.48481 34.29826 192.60379 421
48.53923 34.82539 195.25468 419
45.48236 35.42484 197.97559 416
42.27395 36.06574 200.82109 407
38.82933 36.72202 203.71700 404
35.28671 37.41175 206.72566 402
31.64304 38.09785 209.80196 399
-183.06758 79.24232 216.37553 424
-190.44835 80.67275 223.39816 323
84.44519 27.03791 176.96187 459
82.37825 27.42983 179.02296 457
68.01929 30.12097 178.20113 436
65.47910 30.55016 180.47633 434
62.93000 31.06595 182.78380 431
60.29075 31.53801 185.14084 429
57.54457 32.06073 187.59061 427
54.78679 32.55267 190.07729 424
51.94075 33.08618 192.67345 422
48.98680 33.61829 195.30833 419
45.92412 34.18714 198.02606 417
42.80652 34.77558 200.86522 414
39.43966 35.42549 203.76608 405
35.89693 36.06287 206.74179 402
32.23879 36.72401 209.85817 400
-183.05272 76.72903 216.40332 424
-187.86366 77.61301 223.34000 322
84.50220 26.13444 177.00664 460
82.43397 26.49440 179.05141 458
68.19606 29.08300 178.28091 455
65.84139 29.49557 180.56314 434
63.29965 29.95225 182.85709 432
60.66565 30.40425 185.24953 430
57.95010 30.88410 187.69650 427
55.17359 31.38384 190.18390 425
52.33428 31.89290 192.75980 423
49.44029 32.39548 195.37398 420
46.41623 32.96311 198.10213 418
43.28447 33.50751 200.91156 415
40.01664 34.09439 203.77559 406
36.51159 34.74695 206.77509 403
32.87944 35.39935 209.87685 400
-183.11758 74.09257 216.35254 425
-185.30133 74.44664 223.31857 323
84.57439 25.22966 177.05458 460
82.52144 25.56868 179.09995 458
68.27308 28.04917 178.31293 455
65.93074 28.46171 180.59340 453
63.52391 28.84839 182.93224 451
61.06179 29.29878 185.34077 430
58.37272 29.73893 187.74471 428
55.61540 30.22377 190.27202 426
52.78120 30.72801 192.83711 423
49.88768 31.21090 195.47137 421
46.87000 31.74026 198.15382 418
43.78350 32.29587 200.94493 416
40.57657 32.83761 203.85466 406
37.13013 33.41597 206.80362 404
33.53165 34.03113 209.88860 401
-183.20578 71.49082 216.42514 425
-182.69908 71.45708 223.25568 323
84.62402 24.29821 177.10806 460
82.58803 24.66238 179.12595 458
68.35278 27.04553 178.33250 456
66.00291 27.42093 180.63808 454
63.61708 27.82094 182.99702 451
61.15589 28.23474 185.38983 449
58.68908 28.62271 187.85452 447
56.04720 29.06719 190.35686 426
53.20966 29.55669 192.90700 424
50.30153 30.02774 195.53461 421
47.33111 30.54780 198.21577 419
44.29637 31.05265 200.99062 416
41.12427 31.56463 203.90236 414
37.72590 32.15134 206.84909 404
34.17910 32.72368 209.90836 402
-181.94598 68.68445 223.18785 361
84.71761 23.38245 177.13287 461
82.65337 23.75360 179.18611 459
68.42609 26.01890 178.38869 456
66.09214 26.40934 180.69287 454
63.67641 26.75555 183.01212 452
61.25976 27.15984 185.39249 449
58.76820 27.55680 187.84326 447
56.20193 27.95458 190.39503 444
53.60944 28.38790 192.95857 442
50.78723 28.85238 195.60303 422
47.79366 29.34066 198.29054 419
44.74273 29.82679 201.03795 417
41.62643 30.31572 203.94481 414
38.33355 30.83500 206.86296 405
34.80073 31.41578 209.92770 402
-181.28691 66.09910 223.21581 361
84.78513 22.47482 177.17960 461
82.72771 22.80960 179.21248 459
68.49442 24.98535 178.44279 456
66.15681 25.37665 180.69882 454
63.76410 25.75162 183.06412 452
61.32048 26.09096 185.42912 450
58.83784 26.50019 187.88423 447
56.32075 26.86971 190.40576 445
53.66515 27.28582 192.97154 442
50.97020 27.68548 195.64191 440
48.24950 28.12214 198.33293 437
45.24802 28.57185 201.11705 417
42.07919 29.05501 203.97771 415
38.87577 29.58194 206.92815 412
35.42660 30.12159 209.97406 403
-180.72437 63.36285 223.14395 361
84.82067 21.59215 177.20474 461
82.78902 21.91105 179.23245 459
68.55145 24.01931 178.44615 457
66.24215 24.35696 180.74654 454
63.88010 24.68188 183.06924 452
61.41141 25.06955 185.48822 450
58.94431 25.43099 187.91859 447
56.39669 25.82052 190.41597 445
53.75542 26.17986 193.00912 443
51.08059 26.59528 195.65889 440
48.35666 26.98459 198.32944 437
45.48966 27.39650 201.12105 435
42.62297 27.85221 203.97792 432
39.39996 28.32137 206.92413 413
35.99533 28.79329 209.97234 403
-179.99846 60.78338 223.13295 361
84.89661 20.67031 177.25203 461
82.85978 20.99156 179.28267 459
68.65604 22.98432 178.48723 457
66.32026 23.33012 180.76805 455
63.94191 23.64665 183.13644 452
61.49739 24.00140 185.53285 450
59.02221 24.34855 187.93710 448
56.48305 24.73533 190.43835 445
53.88444 25.10089 193.02779 443
51.21378 25.46998 195.64052 440
48.45294 25.86628 198.37361 438
45.63451 26.22967 201.14450 435
42.69815 26.64214 204.01154 432
39.70608 27.08664 206.96992 430
36.61641 27.54042 210.02525 411
-179.51814 58.12543 223.12994 383
84.99526 19.79685 177.26285 462
82.94368 20.05090 179.31731 460
68.71994 21.97975 178.53658 457
66.37952 22.30220 180.81909 455
64.04852 22.63800 183.13841 453
61.61641 22.96665 185.56169 450
59.11399 23.27181 187.97359 448
56.56842 23.64067 190.49358 446
53.99646 23.98102 193.05730 443
51.30159 24.33139 195.66727 441
48.55655 24.73102 198.38213 438
45.74911 25.07591 201.16454 435
42.81807 25.49125 204.03329 433
39.85830 25.88919 206.99571 430
36.74782 26.33072 209.98700 428
-179.52008 55.63134 223.11909 383
85.05145 18.86843 177.30347 462
82.99123 19.16356 179.34756 460
68.77130 21.00989 178.57799 457
66.45467 21.27062 180.82794 455
64.12114 21.57431 183.19954 453
61.70224 21.88401 185.56918 451
59.21593 22.23506 187.99359 448
56.65712 22.53535 190.53641 446
54.05978 22.90081 193.05754 443
51.39477 23.24658 195.72263 441
48.66324 23.56391 198.39531 438
45.82423 23.94607 201.19858 436
42.97176 24.34545 204.05493 433
39.97958 24.70535 207.01151 431
36.89905 25.12974 210.01884 428
-179.57004 53.03926 223.08237 383
85.13347 17.98048 177.34973 462
83.05689 18.22712 179.38791 460
68.86257 19.97672 178.59819 458
66.53439 20.28996 180.89543 455
64.17847 20.54360 183.22495 453
61.75904 20.85850 185.60059 451
59.28872 21.15617 188.01256 448
56.75349 21.49159 190.52580 446
54.16668 21.79149 193.11295 444
51.50998 22.11326 195.70775 441
48.77577 22.44261 198.41298 439
45.96540 22.79507 201.20018 436
43.04403 23.15558 204.04680 433
40.09210 23.52850 206.98801 431
37.03976 23.91511 210.03751 428
-179.46954 50.51775 223.14853 383
85.19243 17.07286 177.36508 462
83.13393 17.35013 179.40736 460
68.92681 18.98772 178.64937 458
66.63567 19.27128 180.91205 456
64.26954 19.52858 183.23006 453
61.85633 19.79121 185.62393 451
59.40553 20.09818 188.06299 449
56.87185 20.40644 190.54543 446
54.27940 20.71504 193.12666 444
51.60572 20.99072 195.73650 441
48.87209 21.31218 198.43970 439
46.09590 21.66043 201.18916 436
43.19550 21.97222 204.07669 434
40.21527 22.31757 207.03041 431
37.20457 22.70025 210.05585 428
-179.45032 48.01839 223.07967 383
85.25228 16.17756 177.40901 463
83.24072 16.40868 179.43977 461
69.04305 17.98880 178.63930 458
66.70447 18.24783 180.91580 456
64.37450 18.50880 183.28879 454
61.93726 18.79016 185.65631 451
59.45961 19.02857 188.07298 449
56.94375 19.34674 190.56622 447
54.35907 19.62223 193.16037 444
51.68919 19.89378 195.75148 442
48.98404 20.21470 198.46170 439
46.20260 20.49985 201.21523 437
43.35163 20.83691 204.09346 434
40.38539 21.15657 207.02667 431
37.35244 21.50963 210.05017 429
-179.47008 45.43603 223.09676 383
85.32101 15.30711 177.42247 463
83.28813 15.53180 179.43903 461
69.10828 17.00551 178.69408 458
66.80976 17.23687 180.94832 456
64.42920 17.46071 183.27364 454
62.04788 17.74306 185.67999 452
59.58188 17.97404 188.12387 449
57.07127 18.22567 190.61113 447
54.47399 18.53302 193.14581 444
51.82397 18.80359 195.79594 442
49.10123 19.08512 198.48308 439
46.29660 19.37572 201.22119 437
43.44706 19.64976 204.08194 434
40.53233 19.98499 207.02141 432
37.47051 20.27343 210.04463 429
-179.50195 42.98894 223.07492 384
85.39700 14.42138 177.45465 463
83.36034 14.61627 179.50676 461
69.17074 15.97948 178.69205 459
66.88701 16.21632 180.98453 456
64.54652 16.44393 183.31865 454
62.12426 16.71472 185.70682 452
59.65574 16.93654 188.13754 449
57.12843 17.16038 190.61966 447
54.58635 17.44742 193.19162 445
51.92538 17.71292 195.81332 442
49.20855 17.93945 198.50491 440
46.44263 18.23933 201.26685 437
43.58328 18.49761 204.10548 435
40.65271 18.78963 207.03665 432
37.62611 19.09650 210.06425 429
-179.44119 40.39419 223.11636 384
85.46618 13.52053 177.48782 463
83.43623 13.70782 179.52522 461
69.25665 15.00600 178.74210 459
66.96863 15.20519 181.02733 457
64.64910 15.43903 183.33447 454
62.22089 15.66926 185.72531 452
59.74914 15.88249 188.14941 450
57.26898 16.12221 190.63730 447
54.68080 16.36621 193.21803 445
