# .PCD v.7 - Point Cloud Data file format
VERSION .7
FIELDS x y z rgb
SIZE 4 4 4 4
TYPE F F F U
COUNT 1 1 1 1
WIDTH 1353
HEIGHT 1
VIEWPOINT 6478.312012 -567.941223 145.812317 -0.627717 -0.099206 -0.087975 0.767066
POINTS 1353
DATA ascii
19.93460 -83.58844 191.17761 332
11.67716 -86.94841 193.97926 314
2.64414 -90.64663 196.92143 311
-23.59640 -101.35478 198.99637 265
74.98490 -62.22940 173.33070 388
71.82586 -63.50122 175.30722 386
68.59445 -64.85261 177.32701 384
65.82052 -66.03812 179.57866 395
44.97516 -74.66470 178.03270 386
40.83801 -76.36859 180.47380 373
35.93235 -78.41798 182.96309 338
30.17160 -80.79263 185.40302 336
24.09070 -83.35503 188.02560 333
17.02893 -86.24860 190.78099 315
8.37546 -89.89346 193.54153 313
-5.39205 -95.56147 196.14810 266
74.36319 -63.56438 173.03740 387
71.18667 -64.88786 174.99617 385
67.94671 -66.30471 177.04066 383
65.14596 -67.47355 179.28940 394
53.68829 -72.28560 179.78273 300
39.60601 -78.22887 180.12741 339
34.01787 -80.60701 182.51752 337
28.16911 -83.10390 184.99191 335
21.90674 -85.71327 187.66006 332
13.92320 -89.11765 190.32895 314
3.98276 -93.26981 192.98418 285
73.74141 -64.94316 172.74852 386
70.54040 -66.30962 174.70334 384
67.21694 -67.74339 176.77550 382
64.45384 -68.90382 179.04982 393
54.20787 -73.33142 179.75319 300
37.81395 -80.40302 179.67033 338
32.07981 -82.85017 182.06984 336
26.05840 -85.42093 184.59010 334
19.19656 -88.39530 187.21785 315
10.65332 -92.01588 189.80801 313
-5.17006 -98.87836 191.99123 266
73.13318 -66.32411 172.40303 385
69.88042 -67.76622 174.41078 383
66.52249 -69.20503 176.44327 394
63.79841 -70.39676 178.76335 392
54.66102 -74.37386 179.75722 300
35.93216 -82.58746 179.18282 337
30.10092 -85.11880 181.60291 335
23.94741 -87.81989 184.16158 332
16.12135 -91.21032 186.68013 314
4.86518 -96.12749 188.99821 285
72.52072 -67.72549 172.08521 385
69.22422 -69.16766 174.11656 382
65.88699 -70.65083 176.17712 393
63.12252 -71.91140 178.46939 391
55.15807 -75.42288 179.78320 300
34.04702 -84.82575 178.71710 336
28.05410 -87.46129 181.10030 334
21.40623 -90.44150 183.63422 316
12.70155 -94.31726 186.11224 286
-4.83479 -102.11744 187.71687 266
72.07137 -69.07496 171.81245 316
68.56578 -70.64984 173.78795 381
65.21652 -72.18604 175.86699 392
62.41499 -73.42746 178.22458 390
55.69200 -76.47221 179.74385 300
32.06536 -87.14125 178.21800 335
25.94105 -89.87639 180.61662 333
18.40746 -93.28716 183.04660 314
5.86057 -98.94849 184.97690 285
72.55917 -70.00964 171.81316 316
67.86053 -72.14871 173.47400 380
64.55683 -73.69331 175.58330 391
61.67698 -75.00090 177.93275 389
56.18275 -77.52985 179.75723 300
30.06436 -89.46221 177.69865 334
23.66184 -92.41698 180.11182 316
13.69468 -96.99131 182.15842 286
-4.40177 -105.32941 183.45879 266
72.99171 -70.92036 171.81946 316
67.17901 -73.65299 173.12440 379
63.84959 -75.21270 175.25702 390
60.94415 -76.54951 177.61276 388
56.67746 -78.55637 179.74547 300
41.70121 -85.51168 179.90846 296
20.73735 -95.32274 179.46768 315
6.87022 -101.74620 180.93484 284
-24.25103 -116.28962 180.46068 284
73.49947 -71.86618 171.83949 316
66.50037 -75.17480 172.79100 378
63.17434 -76.75112 174.96866 389
60.24988 -78.12883 177.33047 387
57.20135 -79.57677 179.76591 300
42.28640 -86.67196 179.85912 296
14.78395 -99.65000 178.24660 286
-19.31927 -115.85081 176.58157 344
-23.52962 -117.85732 180.43668 284
73.97789 -72.80938 171.82190 316
65.80624 -76.74999 172.45297 378
62.47074 -78.34686 174.63451 388
59.49442 -79.76292 177.01289 386
56.46705 -81.20057 179.48003 384
42.84062 -87.77984 179.87761 296
8.05864 -104.55219 176.90213 284
-14.98330 -115.61707 177.11490 345
-22.73623 -119.31944 180.45760 284
74.44667 -73.71187 171.81491 316
65.05988 -78.29441 172.11220 377
61.74518 -79.91265 174.31485 387
58.74422 -81.41104 176.71652 385
54.71759 -83.38948 178.95453 327
43.38887 -88.92976 179.84799 296
-7.17816 -113.62353 173.97198 289
-7.23455 -113.66214 178.29227 289
-22.01706 -120.86333 180.44669 284
74.94604 -74.63067 171.81273 316
64.82689 -79.66588 171.87817 312
60.99583 -81.57359 173.96509 386
57.54390 -83.26339 176.27711 328
52.51577 -85.76556 178.34084 327
44.00607 -90.02753 179.89418 296
26.37175 -98.78393 179.99200 292
2.00468 -110.87299 179.71339 291
75.42479 -75.54939 171.79358 316
65.34508 -80.64505 171.91359 312
60.28812 -83.20910 173.66132 385
55.41599 -85.68673 175.60751 327
50.23591 -88.26154 177.70699 326
44.55215 -91.13171 179.84050 296
27.02035 -99.96164 180.02408 292
5.76136 -110.71902 180.17725 288
75.94267 -76.50112 171.82231 316
65.89289 -81.61183 171.90202 312
58.24005 -85.52126 172.99722 328
53.19990 -88.10832 174.97105 325
47.92267 -90.83080 177.03094 324
42.47664 -93.62873 179.29126 322
27.64979 -101.22916 179.97583 292
6.46510 -112.06500 180.18550 288
76.45203 -77.39547 171.81921 316
66.45593 -82.60664 171.87601 312
56.15861 -87.94733 172.25381 326
50.94027 -90.65989 174.25700 324
45.46418 -93.50813 176.36461 323
39.89537 -96.39326 178.63126 321
28.31245 -102.44708 179.97144 292
7.19682 -113.43818 180.15570 288
-3823.65674 -2103.92139 142.68861 477
76.95776 -78.29729 171.79863 316
66.97617 -83.57857 171.89496 312
55.65349 -89.58179 171.98370 308
48.59454 -93.30907 173.54832 323
42.99709 -96.23271 175.68660 322
37.18179 -99.29840 177.99152 320
26.95170 -104.70319 179.59944 274
7.86031 -114.75774 180.20627 288
77.48200 -79.22404 171.80028 316
67.52380 -84.57652 171.87462 312
56.20396 -90.59470 171.99416 308
46.18163 -96.01638 172.80800 322
40.37827 -99.08958 174.94331 321
33.47502 -102.80767 177.03970 272
15.81867 -112.26907 177.41986 272
78.01299 -80.11092 171.81012 316
68.08270 -85.50146 171.85019 312
56.84964 -91.66428 171.94310 308
43.92515 -98.64563 172.06946 304
37.74327 -102.04757 174.21840 320
22.42522 -110.29814 174.60805 271
-54.01880 -151.86987 164.19173 372
78.56929 -81.01774 171.79659 316
68.64508 -86.47508 171.87488 312
57.43971 -92.66426 171.95663 308
44.56097 -99.78188 172.09984 304
30.28220 -107.61053 172.34233 272
12.15900 -117.65004 172.34537 296
-50.15420 -151.95044 164.67754 373
79.07569 -81.92224 171.78189 316
69.22325 -87.47138 171.87975 312
58.01944 -93.72996 171.95290 308
45.16808 -100.89994 172.06659 304
30.30895 -109.19319 172.19443 300
12.92923 -118.92887 172.36894 296
-46.47760 -152.20239 165.25201 286
79.64854 -82.84098 171.79539 316
69.81000 -88.43458 171.86682 312
58.64283 -94.74444 171.95898 308
45.82945 -101.99821 172.04970 304
31.01862 -110.40748 172.19240 300
13.65656 -120.27747 172.31386 296
-45.49218 -153.80486 165.16576 286
80.19510 -83.71958 171.77100 316
70.36996 -89.36838 171.85811 312
59.22987 -95.75222 171.93939 308
46.52655 -103.09003 172.07410 304
31.73990 -111.61610 172.18712 300
14.45311 -121.58399 172.36115 296
-44.53540 -155.47632 165.25034 286
80.73602 -84.61716 171.74832 316
70.97594 -90.31631 171.87059 312
59.88628 -96.77528 171.92918 308
47.18351 -104.21069 172.02176 304
32.42606 -112.81699 172.14552 300
15.18571 -122.85269 172.30098 296
-43.49453 -157.15738 165.19098 286
81.32587 -85.52776 171.75745 316
71.58298 -91.29099 171.86885 312
60.50094 -97.82604 171.91235 308
47.82316 -105.30623 172.05246 304
33.18171 -114.01730 172.19615 300
16.00153 -124.16176 172.32666 296
-42.47725 -158.75327 165.19852 286
81.85600 -86.41537 171.73807 316
72.18479 -92.22797 171.83992 312
61.14176 -98.85806 171.93204 308
48.53245 -106.39759 172.03935 304
33.92740 -115.18865 172.13815 300
-26.63945 -151.51730 163.08496 371
-41.42618 -160.45409 165.16277 286
82.44480 -87.30161 171.73376 316
72.78706 -93.18381 171.84137 312
61.76995 -99.86378 171.93489 308
49.23980 -107.52602 172.03477 304
34.66692 -116.35027 172.15034 300
-22.95496 -151.47171 163.64124 372
83.01167 -88.16457 171.73126 316
73.39643 -94.11844 171.81627 312
62.46948 -100.86227 171.92177 308
49.93310 -108.59539 172.00551 304
35.38732 -117.57397 172.17044 300
-19.36084 -151.37234 164.25067 374
83.59877 -89.06035 171.72597 316
73.99809 -95.06767 171.83090 312
63.11752 -101.83833 171.93234 308
50.63271 -109.66233 172.02805 304
36.15467 -118.72251 172.16043 300
-15.91489 -151.26517 164.75072 375
84.18522 -89.93794 171.75749 316
74.61171 -95.99049 171.83714 312
63.74355 -102.84663 171.92349 308
51.28901 -110.76835 172.03127 304
36.88816 -119.89236 172.16373 300
-12.46440 -151.18280 165.31200 376
84.75066 -90.76894 171.74638 316
75.22729 -96.92513 171.79625 312
64.41171 -103.88649 171.90706 308
52.03821 -111.82656 172.01044 304
37.68449 -121.08748 172.10921 300
-9.57370 -151.44862 165.67754 291
85.35192 -91.66886 171.74033 316
75.88018 -97.85143 171.79173 312
65.10375 -104.85632 171.88930 308
52.73350 -112.92190 172.00719 304
38.45903 -122.19584 172.09729 300
-8.55223 -152.80243 165.73872 291
85.95539 -92.52099 171.70024 316
76.53616 -98.75626 171.77824 312
65.76814 -105.83138 171.89037 308
53.44594 -113.98251 171.97322 304
39.22765 -123.37684 172.09280 300
-7.48881 -154.19847 165.75984 291
86.60082 -93.37410 171.70976 316
77.16660 -99.69360 171.82076 312
66.45023 -106.85642 171.86446 308
54.21784 -115.02499 171.97559 304
1.61670 -150.23936 162.94998 285
-6.44838 -155.60870 165.74139 291
87.20035 -94.23812 171.73259 316
77.82385 -100.58892 171.81735 312
67.16542 -107.83279 171.85732 308
54.95696 -116.07565 172.01202 304
3.78510 -150.82211 163.22655 382
-5.41507 -157.05734 165.77438 290
87.82219 -95.11637 171.70787 316
78.47982 -101.51523 171.76662 312
67.86789 -108.80733 171.89873 308
55.69225 -117.18583 171.96852 304
6.82228 -150.75513 163.70764 384
-4.43078 -158.42122 165.75169 290
88.41920 -95.96230 171.68024 316
79.13370 -102.43311 171.78072 312
68.57858 -109.78480 171.86095 308
56.42584 -118.21025 171.98523 304
9.79346 -150.66983 164.22823 385
-3.37851 -159.85693 165.73656 290
89.05872 -96.80828 171.69470 316
79.77355 -103.33401 171.78766 312
69.23100 -110.74708 171.85732 308
57.22231 -119.27731 171.98669 304
12.78511 -150.59805 164.65717 386
89.69173 -97.65201 171.67671 316
80.43643 -104.25759 171.75237 312
69.97994 -111.70628 171.83853 308
57.96623 -120.30261 171.97197 304
15.69809 -150.52499 165.16258 387
90.33303 -98.51143 171.68071 316
81.14029 -105.12305 171.75996 312
70.67677 -112.71697 171.83197 308
58.71347 -121.35893 171.95566 304
18.54048 -150.45016 165.62796 389
90.95238 -99.31970 171.66550 316
81.79655 -106.03954 171.73665 312
71.44951 -113.66078 171.85526 308
59.49807 -122.38633 171.95291 304
21.35699 -150.37532 166.09279 387
91.59885 -100.17883 171.68175 316
82.51012 -106.92936 171.75299 312
72.17738 -114.61208 171.85391 308
60.25780 -123.40872 171.96555 304
22.54467 -151.44101 166.11732 297
92.26269 -100.98268 171.67831 316
83.21799 -107.80469 171.72685 312
72.88826 -115.55718 171.86299 308
28.85225 -148.73164 163.19838 296
23.51751 -152.71611 166.09439 297
92.93323 -101.82787 171.65277 316
83.88455 -108.72142 171.73836 312
73.63917 -116.49982 171.81436 308
29.64335 -150.06242 163.19852 296
24.50927 -153.91026 166.15111 297
93.57159 -102.64043 171.66171 316
84.62136 -109.57150 171.74266 312
74.36734 -117.49450 171.82004 308
32.22309 -149.93925 163.63519 391
25.51158 -155.18887 166.09418 297
94.26453 -103.47595 171.65955 316
85.29663 -110.45168 171.73245 312
75.12302 -118.40681 171.80923 308
34.86520 -149.89424 164.07689 393
26.56196 -156.36720 166.15724 297
94.92368 -104.28940 171.65405 316
85.99782 -111.32418 171.72098 312
75.91978 -119.32732 171.79950 308
37.44144 -149.80661 164.53580 394
27.57259 -157.57025 166.08815 297
95.60267 -105.12443 171.65591 316
86.72865 -112.21141 171.74002 312
76.64176 -120.28022 171.81784 308
39.99310 -149.69539 164.95438 395
28.58751 -158.79541 166.09361 297
96.29079 -105.90137 171.65042 316
87.44922 -113.05677 171.69888 312
77.40792 -121.20417 171.78995 308
42.51181 -149.58142 165.40778 396
96.99846 -106.72259 171.61656 316
88.21407 -113.93943 171.71196 312
78.18803 -122.12318 171.77823 308
44.94758 -149.47363 165.77345 397
97.69693 -107.52096 171.64749 316
88.91074 -114.78545 171.70473 312
51.30456 -146.06728 163.37363 300
47.37446 -149.39029 166.22354 399
98.35680 -108.30521 171.64397 316
89.67570 -115.64441 171.70314 312
52.14447 -147.28036 163.33626 300
48.47927 -150.33319 166.23419 301
99.07741 -109.10716 171.59450 316
90.41742 -116.50792 171.68629 312
52.94962 -148.42905 163.34483 300
49.45860 -151.44073 166.27646 301
99.78339 -109.90105 171.60393 316
91.17062 -117.35610 171.66776 312
54.37465 -149.11821 163.42473 402
50.47870 -152.51830 166.25243 301
100.49113 -110.70540 171.58327 316
91.91432 -118.17906 171.66933 312
56.63356 -149.07166 163.85536 403
51.48700 -153.54741 166.25291 301
101.21802 -111.49986 171.61807 316
92.69332 -119.05170 171.69379 312
58.85249 -148.96910 164.24356 404
52.45584 -154.61412 166.22084 301
101.93066 -112.27161 171.60580 316
93.47208 -119.85207 171.68314 312
61.08183 -148.86342 164.62662 405
53.44440 -155.67146 166.25475 301
102.66006 -113.05998 171.58601 316
94.22702 -120.67369 171.64836 312
63.22882 -148.82016 165.03162 406
54.49624 -156.76357 166.25206 301
103.40540 -113.81530 171.58463 316
71.19341 -143.39130 163.55226 304
65.40846 -148.69157 165.37799 407
55.49636 -157.76506 166.23323 301
104.12219 -114.58257 171.59061 316
71.98489 -144.48312 163.48882 304
67.52190 -148.64784 165.72282 408
104.85085 -115.35479 171.55334 316
72.87403 -145.52382 163.45589 304
69.56474 -148.58611 166.11241 410
105.59875 -116.13180 171.55524 316
73.71017 -146.55367 163.45718 304
71.25887 -148.80234 166.31480 305
106.35033 -116.86303 171.54797 316
74.54432 -147.59018 163.43639 304
72.28407 -149.73140 166.36029 305
107.10532 -117.61146 171.53188 316
75.65867 -148.30643 163.49484 412
73.28195 -150.70686 166.32945 306
107.87706 -118.35841 171.55721 316
77.62047 -148.24937 163.84900 413
74.26156 -151.64365 166.37489 306
108.62624 -119.10701 171.53137 316
79.61344 -148.15930 164.18797 414
75.22784 -152.55930 166.34157 306
-29337.86914 -29596.97852 -463.52338 1000
88.84019 -140.74539 163.67912 311
81.54897 -148.11699 164.50273 416
76.24916 -153.44855 166.36365 306
89.66994 -141.60477 163.64784 311
83.41946 -148.01213 164.82903 417
77.25964 -154.37268 166.36409 306
90.53406 -142.55322 163.61780 311
85.31620 -147.94849 165.16032 418
78.28670 -155.27115 166.35840 305
91.35891 -143.46339 163.61864 311
87.16551 -147.92293 165.52905 419
79.25787 -156.15042 166.36571 305
92.24104 -144.37445 163.59055 311
88.96749 -147.86035 165.82327 420
80.30563 -157.05380 166.36171 305
93.12529 -145.26585 163.56789 311
90.76323 -147.77608 166.15839 421
94.01978 -146.11368 163.52896 307
92.54337 -147.73170 166.41638 310
94.90254 -147.04108 163.49352 307
93.53205 -148.54077 166.43039 310
96.06100 -147.59053 163.59030 423
94.49301 -149.31743 166.47397 310
97.86258 -147.43372 163.95667 414
95.47372 -150.11188 166.42795 310
99.67133 -147.25410 164.30305 415
96.46837 -150.95012 166.46381 310
101.44074 -147.04292 164.61310 416
97.42548 -151.70456 166.47739 310
103.24387 -146.91026 164.94569 417
98.45670 -152.51601 166.44653 310
104.98656 -146.73204 165.27997 418
99.43860 -153.28473 166.46085 310
106.67743 -146.56836 165.57635 419
100.40817 -154.06342 166.44896 310
108.36400 -146.40295 165.91112 420
101.40829 -154.85805 166.44823 310
110.04848 -146.20711 166.20444 421
102.46244 -155.64444 166.48000 310
111.60346 -146.23799 166.48064 314
-2172.71460 -3003.18188 154.10538 322
112.50626 -146.92868 166.48218 314
-2118.11865 -2972.17944 154.65491 347
113.48017 -147.65877 166.47711 314
-2069.46191 -2947.32349 155.76010 354
114.46033 -148.35837 166.43781 314
-1052.29211 -1664.31055 113.73595 490
-1054.75830 -1667.18018 147.73973 498
-1056.60535 -1669.69653 182.41302 498
116.00712 -148.23515 166.70135 428
-1042.97742 -1673.08289 113.29086 446
-1987.33325 -2915.48511 156.89279 369
117.55591 -148.10040 166.98480 429
-1950.03723 -2902.61694 157.56671 370
-2041.74780 -3026.14404 217.19556 413
119.04761 -148.10524 167.22385 439
118.43299 -148.95795 170.18428 431
-1912.13025 -2889.56030 158.05928 371
-2020.96924 -3036.42944 216.70828 385
120.42464 -148.21642 167.39627 316
119.89549 -148.92505 170.39075 439
-1876.05603 -2877.58862 158.29770 372
-2023.42566 -3078.68359 217.25179 412
121.35448 -148.86847 167.41060 316
121.15265 -149.21465 170.52626 312
-1839.96729 -2865.15527 158.91640 332
-1930.12781 -2991.16797 216.26842 257
122.35542 -149.54341 167.38577 316
122.12022 -149.89796 170.52226 312
-1805.56104 -2854.29077 159.74681 332
-1916.01953 -3008.95557 216.94914 257
124.27809 -148.82416 167.85144 490
-1771.48303 -2843.68164 160.25858 333
-1818.36768 -2909.99121 217.16624 449
124.24013 -150.85580 167.39059 316
-1738.51086 -2832.63550 160.33655 334
-1805.82043 -2930.15845 217.00290 427
-1705.65833 -2822.70386 161.19409 334
-1796.88818 -2956.24194 216.27274 424
-1851.74951 -3036.57568 337.27582 396
-1673.32202 -2812.29395 161.48792 335
-1736.18628 -2905.84717 216.84962 442
-1734.19568 -2903.38330 274.18454 497
-1656.18237 -2823.87280 105.30235 373
-1640.88550 -2801.41162 161.48053 336
-1727.22009 -2930.66919 216.83618 424
-1622.80237 -2811.24805 106.90854 374
-1609.77332 -2791.96436 162.45291 336
-1717.46277 -2955.79858 216.75838 423
-947.41003 -1786.44580 752.29248 1000
-1586.90283 -2794.31763 107.26016 297
-1578.57666 -2781.75244 161.99544 337
-1708.18921 -2981.17993 217.13147 423
-1552.86182 -2778.87329 108.17627 297
-1548.43213 -2772.49023 162.95537 281
-1699.22913 -3007.31274 217.02797 420
-1560.05408 -2829.25610 107.58641 438
-1694.06909 -3039.64429 158.01889 403
-1689.49060 -3034.34961 217.02657 401
-1551.41626 -2853.35498 106.50058 437
-1679.91785 -3059.50586 157.92673 386
-30943.75195 -50639.21484 -6620.49854 1000
-1510.64453 -2826.32202 107.72527 434
-1647.00769 -3048.00439 158.22047 387
-1529.61084 -2857.47534 216.90466 406
-1531.66797 -2901.56299 105.88228 407
-1530.62048 -2899.39526 160.94598 496
-1502.43127 -2892.62427 106.27621 442
-1582.62219 -3026.45312 158.56674 389
-1551.36072 -3016.18945 159.85231 335
-1509.51892 -2986.60156 160.04521 431
-1490.24939 -2996.99121 160.52852 336
-1461.67114 -2989.24512 159.96082 385
-1441.68494 -2996.63867 160.27237 350
-27889.62500 -57670.98438 -7161.52734 1000
-19276.96875 -62995.69531 6713.34521 1000
12884.03613 -37499.28906 3460.95117 1000
12682.76660 -36902.19141 7962.50537 1000
24530.23047 -57637.44531 -15451.32324 1000
810.35760 -1086.98352 95.61524 451
814.28125 -1093.95581 115.16383 327
815.18463 -1080.07849 95.98327 486
817.80133 -1084.34277 115.70236 486
820.47986 -1089.37610 135.46613 408
823.65594 -1095.44580 155.55481 389
822.00281 -1076.17883 95.77334 483
823.83917 -1079.96484 115.67066 497
826.09302 -1084.21460 135.58290 486
828.39178 -1087.87622 155.46786 496
830.94208 -1092.64417 175.86089 431
830.12708 -1075.83057 95.37650 447
832.30804 -1079.81128 115.50583 448
834.87482 -1084.56934 135.34737 435
837.44818 -1088.55737 155.47623 393
1838.04651 -1958.05664 133.52739 351
1846.03052 -1943.96387 133.28532 471
1858.21472 -1934.01172 133.47076 471
1869.21216 -1923.52002 133.28052 259
1881.56445 -1913.56055 133.43643 499
14278.59180 -16065.95215 -2950.17798 1000
1967.71692 -1988.94312 86.14861 273
1894.20813 -1904.29028 133.16592 497
1958.63855 -1953.95105 88.13716 273
1907.22412 -1895.54382 133.27820 497
1948.56653 -1919.37500 89.84257 274
1920.08875 -1887.25549 133.16437 495
1952.23755 -1899.23120 90.35923 442
1933.95081 -1878.86169 133.33418 423
1966.48181 -1891.58228 90.21574 451
1946.74158 -1870.38904 133.42816 423
1980.36267 -1883.23523 90.23906 439
1960.40381 -1862.32678 133.27309 423
2095.13965 -2007.31116 171.28545 390
1994.54150 -1875.23584 90.05515 432
1973.49561 -1853.89856 133.10345 422
2092.91797 -1980.39990 171.66158 391
2008.88330 -1868.05310 89.21037 431
1987.62195 -1845.73267 132.98814 492
2090.37305 -1953.48279 172.21848 392
2024.52991 -1861.06067 89.04951 427
2001.97229 -1838.20007 132.99306 487
2089.05859 -1927.77771 172.14545 393
2039.71167 -1854.40588 88.69808 426
2016.98779 -1830.76465 132.66743 486
2086.32983 -1902.48291 172.84105 394
2055.73193 -1847.57080 88.49229 426
2032.60962 -1823.77466 132.25410 483
2084.41699 -1876.96545 173.36122 395
2071.73730 -1840.79907 87.95459 427
2047.71216 -1817.51135 132.30263 476
2082.60474 -1852.05298 173.66005 397
2088.85498 -1835.04321 88.20036 417
2064.71021 -1811.65442 131.62383 475
2083.87793 -1831.03625 173.20662 488
2105.78613 -1829.88562 87.26454 414
2081.43213 -1805.74280 131.19273 472
2094.88550 -1818.75354 173.80571 488
2124.07837 -1825.14941 86.95856 403
2098.21265 -1800.83118 131.20030 464
2108.25220 -1809.81714 173.34917 466
2143.34009 -1821.59656 86.69489 403
2116.83911 -1795.85864 131.13197 388
2126.40747 -1805.06262 173.70120 465
2163.95825 -1818.95447 85.68051 402
2135.99805 -1791.85437 130.53957 383
2145.10107 -1800.57935 173.27263 438
2184.46387 -1815.06445 85.41204 401
2156.23901 -1789.11682 129.98045 442
2166.45996 -1798.47510 172.69183 437
20888.66602 -19164.92383 3924.50049 1000
2206.09668 -1812.91870 84.26907 406
2178.84546 -1787.52905 129.35202 402
2187.73267 -1796.41492 172.39075 436
2227.75293 -1810.71216 83.72580 405
2201.12183 -1785.84375 129.41129 401
2209.60205 -1794.00122 172.27074 435
2249.75562 -1808.29480 83.09204 411
2223.80151 -1784.71509 128.73294 400
2231.51221 -1791.71204 172.15849 434
2271.06714 -1805.14575 82.40658 410
2246.89844 -1782.89368 128.37637 403
2490.13110 -1997.89514 166.50729 397
2270.06323 -1781.33716 127.20052 417
2493.54785 -1975.88452 166.60416 420
2293.30835 -1779.97656 126.86874 416
2486.13843 -1945.94714 167.01610 384
2317.13574 -1778.19055 126.55286 415
2328.38452 -1787.49512 171.08275 413
2341.18530 -1776.11560 125.80830 414
2501.48877 -1910.38245 167.71451 426
2365.57104 -1774.04224 125.09049 413
2498.88550 -1885.16626 167.63409 427
2389.91113 -1772.80493 124.54727 412
2478.56470 -1845.07190 168.38242 380
2415.08105 -1770.97754 124.38711 411
2426.61670 -1780.05652 169.69810 333
2440.23047 -1769.11646 123.66346 410
2474.40039 -1796.27222 168.71490 394
2465.88135 -1767.24146 122.95636 411
2484.85278 -1781.70410 168.97519 420
2491.34766 -1764.91260 121.98745 411
2510.86768 -1780.14490 168.42592 413
2519.39331 -1764.03638 121.21828 411
2545.90112 -1762.20959 120.49769 410
37358.01172 -27154.79883 -11311.01562 1000
375.67975 -105.94783 167.64027 313
376.29425 -105.00976 167.63509 313
376.89029 -104.08985 167.66589 313
377.45932 -103.11586 167.68388 313
378.06332 -102.18786 167.66138 313
378.60080 -101.26592 167.68340 315
379.20187 -100.32057 167.67705 315
379.75412 -99.38297 167.66174 315
380.35635 -98.43330 167.66101 315
380.91046 -97.51868 167.70049 315
381.44437 -96.56061 167.70654 315
382.02960 -95.62358 167.71626 315
382.68677 -94.74542 167.65419 435
384.05457 -94.28430 167.38165 435
385.42300 -93.79317 167.12335 434
386.81372 -93.28548 166.88704 433
395.11539 -98.13898 167.67897 309
388.20804 -92.81915 166.59665 432
395.67606 -97.08942 167.71613 309
389.64264 -92.35291 166.36021 431
396.19736 -96.01971 167.73515 309
391.08911 -91.81007 166.07573 430
396.72015 -95.00949 167.70457 309
392.54083 -91.35258 165.79120 429
397.21301 -93.93232 167.75943 309
393.99649 -90.82104 165.51683 428
397.76968 -92.88716 167.72816 309
395.44803 -90.29639 165.23602 427
398.27002 -91.80611 167.77428 309
396.94406 -89.80138 164.93546 426
398.75305 -90.73750 167.75063 311
397.93707 -88.95673 164.81073 317
399.24719 -89.68822 167.78917 311
398.43152 -87.94730 164.76311 317
400.04358 -88.73956 167.68768 424
398.96329 -86.89436 164.76088 317
401.58282 -88.22429 167.39453 423
399.51080 -85.82107 164.79417 317
403.17413 -87.63810 167.12050 422
399.99646 -84.77697 164.74773 317
404.78226 -87.12106 166.83371 421
400.53152 -83.74498 164.74739 317
406.38605 -86.54053 166.48926 420
414.83350 -90.58565 167.74355 305
400.98428 -82.66726 164.75993 317
407.82327 -85.89686 166.20799 439
415.33270 -89.42725 167.75729 305
401.48300 -81.58807 164.74854 317
409.23663 -85.24339 165.96208 438
415.80487 -88.29073 167.79691 305
401.96970 -80.52939 164.75156 317
410.64563 -84.53490 165.71516 437
416.29370 -87.07800 167.77737 305
402.42648 -79.48830 164.76387 317
412.10776 -83.80093 165.47426 436
416.71658 -85.88999 167.80092 305
402.87061 -78.42126 164.78259 317
413.52817 -83.11472 165.17500 435
417.20425 -84.73705 167.77643 305
403.34918 -77.32037 164.76564 317
415.00638 -82.42562 164.89859 434
417.65836 -83.55978 167.79723 305
403.76541 -76.24728 164.75476 317
415.76736 -81.36359 164.84218 312
418.07230 -82.34115 167.83174 305
380.63766 -65.22225 171.63205 316
416.23697 -80.19964 164.84669 312
418.50739 -81.18418 167.82204 305
381.01831 -64.27596 171.61632 316
416.68964 -79.02977 164.84970 312
419.51407 -80.19183 167.70512 432
381.37106 -63.34782 171.62430 316
417.17542 -77.91252 164.87184 312
421.08365 -79.44325 167.45749 431
381.69568 -62.39972 171.61824 316
417.62094 -76.75577 164.82510 312
422.62976 -78.71726 167.18019 430
382.04446 -61.40073 171.62776 316
418.08551 -75.53049 164.83582 312
424.20071 -77.93812 166.89015 429
382.35764 -60.47587 171.61812 316
418.53970 -74.36115 164.83408 312
425.74271 -77.19680 166.57214 428
382.68427 -59.49560 171.64116 316
418.98764 -73.23387 164.82256 312
427.36383 -76.41816 166.31032 427
436.72925 -79.92081 167.82141 301
383.03061 -58.54478 171.60991 316
419.38705 -72.05906 164.83171 312
429.01614 -75.57460 165.99582 426
437.16647 -78.64445 167.83505 301
383.36060 -57.58032 171.63933 316
419.85379 -70.87597 164.85197 312
430.65024 -74.77505 165.71638 425
437.58551 -77.31242 167.80878 301
1768.16443 -561.87024 81.65742 428
1774.21570 -563.93707 107.99613 365
383.68478 -56.60484 171.63025 316
420.25485 -69.67599 164.80206 312
432.27103 -73.97340 165.37366 424
437.97546 -76.00423 167.82800 301
1766.53442 -550.64954 82.12701 497
1769.77600 -551.99719 108.86552 496
1773.07690 -552.91132 135.63991 498
1776.74146 -554.06250 162.19623 469
383.99020 -55.64146 171.63831 316
394.54230 -59.37840 171.75677 313
433.97134 -73.20126 165.07347 423
438.35434 -74.70195 167.88029 301
1771.02576 -541.38849 81.83724 470
1774.95532 -542.81769 108.68295 470
1779.66748 -544.32898 135.35400 432
384.28842 -54.66962 171.63133 316
394.86996 -58.33314 171.74825 313
435.14047 -72.11371 164.90703 308
438.73965 -73.37714 167.88875 301
1783.94238 -535.32977 81.01234 359
384.56631 -53.69426 171.64014 316
395.19333 -57.28922 171.76025 313
435.55609 -70.83839 164.90518 308
439.10953 -72.09705 167.85257 301
384.82959 -52.71546 171.64658 316
395.50571 -56.22262 171.74614 313
435.98080 -69.57224 164.89459 308
439.47003 -70.75249 167.91576 301
385.15283 -51.76715 171.64247 316
395.82968 -55.20392 171.76573 313
436.37347 -68.32039 164.89847 308
440.75470 -69.72930 167.72818 434
385.40259 -50.77359 171.65471 316
396.10114 -54.16409 171.78133 313
436.76425 -67.03502 164.90363 308
442.28952 -68.75099 167.44377 433
385.68762 -49.81783 171.64886 316
396.38660 -53.12263 171.74373 313
437.12332 -65.74496 164.91185 308
443.89722 -67.79543 167.16615 432
385.95901 -48.81240 171.65376 316
396.69687 -52.06533 171.74786 313
437.50171 -64.41971 164.89403 308
445.47693 -66.87761 166.89813 431
386.21881 -47.82569 171.66745 317
396.94839 -51.02079 171.79173 313
437.80457 -63.10321 164.91013 308
447.15015 -65.86705 166.58640 430
386.49304 -46.85528 171.67751 317
397.25421 -49.96790 171.76566 313
438.16571 -61.85563 164.92134 308
448.76682 -64.86461 166.33681 429
386.73123 -45.85055 171.65672 317
397.49237 -48.90401 171.78728 313
438.54938 -60.53120 164.91498 307
450.45621 -63.88926 166.02428 428
460.57382 -66.76638 167.88632 297
386.94897 -44.91040 171.66960 317
397.78668 -47.88329 171.74828 313
410.00491 -51.25089 171.90347 309
452.10028 -62.88312 165.71684 427
460.90070 -65.34688 167.92274 297
53725.63672 -14776.67383 1115.54053 1000
387.18280 -43.89517 171.66934 317
398.00366 -46.79844 171.76746 313
410.28723 -50.12372 171.92145 309
453.82193 -61.84140 165.42085 426
461.22427 -63.85806 167.96234 297
387.43018 -42.93093 171.65468 317
398.29095 -45.76663 171.75694 313
410.58206 -48.99460 171.87384 309
455.53561 -60.82873 165.10426 424
461.52554 -62.38593 167.93840 297
387.64893 -41.94147 171.66338 317
398.50894 -44.72206 171.75497 313
410.82956 -47.86850 171.90236 309
456.44528 -59.57187 164.96410 303
461.80130 -60.92457 167.96864 297
387.86459 -40.95088 171.68338 317
398.72971 -43.63781 171.79610 313
411.06296 -46.71147 171.90332 309
456.81281 -58.15073 164.98587 303
462.12170 -59.50785 167.95647 297
388.09756 -39.92507 171.68410 317
398.97171 -42.59732 171.78729 313
411.31387 -45.59057 171.90718 309
457.10532 -56.70589 165.01157 303
462.36978 -58.04549 167.97652 297
388.28244 -38.95959 171.66533 317
399.20444 -41.49338 171.76541 313
411.53564 -44.45698 171.92393 309
457.43774 -55.34155 165.00043 303
462.59973 -56.53790 168.01381 297
18233.55078 -4267.82617 -392.50851 1000
388.50150 -37.92624 171.67142 317
399.40921 -40.43884 171.80032 313
411.80264 -43.31086 171.89641 309
457.75674 -53.86505 165.01637 304
463.84567 -55.28493 167.81210 453
388.69406 -36.94740 171.69589 317
399.62903 -39.40672 171.81108 313
412.01074 -42.19341 171.91473 309
458.01849 -52.49599 165.02547 304
465.16373 -54.09348 167.57588 452
388.86972 -35.92188 171.70467 317
399.81622 -38.34128 171.79759 313
412.22641 -41.05240 171.89122 309
458.28769 -51.07624 164.98302 304
466.49921 -52.87435 167.35765 451
389.08224 -34.92459 171.69528 317
400.00482 -37.26365 171.81177 313
412.46393 -39.87667 171.92491 309
458.55914 -49.60242 164.97272 304
467.86270 -51.57663 167.18755 450
389.23688 -33.92533 171.70116 317
400.20477 -36.19903 171.80994 313
412.65936 -38.75877 171.92409 309
458.86377 -48.21357 165.02640 304
469.25479 -50.33345 166.92458 449
389.42862 -32.96103 171.68005 317
400.40341 -35.10806 171.79565 313
412.84064 -37.57491 171.90726 309
427.11765 -40.43565 172.05966 305
470.60889 -49.04953 166.76176 449
389.60632 -31.93143 171.70692 317
400.57993 -34.06097 171.80472 313
413.05191 -36.42756 171.91319 309
427.32401 -39.15118 172.05840 305
471.96109 -47.78091 166.49550 448
389.73425 -30.94085 171.68367 317
400.74451 -32.97493 171.78529 313
413.22403 -35.29936 171.93579 309
427.50000 -37.91779 172.06845 305
473.37628 -46.42619 166.31409 447
389.88593 -29.91011 171.71550 317
400.94162 -31.90734 171.77515 313
413.41724 -34.14973 171.92960 309
427.68909 -36.73623 172.05998 305
474.73712 -45.12867 166.01491 446
390.03354 -28.91907 171.70105 317
401.07239 -30.83602 171.78563 313
413.59479 -33.01186 171.93587 309
427.91391 -35.44817 172.05394 305
476.16888 -43.81257 165.80414 445
390.22168 -27.92411 171.69427 317
401.24301 -29.72330 171.79735 313
413.74545 -31.85561 171.93593 309
428.10208 -34.19806 172.06381 305
477.58133 -42.50291 165.53757 444
487.59662 -44.18186 168.09018 293
390.31509 -26.92619 171.70970 317
401.37952 -28.67486 171.80202 313
413.89374 -30.65992 171.90295 309
428.25620 -33.00491 172.05432 305
479.07608 -41.15308 165.30415 443
487.78342 -42.52483 168.07245 293
390.46552 -25.88918 171.70844 317
401.51859 -27.57012 171.79832 313
414.07098 -29.52488 171.93919 309
428.40475 -31.73113 172.04953 305
480.20758 -39.75463 165.13310 300
487.95416 -40.89488 168.05536 294
390.57739 -24.89670 171.71794 317
401.66183 -26.51018 171.82503 313
414.22879 -28.38754 171.93678 309
428.59525 -30.46700 172.06770 305
480.44339 -38.14749 165.13280 300
488.00745 -39.26834 168.13684 294
390.71973 -23.87354 171.70085 317
401.80521 -25.43328 171.80197 313
414.33716 -27.24190 171.92747 309
428.74280 -29.25859 172.05182 305
480.60541 -36.59569 165.13531 300
488.12283 -37.68729 168.10162 294
390.83987 -22.85304 171.70685 317
401.91074 -24.37150 171.80666 313
414.49561 -26.05257 171.92825 309
428.88184 -27.97565 172.05092 305
480.81857 -35.03867 165.16208 300
488.25635 -36.00534 168.15131 294
390.90210 -21.84192 171.70332 317
402.02429 -23.28063 171.81947 313
414.59320 -24.88715 171.91646 309
429.02985 -26.76997 172.09181 305
480.97009 -33.48811 165.14853 300
488.33725 -34.44432 168.17995 294
391.00348 -20.81874 171.72171 317
402.12003 -22.17249 171.80531 313
414.75208 -23.75850 171.93651 309
429.11105 -25.51385 172.08879 305
445.77814 -27.55863 172.21051 301
488.40381 -32.83723 168.17159 294
391.10425 -19.79741 171.69478 317
402.22205 -21.09996 171.82935 313
414.84979 -22.56046 171.93048 309
429.24951 -24.25447 172.05154 305
445.94534 -26.16992 172.26283 301
488.47369 -31.16181 168.17548 294
391.22784 -18.80430 171.70772 317
402.35147 -20.03015 171.78889 313
414.91946 -21.43333 171.90892 309
429.38925 -23.00257 172.05307 305
446.06900 -24.85776 172.22849 301
489.19766 -29.63503 168.06723 456
391.30167 -17.79905 171.68144 317
402.42679 -18.95290 171.81795 313
415.05823 -20.24441 171.92395 309
429.45325 -21.75563 172.09668 305
446.13931 -23.48968 172.26500 301
490.46811 -28.13318 167.86406 456
2651.28564 -253.40848 136.21388 336
391.38089 -16.76558 171.71397 317
402.51578 -17.84798 171.80890 313
415.10205 -19.07916 171.95781 309
429.57574 -20.51104 172.07492 305
446.25595 -22.16888 172.24878 301
491.67242 -26.60855 167.66460 455
2614.51294 -234.96976 137.17342 340
2652.24902 -238.14836 175.87489 307
391.42957 -15.76384 171.71132 317
402.59045 -16.74408 171.82770 313
415.23663 -17.90680 171.94904 309
429.68454 -19.24644 172.05727 305
446.39761 -20.76318 172.25323 301
492.87610 -25.04439 167.52544 454
2653.39990 -223.79652 95.89297 415
2597.44385 -218.24426 138.24049 470
2634.47705 -221.56401 176.17819 275
391.52185 -14.72637 171.70227 317
402.64282 -15.67877 171.80423 313
415.28201 -16.79023 171.94411 309
429.74591 -17.99020 172.05475 305
446.48306 -19.45768 172.24445 301
494.16901 -23.50560 167.26494 453
2609.63159 -204.95865 98.78987 346
2590.58813 -202.98882 138.02600 464
2629.68872 -206.60654 176.20001 275
391.53738 -13.69570 171.71404 317
402.68906 -14.57703 171.79810 313
415.34601 -15.60570 171.93607 309
429.82727 -16.74383 172.06859 305
446.53995 -18.07983 172.25008 301
495.39908 -21.93902 167.08893 452
2597.29346 -188.88814 99.45770 393
2584.95288 -187.99266 138.85019 467
2636.04077 -191.85728 176.76430 464
391.61151 -12.69189 171.70790 317
402.77759 -13.48734 171.82965 313
415.41449 -14.41420 171.93088 309
429.88391 -15.48866 172.09131 305
446.63736 -16.71253 172.23404 301
496.70880 -20.36843 166.85349 483
2587.66943 -173.71761 99.94978 401
2578.27417 -173.26572 138.50273 474
2632.99316 -177.22055 176.51624 497
391.65155 -11.65641 171.70619 317
402.80963 -12.43483 171.80617 313
415.47461 -13.27616 171.95166 309
429.97537 -14.26056 172.06911 305
446.68546 -15.34739 172.23486 301
497.38660 -18.74476 166.74442 483
2579.00293 -158.25110 100.20425 401
2572.62402 -158.21288 138.79782 475
2630.39575 -161.91646 176.89484 496
391.70370 -10.66895 171.72757 317
402.87250 -11.31905 171.80667 313
415.51617 -12.13171 171.95418 309
430.02094 -12.96188 172.09900 305
446.77692 -13.97802 172.21608 301
498.04187 -17.10690 166.66692 482
2570.07373 -143.81221 100.92618 446
2567.25342 -143.55568 139.07007 476
2649.85767 -148.63177 176.18893 338
391.71451 -9.64032 171.72829 317
402.92917 -10.23844 171.83469 313
415.58893 -10.93996 171.92599 309
430.07977 -11.72782 172.05655 305
446.82687 -12.62263 172.23605 301
466.37985 -13.73278 172.40071 297
2563.01367 -128.77402 101.32863 446
2561.84814 -128.50623 139.50641 462
391.78122 -8.62286 171.70688 317
402.92746 -9.17894 171.83340 313
415.59534 -9.78498 171.95673 309
430.12830 -10.49998 172.05946 305
446.86880 -11.32392 172.23315 301
466.46341 -12.22848 172.45291 297
2556.74048 -113.77582 101.35273 454
2557.64233 -114.00127 139.90434 465
391.75970 -7.57810 171.69586 317
402.98740 -8.07689 171.79488 313
415.63300 -8.61477 171.91905 309
430.15018 -9.23262 172.09444 305
446.87292 -9.92479 172.26248 301
466.53510 -10.76428 172.44829 297
2551.62256 -99.53426 101.59702 479
2553.61841 -99.43827 139.87730 466
391.81595 -6.56247 171.71588 317
402.98953 -6.96221 171.83421 313
415.67325 -7.42712 171.96428 309
430.18878 -7.94847 172.05588 305
446.90167 -8.58727 172.25629 301
466.54218 -9.28653 172.42908 297
2546.10400 -84.89400 101.60690 480
2550.29272 -85.09483 139.80865 433
391.82819 -5.53025 171.69019 317
403.01895 -5.87529 171.79205 313
415.70459 -6.27990 171.91373 309
430.15985 -6.71512 172.07021 305
446.96982 -7.20368 172.26138 301
466.55112 -7.79615 172.39833 297
2541.11987 -70.29728 102.13672 480
2547.16333 -71.10178 139.73251 437
391.82825 -4.53550 171.69142 317
402.98477 -4.82015 171.83145 313
415.70206 -5.12670 171.92012 309
430.22012 -5.46188 172.09718 305
446.94376 -5.83129 172.25188 301
466.61380 -6.35940 172.41138 297
2536.45239 -56.02794 102.25011 484
2543.85254 -56.57099 139.78188 439
391.83652 -3.51790 171.71719 317
402.98621 -3.70169 171.82912 313
415.67545 -3.95067 171.94365 309
430.19232 -4.16872 172.08054 305
446.96906 -4.48259 172.23209 301
466.61621 -4.84084 172.41098 297
2531.47290 -42.05811 102.48714 485
2541.39185 -42.03449 139.96216 413
391.82385 -2.47300 171.70264 317
402.99551 -2.60436 171.83546 313
415.68573 -2.75016 171.93578 309
430.20798 -2.96622 172.05675 305
446.99741 -3.15481 172.25191 301
452.21481 -3.21222 175.01855 422
2527.20020 -27.95788 103.24387 485
2538.94678 -28.10761 140.54784 413
24868.60156 -292.71240 2232.99780 1000
391.79858 -1.47565 171.68901 317
402.96838 -1.53982 171.78874 313
415.65906 -1.62088 171.93678 309
430.17493 -1.65854 172.10414 305
446.96320 -1.76282 172.21950 301
452.11829 -1.81296 175.05809 425
2522.87231 -13.47685 102.87828 485
2536.31177 -13.87672 140.19211 417
391.77313 -0.44209 171.68088 317
402.94946 -0.46264 171.82585 313
415.62820 -0.42420 171.95226 309
430.15048 -0.43855 172.09647 305
446.94189 -0.40339 172.24260 301
466.55762 -0.41337 172.46236 297
2519.80664 0.20307 103.22521 489
2534.18726 0.20625 140.68091 418
273.22263 -0.18799 203.48593 285
402.95566 0.67417 171.82945 313
415.60474 0.72942 171.92784 309
430.15369 0.81801 172.08351 305
446.92322 0.95949 172.24014 301
452.11526 0.98706 175.05795 425
2571.33447 14.53420 62.13850 426
2519.12524 14.31956 103.33350 491
2532.07007 14.34942 140.71342 419
2619.48364 15.13442 176.64204 410
2666.37817 15.20043 256.24075 308
273.16751 0.10532 203.49245 285
402.92297 1.74386 171.79137 313
415.57205 1.88580 171.95164 309
430.09149 2.08375 172.08879 305
446.89493 2.31368 172.26682 301
452.25549 2.37581 174.99298 422
2540.90063 28.75219 63.92429 295
2515.12524 28.31557 103.81208 491
2531.33301 28.41519 140.52213 366
2628.00684 29.62319 176.48885 257
2613.39648 29.82500 254.85394 309
273.14935 0.39919 203.49559 285
402.84915 2.85630 171.80228 313
415.56723 3.06399 171.95831 309
430.08218 3.36567 172.06665 305
446.83786 3.63974 172.21721 301
466.45859 4.00850 172.43083 297
2528.99219 42.65651 65.02834 296
2511.93262 42.62391 103.72892 495
2530.38477 43.12375 140.27200 366
2625.84790 44.48100 176.72884 257
2640.01172 44.70188 215.96754 309
2556.97559 43.53171 254.35693 331
2629.91919 44.58157 295.03421 283
273.12180 0.69828 203.48007 285
402.79791 3.94278 171.82983 313
415.52551 4.23756 171.93007 309
430.03732 4.61458 172.05486 305
446.81033 5.01232 172.25810 301
466.40912 5.51445 172.39525 297
2521.79932 57.05474 65.31222 367
2506.44580 56.20118 103.86124 495
2530.14355 57.23133 140.85124 366
2624.24316 59.42920 176.59641 257
2559.69214 57.61000 215.93301 495
2538.31006 57.47372 254.04021 499
2566.45190 58.00599 292.60474 287
273.10330 0.99653 203.48790 285
402.75684 5.03787 171.78726 313
415.45016 5.41511 171.92107 309
429.95068 5.87458 172.09755 305
446.76688 6.38892 172.23865 301
466.35529 6.97223 172.41510 297
2516.64355 70.59565 65.77958 367
2503.61377 70.62876 104.17827 495
2529.30347 71.28575 140.27985 366
2613.13599 73.92130 176.91214 309
2538.17236 71.19189 215.88008 312
2536.83081 71.25813 253.82919 499
2554.33447 72.00233 292.28015 424
273.07779 1.28749 203.47713 285
402.72339 6.11136 171.81686 313
415.39743 6.59397 171.94327 309
429.87650 7.12197 172.09242 305
446.66907 7.74137 172.25542 301
466.28067 8.44081 172.41701 297
2511.90771 84.69238 66.02938 368
2503.34106 84.41557 103.78664 496
2539.26367 85.46480 140.06047 266
2562.61328 86.55222 177.44313 311
2537.00610 85.38161 215.97157 499
2535.45752 85.75886 254.18031 499
2553.27295 86.10785 292.14661 424
273.05765 1.58440 203.48053 285
402.64877 7.19156 171.81538 313
415.30634 7.76753 171.94145 309
429.81680 8.34731 172.06450 305
446.62500 9.12607 172.24992 301
466.20041 9.98565 172.42685 297
2508.10010 98.73761 66.11498 368
2500.98193 98.41611 104.15756 497
2537.02295 99.78400 140.09869 499
2536.02246 99.64031 178.39180 499
2536.38989 99.96062 216.24316 499
2534.84082 99.44786 253.60320 499
2552.66650 100.50273 292.64111 424
391.39154 7.72836 171.67470 317
402.58789 8.27866 171.82793 313
415.23120 8.88592 171.90373 309
429.78772 9.61222 172.05193 305
446.52557 10.45387 172.24837 301
466.14435 11.41262 172.40858 297
2503.74512 112.35748 66.29208 369
2498.30151 111.83316 104.39140 497
2535.75684 113.74170 140.02495 499
2534.44312 113.82938 177.92896 499
2535.04443 113.57684 215.97075 499
2533.98730 113.89676 253.82265 499
2551.76855 114.45353 292.56363 424
391.31021 8.77024 171.69626 317
402.48105 9.37802 171.79750 313
415.17453 10.08166 171.93343 309
429.69360 10.88728 172.09087 305
446.40536 11.83611 172.22609 301
466.03989 12.94155 172.41565 297
2500.71460 125.95066 66.70592 431
2493.52588 125.52212 104.55080 447
2534.92676 127.94904 140.13914 499
2533.60938 127.72881 178.49057 499
2534.36963 128.17230 215.90717 499
2532.93457 127.84040 254.18237 499
2550.99438 129.16827 292.01675 424
391.25992 9.76522 171.69180 317
402.40253 10.46386 171.81534 313
415.10532 11.27713 171.91675 309
429.57751 12.11853 172.07880 305
446.32227 13.20100 172.20506 301
498.09558 16.39087 166.55449 482
2498.21045 139.87292 66.47517 432
2490.09790 139.65779 104.54445 498
2533.94165 142.00516 140.01677 499
2532.70215 141.94366 178.21773 499
2533.27490 142.33524 216.32018 499
2532.17578 142.10025 253.62891 499
2550.35327 143.43513 292.43735 424
17212.14648 1049.76440 2171.53516 1000
391.15915 10.79861 171.70932 317
402.30566 11.54830 171.79655 313
414.98767 12.41201 171.92183 309
429.50043 13.42335 172.07452 305
446.22549 14.53904 172.20312 301
497.43207 17.99059 166.64517 483
2495.90186 153.71362 66.65406 432
2488.24194 153.50623 104.33601 498
2533.08667 156.29379 139.99982 499
2532.20068 156.27940 178.12798 499
2531.16675 156.32306 215.80937 499
2531.79077 156.66124 254.18887 499
2549.44409 157.37424 292.10852 424
391.05853 11.80554 171.67775 317
402.21161 12.65422 171.81012 313
414.89114 13.59841 171.93439 309
429.36630 14.66229 172.03795 305
446.13196 15.87469 172.21796 301
496.68961 19.67873 166.73978 483
2493.17603 167.46718 67.06189 432
2486.55884 167.39398 104.94444 498
2530.95020 170.20869 140.64528 499
2525.49561 169.84583 178.22606 499
2524.74658 169.85796 216.36819 499
2524.26440 169.82170 253.91847 499
2548.32056 171.61212 292.64627 424
390.95682 12.81812 171.67142 317
402.12247 13.75118 171.80833 313
414.76514 14.73813 171.93951 309
429.26355 15.92756 172.08519 305
445.97861 17.25943 172.24059 301
495.47244 21.25461 166.91312 452
2491.53516 181.36430 66.80785 432
2484.98901 181.24689 104.92956 499
2524.78418 184.28416 140.52881 499
2524.43237 184.32841 178.04570 499
2523.89868 184.47475 216.05135 499
2524.59692 184.54236 253.91292 499
2547.74585 185.89543 292.23920 424
390.85080 13.86277 171.67804 317
402.00586 14.82913 171.78683 313
414.66498 15.91632 171.93962 309
429.15710 17.19779 172.06677 305
445.87778 18.58771 172.21178 301
494.21045 22.82032 167.19118 453
2489.78003 195.65106 66.86052 432
2483.42163 194.99872 104.69902 499
2523.44092 198.17390 140.34898 499
2523.66968 198.48181 178.02858 499
2524.26904 198.27066 216.09283 499
2523.31201 198.41571 253.61319 499
2546.71436 200.54172 292.57797 424
390.75519 14.89824 171.66867 317
401.89294 15.91236 171.79308 313
414.56824 17.06236 171.91045 309
429.01196 18.45176 172.06021 305
445.71594 19.99743 172.21526 301
492.94781 24.36909 167.35213 454
2487.87769 209.00645 67.20333 433
2482.13403 208.91859 104.72362 499
2522.37231 212.52356 140.19788 499
2522.54272 212.41043 178.45874 499
2522.92651 212.26877 216.22287 499
2522.57764 212.33540 253.98102 499
2545.73853 214.70609 292.50336 424
390.65121 15.90775 171.69301 317
401.77750 16.99782 171.78912 313
414.39612 18.26244 171.91907 309
428.86990 19.68609 172.04308 305
445.57922 21.30798 172.22226 301
491.65921 25.91072 167.58505 455
2486.19019 223.28723 67.37275 433
2480.98511 222.74503 104.36165 499
2521.73364 226.64940 140.47151 499
2521.61621 226.64761 178.34969 499
2521.84131 226.81955 216.01970 499
2521.46753 226.78296 253.86165 499
2545.00879 228.80266 292.44562 424
272.60007 4.52728 203.47238 285
401.66888 18.10778 171.81674 313
414.25330 19.41923 171.89818 309
428.69815 20.94746 172.06779 305
445.45096 22.67887 172.20120 301
490.48096 27.39654 167.75833 456
2485.15381 237.14799 66.91663 433
2479.81128 236.15973 104.86086 498
2520.49268 240.36572 140.48366 499
2520.29443 240.30946 178.34525 498
2521.33618 240.52615 215.83307 499
2520.45850 240.46925 253.98524 499
2543.82568 242.89189 292.28238 424
272.53427 4.81910 203.47874 285
401.51984 19.15688 171.79083 313
414.11548 20.56312 171.92345 309
428.59485 22.19810 172.06389 305
445.25259 24.01819 172.22183 301
489.23114 28.92533 167.93501 457
2484.33252 250.71373 67.31111 433
2479.04736 250.35706 104.92498 498
2519.94946 254.61421 140.44774 499
2519.79565 254.54816 177.97733 499
2519.67017 254.92967 216.10529 499
2519.13232 254.64841 253.59795 499
2543.24634 257.33627 292.49225 424
272.45529 5.11519 203.47690 285
401.38257 20.23645 171.78352 313
413.98959 21.75389 171.93803 309
428.41071 23.45785 172.02586 305
445.10178 25.41611 172.18788 301
488.03412 30.44371 168.11592 457
2483.12939 264.96716 67.17654 433
2477.69287 264.21765 104.73883 498
2518.75757 269.02078 140.23204 499
2523.64697 269.79407 178.49493 499
2523.56250 269.56723 216.18443 499
2523.58057 269.57901 253.69455 499
2542.51245 272.13763 292.31070 424
272.38712 5.40080 203.48904 285
401.21387 21.33782 171.77382 313
413.83899 22.91150 171.89093 309
428.27359 24.66295 172.07687 305
444.93417 26.72084 172.23201 301
487.52084 32.00849 168.15169 294
2482.38843 278.54492 66.83877 433
2476.83838 278.34961 104.52312 498
2517.48413 283.20831 140.53413 499
2522.72534 283.57294 178.24805 498
2523.06934 283.87311 216.23996 499
2523.08765 283.93597 254.19264 499
2541.57520 286.43399 292.71268 424
272.31281 5.69828 203.48544 285
401.07071 22.41899 171.79454 313
413.68509 24.08757 171.91705 309
428.05530 25.94622 172.03526 305
444.74515 28.12439 172.18709 301
487.43982 33.62167 168.16586 294
2481.62109 292.80472 66.68587 433
2475.73340 291.80341 104.71812 498
2516.38525 297.40454 140.27473 499
2521.91016 298.16861 178.07896 498
2522.25513 297.83344 215.76329 499
2521.80396 298.28998 253.87398 499
2540.61914 300.09042 292.83298 424
272.23669 5.98383 203.48692 285
400.90942 23.49150 171.80392 313
413.50571 25.22977 171.91020 309
427.91800 27.16843 172.05666 305
