# .PCD v.7 - Point Cloud Data file format
VERSION .7
FIELDS x y z rgb
SIZE 4 4 4 4
TYPE F F F U
COUNT 1 1 1 1
WIDTH 1374
HEIGHT 1
VIEWPOINT 6472.448242 -595.253784 145.622192 -0.628725 -0.098892 -0.087599 0.766323
POINTS 1374
DATA ascii
488.03363 32.09554 168.17688 294
2513.48926 282.59695 65.39801 380
2504.84863 281.49033 103.63922 499
2550.42212 287.07639 139.96213 499
2550.81567 287.31229 177.79163 499
2550.83130 287.70444 216.28487 499
2549.59082 287.36664 254.84773 499
2567.92920 289.86185 293.58740 424
390.17319 21.03412 171.66039 317
401.33151 22.49251 171.76842 313
413.96384 24.13823 171.91451 309
428.42535 25.99221 172.04468 305
445.10669 28.18541 172.23042 301
487.93625 33.77129 168.17159 294
2512.56934 296.97687 65.23260 380
2504.13550 296.12607 103.58236 499
2549.68872 301.51456 139.92178 499
2549.64624 301.59259 177.96713 498
2549.84253 302.02795 216.69839 499
2549.03003 301.67618 255.04527 498
2566.67676 304.16223 293.51996 423
390.06418 22.05561 171.66046 317
401.16269 23.58023 171.76945 313
413.77823 25.28220 171.92519 309
428.23016 27.22480 172.07712 305
480.25464 34.33786 165.11458 300
487.73572 35.34408 168.09785 294
2511.42065 311.20807 65.09065 380
2505.32886 310.13559 103.35497 450
2548.44238 315.89200 139.60460 499
2548.57007 316.29962 178.25310 498
2548.99512 316.11819 216.14040 499
2547.81860 315.77332 254.57985 498
2565.96973 318.17532 293.99545 423
389.87296 23.06730 171.67862 317
400.98233 24.65469 171.80440 313
413.60840 26.44613 171.91296 309
428.02139 28.50355 172.06918 305
480.02255 35.88108 165.12161 300
487.59528 37.00917 168.11951 294
2510.43994 325.52014 65.09676 380
2505.25049 324.30817 103.47131 498
2547.89966 330.55432 139.89215 499
2547.80811 330.61020 177.69402 498
2548.00269 330.29990 216.28052 499
2546.60986 330.24524 254.48001 498
2565.45923 332.76291 293.95480 423
389.69397 24.09306 171.68336 317
400.82993 25.72252 171.76083 313
413.45798 27.59067 171.89183 309
427.86081 29.73943 172.05260 305
479.78500 37.44453 165.08563 300
487.49078 38.58543 168.04965 294
2509.28906 339.66153 64.84832 380
2504.29663 338.72397 103.42957 498
2547.52026 345.33191 139.47514 498
2547.55469 345.22281 178.10265 499
2547.17725 345.17020 216.72473 499
2545.75439 344.70987 254.72972 498
2564.58423 347.54309 294.03116 423
2651.21313 360.46960 336.71756 495
389.56012 25.07287 171.66803 317
400.66061 26.84348 171.77707 313
413.24469 28.79370 171.88963 309
427.63492 31.00546 172.03529 305
479.50720 39.06191 165.14497 300
487.30316 40.26104 168.10257 294
2508.77148 353.53699 64.78978 380
2503.33105 352.50299 102.92477 498
2546.83252 359.33557 139.49901 498
2546.29980 359.70020 177.75301 498
2545.89185 359.60278 216.08090 499
2545.45288 359.37097 254.73105 499
2563.82812 361.92123 293.82034 423
2650.23267 375.37125 337.06006 495
389.37192 26.11130 171.66443 317
400.47745 27.91410 171.78757 313
413.05417 29.93758 171.89552 309
427.45679 32.26825 172.04898 305
478.97894 40.58822 165.20105 443
487.07965 41.88871 168.08615 293
2507.52100 367.79721 64.69469 379
2499.39331 366.30496 103.29237 498
2545.80420 373.82925 139.49724 498
2545.28027 373.97330 177.87941 498
2544.78296 373.82117 216.64232 498
2544.97583 373.89221 254.98038 498
2563.07935 376.84576 294.13565 423
2608.70142 384.04816 335.05554 299
389.15530 27.12501 171.69054 317
400.24249 28.98637 171.78069 313
412.84000 31.05995 171.87726 309
427.21823 33.51764 172.06314 305
477.49765 41.90993 165.39720 444
486.89664 43.46626 168.05667 293
2506.24170 382.13809 64.94744 379
2498.59399 380.79526 103.13948 498
2791.56104 429.58337 131.17990 498
2623.12524 401.38281 296.03879 498
389.00528 28.11707 171.67206 317
400.07809 30.08464 171.79004 313
412.59656 32.25394 171.87175 309
426.99408 34.71480 172.02184 305
476.08292 43.29321 165.64986 445
486.69833 45.13040 168.03679 293
2505.31714 396.48337 64.73537 379
2500.44165 395.25839 103.12087 498
2790.59790 445.79422 131.04683 498
2625.05127 417.14929 296.09366 437
2625.25488 416.83383 336.15158 437
388.80075 29.12817 171.66599 317
399.86609 31.15877 171.78340 313
412.38864 33.40967 171.89014 309
426.75623 35.99990 172.02484 305
474.65375 44.64394 165.88322 446
2504.52539 410.17786 64.56992 379
2499.30566 409.26422 102.79865 497
2789.62036 462.05402 131.32942 498
2622.95776 432.17447 296.31174 493
2622.24365 431.50912 336.32214 492
2666.04419 439.60852 378.75439 472
388.58484 30.16161 171.66103 317
399.63220 32.20246 171.75015 313
412.16791 34.56326 171.89699 309
426.54028 37.22504 172.02080 305
473.23041 45.96645 166.06236 447
2504.03101 424.89203 64.63023 379
2498.29297 424.09219 102.88397 497
2788.30615 477.79257 130.76840 498
2682.44580 458.37634 339.55859 473
2670.74854 455.69977 379.59540 487
2663.96899 454.61926 420.00372 489
388.39346 31.14598 171.66623 317
399.39014 33.30603 171.77565 313
411.93060 35.72786 171.87692 309
426.28690 38.48010 172.05403 305
471.77878 47.26350 166.28735 448
2502.53003 438.86966 64.07394 379
2497.54175 438.15149 102.37361 497
2675.28418 472.72821 339.03693 452
2662.97192 470.33667 379.46918 445
388.14801 32.16858 171.68372 317
399.21405 34.36713 171.75999 313
411.71286 36.88553 171.88474 309
426.03738 39.69274 172.04616 305
470.43784 48.59079 166.54739 449
2501.63721 453.23520 64.08522 379
2493.89429 451.97784 102.67758 497
2659.67578 485.09283 297.64883 384
2638.37671 480.80704 337.32462 333
387.95279 33.17129 171.67047 316
398.97580 35.42586 171.78999 313
411.45972 38.00559 171.90536 309
425.74966 40.95293 172.01562 305
468.99884 49.82128 166.75056 450
1215.01965 249.91328 -81.36746 379
2493.29102 465.97018 102.71461 497
387.71826 34.18560 171.64583 316
398.71362 36.48920 171.77594 313
411.20337 39.14035 171.88298 309
457.37424 48.95576 164.99380 304
467.66251 51.15440 166.96626 451
2499.98926 482.45154 64.20906 379
2494.66309 481.04782 102.51221 496
387.45761 35.19026 171.63284 316
398.46173 37.57162 171.75928 313
410.95148 40.32881 171.89391 309
457.08673 50.42893 165.00235 304
466.31964 52.42245 167.19197 451
2499.16260 496.91791 63.96184 379
2493.85449 495.29419 102.14880 496
387.23779 36.17068 171.65472 316
398.24280 38.64398 171.73900 313
410.69446 41.44023 171.89983 309
456.76657 51.80511 164.97499 304
464.92392 53.69881 167.34239 452
2498.28711 511.30438 63.53168 378
2492.90137 509.67780 102.29543 496
386.98376 37.20173 171.65802 316
397.96118 39.70581 171.75079 313
410.36176 42.62556 171.89694 309
456.38605 53.26860 164.95511 303
463.60626 54.91219 167.56094 453
2497.35571 525.55878 63.23483 378
2491.17529 523.92944 102.32459 479
386.76022 38.17413 171.66693 316
397.71359 40.78859 171.75285 313
410.13107 43.74156 171.86836 309
456.03922 54.64579 164.94713 303
462.26355 56.12695 167.79326 421
2496.65015 540.08673 63.29667 378
2487.99805 538.18182 101.82298 495
2779.49170 607.20239 130.22986 496
386.47687 39.16953 171.63260 316
397.42480 41.87012 171.76173 313
409.79996 44.90793 171.86397 309
455.66556 56.06590 164.98112 303
460.96671 57.37744 167.97017 298
2495.52319 554.62799 63.04517 378
2487.54028 552.55243 101.95185 495
2658.28320 594.10986 134.03795 340
2658.79126 594.54095 175.31606 340
2658.30957 594.21033 216.32262 496
386.24167 40.18573 171.63531 316
397.14371 42.92569 171.76671 313
409.49777 46.04673 171.85550 309
455.31766 57.51980 164.96901 303
460.64349 58.86568 167.97318 297
2494.89941 568.88605 62.86726 378
2488.94873 567.66388 101.88029 495
2649.89600 608.02502 134.23724 294
2786.27759 642.30731 173.17096 474
385.96359 41.21002 171.65619 316
396.85809 43.96889 171.74298 313
409.20868 47.15633 171.86772 309
454.90985 58.95031 164.94302 303
460.28113 60.32608 167.91814 297
2493.77686 583.62280 62.49889 378
2488.06934 581.94830 101.27183 495
2567.57056 602.77600 136.94894 296
2784.90283 658.78864 173.34802 479
385.69089 42.20203 171.65579 316
396.55801 45.06530 171.73604 313
408.89294 48.29125 171.83894 309
454.54449 60.32720 164.93091 303
459.98886 61.80626 167.91400 297
2492.82715 598.61182 62.75576 378
2487.04150 596.79663 101.59069 494
2522.04321 605.79620 138.35295 469
2783.94141 675.50598 173.24783 481
385.39435 43.17780 171.61771 316
396.27182 46.09374 171.74554 313
408.60580 49.43232 171.84407 309
453.30093 61.54634 165.13176 426
459.59576 63.23057 167.90163 297
2492.50513 612.90753 62.39936 377
2483.67920 610.64813 101.58053 494
2539.74170 625.59625 137.82314 494
2521.75464 621.31244 177.69182 472
385.10471 44.14528 171.60742 316
395.97818 47.19311 171.74051 313
408.24683 50.60509 171.87042 309
451.58743 62.55465 165.44641 427
459.24982 64.74800 167.90698 297
2491.04468 627.79840 62.09270 377
2482.32324 625.19080 101.56719 494
2538.66553 640.82043 137.53484 494
2781.56958 708.33282 173.18057 480
384.83710 45.14967 171.61243 316
395.67606 48.22356 171.74152 313
407.94962 51.70484 171.85417 309
449.86456 63.63481 165.74269 428
458.91983 66.15163 167.85539 297
2490.25586 642.86224 61.81405 377
2484.49536 640.58850 101.05309 494
2519.15649 650.97058 138.15623 494
2780.55396 724.73322 173.21835 480
384.55209 46.14516 171.64581 316
395.35818 49.29036 171.73660 312
436.36124 61.20410 164.87151 308
448.17709 64.66156 166.03711 429
458.50397 67.64693 167.86845 297
2489.90063 657.55157 61.75016 377
2483.39160 655.63550 100.98595 493
2719.75293 724.12421 131.60147 487
384.21268 47.13518 171.63588 316
394.99603 50.36537 171.71426 312
435.93958 62.52694 164.88077 308
446.51880 65.64161 166.26631 430
2488.85278 672.19513 61.35832 377
2481.90356 670.29999 100.44125 493
2518.70996 681.03223 137.74539 436
2684.72754 730.78345 174.70314 358
383.93304 48.14888 171.59380 316
394.70273 51.38289 171.72839 312
435.52658 63.82092 164.86552 308
444.84195 66.61849 166.55579 431
2487.84570 686.86194 61.42288 377
2478.68457 684.58215 100.61455 493
2590.49658 717.98749 135.22351 447
2675.45947 744.35901 174.13211 498
383.57849 49.12739 171.60522 316
394.36154 52.47336 171.70750 312
435.10712 65.11664 164.89197 308
443.18091 67.62629 166.86992 432
2487.19629 701.79767 60.92364 376
2477.44141 699.15314 100.37945 492
2532.20142 715.93524 137.18188 492
2584.04980 732.38013 176.12718 498
383.29306 50.10141 171.59807 316
394.01181 53.47918 171.73026 312
434.70862 66.41666 164.85281 308
441.59329 68.60778 167.08614 433
2486.47485 717.30457 60.79826 376
2479.18433 714.59137 100.47200 492
2576.26489 745.55127 135.69652 498
2578.05664 746.23108 176.01395 498
382.97464 51.07611 171.58659 316
393.66608 54.56913 171.70183 312
434.29559 67.69455 164.87363 308
440.00436 69.53552 167.33717 434
2478.58862 729.62689 99.84002 431
2570.51172 759.82208 135.71938 499
2571.72314 760.31085 175.92432 498
382.62924 52.03817 171.61369 316
393.30530 55.59423 171.68994 312
433.80127 68.96015 164.83852 308
438.28458 70.46149 167.66570 420
2525.12671 760.33728 97.65088 417
2564.87280 773.50122 135.57234 499
2566.16089 774.38940 175.93875 499
382.28796 53.04288 171.59618 316
392.94446 56.62637 171.70125 312
433.35373 70.24613 164.84018 308
436.91995 71.44975 167.84918 301
2569.75342 791.73041 94.67841 428
2558.33643 787.67279 136.05962 499
2560.39209 788.46979 176.21437 499
2757.71484 854.83759 216.64378 479
381.95731 53.99221 171.57755 316
392.61057 57.65937 171.71272 312
432.85196 71.53458 164.87665 308
436.51550 72.83636 167.84451 301
2572.60986 808.58246 94.51067 404
2556.82080 803.28430 135.86795 470
2558.68433 803.73608 175.94884 479
381.59335 54.99641 171.59015 316
392.22571 58.71866 171.68971 312
432.37741 72.79704 164.89021 308
436.05975 74.10042 167.85591 301
2559.70752 819.68988 135.40819 469
2560.71313 820.59045 175.60863 475
381.23343 55.97999 171.59094 316
391.85034 59.74498 171.67754 312
431.25903 73.85541 165.01401 424
435.61417 75.40805 167.81450 301
380.88507 56.94166 171.58646 316
417.34464 70.22259 164.80180 312
429.60397 74.70914 165.29414 425
435.16742 76.76134 167.82159 301
2521.73267 838.69476 216.42374 392
380.49265 57.88923 171.60031 316
416.88269 71.42830 164.80550 312
427.89502 75.53516 165.60466 426
434.70776 78.09500 167.79669 301
380.13647 58.87790 171.58234 316
416.38840 72.63341 164.77512 312
426.24792 76.34621 165.93840 427
434.29263 79.36597 167.79918 301
379.72235 59.81567 171.59395 316
415.90237 73.77469 164.77066 312
424.57480 77.16355 166.19586 428
433.78503 80.70869 167.79936 301
379.35858 60.79556 171.57072 316
415.46573 74.94832 164.79013 312
422.98004 77.95126 166.49710 429
378.94778 61.73763 171.56519 316
414.93442 76.15739 164.77473 312
421.39362 78.73042 166.75899 430
378.59332 62.70131 171.57095 316
414.44772 77.31007 164.82066 312
419.79425 79.50227 167.03514 431
378.18436 63.66242 171.57707 316
413.90472 78.48624 164.78371 312
418.22726 80.25780 167.26997 432
377.74002 64.60165 171.57335 316
413.40222 79.62740 164.79308 312
416.67300 81.05205 167.54523 433
377.33740 65.57783 171.53177 316
412.83710 80.82036 164.77914 312
415.14417 81.81139 167.80104 305
376.90466 66.53910 171.53441 316
412.31970 81.98933 164.79189 312
414.68481 82.98138 167.75594 305
399.82367 77.80925 164.69518 317
411.75089 83.08089 164.78763 312
414.18521 84.18437 167.79436 305
399.33725 78.92879 164.70753 317
410.57251 83.97901 164.95897 436
413.65768 85.38684 167.76199 305
398.39453 79.83699 164.66560 317
409.12393 84.71973 165.25032 437
413.14813 86.57285 167.75627 305
398.30276 81.04441 164.70622 317
407.67944 85.40397 165.51640 438
412.61295 87.70764 167.71452 305
397.74048 82.15186 164.72015 317
406.05951 86.06433 165.77261 420
412.06448 88.91560 167.74196 305
397.24054 83.17549 164.68333 317
404.42172 86.67574 166.05263 421
411.55240 90.08102 167.74110 305
396.65646 84.27695 164.69118 317
402.75235 87.22328 166.36934 422
410.97256 91.24615 167.71165 305
396.09149 85.33523 164.72954 317
401.09259 87.77206 166.65814 423
410.43372 92.42799 167.70618 305
395.52188 86.37495 164.72896 317
399.46906 88.37807 166.95630 424
394.96915 87.39790 164.71577 317
397.89465 88.93220 167.24342 425
394.35214 88.44634 164.74643 317
396.33768 89.44118 167.57059 426
393.80002 89.50345 164.74136 317
395.17795 90.23034 167.71091 311
393.20367 90.55297 164.70427 317
394.56387 91.29110 167.70052 311
391.66095 91.09014 165.01880 428
394.01697 92.35735 167.70517 311
390.15405 91.60505 165.27850 429
393.40521 93.42680 167.70029 309
388.66611 92.09029 165.54854 430
392.84317 94.48607 167.70709 309
387.16684 92.63715 165.85358 431
392.29153 95.53778 167.67026 309
385.72775 93.16173 166.13135 432
391.71082 96.60813 167.66570 309
384.24661 93.64466 166.35039 433
391.10043 97.60873 167.66110 309
12502.77344 7160.16797 -2611.84717 1000
382.84537 94.15767 166.62946 434
390.52237 98.66267 167.65430 309
381.39688 94.62628 166.88795 435
389.92526 99.72821 167.62016 309
380.01132 95.12164 167.14079 436
378.59421 95.59895 167.39072 437
377.22223 96.06844 167.60320 438
376.60010 97.03842 167.64787 315
375.99323 97.99263 167.61125 315
375.37357 98.94865 167.61450 315
374.73785 99.84084 167.58881 315
374.12149 100.78959 167.63210 315
373.44681 101.72498 167.62057 315
372.81732 102.65358 167.60597 315
372.17596 103.59034 167.57318 315
371.49426 104.50250 167.60141 315
370.86545 105.43612 167.60748 313
370.19205 106.39519 167.55595 313
369.55661 107.30109 167.54745 313
1190.28809 921.95129 62.67386 357
1197.23340 928.18274 83.78458 283
1179.33618 922.86102 63.46984 469
1182.23792 925.29663 85.23151 469
1184.91150 927.98065 106.57265 469
1188.01221 931.05420 128.58685 422
1192.03442 935.07428 150.43959 357
1172.43262 927.15894 63.51903 497
1175.21191 929.78412 85.07220 497
1177.89929 932.58405 106.82897 496
1180.46606 935.35980 128.77509 496
1182.93140 937.59003 150.57576 496
1168.27222 934.54889 63.51646 474
1171.05176 937.38043 85.16853 473
1174.94067 940.95282 106.57195 428
1179.89771 946.45038 128.29131 292
1167.67664 946.01886 62.46448 366
17014.16211 19713.56641 -3625.54590 1000
309.77231 140.06349 252.50874 1000
3959.92822 20916.88672 213.93689 1000
7796.37988 47348.93750 -2144.81714 1000
332.62662 737.09161 314.76236 1000
354.46182 909.67786 79.78429 439
349.17828 911.77118 64.26492 445
348.43704 906.94086 80.45139 467
343.30231 910.00250 64.49189 463
342.74268 905.49969 80.75340 469
337.40048 908.86523 64.89637 464
336.98260 904.40967 80.97729 470
336.43472 901.81671 96.52573 442
331.74493 907.82434 65.03072 464
331.03992 903.50928 81.07365 470
330.75076 899.54004 96.85672 472
332.10239 910.60956 110.59631 471
326.04904 907.04236 65.48270 465
325.20718 899.72644 81.72260 469
324.85327 898.39563 97.19144 472
325.13434 899.61957 111.98156 349
320.45853 905.93207 65.60055 466
319.36569 897.51398 82.20876 473
319.27979 897.28082 97.45224 473
318.80533 894.12708 112.68725 445
314.72235 905.16486 65.91277 466
313.90601 897.12830 82.29313 363
313.58179 896.36877 97.64774 473
313.32169 892.37360 113.14718 481
309.11481 904.01788 66.15993 467
308.44254 898.95966 82.12926 455
308.18372 895.36169 97.91253 473
307.60266 891.39032 113.28183 484
308.15723 896.14020 127.50185 349
303.22687 902.99658 66.47256 467
302.88086 898.10138 82.57000 467
302.47968 894.60638 97.92762 474
302.16208 890.64026 113.32856 484
302.29050 891.40198 128.22902 439
297.81747 902.14661 66.81945 467
297.34189 897.19873 82.56358 467
296.93301 893.53625 98.22396 474
296.60522 889.61298 113.44032 484
296.65854 890.05884 128.21307 484
292.15948 901.25098 66.89896 468
291.67984 896.34375 82.89975 467
291.30246 892.56635 98.32020 474
291.05423 888.88049 113.65553 485
291.09912 888.96136 128.40053 492
292.76086 907.80853 141.77191 481
286.53253 900.43256 67.12058 468
286.20691 895.34033 83.02212 468
285.60379 888.43939 98.92484 417
285.61450 887.97644 113.85806 485
285.53406 888.05322 128.55743 493
286.02338 894.82843 142.82204 385
280.95947 899.30231 67.51877 469
280.46457 894.36578 83.40108 468
279.90280 886.37073 99.28253 482
280.01740 886.84357 113.98420 485
280.07385 887.36572 128.66452 493
280.62842 894.13147 142.91435 387
275.39575 898.39624 67.52517 469
275.02704 893.39227 83.61158 468
274.55264 886.40118 99.26315 292
274.47229 886.03760 114.14925 486
274.56052 886.41882 128.81398 493
275.09476 893.89618 142.84167 303
269.82425 897.58832 67.80693 469
269.56506 892.64337 83.65915 469
269.31256 887.45593 99.30559 472
268.96085 885.16571 114.20074 479
269.07559 885.69128 129.01964 494
269.56326 893.75800 142.84155 303
264.38809 896.43036 67.99352 470
264.12219 891.68298 83.89883 469
263.82907 886.71503 99.44305 471
263.60403 884.13348 114.36698 479
263.81091 884.63361 129.02913 494
264.17065 893.68127 142.93605 303
258.81546 895.70874 68.30280 470
258.60007 890.63531 83.94411 469
258.42758 885.59637 99.55366 472
258.33426 883.11157 114.64144 480
258.23633 883.78906 129.08977 494
258.72757 893.50549 143.07195 303
265.20425 1029.00671 148.81412 255
253.34836 894.76648 68.40357 470
253.18227 889.65869 84.28425 470
252.83084 884.93689 99.64011 472
252.84001 882.23053 114.76077 480
252.70975 883.08374 129.22253 495
253.28358 893.31189 143.05037 303
258.35727 1012.11218 150.05696 265
247.96774 893.59644 68.53998 471
247.54338 888.86737 84.43102 470
247.58200 883.90186 99.92056 472
247.32097 878.51422 115.24092 436
247.37988 882.22675 129.41116 495
247.86203 893.21332 142.98495 269
249.53029 940.71100 154.80983 297
242.37219 892.66443 68.92148 471
242.12776 888.01819 84.62356 471
241.99261 882.95557 99.93626 473
241.96490 877.53662 115.29393 494
241.96005 881.37653 129.43317 495
242.32088 894.22906 143.08102 269
244.31105 953.53314 153.81206 281
236.96881 891.79590 68.99526 471
236.87303 887.00616 84.69646 471
236.75984 882.14532 100.05492 472
236.42833 876.72241 115.35604 494
236.58304 880.37555 129.64394 495
236.88754 895.22412 142.97694 269
240.37001 1032.03552 148.76921 295
231.48376 890.95667 69.29439 472
231.40137 886.20386 84.81421 471
231.34099 881.31897 100.31199 472
231.11368 875.95593 115.48808 494
231.29337 879.74561 129.74675 496
231.60236 896.00598 142.94301 269
234.36035 1053.32922 147.35460 490
226.17451 890.03552 69.42974 472
226.04846 885.20850 85.07157 470
225.88783 880.14117 100.44046 472
225.80588 875.66272 115.54443 293
226.00948 878.78821 129.71982 496
226.09398 896.88953 142.74860 269
227.96368 1052.29492 147.37759 498
220.58769 889.24011 69.63681 472
220.51724 884.14771 85.03517 471
220.60205 879.23907 100.68263 472
220.68167 875.70239 115.63390 293
220.60028 877.91144 129.92390 496
221.14392 976.70465 136.38324 426
221.66071 1052.82141 147.36574 438
215.32069 888.31512 69.72987 472
215.12466 883.32965 85.36520 471
215.29938 878.31134 100.80298 473
215.14948 875.90753 115.46842 283
215.28107 877.16895 130.09758 496
215.35422 886.05774 143.82249 490
214.96536 1100.33545 144.39473 290
209.81633 887.64307 69.65065 472
209.79872 882.50732 85.38837 471
209.86385 877.51501 100.88834 473
210.03378 875.11127 115.58448 496
209.85959 876.19666 130.10155 497
209.77676 886.89093 143.58438 302
208.45834 1111.05042 143.54283 399
204.42293 886.94116 69.78387 472
204.61133 881.38153 85.53563 471
204.60329 876.50635 100.83144 473
204.59819 874.16888 115.85288 497
204.64870 875.43207 130.25076 497
203.27072 974.63715 136.37648 326
199.18188 886.21649 70.00184 473
199.21506 880.65948 85.70120 472
199.16745 875.57532 100.97594 473
199.36464 873.36017 115.87817 497
199.20824 874.71490 130.20056 497
197.44402 974.51978 136.46460 326
193.65782 885.46289 70.20192 473
193.94887 879.55554 85.70130 472
193.88843 874.74646 101.21574 474
193.95564 872.54736 115.83547 497
194.02278 873.72522 130.32852 497
191.51237 974.94879 136.50932 327
188.36725 884.62946 70.14840 473
188.56905 878.70801 85.82291 472
188.79346 873.66693 101.22897 474
188.78412 871.72644 116.04892 497
188.68471 873.10071 130.28046 498
185.53441 978.84839 136.08879 271
182.91707 884.06268 70.34995 473
183.15616 877.61383 86.02746 472
183.29083 872.94775 101.39127 474
183.35858 870.90826 116.10513 498
183.47173 872.25134 130.37312 498
178.40648 1003.75012 134.07199 285
173.71645 1127.17493 142.47487 457
177.51025 883.28571 70.25187 473
177.96355 876.95374 86.20863 472
178.05865 871.93909 101.48462 474
178.13000 870.05994 116.11884 498
178.15750 871.41870 130.59227 498
171.30095 1026.40869 131.98741 468
172.37019 882.62463 70.39661 473
172.54979 875.86346 86.30331 473
172.90704 871.15155 101.65685 474
173.04086 869.37524 116.15137 498
172.89667 870.46387 130.50574 498
164.89696 1029.80298 131.95497 401
166.86574 881.83801 70.54884 473
167.32747 875.10004 86.33055 473
167.63545 870.02222 101.53509 474
167.75101 868.57373 116.35686 498
167.77010 869.60754 130.46902 498
153.68918 1119.04980 124.54523 497
161.50285 881.07404 70.61255 474
162.14174 874.08160 86.35422 473
162.37140 869.34473 101.77345 475
162.54813 867.55017 116.33736 498
162.29028 868.75427 130.72939 498
147.35658 1113.13501 125.07642 497
156.35416 880.33936 70.59454 474
156.85522 873.09210 86.47948 473
157.11316 868.40497 101.87949 475
157.31155 866.93201 116.51978 498
157.12086 868.01794 130.58322 499
140.52734 1112.06396 124.91879 497
150.94928 879.60712 70.62529 474
151.38573 872.37689 86.71585 473
151.89771 867.37610 101.96684 475
152.01564 866.13580 116.43391 498
151.97057 867.26678 130.66890 499
133.70351 1111.01990 124.88009 498
145.56091 879.02612 70.86743 474
146.28603 871.50507 86.70401 473
146.56482 866.63416 101.80086 475
146.72858 865.12311 116.63014 499
146.65825 866.35352 130.71983 499
127.11517 1109.85999 125.03757 498
140.26503 878.35437 70.71302 474
140.94051 870.57019 86.82132 473
141.35840 865.69989 101.96544 475
141.51866 864.27338 116.64761 499
141.31621 865.55731 130.69547 499
120.43452 1108.98425 125.04534 498
134.87029 877.64746 70.89458 474
135.73093 869.68933 86.80517 451
136.21815 864.69458 102.05627 475
136.35378 863.57233 116.59890 499
136.13654 864.74078 130.82933 499
113.56338 1107.83215 125.19994 498
129.74588 876.83203 70.75128 474
130.40459 868.90399 86.92461 451
131.01613 863.89752 102.04215 475
131.06461 862.72247 116.71443 499
130.89098 863.81177 130.80751 499
107.00121 1106.77808 125.26900 498
124.31472 876.11572 70.89352 474
125.11813 868.17255 86.74364 451
125.84332 862.90063 102.04682 475
125.89465 861.89850 116.77437 499
125.75758 863.07269 131.01479 499
100.18266 1105.71155 125.06709 498
118.92094 875.58392 70.81789 474
120.06752 867.62067 86.95350 451
120.61193 862.04028 102.09672 476
120.77890 861.21808 116.63327 499
120.47040 862.37787 130.91380 499
93.60951 1104.47229 125.22359 498
113.73328 874.68671 70.93727 474
114.64263 866.96997 86.95305 451
115.32647 861.13281 102.31219 476
115.42845 860.37030 116.76917 499
115.25642 861.52197 130.99501 499
86.83118 1103.34583 125.31120 498
108.40566 874.17969 70.99227 474
109.44860 866.34930 86.96407 451
110.11604 860.41199 102.16949 476
110.13426 859.51172 116.81570 499
110.17465 860.76721 130.97076 499
79.99764 1102.47852 125.39342 498
103.25539 873.39618 70.90472 474
104.10907 865.52521 86.78970 451
105.05531 859.54010 102.30981 476
104.96945 858.70447 116.78689 499
105.00933 859.84589 130.90227 499
73.54675 1101.28857 125.27276 498
97.85522 872.83575 70.88850 474
99.01579 864.88397 86.88921 451
99.84035 858.55811 102.24335 476
99.86700 857.89954 116.82182 499
99.81132 858.94244 131.09924 499
98.62061 867.47601 144.69893 498
92.59720 871.93024 71.02611 474
93.64492 864.13715 86.83604 451
94.52939 857.71222 102.37099 476
94.64723 856.90698 116.73577 499
94.64627 858.09326 130.91365 499
59.94006 1099.28015 125.48858 498
58.62199 1108.94824 142.89494 465
87.17357 871.33020 70.84096 474
88.43824 863.47131 86.90656 451
89.32928 856.74249 102.25146 476
89.46877 856.17725 116.74081 499
89.32841 857.32123 131.05965 499
53.46124 1098.25598 125.36979 498
81.96200 870.58545 70.96542 474
83.06363 862.96558 86.73538 451
84.23421 855.98810 102.26876 476
84.14902 855.44470 116.91754 499
84.01833 856.47766 131.07118 499
46.67570 1097.21851 125.45412 498
76.58559 869.91107 70.73360 474
77.80795 862.18298 86.74740 451
78.99014 855.06226 102.21443 476
79.03263 854.51782 116.72547 499
78.79202 855.75183 131.08644 499
39.96512 1096.11011 125.50494 499
71.19215 869.40424 70.94234 474
72.54794 861.46735 86.78381 451
73.75976 854.32977 102.23198 476
73.99635 853.67273 116.78490 499
73.62939 854.95343 131.02798 499
32.65409 1099.29907 124.93097 499
66.02785 868.63940 70.78956 474
67.33797 860.93890 86.71940 451
68.64095 853.37305 102.23102 476
68.68881 852.86029 116.76422 499
68.58071 854.08344 130.96974 499
25.85520 1098.25000 124.84910 499
60.54087 867.84869 70.69737 474
62.07513 860.38165 86.59953 451
63.39273 852.63336 102.43706 476
63.48755 851.97449 116.69434 499
63.28498 853.32050 131.06026 499
19.39564 1097.22778 124.90334 499
55.22788 867.15533 70.80255 474
56.72970 859.69788 86.57342 450
58.20539 851.54852 102.41456 476
58.19250 851.20068 116.85255 499
58.04311 852.34662 131.00095 499
12.69463 1096.21301 124.85560 499
49.95250 866.65631 70.71021 474
51.41285 859.03925 86.54707 450
53.04343 850.80396 102.29662 476
53.19492 850.35339 116.62819 499
52.81253 851.70477 130.87799 499
5.77018 1095.06165 124.87478 499
44.60779 865.76550 70.66338 474
46.26528 858.27991 86.64208 450
47.67506 850.15839 102.24146 453
47.76463 849.64563 116.70266 499
47.70609 850.80011 130.96727 499
-0.74025 1093.82239 124.80314 499
-1.45018 1097.26758 143.19179 497
39.21381 865.25867 70.60522 473
40.72454 857.69788 86.43707 450
-119.95997 582.50220 -78.31456 453
42.77153 848.89423 116.75118 499
42.40345 849.86957 130.92365 499
-5.80077 1084.85291 125.54663 406
-8.11204 1095.95410 142.90968 499
33.89100 864.77820 70.43932 439
35.60431 857.06378 86.42741 450
37.26743 848.91302 102.10288 452
37.53576 848.07446 116.71193 499
37.15100 849.02850 130.98657 499
36.57431 852.78003 144.80188 481
-14.80385 1094.80530 143.01205 499
28.57190 864.28125 70.30405 438
30.12726 856.41553 86.34256 450
32.13490 848.28162 102.13882 452
32.17485 847.16724 116.55693 499
31.90469 848.27423 130.86580 499
31.44047 850.48126 145.05518 493
-15.94224 1068.03650 144.76585 357
23.07700 864.06879 70.19675 438
24.86290 855.73071 86.13326 450
26.80251 847.58923 101.88805 451
26.98784 846.31952 116.63992 499
26.86861 847.32336 130.93335 499
26.17121 849.76294 144.98546 493
-10.41099 1012.94305 148.43440 411
17.45714 863.79730 69.98701 438
19.48814 855.03223 86.22610 449
21.45976 846.59180 101.95103 451
21.70354 845.49951 116.59434 499
21.63037 846.33905 130.94109 499
21.01227 848.88867 144.91724 493
-16.51028 1010.99023 148.34300 493
12.14104 863.11066 69.78072 439
14.36911 854.14069 86.05724 449
16.41464 845.73071 101.86242 451
16.58907 844.67853 116.46893 499
16.34267 845.68158 130.80222 499
15.77366 848.10413 144.82124 492
-23.09348 1011.99927 148.30627 306
6.71148 862.55432 69.68732 439
8.99288 853.32629 86.10189 449
11.00497 845.00311 101.94855 451
11.46597 843.91199 116.45224 498
11.15080 844.82684 130.83121 499
10.53179 847.26758 144.98949 492
-29.07711 1009.64319 148.25774 481
1.43657 862.08875 69.54593 439
3.81383 852.39386 86.06242 449
5.90127 844.08325 101.70338 451
6.20809 843.11060 116.31548 498
5.91257 843.98956 130.70404 498
5.28872 846.42981 144.96448 492
-55.25310 1087.92285 142.99370 498
-3.99247 861.44574 69.41862 439
-1.40801 851.55920 85.99986 448
0.67958 843.32404 101.65678 451
0.82148 842.07404 116.43536 498
0.51811 843.15112 130.55038 498
-0.03634 845.60773 144.74164 492
-62.09355 1086.54578 142.90915 498
-64.22620 1095.36096 160.96225 497
-9.43330 860.62354 69.40485 439
-6.93735 850.70557 85.82475 448
-4.73463 842.36365 101.68745 451
-4.48915 841.36548 116.32367 498
-4.49377 842.21796 130.66522 498
-5.17937 844.86462 144.77641 492
-68.83311 1085.39819 142.69318 498
-71.20067 1094.17505 160.98816 498
-14.98557 860.20209 69.15193 438
-12.26771 849.85535 85.81650 448
-9.84491 841.54834 101.49936 451
-9.59918 840.54163 116.33197 498
-9.81157 841.31775 130.53922 498
-10.44944 843.96222 144.66559 492
-75.58307 1084.29224 142.67534 498
-78.21764 1093.48914 160.70845 497
-20.51730 859.58545 69.18542 438
-17.55432 849.14325 85.52753 434
-15.11435 840.55334 101.54535 451
-14.87778 839.58484 116.17477 497
-15.20055 840.52661 130.39665 498
-15.81944 843.28326 144.60649 492
-16.62425 845.98395 158.95398 498
-84.97246 1092.50208 160.60703 497
-25.88684 858.93207 69.02877 438
-22.99240 848.59589 85.47488 434
-20.48380 839.68518 101.43423 450
-20.26039 838.81262 115.98405 497
-20.44428 839.78839 130.44304 498
-21.13474 842.25739 144.68791 491
-89.18520 1081.85352 142.68181 497
-91.88095 1091.13367 160.84995 497
-31.31500 858.38147 68.69450 438
-28.42234 847.95917 85.33139 433
-25.79456 839.02087 101.40437 450
-25.27969 837.89575 116.10271 497
-25.76519 838.73944 130.44939 497
-26.52127 841.39551 144.59282 491
-27.65211 845.34741 158.78749 497
-98.59679 1089.96936 160.82774 497
-36.73709 857.73358 68.66701 438
-33.66081 847.35327 85.26340 433
-30.90787 838.14008 101.31227 450
-30.59311 837.07880 116.00491 497
-220.07886 740.31055 -76.07743 497
-31.69608 840.55591 144.56348 491
-32.76025 844.46149 158.69496 497
-105.60539 1088.93506 160.55246 497
-42.34403 857.17804 68.51889 437
-39.28395 846.79517 85.16734 433
-36.29973 837.16608 101.19278 450
-35.97184 836.19904 115.81437 497
-36.22539 837.24561 130.20187 497
-37.07814 839.89789 144.50682 491
-38.29020 843.78876 158.57126 497
-112.47471 1087.60645 160.46530 497
-47.73533 856.48438 68.35509 437
-44.63791 846.14764 84.99574 433
-41.63461 836.41614 100.96407 450
-41.29144 835.47198 115.76876 497
-41.60847 836.37653 130.10606 497
-42.48042 838.89880 144.31421 491
-43.64522 842.86157 158.64607 496
-119.37782 1086.41296 160.45016 497
-53.45327 855.97015 68.01942 417
-50.03064 845.62061 84.78602 433
-46.95511 835.50214 100.88899 450
-46.55608 834.58521 115.70921 496
-46.83795 835.44080 130.18607 497
-47.78300 838.20996 144.20547 490
-48.94116 842.27045 158.48804 496
-126.03560 1084.94080 160.60422 498
-125.60968 1083.36450 179.21527 499
-59.10828 855.88354 67.71274 417
-55.54541 845.09460 84.55234 432
-52.24886 834.66077 100.82458 435
-52.03615 833.70380 115.55617 496
-52.24590 834.71838 129.92320 496
-53.04692 837.37152 144.29417 490
-54.30691 841.29883 158.48940 496
-132.64388 1082.75867 160.50603 498
-132.19441 1081.23047 179.21716 499
-64.64578 855.52466 67.62283 416
-61.03518 844.51343 84.48975 432
-57.54821 834.08594 100.72250 435
-57.26596 832.94128 115.48280 496
-57.48289 833.83704 129.94434 496
-58.43783 836.40265 144.14511 490
-59.73657 840.63544 158.28262 496
-59.78637 840.23572 172.84962 496
-138.74632 1079.03906 179.33612 499
-70.51429 855.41718 67.34351 418
-66.66114 843.90564 84.20415 432
-259.29642 767.60754 -106.67213 435
-62.56647 832.03699 115.25961 496
-62.90990 833.03632 129.94301 496
-63.88600 835.52386 144.23036 490
-65.25996 839.73871 158.37749 495
-65.54527 840.49255 172.87511 495
-145.28458 1077.28894 179.29884 305
-76.06704 854.85126 67.19495 418
-72.24440 843.33069 84.08392 431
-68.58693 832.94897 100.33031 434
-68.10821 831.40784 115.30031 493
-68.33623 832.35358 129.80966 493
-69.32539 835.00378 144.06030 487
-70.68862 839.03424 158.26433 495
-70.99136 839.72528 172.93944 495
-151.45619 1073.49683 179.21695 294
-81.77340 854.63635 66.93955 410
-77.75685 842.89789 83.97772 431
-74.12924 832.49756 100.23135 434
-73.47494 830.86133 115.16499 493
-73.68236 831.73798 129.61038 493
-74.66463 834.47296 143.92928 487
-76.18941 838.12817 158.08633 495
-76.30802 838.90308 172.72604 495
-87.73122 854.41248 66.46159 411
-83.45885 842.42877 83.71898 429
-79.53044 832.00885 99.99234 434
-78.87907 830.12805 115.00365 493
-79.33324 831.16193 129.36287 492
-80.29418 833.84845 143.68358 486
-81.47324 837.48145 158.08212 490
-81.55178 837.80402 172.77278 491
-93.51482 854.27631 66.33881 411
-89.13375 842.15674 83.40553 429
-85.27351 831.70789 99.86268 432
-84.38197 829.62054 114.76894 486
-84.70611 830.45850 129.34087 485
-85.86691 833.33795 143.75969 479
-87.32726 837.19183 157.96475 484
-87.58398 837.95233 172.59668 484
-99.25298 854.03436 66.02284 411
-94.74165 841.79541 83.11129 428
-90.84424 831.62463 99.67931 432
-90.18915 829.40967 114.48728 486
-90.58177 830.49066 129.19559 484
-91.53524 833.17590 143.58110 478
-92.94009 837.14862 157.80968 483
-93.30494 837.94244 172.57106 483
-105.36781 854.15765 65.45232 403
-100.62905 841.54694 82.79816 429
-96.52827 831.36060 99.41809 431
-95.91026 829.42084 114.49840 485
-96.36495 830.55774 128.93172 484
-97.37233 833.35510 143.33638 478
-98.90032 837.14417 157.86391 480
-99.15000 838.11945 172.33670 483
-111.50307 854.70941 64.97976 401
-106.27401 841.73169 82.61273 424
-102.29835 831.26813 99.04331 431
-101.62673 829.23669 114.15424 484
-102.15611 830.38849 128.78517 483
-102.99118 833.17297 143.08896 477
-104.78542 837.34613 157.63583 479
-104.99052 838.08759 172.39307 482
-117.66122 855.34833 64.53245 401
-112.49648 841.96515 82.09572 418
-108.26341 831.47375 98.67265 426
-107.44628 829.14648 113.83208 480
-108.00177 830.57153 128.39114 478
-109.15263 833.54395 142.92801 471
-110.59766 837.63794 157.32628 479
-111.06146 838.26135 172.28270 479
-124.11715 856.10071 64.17931 400
-118.62093 842.55963 81.84317 417
-114.36610 831.77777 98.45983 426
-113.32967 829.42053 113.69695 479
-113.84978 830.89172 128.23462 476
-115.01361 833.79456 142.81461 470
-116.60616 837.76495 157.20052 478
-117.01659 838.90411 172.15402 383
-130.50179 856.84296 63.63438 397
-124.77120 843.12750 81.33638 417
-120.33914 832.08728 98.02954 425
-119.16331 829.42798 113.33070 478
-119.90196 831.34296 127.96716 475
-121.16932 834.15881 142.44011 469
-122.50727 837.59900 157.12607 479
-126.24436 846.56335 171.46997 368
-131.15677 843.87506 80.74082 410
-126.44518 832.54767 97.75033 419
-125.13863 829.72626 113.17207 476
-125.84916 831.54266 127.69273 474
-127.19965 834.45734 142.47659 469
-131.52097 845.13593 156.56203 382
-135.11392 853.39178 171.02075 381
-137.53333 844.84894 80.25623 410
-132.58798 832.90619 97.34339 419
-131.14526 830.11890 112.64866 473
-132.01752 831.94421 127.51959 468
-133.69936 835.94556 142.14473 448
-139.87794 850.70044 155.86731 381
-144.04803 845.80396 79.98377 409
-138.89317 833.72046 96.86595 412
-137.29994 830.39264 112.39832 473
-138.46703 832.59479 127.28537 467
-140.01149 836.57031 141.86913 444
-150.61369 846.57104 79.31367 405
-145.07239 834.59796 96.46665 412
-143.68201 830.90417 112.15398 468
-144.54010 833.30054 126.89305 465
-146.47182 837.63617 141.59465 390
-157.10623 848.04565 78.79086 401
-151.71878 835.26874 96.09296 411
-149.94252 831.37152 111.79492 467
-151.03981 834.18707 126.64841 463
-153.42624 839.37952 141.18268 396
-164.09441 849.20148 78.04421 397
-158.27051 836.54321 95.60217 406
-155.84836 831.06714 111.54120 276
-157.61554 834.94757 126.22369 463
-159.84880 840.29895 140.91197 404
-170.99629 850.56927 77.44684 396
-164.81654 837.67926 95.03929 406
-161.01547 829.50049 111.36963 463
-164.10081 835.56665 125.82252 462
-166.50856 841.35468 140.52707 404
-177.73502 852.09766 77.00454 395
-171.70091 838.62689 94.55465 405
-167.56570 830.07104 111.14230 462
-170.54457 836.44458 125.52161 458
-251.34364 1009.71106 124.98071 499
-184.78094 853.68274 76.19174 385
-178.38965 840.14441 93.91201 401
-173.96420 830.56915 110.69128 413
-177.34375 837.45831 125.06165 458
-257.09332 1006.24738 125.18228 496
-192.16158 855.72241 75.64621 384
-185.26845 841.29962 93.45782 397
-180.32661 831.08575 110.35597 413
-184.07745 838.49701 124.87056 451
-194.58533 860.52844 138.17278 268
-199.57826 857.44928 74.71276 383
-192.40479 843.04742 92.91802 396
-186.99115 831.81317 109.83177 406
-190.96060 839.88757 124.30943 452
-200.07527 858.73108 137.99309 268
-206.89505 859.39642 74.17406 383
-199.71300 844.65051 92.38115 395
-193.95676 832.92487 109.57288 450
-197.97809 841.00946 124.03710 451
-205.58978 856.55505 138.04405 268
-214.65840 861.45776 73.18592 384
-207.16774 846.57916 91.64130 394
-200.87143 833.99451 109.07065 450
-204.90028 842.12878 123.44676 450
-211.09491 854.64429 137.96205 268
-222.35019 863.57135 72.56967 379
-214.45940 848.34338 90.99994 394
-207.83855 835.31561 108.55183 449
-211.93193 843.55383 123.06656 443
-216.55885 852.62616 138.00833 268
-230.17906 866.05847 71.70452 378
-221.97307 850.24774 90.33850 389
-214.83276 836.60413 107.93684 442
-219.25487 845.05066 122.53899 442
-222.26732 850.75171 137.75473 412
-238.16869 868.13354 70.93464 380
-229.72481 852.34631 89.48125 388
-222.14993 838.24182 107.29694 441
-226.62262 846.65839 122.15730 441
-229.73735 852.44678 137.51213 390
-246.17361 870.97174 69.81145 370
-237.45201 854.71149 88.79475 387
-229.54182 839.75897 106.87137 440
-234.33543 848.37073 121.78274 427
-237.57225 854.85889 137.01936 389
-254.76163 874.12811 68.85393 373
-245.82140 857.26697 87.99638 379
-237.35434 841.82526 106.31192 351
-241.99490 850.58960 121.03350 423
-245.62117 857.11243 136.57176 380
-263.64981 877.25067 67.69440 372
-254.07764 860.34674 87.17932 378
-245.48520 844.52319 105.54468 426
-249.90860 852.61011 120.48205 422
-253.53807 859.50037 135.98734 379
-272.47012 880.79034 66.76900 366
-262.85760 863.32959 86.28657 377
-253.52739 847.05762 104.89777 351
-257.87271 854.99792 120.03197 415
-261.88434 862.11877 135.52299 373
-281.63126 884.22430 65.53470 367
-271.57306 866.73236 85.22520 367
-262.58008 850.78796 103.92543 337
-266.27628 857.38074 119.21378 414
-270.37552 864.79089 134.80635 372
-290.83194 887.98285 64.43909 378
-280.73123 870.76068 84.30740 366
-271.57220 854.59021 102.93717 373
-274.77786 860.13751 118.71233 412
-278.98456 867.66321 134.25447 392
-290.06982 874.51208 82.98647 365
-280.68356 857.96680 102.14408 372
-283.46603 862.80347 118.04209 411
-287.90579 870.57751 133.80109 391
-299.60394 878.24945 82.14594 364
-289.87262 861.74615 101.24583 371
-292.01682 865.63080 117.25127 411
-296.93478 873.55231 133.11513 390
-309.28293 882.41724 81.06764 364
-298.98825 865.37402 100.22237 371
-300.71494 868.01434 116.84472 410
-306.07062 877.28461 132.45387 384
-318.80493 885.92188 79.81773 376
-308.53387 869.06726 99.45773 370
-309.32748 870.59174 116.08192 409
-315.36725 880.56738 131.89320 378
-328.26535 889.11389 78.93626 375
-318.17346 872.72351 98.50723 369
-318.29608 873.25720 115.38663 408
-324.82208 883.56085 131.31816 377
127.55396 148.30827 169.41669 485
-338.01642 892.56079 77.85607 375
-327.92242 876.57458 97.39471 367
-327.58258 876.20270 114.60623 398
-334.70779 887.69495 130.53081 373
-337.68451 880.52393 96.38415 366
-336.81516 879.08954 113.80600 399
-345.14767 892.24713 129.82281 372
124.73768 148.91318 168.85899 489
-348.14124 885.07764 95.55242 364
-346.30066 882.15900 113.10239 384
-355.73816 896.51306 129.08607 374
-358.57983 889.39258 94.29993 363
-356.35684 885.96161 112.23640 385
-366.37271 900.93683 128.28873 358
-369.24536 893.75305 93.12450 368
-366.62323 889.38104 111.56895 384
-377.52411 905.79852 127.47593 360
120.68890 149.26028 168.17961 489
-380.19733 898.17755 92.18123 373
-376.92480 893.58588 110.50599 376
-388.11154 910.05933 126.77074 359
118.24693 151.02925 167.42183 316
-391.71518 903.54163 90.88656 351
-387.76813 897.58710 109.65390 375
117.39782 150.35545 167.44281 316
-398.66376 901.65930 108.54722 374
116.52859 149.69998 167.42293 316
-407.04922 902.31665 108.19601 380
115.65734 149.05235 167.45059 316
114.82498 148.38998 167.45271 316
111.69052 150.89194 166.36894 314
110.81214 150.20686 166.41672 314
109.91333 149.54060 166.39766 314
109.07510 148.84758 166.37839 314
108.21262 148.14218 166.39696 314
107.32144 147.43965 166.38492 314
106.51775 146.73259 166.39656 314
105.33089 146.44934 166.26422 423
103.76319 146.59256 165.93362 422
96.63367 155.54648 166.38507 310
102.20432 146.74174 165.64774 421
95.72945 154.74947 166.36978 310
100.64217 146.87892 165.36932 420
94.84292 153.98393 166.38313 309
99.03349 147.05103 165.04729 419
93.89805 153.20291 166.36589 309
97.41093 147.19566 164.72971 418
93.03124 152.46719 166.35417 309
-1723.42932 2310.08862 265.95279 392
95.81824 147.33817 164.42323 427
92.14464 151.68124 166.33852 309
94.22606 147.36198 164.10275 426
91.20210 150.88640 166.37277 309
92.65329 147.45139 163.80029 425
90.34616 150.05774 166.37804 309
91.04150 147.50546 163.47249 424
89.49815 149.29384 166.36552 309
89.95123 146.92140 163.39995 307
88.61974 148.48289 166.36250 309
89.17757 146.05431 163.44284 307
87.75404 147.65504 166.36292 309
88.45298 145.14130 163.45447 307
86.10145 147.72672 166.04128 422
87.69217 144.21628 163.48637 307
84.41317 147.75580 165.72421 421
75.69993 157.10683 166.29332 305
86.89922 143.30376 163.55600 307
82.69296 147.83942 165.42688 420
74.81422 156.23647 166.26624 305
-924.41235 1217.95630 298.75336 1000
86.17869 142.39011 163.53494 307
80.92408 147.87701 165.12538 418
73.88380 155.27669 166.29286 305
85.44978 141.46623 163.57971 307
79.17723 147.97601 164.75127 417
72.96510 154.40903 166.29643 305
105.25761 119.48547 171.50967 316
77.38421 148.04762 164.45178 416
72.08495 153.48154 166.27463 305
104.62204 118.76601 171.50439 316
75.60426 148.13019 164.08513 415
71.17976 152.56056 166.28127 305
103.95055 118.00575 171.54614 316
73.75096 148.21378 163.78729 414
70.27972 151.67383 166.26381 305
103.28216 117.25885 171.54143 316
71.88177 148.22919 163.39197 413
69.40342 150.74055 166.28831 305
102.64204 116.53333 171.54393 316
70.81526 147.57187 163.29709 303
68.49059 149.77692 166.27309 305
101.98275 115.75016 171.54221 316
70.06890 146.53802 163.37051 304
67.61265 148.81516 166.23885 305
101.33412 114.98325 171.56798 316
69.30575 145.51140 163.41991 304
66.17197 148.49921 166.03656 410
100.70197 114.25878 171.56880 316
68.58305 144.46533 163.44016 304
64.18861 148.58211 165.69377 409
100.07808 113.48538 171.55115 316
67.85108 143.37950 163.44046 304
62.17650 148.64880 165.36920 408
52.17620 157.90575 166.14865 301
99.42913 112.68747 171.56982 316
91.03498 120.44353 171.62158 312
60.19219 148.68216 165.00444 407
51.30799 156.89627 166.18687 301
98.83935 111.94788 171.58311 316
90.36830 119.58934 171.62624 312
58.14764 148.82561 164.61615 406
50.35781 155.83594 166.14793 301
98.19139 111.15259 171.57895 316
89.70467 118.74425 171.65294 312
56.05289 148.85777 164.22116 405
49.48661 154.72510 166.15298 301
97.59183 110.36205 171.56425 316
89.03886 117.93608 171.64427 312
53.93821 148.93422 163.80690 404
48.56670 153.67169 166.17279 301
96.95811 109.57900 171.57475 316
88.40529 117.07526 171.66168 312
51.76060 149.00685 163.41788 402
47.67233 152.59889 166.18399 301
96.38208 108.82063 171.57959 316
87.74583 116.22778 171.64029 312
50.25955 148.57414 163.22647 300
46.80800 151.51627 166.16075 301
-43208.29688 37441.87891 13589.81738 1000
95.78180 107.99924 171.59042 316
87.08145 115.42142 171.64531 312
49.55796 147.35544 163.26201 300
45.90837 150.49518 166.15334 301
95.18632 107.21170 171.61662 316
86.43365 114.53961 171.65910 312
48.84237 146.18581 163.33180 300
45.04253 149.35825 166.13295 301
94.57401 106.42934 171.62819 316
85.82117 113.69868 171.69641 312
75.84924 121.95306 171.74202 308
42.81194 149.38513 165.78828 398
94.01524 105.62061 171.60811 316
85.18441 112.81525 171.66263 312
75.19097 121.04540 171.78659 308
40.50832 149.47136 165.35841 397
93.40868 104.77545 171.60201 316
84.56589 111.98583 171.68567 312
74.50690 120.09714 171.75877 308
38.12527 149.53665 164.97049 396
26.46041 159.04430 166.00316 297
92.82391 103.97459 171.63605 316
83.97259 111.10268 171.68866 312
73.84393 119.19012 171.79565 308
35.71602 149.68159 164.50809 395
25.53561 157.80911 166.06541 297
92.25600 103.19202 171.63976 316
83.35686 110.23538 171.67642 312
73.20705 118.25135 171.80533 308
33.32547 149.73018 164.08292 393
24.59747 156.62213 166.02390 297
91.71335 102.36440 171.61160 316
82.72932 109.35432 171.71407 312
72.52064 117.30833 171.76120 308
30.80253 149.82771 163.68449 392
23.74709 155.40308 166.06026 297
91.12463 101.52223 171.62616 316
82.14636 108.47052 171.69092 312
71.89532 116.36166 171.76788 308
28.26939 149.92813 163.22438 391
22.82172 154.12877 166.03773 297
90.58836 100.69765 171.64120 316
81.54553 107.59076 171.71005 312
71.23626 115.38326 171.81949 308
27.20806 148.89230 163.14723 296
21.91061 152.91695 166.02454 297
90.02443 99.86237 171.62296 316
80.93674 106.68090 171.71709 312
70.61686 114.46258 171.81773 308
58.80224 123.33733 171.90456 304
21.02948 151.65028 166.05666 297
89.50051 99.02445 171.63286 316
80.36413 105.79138 171.70805 312
69.95758 113.50092 171.83017 308
58.10126 122.32529 171.91492 304
20.18336 150.41197 166.04591 295
-2102.05811 1723.61536 74.27318 476
-2101.23682 1723.10840 121.75783 476
-2100.62158 1722.54260 168.89973 477
-2100.04419 1721.96045 216.84024 477
-2099.79834 1721.18677 264.23807 477
88.92665 98.19545 171.65556 316
79.77369 104.92555 171.74535 312
69.36414 112.55436 171.82483 308
57.42370 121.29270 171.90950 304
17.74995 150.33525 165.64613 389
88.42556 97.36147 171.64783 316
79.19938 104.02386 171.71057 312
68.76403 111.57306 171.84462 308
56.77359 120.21571 171.91864 304
