# .PCD v.7 - Point Cloud Data file format
VERSION .7
FIELDS x y z rgb
SIZE 4 4 4 4
TYPE F F F U
COUNT 1 1 1 1
WIDTH 1351
HEIGHT 1
VIEWPOINT 6593.850586 -20.172361 144.415634 -0.623247 -0.102054 -0.081120 0.771082
POINTS 1351
DATA ascii
-2058.16406 -2929.40039 154.93002 372
113.56646 -148.73112 166.48262 314
-2045.71985 -2951.18433 93.27696 459
115.36762 -148.30038 166.85474 428
-2036.55273 -2975.98877 93.08504 458
116.92031 -148.19260 167.09880 439
-2026.41382 -3002.07715 92.04290 458
118.37328 -148.19769 167.33769 439
117.79972 -149.02960 170.26427 438
-1996.28369 -2999.04810 92.84699 369
119.56621 -148.59749 167.43800 316
119.24776 -148.99741 170.48203 439
-1965.22363 -2995.63452 93.91565 424
120.51540 -149.27328 167.44252 316
120.27290 -149.58232 170.52769 312
-1935.88037 -2993.64526 94.39867 425
121.43186 -149.94713 167.41315 316
121.18864 -150.25056 170.51874 312
122.41013 -150.59897 167.39317 316
124.72681 -149.26035 168.05118 489
-2120.42236 -4332.00830 1194.97717 1000
43.76546 -30757.26562 2732.85938 1000
265.80835 -1074.68311 74.81052 362
265.92966 -1081.80994 91.86271 288
272.08426 -1067.92859 75.91156 471
272.13110 -1069.36060 93.23765 471
272.22015 -1071.34351 110.79478 425
272.51535 -1075.06323 128.27136 306
278.70175 -1065.11902 76.02374 495
278.80157 -1066.25684 93.81152 496
278.86194 -1067.45728 111.11494 496
278.87463 -1069.24133 128.80064 493
278.81778 -1069.78101 146.17262 472
279.10547 -1071.64893 163.62460 456
285.11288 -1065.13660 76.08985 496
285.46884 -1066.36963 93.61845 497
285.42227 -1067.27307 111.13785 497
285.45950 -1068.95923 128.59645 494
285.40378 -1069.88208 146.30373 475
285.64578 -1071.02100 163.71873 433
292.11621 -1067.70105 75.74835 472
292.16263 -1069.60950 93.18559 428
292.10782 -1071.54602 110.86150 428
292.26746 -1075.14331 128.07231 373
299.01224 -1076.03784 74.50841 365
3119.19702 -29299.31641 -6146.36768 1000
5344.16113 -15153.61133 3396.30518 1000
1313.27368 -1929.39001 108.24838 486
1324.50110 -1921.16162 108.16997 469
1335.35437 -1912.49731 108.20812 469
1337.66980 -1904.02795 107.15074 458
1350.38391 -1925.50220 142.78992 254
1348.44092 -1895.46655 107.54313 457
1359.62195 -1914.34985 142.69409 334
1359.54163 -1887.71191 107.64214 455
1369.07336 -1904.09290 142.72510 341
1370.79370 -1880.41052 107.21449 453
1379.20093 -1894.16284 142.70299 361
1381.80896 -1873.10242 107.57439 454
1389.25525 -1884.96021 143.01979 367
1393.46033 -1865.74463 107.27000 454
1399.91565 -1876.62097 142.83044 389
1404.41284 -1858.67053 107.73027 454
1410.32605 -1867.75940 142.91777 388
1429.32922 -1872.36816 69.52480 446
1415.82642 -1851.24768 107.41177 454
1421.10449 -1859.43701 143.30714 424
1441.18237 -1865.24780 69.72442 443
1427.38977 -1843.88647 107.52285 454
1432.23010 -1850.99377 143.40137 424
1453.26904 -1858.17505 69.56688 444
1438.47168 -1836.63599 107.46963 452
1443.21716 -1842.98303 143.50835 424
1464.83057 -1851.70459 69.80023 439
1450.41040 -1829.93237 107.70815 452
1453.88489 -1835.65356 143.23372 423
1462.54590 -1823.21057 107.59036 449
1465.13025 -1827.85632 143.54820 442
1573.19934 -1987.61829 176.43063 356
1474.59900 -1817.64978 107.13160 449
1476.90015 -1820.95789 143.14703 440
1570.47925 -1956.88928 176.62915 357
1486.88647 -1811.48779 107.10780 447
1488.92261 -1814.83899 143.30853 460
1567.12634 -1926.85229 177.02885 358
1499.57996 -1806.06982 107.25945 447
1501.14990 -1808.60510 142.96196 491
1563.63635 -1897.77905 177.28178 360
1512.29065 -1800.60315 106.97460 443
1514.09802 -1803.03284 142.93687 489
1561.04004 -1868.57715 177.68713 361
1525.57397 -1795.65808 107.05593 443
1526.99866 -1797.25378 142.86676 489
1557.58008 -1840.52063 178.65460 362
1538.42810 -1790.27588 106.73013 442
1539.38049 -1792.41638 143.14890 490
1554.27246 -1811.92358 178.78790 367
1551.54370 -1785.60754 106.17283 442
1552.66858 -1786.44226 142.64291 488
1562.66797 -1800.12317 178.89140 478
1565.85938 -1781.68201 105.86669 442
1565.72241 -1781.87390 142.84059 485
1570.54724 -1788.40649 179.01328 479
1580.01184 -1777.60974 106.18453 441
1579.65344 -1777.23523 142.33629 485
1584.44641 -1783.71448 178.98570 481
26389.20898 -33950.38281 -5444.60254 1000
1595.05664 -1774.62720 105.38902 433
1593.97144 -1773.12415 142.15173 479
1598.80676 -1779.71753 178.56255 481
1610.08008 -1771.94434 104.91465 426
1608.69727 -1770.09583 141.88412 467
1614.08411 -1776.89807 178.58488 463
1626.51270 -1769.97339 104.63557 424
1624.33252 -1767.26404 141.71523 460
1630.19238 -1774.71545 178.87601 462
1642.19568 -1768.48962 104.13978 424
1640.45190 -1765.59167 141.60196 459
1658.90149 -1766.46301 103.66871 428
1656.98645 -1764.35864 141.57909 458
1675.68408 -1765.57629 103.65369 427
1673.45679 -1762.41553 141.14229 458
1693.30872 -1763.82935 102.72341 426
1690.00916 -1760.63452 140.70876 457
1710.57117 -1762.81384 102.68385 425
1707.10510 -1758.95410 140.67485 456
1727.24585 -1760.60791 102.13554 431
1723.82336 -1757.44800 140.34566 454
1743.87720 -1758.81482 101.88004 430
1741.31018 -1755.25195 139.49980 454
1761.20630 -1756.78650 101.39884 429
1758.48474 -1753.26440 139.73376 453
1778.37720 -1754.32764 100.45805 429
1775.72717 -1751.62219 139.06693 453
1796.13904 -1752.26892 99.89541 428
1793.61377 -1749.61121 138.57745 452
1813.74878 -1750.42175 99.85556 438
1811.27649 -1748.12805 138.74326 451
1831.98035 -1748.83948 99.00738 437
1828.81616 -1745.64087 137.84247 450
1850.44885 -1747.63696 98.75787 436
1846.62854 -1743.93140 137.56058 449
1868.88806 -1746.00928 98.14021 435
1865.05908 -1742.33765 137.43552 448
1887.69116 -1744.52466 97.15222 434
1883.53491 -1739.95581 137.03484 447
1906.18933 -1742.70056 96.88396 433
1902.03357 -1738.34265 136.83472 446
1925.40173 -1740.82410 96.06794 434
1920.63623 -1735.85889 136.58240 445
1944.56714 -1738.79175 95.58031 432
1939.54578 -1734.24402 136.13945 444
1964.09924 -1737.22339 95.14921 432
1958.80835 -1731.90552 135.78630 444
1983.45154 -1735.10876 94.42426 431
1977.85352 -1730.39722 135.06133 443
2000.42480 -1730.76306 94.34149 419
2023.37915 -1732.12524 92.88228 432
376.05322 -105.85810 167.64085 313
376.61594 -104.89967 167.62465 313
377.19046 -103.98270 167.65747 313
377.79898 -103.05154 167.67763 313
378.38251 -102.06241 167.68146 313
378.92133 -101.15812 167.66574 315
379.51743 -100.19654 167.68108 315
40084.16797 -25927.50391 -10881.14062 1000
380.10379 -99.27260 167.68359 315
380.67270 -98.29510 167.69156 315
381.21341 -97.34531 167.67186 315
381.77811 -96.38669 167.70663 315
382.32889 -95.44872 167.68153 315
383.06332 -94.61862 167.63678 435
384.44220 -94.12390 167.36342 434
385.83783 -93.62881 167.13474 433
394.94888 -98.96906 167.68704 309
387.23825 -93.15175 166.85237 432
395.48218 -97.93478 167.72621 309
388.66516 -92.69392 166.57895 431
396.04803 -96.87007 167.69664 309
390.10773 -92.16339 166.29636 430
396.58786 -95.78134 167.69405 309
391.53586 -91.69166 166.04301 429
397.10437 -94.74149 167.75050 309
392.99960 -91.14354 165.72647 428
397.59616 -93.64375 167.74249 309
1220.86621 -540.35938 86.06496 335
394.49820 -90.67528 165.46439 427
398.10147 -92.59173 167.73151 309
1215.53259 -529.47034 87.34959 456
1217.39331 -530.67450 105.58634 456
1220.62231 -532.35797 124.02965 350
396.00565 -90.13268 165.13574 426
398.61832 -91.52169 167.75652 309
1215.99084 -522.05511 87.55755 490
1217.84253 -522.95435 105.91503 490
1219.83264 -524.11572 124.30649 492
1220.98767 -524.58521 142.79465 490
1222.71057 -525.39233 161.11635 491
397.50174 -89.59505 164.88193 425
399.11630 -90.43964 167.78931 311
1219.77832 -516.28345 87.50893 485
1221.28711 -517.10931 106.10261 485
1223.61633 -518.18024 124.24344 485
1224.95776 -518.88971 142.68594 454
1226.95007 -519.97729 160.81555 447
398.27377 -88.66616 164.80380 317
399.65811 -89.35994 167.75142 311
1226.18274 -511.71774 87.10996 446
1228.89783 -513.19916 105.57535 390
398.77164 -87.65673 164.79956 317
400.61658 -88.52885 167.66924 423
399.31735 -86.55607 164.79991 317
402.19199 -87.98140 167.33742 422
399.83487 -85.50649 164.78032 317
403.75751 -87.48077 167.06386 421
400.37497 -84.49332 164.79034 317
405.36530 -86.88306 166.76637 420
414.71896 -91.37361 167.72365 305
400.82919 -83.41831 164.77995 317
406.98230 -86.32594 166.45572 439
415.23834 -90.19576 167.77892 305
401.33514 -82.32994 164.77507 317
408.42728 -85.63374 166.19763 438
415.72598 -89.03662 167.74133 305
401.79501 -81.29044 164.78372 317
409.79761 -84.93165 165.93340 437
416.19830 -87.85140 167.79492 305
402.26266 -80.19050 164.75273 317
411.25253 -84.24745 165.64757 436
416.70544 -86.67393 167.81259 305
402.71429 -79.09460 164.74457 317
412.69296 -83.55725 165.39403 435
417.15094 -85.52209 167.79115 305
403.22101 -78.04215 164.76393 317
414.15259 -82.79861 165.14296 434
417.62631 -84.29126 167.83624 305
403.64914 -76.95458 164.75249 317
415.68814 -82.06209 164.85922 433
418.09116 -83.09666 167.79553 305
404.12463 -75.87418 164.72946 317
416.16699 -80.89784 164.87001 312
418.52420 -81.94624 167.80080 305
380.91043 -64.95894 171.60481 316
416.65729 -79.77181 164.83986 312
418.95209 -80.73617 167.82088 305
381.28253 -64.02102 171.59358 316
417.08707 -78.57370 164.87375 312
420.20929 -79.85356 167.60526 431
381.62964 -63.04428 171.62308 316
417.59119 -77.44653 164.86253 312
421.78183 -79.11680 167.34129 430
381.93579 -62.09483 171.61087 316
418.00626 -76.24770 164.82262 312
423.36420 -78.32355 167.10619 429
382.31067 -61.14599 171.64192 316
418.44992 -75.10427 164.84747 312
424.91406 -77.55375 166.80746 428
382.60867 -60.17370 171.60789 316
418.91583 -73.93378 164.82368 312
426.51691 -76.80186 166.51338 427
436.80902 -80.68921 167.80540 301
382.96927 -59.19248 171.60873 316
419.36298 -72.73416 164.80125 312
428.14230 -76.00305 166.18825 426
437.26703 -79.39132 167.83566 301
383.26871 -58.21485 171.63831 316
419.78015 -71.51888 164.82845 312
429.79941 -75.19695 165.91658 425
437.67365 -78.03292 167.83463 301
383.60516 -57.26792 171.65999 316
420.18213 -70.37275 164.81595 312
431.44962 -74.37032 165.58955 424
438.03629 -76.75011 167.86423 301
383.93195 -56.31142 171.63812 316
420.58151 -69.18711 164.80902 312
433.16254 -73.56514 165.30118 423
438.46313 -75.40390 167.85820 301
384.20837 -55.31269 171.63071 316
394.88138 -58.99547 171.73828 313
434.82788 -72.73035 164.95412 422
438.80994 -74.13600 167.86665 301
384.52322 -54.34620 171.62697 316
395.16803 -57.95596 171.76714 313
435.53979 -71.53509 164.89676 308
439.21344 -72.76649 167.87082 301
384.82541 -53.36209 171.66385 316
395.47672 -56.89502 171.75783 313
435.98499 -70.24614 164.88484 308
439.59360 -71.47303 167.90149 301
385.08438 -52.41254 171.64839 316
395.77866 -55.87127 171.75542 313
436.38855 -69.00491 164.88322 308
440.03741 -70.17141 167.89632 434
385.35248 -51.39729 171.63606 316
396.11331 -54.77730 171.74892 313
436.79065 -67.69674 164.89178 308
441.56418 -69.20729 167.64775 433
385.63797 -50.40363 171.65451 316
396.40015 -53.77948 171.78174 313
437.11243 -66.38513 164.93018 308
443.14996 -68.28709 167.36900 432
385.92877 -49.42615 171.67743 316
396.66797 -52.69680 171.77486 313
437.52646 -65.08353 164.88092 308
444.76575 -67.26208 167.07474 431
386.16196 -48.43331 171.66093 316
396.96494 -51.63086 171.79048 313
437.87573 -63.77020 164.89703 308
446.39862 -66.33961 166.76808 430
386.45755 -47.44996 171.67757 316
397.22577 -50.59616 171.76707 313
438.20575 -62.49923 164.93715 308
448.03912 -65.30692 166.47542 429
386.70825 -46.49313 171.65068 316
397.50412 -49.54279 171.77307 313
438.60773 -61.19384 164.89381 307
449.69040 -64.32620 166.19781 428
386.97052 -45.50042 171.64432 316
397.78513 -48.50377 171.79207 313
438.92844 -59.88546 164.92348 307
451.42166 -63.30704 165.94476 427
461.13992 -66.03893 167.92987 297
387.19080 -44.49950 171.67043 316
398.03186 -47.40358 171.75897 313
410.32910 -50.75797 171.92198 309
453.12430 -62.31663 165.64680 426
461.42297 -64.52259 167.93796 297
387.43915 -43.49075 171.67168 316
398.27615 -46.35192 171.76950 313
410.63156 -49.59870 171.87509 309
454.83902 -61.27694 165.29880 425
461.72324 -63.08546 167.93152 297
387.67221 -42.51118 171.69775 316
398.52747 -45.30357 171.75571 313
410.88641 -48.48964 171.91579 309
456.55212 -60.24954 165.01494 423
462.06351 -61.63425 167.98265 297
387.87338 -41.52281 171.66290 317
398.77109 -44.22062 171.77007 313
411.16284 -47.35001 171.92116 309
456.93054 -58.82917 164.96680 303
462.29364 -60.18502 167.93628 297
388.09109 -40.49398 171.68164 317
399.02426 -43.16921 171.77003 313
411.39767 -46.21216 171.88234 309
457.24442 -57.37057 165.02805 303
462.56744 -58.70146 168.00072 297
388.29901 -39.51254 171.68475 317
399.24548 -42.11584 171.78714 313
411.63766 -45.05238 171.90076 309
457.60263 -55.95219 165.01193 303
462.84982 -57.18561 167.99220 297
388.48221 -38.49237 171.70232 317
399.43732 -41.03455 171.77530 313
411.84488 -43.88956 171.93314 309
457.90839 -54.54329 165.01489 303
463.39087 -55.81073 167.92078 453
388.70346 -37.51237 171.69279 317
399.66010 -39.97124 171.79884 313
412.12250 -42.76395 171.88550 309
458.14139 -53.08113 164.97130 304
464.66714 -54.57357 167.76566 452
388.91043 -36.50159 171.67462 317
399.87787 -38.91552 171.80087 313
412.32343 -41.60614 171.89490 309
458.47675 -51.66081 165.02713 304
466.03003 -53.32513 167.51974 451
14021.39844 -3011.67944 3265.70557 1000
389.09995 -35.48034 171.68097 317
400.05740 -37.80846 171.77164 313
412.55466 -40.47528 171.89111 309
458.74875 -50.25329 165.01695 304
467.33725 -52.04071 167.29781 450
389.25574 -34.50832 171.68866 317
400.25586 -36.74503 171.77625 313
412.73959 -39.33397 171.91772 309
459.00412 -48.78043 165.01917 304
468.72421 -50.81912 167.09799 450
389.43384 -33.49380 171.69562 317
400.47070 -35.69004 171.79605 313
412.94589 -38.17404 171.92567 309
459.28806 -47.34476 164.97256 304
470.04019 -49.48968 166.89264 449
389.63586 -32.47816 171.69252 317
400.62616 -34.58911 171.81918 313
413.13782 -37.02747 171.90833 309
427.43430 -39.75138 172.06711 305
471.44586 -48.26294 166.64363 448
389.76706 -31.46637 171.69942 317
400.83054 -33.49981 171.78806 313
413.34244 -35.85741 171.93315 309
427.65787 -38.51833 172.08263 305
472.84946 -46.92418 166.45859 447
21073.46875 -3881.82910 -3285.27759 1000
389.94843 -30.44699 171.67958 317
400.99673 -32.44576 171.79906 313
413.54233 -34.69061 171.90753 309
427.84448 -37.28646 172.06378 305
474.28284 -45.57417 166.20784 446
390.09866 -29.44758 171.68550 317
401.13406 -31.37557 171.82109 313
413.71521 -33.54107 171.91292 309
428.03787 -36.02869 172.08479 305
475.69644 -44.26705 165.99312 445
390.23975 -28.39738 171.69154 317
401.28043 -30.27784 171.82455 313
413.88983 -32.39162 171.94536 309
428.21890 -34.79919 172.03696 305
477.13754 -42.93180 165.69746 444
487.98056 -44.76434 168.08475 293
390.38519 -27.40190 171.67752 317
401.43546 -29.17868 171.79062 313
414.03641 -31.18655 171.90958 309
428.43402 -33.50452 172.06247 305
478.57599 -41.56892 165.45923 443
488.12082 -43.13980 168.02905 293
390.51309 -26.37172 171.72052 317
401.60611 -28.10833 171.80887 313
414.19937 -30.03145 171.91110 309
428.55173 -32.26741 172.07100 305
480.00522 -40.23938 165.25415 442
488.30893 -41.51201 168.09138 294
390.63467 -25.38726 171.70792 317
401.75714 -27.04021 171.79518 313
414.30664 -28.89950 171.91147 309
428.77579 -31.05274 172.07043 305
480.66943 -38.70541 165.16544 300
488.42831 -39.89568 168.09770 294
390.77173 -24.37917 171.70741 317
401.85602 -25.93048 171.81496 313
414.48639 -27.75517 171.90831 309
428.88907 -29.75634 172.07570 305
480.85727 -37.18159 165.10872 300
488.53317 -38.25751 168.14668 294
390.86392 -23.33896 171.69415 317
401.98965 -24.85869 171.80219 313
414.60941 -26.56426 171.94365 309
429.03033 -28.55753 172.05937 305
481.07361 -35.62180 165.17722 300
488.64240 -36.64046 168.13547 294
390.99680 -22.33345 171.68192 317
402.08600 -23.76146 171.83389 313
414.71304 -25.39002 171.91158 309
429.18286 -27.29313 172.06801 305
481.21667 -34.01364 165.11722 300
488.73206 -35.02306 168.18561 294
391.07721 -21.29284 171.70262 317
402.23685 -22.66501 171.83208 313
414.85498 -24.24237 171.91550 309
429.28647 -26.01272 172.05617 305
445.99786 -28.06137 172.23016 301
488.78064 -33.35751 168.17334 294
391.18280 -20.29646 171.69484 317
402.30551 -21.59603 171.83058 313
414.96820 -23.08210 171.94922 309
429.41461 -24.77913 172.05870 305
446.17191 -26.72585 172.23250 301
488.92444 -31.72795 168.15205 294
2108.52686 -221.19847 154.44620 279
391.24811 -19.24830 171.72490 317
402.40485 -20.52447 171.81946 313
415.06580 -21.92833 171.92957 309
429.56119 -23.52981 172.06242 305
446.28336 -25.36906 172.25279 301
488.99417 -30.09756 168.18062 294
2082.74805 -206.88808 124.75598 336
2076.07446 -206.27432 155.45023 333
391.32996 -18.23166 171.71281 317
402.53241 -19.38714 171.79439 313
415.19403 -20.73182 171.95566 309
429.69092 -22.24169 172.10240 305
446.44165 -24.01132 172.22841 301
490.04706 -28.62187 168.06763 456
2053.68701 -192.14964 126.20291 419
2052.01294 -191.98701 156.18216 466
2093.44751 -196.44571 185.96062 304
391.42273 -17.21819 171.69247 317
402.60623 -18.31115 171.81830 313
415.25488 -19.57550 171.91768 309
429.77020 -21.00612 172.09868 305
446.50665 -22.64111 172.23994 301
491.31747 -27.03917 167.84207 455
2047.70813 -180.20616 126.31614 457
2046.54761 -180.12569 156.86093 460
2080.80420 -183.90454 185.99068 320
391.47379 -16.18799 171.70024 317
402.68915 -17.24667 171.81506 313
415.38455 -18.40051 171.95734 309
429.84280 -19.72412 172.06860 305
446.61310 -21.30260 172.25372 301
492.53931 -25.53044 167.63194 454
2041.73914 -168.49358 127.06453 445
2040.16357 -168.14609 156.91238 452
2078.38062 -172.07109 186.11194 329
391.55502 -15.19524 171.72426 317
402.76691 -16.15564 171.79073 313
415.44702 -17.20844 171.92720 309
429.92892 -18.47017 172.08441 305
446.70163 -19.92473 172.24884 301
493.80124 -23.94358 167.44263 453
2125.87817 -164.82439 91.67561 332
2036.26489 -156.66920 127.39794 461
2036.45764 -156.73827 157.00951 465
2085.37183 -161.00514 186.17699 277
391.60733 -14.14206 171.69984 317
402.83682 -15.04295 171.83411 313
415.50705 -16.08983 171.93593 309
430.04892 -17.25066 172.09952 305
446.79779 -18.59422 172.26193 301
495.05789 -22.42690 167.21436 452
2109.72705 -151.35919 92.42599 378
2030.56445 -145.25401 127.35645 467
2031.01453 -145.17770 157.47099 471
2082.45435 -149.22949 186.00462 499
52566.95312 -4190.54395 12460.52441 1000
391.68814 -13.13897 171.70757 317
402.89502 -13.96726 171.80206 313
415.57474 -14.89762 171.91615 309
430.07318 -15.96115 172.06163 305
446.90839 -17.17806 172.21999 301
496.36261 -20.86252 166.99512 451
2097.59692 -138.88422 93.55466 387
2025.32385 -133.66689 127.63698 468
2027.34204 -133.53908 157.13062 457
2180.22583 -144.97459 184.32446 487
391.72284 -12.10559 171.70804 317
402.94797 -12.83591 171.81421 313
415.64014 -13.69989 171.95183 309
430.13828 -14.69433 172.05135 305
446.94107 -15.82286 172.24628 301
497.20676 -19.25268 166.87100 483
2087.08130 -126.89283 94.05862 410
2020.34521 -122.17825 128.29771 469
2023.19250 -122.63841 157.63176 455
2066.37134 -125.32072 186.27844 482
391.78372 -11.05376 171.72055 317
402.98999 -11.75892 171.80008 313
415.69452 -12.54339 171.93143 309
430.22043 -13.42086 172.05736 305
447.05255 -14.45586 172.27025 301
497.84146 -17.58306 166.76035 482
2053.19775 -113.27837 96.38673 280
2015.04565 -111.07464 128.40594 469
2019.58862 -111.29501 157.77409 455
2182.24243 -120.92944 184.52724 401
391.79977 -10.03324 171.72377 317
403.01639 -10.67143 171.79543 313
415.74866 -11.37414 171.94554 309
430.24823 -12.18061 172.07130 305
447.06506 -13.11346 172.21635 301
498.55594 -15.98442 166.60756 482
2031.94397 -100.89553 97.90185 279
2010.17371 -99.29653 128.70874 470
2015.79504 -100.00459 157.73338 422
2145.43018 -107.10365 184.82440 260
391.85117 -9.03759 171.71164 317
403.07385 -9.58503 171.83374 313
415.78455 -10.20702 171.96487 309
430.33795 -10.90140 172.08806 305
447.14154 -11.72237 172.26993 301
466.79370 -12.74226 172.41907 297
2022.60046 -89.17659 98.64658 348
2009.59753 -88.49595 128.96698 480
2012.48718 -88.73605 157.74782 428
391.87717 -7.98089 171.70758 317
403.09329 -8.46786 171.79370 313
415.81348 -9.04264 171.95726 309
430.37186 -9.62762 172.08295 305
447.19852 -10.35493 172.23016 301
466.83966 -11.24474 172.41095 297
2014.73779 -78.00560 99.11406 348
2005.58118 -77.21393 129.13623 480
2009.71460 -77.76145 157.97513 429
391.89294 -6.95771 171.71828 317
403.08884 -7.38369 171.83777 313
415.81653 -7.88779 171.94237 309
430.39828 -8.37365 172.10629 305
447.18414 -8.99482 172.25893 301
466.87152 -9.74003 172.41449 297
2007.56421 -66.70136 99.39832 355
1998.42944 -66.09281 129.20740 481
2006.88293 -66.38215 158.35265 433
391.91791 -5.94959 171.72832 317
403.11642 -6.28064 171.83537 313
415.84665 -6.67289 171.92232 309
430.37930 -7.13936 172.09642 305
447.24493 -7.65941 172.23766 301
466.90100 -8.28466 172.45889 297
2001.84436 -55.27415 100.03415 408
1994.38306 -55.14170 129.59648 481
2004.36389 -55.24055 158.15926 402
391.88916 -4.94325 171.71054 317
403.10529 -5.19669 171.82024 313
415.84039 -5.52894 171.94830 309
430.42401 -5.86174 172.08888 305
447.22861 -6.31910 172.22092 301
466.95520 -6.74858 172.41977 297
1996.11145 -44.38176 100.61539 413
1990.16125 -44.15152 129.94875 482
2001.96667 -44.57262 158.26118 402
391.91876 -3.89321 171.72601 317
403.12335 -4.11127 171.83838 313
415.86975 -4.34202 171.92255 309
430.42694 -4.59035 172.10190 305
447.24301 -4.94166 172.26756 301
466.98404 -5.26305 172.45386 297
1990.80017 -33.39566 100.69808 413
1989.86938 -33.20700 129.80264 482
1999.22827 -33.52332 158.35452 408
391.88556 -2.88273 171.69037 317
403.14105 -2.98731 171.81035 313
415.86230 -3.17389 171.95749 309
430.41611 -3.35744 172.06451 305
447.26309 -3.55215 172.21732 301
466.93759 -3.80689 172.45187 297
1985.65100 -22.36178 101.36916 459
1986.02026 -22.65303 129.86295 486
1996.69739 -22.54143 158.54611 409
391.87195 -1.85978 171.68794 317
403.12778 -1.92730 171.79933 313
415.83118 -1.98775 171.94296 309
430.44086 -2.09815 172.09402 305
447.27408 -2.16710 172.25554 301
451.74933 -2.20413 175.21848 425
1981.86597 -11.42880 101.65390 459
1982.46118 -11.56698 130.10349 487
1994.80249 -11.57065 158.81898 413
391.84738 -0.84092 171.70767 317
403.09302 -0.83617 171.81435 313
415.82831 -0.84009 171.94710 309
430.41428 -0.83869 172.09108 305
447.25540 -0.80386 172.25528 301
466.97202 -0.82120 172.44363 297
1977.49414 -0.95932 101.73670 460
1978.86536 -0.80369 130.20888 487
1992.77661 -1.07740 158.85324 414
391.85156 0.21804 171.68369 317
403.06671 0.28227 171.83427 313
415.81958 0.33491 171.93506 309
430.36188 0.46731 172.09999 305
447.24460 0.52863 172.25989 301
466.90668 0.67334 172.40819 297
1973.68213 9.66967 101.93292 461
1971.61938 9.94801 130.89313 488
1991.08447 9.93258 158.59789 361
273.16571 -0.22749 203.49358 285
403.03986 1.35409 171.81935 313
415.76575 1.51860 171.91891 309
430.36209 1.70178 172.05383 305
447.16165 1.88841 172.22058 301
451.86133 1.98847 175.14983 422
1969.71582 20.45278 102.42149 461
1968.01025 20.66407 131.10461 488
1989.75708 20.56197 158.57939 361
273.10391 0.06776 203.49533 285
403.01590 2.48890 171.80399 313
415.72388 2.69848 171.93013 309
430.28018 2.94001 172.10550 305
447.13312 3.25740 172.25885 301
466.87155 3.65109 172.46210 297
1965.84204 31.31496 102.44084 487
1965.16711 31.35098 131.28822 490
1988.75464 31.64212 158.93645 361
2138.48462 34.28667 279.24008 311
273.08871 0.37340 203.50275 285
402.93494 3.56442 171.83278 313
415.67828 3.88878 171.90874 309
430.25485 4.21901 172.05550 305
447.11102 4.66447 172.22102 301
466.78748 5.09415 172.44608 297
1962.76794 41.73571 102.81345 488
1962.16699 41.75436 131.22379 491
1987.68323 42.44466 158.85391 361
2083.89062 44.95660 185.99402 309
2102.45947 45.43026 277.89627 311
273.07022 0.66941 203.49152 285
402.90366 4.64621 171.81145 313
415.61414 5.02980 171.90976 309
430.22852 5.50300 172.05046 305
447.05646 5.99959 172.21832 301
466.75751 6.62365 172.41220 297
1959.54688 52.30403 102.68031 488
1959.34070 52.39509 131.40506 491
1986.26355 52.95188 158.72804 361
2007.92468 53.86773 187.47490 487
2063.71094 55.79564 276.89505 313
273.04025 0.96925 203.49159 285
402.83966 5.74733 171.78926 313
415.55048 6.23087 171.94914 309
430.14688 6.77065 172.06500 305
446.97543 7.39438 172.24345 301
466.68011 8.08885 172.40543 297
1956.25842 62.82914 103.18940 489
1956.45923 63.01909 131.29675 492
1994.01550 64.51796 158.62750 262
2003.99036 64.72499 187.46492 487
2084.29321 67.53088 247.10890 312
2008.74902 64.76997 274.85388 300
273.00839 1.26532 203.49442 285
402.78152 6.86678 171.82220 313
415.51950 7.42804 171.92961 309
430.06137 8.04568 172.04543 305
446.91284 8.73873 172.26483 301
466.59848 9.58325 172.42059 297
1953.45984 73.23978 102.94851 492
1953.47961 73.69949 131.44873 495
1999.77832 75.27264 158.60799 487
1999.74524 75.28677 187.62346 488
2099.00415 79.73634 216.58566 492
2045.98633 77.60381 246.31483 313
1990.82385 75.23106 274.50540 316
2054.72852 77.73653 306.64722 272
272.98160 1.56208 203.48837 285
402.70389 7.92947 171.81825 313
415.40985 8.58996 171.92249 309
429.99988 9.28543 172.05754 305
446.85724 10.09511 172.22676 301
466.49405 11.06299 172.40417 297
1951.19714 83.98350 103.38800 493
1951.28979 83.81625 131.89601 495
1996.02991 85.99454 158.65605 488
1995.96460 86.25729 187.38422 488
2065.74634 89.83887 216.56259 313
2009.60669 86.78539 245.83659 315
1985.54883 85.59607 274.18677 499
2008.62695 86.70691 304.18185 431
272.94699 1.86929 203.48904 285
402.63184 9.04322 171.80159 313
415.33310 9.73252 171.90874 309
429.88376 10.56798 172.05098 305
446.70605 11.46409 172.20911 301
466.39383 12.58481 172.44743 297
1948.75781 94.39517 103.52666 493
1948.90088 94.51296 131.86307 495
1991.83423 96.71792 158.62477 488
1991.81860 96.82378 187.47948 488
2008.34265 97.52639 216.41412 300
1984.23804 96.33638 245.20485 499
1984.46362 96.37881 274.14911 499
1999.09631 97.18953 303.81079 419
272.92062 2.16928 203.48430 285
402.55151 10.14061 171.81203 313
415.26682 10.90789 171.93127 309
429.83160 11.80398 172.04088 305
446.62839 12.87426 172.25922 301
498.22940 15.97417 166.60356 482
1945.98669 104.95096 103.64449 493
1947.01453 104.83970 131.96893 477
1987.89880 107.38067 158.53377 489
1987.75574 107.42245 187.76930 489
1991.93701 107.83983 216.36531 316
1983.66528 107.09583 245.37489 499
1983.58386 107.04321 274.13345 499
1996.83447 108.14398 303.93765 405
272.87540 2.46536 203.48834 285
402.47681 11.24097 171.82756 313
415.16180 12.10905 171.95126 309
429.70001 13.05995 172.04425 305
446.55975 14.20771 172.21460 301
497.54971 17.65924 166.72087 483
1943.93323 115.61615 103.70728 494
1945.02026 115.42472 131.87999 477
1984.10706 118.10320 158.86247 489
1983.89160 118.27903 187.94374 489
1981.60339 117.75636 216.55740 499
1982.66455 118.15935 245.21928 499
1982.46851 118.09298 274.50043 499
1995.84497 119.13136 303.70966 405
272.82953 2.76150 203.47655 285
402.38733 12.30379 171.80896 313
415.06424 13.28718 171.94836 309
429.61584 14.34589 172.06303 305
446.42532 15.54406 172.22502 301
496.85141 19.29049 166.77718 483
1941.65564 126.06209 103.64438 494
1943.10449 125.99010 132.18929 478
1981.05579 128.85384 158.81947 499
1981.32483 128.77908 187.95474 499
1981.54956 128.93237 216.86461 499
1981.66858 128.68799 245.46318 499
1981.42114 128.68326 274.07190 499
1994.65552 129.58212 303.74649 405
272.78345 3.05922 203.48642 285
402.29135 13.40481 171.79076 313
414.95499 14.40650 171.89908 309
429.48019 15.57956 172.05174 305
446.33014 16.92233 172.25488 301
495.75073 20.91365 167.00887 452
1939.39453 136.42210 103.97691 495
1941.15991 136.46413 132.03995 478
1979.99121 139.52287 158.87355 499
1980.34412 139.49031 187.81264 499
1980.52539 139.62062 216.87277 499
1980.83618 139.37836 245.21950 499
1980.31775 139.37183 274.29825 499
1993.33496 140.37155 303.86105 405
272.73642 3.35869 203.48831 285
402.17499 14.50253 171.81117 313
414.86264 15.58852 171.93971 309
429.36603 16.83903 172.07513 305
446.16412 18.31863 172.25092 301
494.47961 22.43920 167.15921 453
1965.99365 149.24316 73.50143 296
1937.23132 146.71149 103.84532 495
1939.13696 147.01791 131.91148 478
1979.24109 150.36972 158.75056 499
1979.03210 150.07550 187.97012 499
470.98456 40.54722 0.02614 499
1979.86853 150.37135 245.55722 499
1979.59680 150.28760 274.14261 499
1992.59033 151.34731 303.64279 405
272.68607 3.65761 203.47964 285
402.03992 15.57898 171.79723 313
414.74268 16.75620 171.92654 309
429.27219 18.14619 172.08127 305
446.06592 19.63791 172.21193 301
493.23419 23.99544 167.39500 454
1961.24988 159.46860 73.65824 296
1935.31836 157.04160 103.76561 496
1937.13770 157.26988 132.30617 479
1978.23743 160.83817 158.95074 499
1978.40332 160.97681 187.95778 499
1978.66882 160.86171 216.61209 499
1978.40259 161.11938 245.66542 499
1978.68738 161.06534 274.15308 499
1991.19543 162.18628 304.01263 405
272.61902 3.95849 203.48409 285
401.91656 16.67186 171.78635 313
414.61893 17.92101 171.90421 309
429.11029 19.37531 172.05301 305
445.87567 21.02134 172.19487 301
491.95264 25.52662 167.58995 455
1958.27808 169.78748 74.00826 297
1933.46533 167.60324 104.06833 496
1935.84924 167.55313 132.26134 479
1976.97266 171.90042 159.00151 499
1977.04016 171.71217 187.57289 499
1977.80444 171.68564 216.75493 499
1977.57605 171.88820 245.45975 499
1977.75684 172.11157 274.39383 499
1990.27661 172.88608 303.74213 405
272.56833 4.25186 203.49191 285
401.79431 17.80041 171.78094 313
414.45392 19.08718 171.94012 309
428.99130 20.62932 172.05869 305
445.77527 22.38454 172.24944 301
490.69632 27.09292 167.77402 456
1955.21082 180.20753 73.76099 297
1931.91565 177.92656 104.17283 496
1934.51587 178.03865 132.19543 479
1976.16125 182.45630 158.76341 499
1976.48938 182.41646 187.95964 499
1976.78149 182.82101 216.64595 499
1975.43188 182.39731 245.47084 499
1976.64294 182.80063 274.10172 499
1989.17285 183.91476 303.76941 406
272.50607 4.54838 203.48727 285
401.66211 18.89662 171.81738 313
414.31696 20.29718 171.91319 309
428.80475 21.85901 172.07735 305
445.59259 23.72698 172.23900 301
489.48535 28.58080 167.97057 457
1951.99658 190.77919 74.24823 296
1930.03015 188.48589 104.09502 496
1932.98596 188.62215 132.34898 479
1975.14026 193.18060 158.95581 499
1975.34900 193.41798 187.70293 499
1975.50366 193.17862 216.39375 499
1975.72229 193.15073 245.22282 499
1975.79919 193.51460 274.15796 499
1989.82227 194.70419 303.78952 419
272.43915 4.84581 203.49095 284
401.51764 19.96025 171.79936 313
414.15240 21.47311 171.89262 309
428.66913 23.12184 172.07387 305
445.44067 25.09851 172.22441 301
488.25192 30.14395 168.16862 457
1949.05981 201.45021 74.18484 296
1928.60083 198.55072 103.93378 496
1931.07825 199.15887 132.30399 479
1968.20642 203.43005 158.95334 499
1968.21472 203.29300 187.66225 499
1968.16260 203.30916 216.68977 499
1968.31079 203.59268 245.54092 499
1968.32678 203.36632 274.06561 499
1988.43970 205.73805 303.76120 419
2220.15747 232.97400 348.11359 482
2220.07056 233.11116 381.69391 482
2219.90161 233.07327 414.52423 482
2220.12500 232.57581 447.66766 476
2220.60400 232.97217 481.42950 476
272.37015 5.14511 203.49139 284
401.38797 21.05877 171.80502 313
414.04562 22.64836 171.93124 309
428.48361 24.37928 172.03455 305
445.22949 26.46747 172.19028 301
487.98010 31.74202 168.14436 294
1947.07996 211.67282 74.41155 296
1927.31946 209.06619 104.08069 496
1929.94470 209.50809 132.02280 479
1967.19897 214.08157 159.15306 499
1967.38818 214.24260 187.88113 499
1967.43005 213.95016 216.53316 499
1967.34692 214.30028 245.59663 499
1968.26514 214.01622 274.14200 499
1987.47302 216.47383 303.80499 419
272.29703 5.44029 203.49937 284
401.24011 22.16325 171.79744 313
413.86285 23.76219 171.90710 309
428.30170 25.67470 172.03976 305
445.07648 27.84735 172.23975 301
487.86429 33.34260 168.16901 294
1945.08594 222.21971 74.23373 296
1925.53796 219.86746 104.01292 496
1928.75061 219.85152 132.35106 479
1966.14490 224.79070 159.08080 499
1967.34827 225.01241 187.96234 499
1967.56274 225.12796 216.53685 499
1967.32031 224.98502 245.36371 499
1966.95154 225.13275 274.00821 499
1986.24927 227.42128 303.71933 419
272.21747 5.72970 203.49512 284
401.05753 23.23589 171.79604 313
413.71698 24.96585 171.91339 309
428.17105 26.94233 172.07326 305
480.19623 33.96519 165.11385 300
487.70880 34.99715 168.09906 294
1943.41528 232.80875 74.53367 296
1924.40479 230.17812 104.26471 496
1927.51904 230.33250 132.01593 479
1965.20923 235.45004 158.92464 499
1966.29700 235.99174 187.77094 499
1966.68372 235.83823 216.84625 499
1966.81995 235.64647 245.61937 499
1965.96436 235.89540 274.06659 499
1985.69104 238.27016 304.05487 419
272.13507 6.03145 203.49864 314
400.86938 24.31519 171.77005 313
413.54343 26.10025 171.93042 309
427.95401 28.18871 172.06908 305
479.96680 35.57163 165.15135 300
487.57135 36.61694 168.07549 294
1941.86829 243.38046 74.27510 296
1923.06042 240.61581 104.33453 496
1925.95825 240.88234 132.14796 479
1964.23950 246.53447 158.94397 499
1965.37183 246.73558 188.03967 499
1965.50977 246.69676 216.79413 499
1965.77893 246.70230 245.28958 499
1965.36633 246.39291 274.09384 499
1984.57959 249.03490 303.75888 419
272.10010 6.32397 203.49457 286
400.72208 25.40097 171.78256 313
413.34088 27.27381 171.88226 309
427.78537 29.43818 172.07434 305
479.71194 37.14553 165.13307 300
487.38956 38.24117 168.06287 294
1940.45850 253.91908 74.55478 296
1921.77649 251.13806 103.96413 496
1924.84375 251.25038 132.39935 479
1962.94019 257.02917 159.26836 499
1964.01990 257.15268 187.62822 499
1964.70068 257.45267 216.64711 499
1964.83264 257.22708 245.24638 499
1964.25793 257.04236 274.05017 499
1983.58313 260.32950 304.05692 419
272.08627 6.62857 203.47527 286
400.55164 26.51906 171.79227 313
413.15799 28.46007 171.92203 309
427.54684 30.67755 172.03654 305
479.48544 38.72049 165.11403 300
487.25879 39.90059 168.07590 294
1940.02246 264.53812 74.08963 296
1921.05481 261.55182 104.18359 496
1923.89465 262.23599 132.04399 479
1962.22717 267.91129 158.90637 499
1963.43054 268.31403 187.84113 499
1963.55273 267.91931 216.69508 499
1963.89795 267.98535 245.21725 499
1962.92944 268.19684 274.09882 499
1982.54407 271.01328 304.13654 418
389.26196 25.77524 171.67068 316
400.33102 27.57739 171.79355 313
412.92987 29.59516 171.89854 309
427.37259 31.94627 172.02528 305
479.25116 40.24087 165.09244 300
487.08340 41.51770 168.09062 293
1939.72290 275.27921 74.08741 296
1920.19275 271.86542 104.19141 496
1922.78564 272.59970 131.96362 479
1961.08240 278.56625 159.01395 499
1962.24707 278.64066 187.71648 499
1962.28064 279.09720 216.43553 499
1962.33740 278.82794 245.51735 499
1962.51367 278.69257 274.52081 499
1981.28174 282.05896 304.14322 418
389.06424 26.79971 171.68782 316
400.14532 28.68561 171.79735 313
412.72498 30.74255 171.90443 309
427.15424 33.18393 172.02020 305
477.77127 41.66969 165.34555 444
486.85303 43.16214 168.02058 293
1939.37598 286.14136 74.07471 296
1919.00806 282.72183 103.81695 496
1921.60168 283.11737 132.28116 478
1960.17139 289.45496 158.95152 499
1966.37952 290.74756 187.56657 499
1966.39270 290.67145 216.81538 499
228.83269 38.25515 3.81313 499
1966.67688 290.41107 274.66101 499
1980.41724 292.97363 304.38547 418
388.85330 27.81909 171.66554 316
399.94385 29.75528 171.79700 313
412.50537 31.94010 171.89619 309
426.89731 34.42537 172.03468 305
476.34216 43.01376 165.56396 445
486.60721 44.80698 168.04860 293
1938.99878 296.96548 74.12861 296
1918.29968 293.29282 103.88687 495
1920.64221 293.78033 131.82295 478
1959.43494 300.24924 158.77879 499
1965.59143 301.44766 187.82819 499
1965.88123 301.36154 216.49525 499
1965.88293 301.27188 245.45256 499
1965.75000 301.40439 274.34122 499
1978.33557 303.52191 303.95959 406
388.70490 28.83096 171.65643 316
399.76697 30.82172 171.78987 313
412.31732 33.08088 171.92221 309
426.69760 35.65572 172.02455 305
474.93063 44.35326 165.80296 446
1938.65796 307.69125 73.64693 296
1917.41431 303.95056 103.93827 495
1919.51953 304.04517 131.89018 478
1958.10815 310.96857 159.18889 498
1964.54504 311.97760 187.72704 499
1964.62988 312.25360 216.70969 499
1965.18848 312.46143 245.35367 498
1964.98462 312.28741 274.32260 498
1977.75659 314.66541 304.07806 433
2130.98486 342.24423 343.79501 395
388.48520 29.85419 171.66154 316
399.54785 31.90659 171.79138 313
412.07629 34.26936 171.86699 309
426.45325 36.91090 172.01169 305
473.47769 45.66727 166.03148 447
1938.78833 318.34674 73.62894 296
1916.14917 314.01181 103.77662 495
1918.99353 314.56146 131.99048 478
1957.10205 321.65201 159.03893 498
1963.40442 323.20404 187.77904 498
1963.92224 323.24216 216.59140 498
1964.14514 323.38422 245.76477 498
1963.94775 322.93008 274.67505 498
1976.86548 325.42102 304.29199 433
2102.16577 348.93835 342.04483 433
388.25522 30.86448 171.66675 316
399.32294 32.98709 171.78923 313
411.85077 35.42602 171.90982 309
426.20523 38.17731 172.00552 305
472.09125 46.96566 166.26895 448
1938.17078 329.43555 73.59650 295
1915.38159 324.73761 103.72056 495
1917.64795 325.05450 131.92593 478
1956.44434 332.69296 159.08060 498
1962.67627 334.16104 187.75333 498
1963.14636 333.84125 216.82489 498
1963.00842 334.22775 245.41815 498
1963.09998 334.19443 274.49863 498
1976.18591 336.35095 304.14920 433
388.05743 31.86447 171.66528 316
399.08304 34.07870 171.76672 313
411.60654 36.53264 171.90744 309
425.95517 39.38786 172.04938 305
470.71219 48.28434 166.48320 449
1938.05420 340.11432 73.37987 295
1914.54553 335.30704 103.87167 495
1916.85205 335.76227 132.05806 478
1955.26367 343.79532 159.00906 498
1961.74390 344.83072 187.73338 498
1961.74890 345.04407 216.73932 498
1961.98596 344.85269 245.72479 498
1961.84521 344.99338 274.53839 498
1975.16479 347.54178 304.62930 433
387.84082 32.86090 171.64943 316
398.85260 35.14860 171.75761 313
411.40372 37.69811 171.89841 309
425.69412 40.67261 171.99791 305
469.26172 49.62069 166.66370 450
1938.13953 351.35608 73.31184 295
1913.44702 346.02011 103.73516 495
1915.81384 346.76102 131.84990 478
1954.24744 354.38068 158.96869 498
1960.35864 355.81573 187.52640 498
1961.00757 356.03531 216.63535 498
1961.17212 355.58945 245.76494 498
1960.89038 355.90195 274.76993 498
1973.83093 358.44876 304.29794 433
2080.61987 380.59692 371.84128 335
387.62762 33.89596 171.66006 316
398.61383 36.22870 171.74756 313
411.09760 38.84646 171.88579 309
457.37106 48.66717 164.96710 304
467.94073 50.89767 166.93407 451
1912.63623 356.57907 103.48251 495
1914.71643 357.25015 131.84462 478
1953.04395 365.44119 158.63666 498
1959.89819 366.59631 187.84901 498
1959.89111 366.50253 216.67538 498
1959.97607 366.68234 245.77100 498
1959.82141 366.54028 274.60614 498
1972.91101 369.57050 304.36334 432
2040.55652 383.60608 338.35870 497
2062.54370 388.42120 370.62427 438
387.40869 34.90730 171.63602 316
398.39050 37.31361 171.78291 313
410.84412 39.98968 171.90646 309
457.04099 50.10056 165.00041 304
466.56921 52.19210 167.12761 451
1911.82629 367.40210 103.55590 494
1913.86462 367.87790 131.79720 476
1958.78040 377.61295 158.31003 497
1958.73352 377.68893 187.79675 498
1958.88586 377.39606 216.81984 498
1959.00830 377.41171 245.73357 498
1958.82068 377.82303 274.63510 497
49.78783 10.85806 2.50746 435
2017.25977 390.56595 336.74057 372
2055.01733 398.50726 370.20374 472
2127.35522 414.04410 408.79190 498
387.15408 35.89386 171.64287 316
398.13321 38.38335 171.73376 313
410.58978 41.16833 171.89391 309
456.72253 51.50622 164.96927 304
465.18750 53.39414 167.28674 452
1910.61755 378.15564 103.45392 494
1912.77881 378.22766 131.62047 475
1957.32886 388.66876 158.37337 497
1957.52563 388.33670 187.66484 497
1957.29675 388.63116 216.67479 495
1957.19092 388.42233 245.77104 495
1958.08557 388.55325 275.05518 497
1971.33862 391.65741 304.54227 417
2015.99365 401.52496 337.18457 372
2052.50757 409.80396 370.47787 469
386.91074 36.89510 171.64046 316
397.85727 39.45985 171.75259 313
410.34695 42.30772 171.89839 309
456.37064 52.95596 164.95538 303
463.85489 54.69571 167.52106 453
1909.69275 388.88898 103.44289 494
1911.69263 389.14835 131.62747 475
1956.52563 399.30429 158.42854 497
1956.71143 399.28256 187.69962 497
1956.58838 399.49701 216.60136 497
1956.87585 399.33221 245.55443 497
1956.99194 399.34668 275.03461 497
1969.54761 402.20905 304.59955 417
1969.04382 402.45013 334.09225 497
1968.91467 402.38159 363.37271 497
386.66675 37.89804 171.65939 316
397.63647 40.49725 171.74956 312
410.02155 43.47449 171.88312 309
456.02444 54.35870 164.98538 303
462.52737 55.94256 167.70282 454
1909.00867 399.21066 103.31193 494
1910.52161 399.65228 131.66922 475
1955.40210 410.57806 158.61327 497
1955.55310 410.44351 187.66582 497
1955.66113 410.36960 216.69847 497
1955.71313 410.55203 245.98943 497
1956.13745 410.41675 275.06586 497
1969.23645 413.86166 304.94583 417
2037.73718 430.03906 339.11554 372
2064.21265 435.95059 371.92822 353
23912.68164 5623.78906 3019.51050 1000
386.40643 38.92140 171.65535 316
397.35428 41.59160 171.72943 312
409.76010 44.59375 171.87727 309
455.62326 55.83172 164.96030 303
460.91409 57.07453 167.97902 297
1907.86462 410.03946 102.79613 494
1909.50391 410.59329 131.40689 475
2198.98853 481.32571 150.00127 497
1960.88806 422.95303 216.78795 463
1961.07312 423.20877 245.78081 463
2033.98132 440.71643 308.09900 496
2043.75720 443.40009 339.37772 294
386.15634 39.92651 171.64030 316
397.05920 42.63538 171.75700 312
409.47641 45.78156 171.83823 309
455.30164 57.21717 164.92764 303
460.64468 58.55276 167.95821 297
1906.87817 421.00098 102.88164 493
1908.34973 421.26443 131.33562 475
2198.23804 493.48126 150.20572 496
2052.72559 457.36496 309.52048 280
2034.01477 452.88235 339.14844 497
2077.86230 463.58597 373.43719 468
385.85577 40.93199 171.65096 316
396.80472 43.70858 171.73352 312
409.18420 46.89477 171.84967 309
454.94556 58.65707 164.94073 303
460.28680 60.03532 167.93759 297
1906.01917 431.48517 102.58469 493
1907.47791 432.20184 131.36891 474
2196.54419 506.04028 150.26581 496
2034.83484 464.80984 308.61514 453
2031.97986 463.91519 339.30374 497
2081.41211 476.55194 374.14285 472
44972.30859 11496.96387 10993.47461 1000
385.61084 41.89812 171.65137 316
396.52533 44.79102 171.72954 312
408.84073 48.01749 171.84816 309
454.53168 60.09220 164.96056 303
459.93466 61.53856 167.92291 297
1904.94446 442.27213 102.78846 493
1906.32202 442.74249 131.14575 474
2195.49512 518.74847 149.94469 496
2032.81470 475.73923 339.37738 481
2086.56372 490.26358 374.76108 443
2077.62207 487.72864 405.78854 475
385.33496 42.93658 171.60869 316
396.22910 45.86914 171.72421 312
408.52417 49.16662 171.85692 309
453.60355 61.34458 165.06078 426
459.57980 62.95547 167.88519 297
1904.22791 453.05267 102.47614 493
1905.21216 453.46582 130.94722 474
2034.12329 488.06940 339.53162 454
2084.78857 502.11154 374.91006 486
2076.05225 499.77414 405.65463 491
385.03635 43.91289 171.64519 316
395.91553 46.90039 171.75104 312
408.20538 50.31221 171.85312 309
451.88113 62.39699 165.34088 427
459.25421 64.47222 167.91228 297
1903.01758 464.21841 102.62654 492
1904.35815 464.48486 131.17368 474
2078.89868 512.40717 342.81308 398
2075.45239 511.38092 374.49680 398
384.74570 44.89424 171.60484 316
395.61642 47.96330 171.73494 312
407.91028 51.44716 171.85652 309
450.18170 63.45280 165.66650 428
458.92819 65.89224 167.84668 297
1902.00806 474.69180 102.54552 491
1903.02515 474.90088 130.82069 473
2071.34741 522.51935 311.10236 397
2049.96021 516.91235 341.23911 398
2051.82544 517.33167 372.58502 357
384.46634 45.89832 171.61653 316
395.29715 49.05051 171.70871 312
436.31476 60.95185 164.89780 308
448.45328 64.46705 165.94420 429
458.51898 67.37567 167.85321 297
1901.23596 485.61908 101.94288 491
1902.32129 486.00446 130.68466 473
384.16556 46.90230 171.64023 316
394.94437 50.10793 171.74594 312
435.92279 62.27253 164.85184 308
446.80920 65.47918 166.24887 430
1900.28662 496.41116 101.89394 491
1900.83191 497.04419 130.74611 473
383.84988 47.88236 171.61038 316
394.62396 51.14894 171.73053 312
435.48303 63.55551 164.86734 308
445.09903 66.44387 166.52391 431
1899.38538 507.72058 101.70030 490
1900.07007 507.88702 130.83464 473
383.53442 48.88620 171.61290 316
394.28943 52.17519 171.73056 312
435.10641 64.85245 164.87888 308
443.47034 67.44495 166.76163 432
1898.45911 518.69806 101.99450 490
1898.92224 518.44604 130.65643 472
383.21445 49.84343 171.60291 316
393.98788 53.25344 171.73491 312
434.65955 66.15668 164.86002 308
441.85651 68.44489 167.01953 433
1897.19836 529.22699 101.68240 490
1907.49780 532.59723 129.87828 261
382.88593 50.82449 171.61792 316
393.62613 54.32638 171.70816 312
434.23080 67.47126 164.87999 308
440.24713 69.38429 167.32523 434
1896.47253 540.75488 101.67114 489
1902.66870 542.70013 130.04039 261
382.56180 51.79779 171.61525 316
393.24429 55.37429 171.68082 312
433.81265 68.72536 164.83653 308
438.59360 70.32349 167.55139 420
1895.58313 551.59576 101.14840 489
1897.83838 552.41620 130.22575 261
2192.73413 649.56958 148.94783 288
382.21439 52.77500 171.60869 316
392.92133 56.38982 171.68283 312
433.35376 70.01544 164.84537 308
436.93811 71.22356 167.88499 301
1894.60498 562.46161 101.18330 489
1894.70349 562.59375 130.06354 492
2179.22559 658.86627 149.29372 308
381.87772 53.77728 171.59930 316
392.55899 57.43238 171.72319 312
432.87134 71.33926 164.89030 308
436.51987 72.58271 167.82214 301
1893.63818 573.74817 101.05762 488
1893.30029 573.59698 130.00856 492
2126.55371 653.83734 150.73183 309
381.51318 54.74670 171.60852 316
392.18103 58.50047 171.70354 312
432.40262 72.60421 164.85844 308
436.08484 73.90104 167.84135 301
1892.37219 585.08087 100.88061 488
1892.52563 585.04675 129.75166 491
2058.02441 643.13190 153.12723 417
2058.33130 643.13739 184.61989 417
2059.12134 643.38953 216.55414 333
381.19122 55.73307 171.58182 316
391.80484 59.55066 171.69618 312
431.51642 73.72034 164.94371 424
435.60095 75.22992 167.79312 301
1891.63867 596.15851 100.64835 488
1891.12012 596.14917 129.45226 491
2028.45911 645.04559 153.88466 312
380.78922 56.69263 171.56079 316
417.34872 70.01797 164.77010 312
429.86469 74.56290 165.28697 425
435.19147 76.51898 167.81058 301
1890.58362 607.24115 100.30997 487
1890.40125 607.12329 129.71246 490
1982.51624 640.66687 155.57903 314
380.46579 57.65542 171.56462 316
416.86963 71.22823 164.78864 312
428.17871 75.38338 165.53357 426
434.75269 77.83946 167.82076 301
1889.66077 618.73627 99.99286 487
1889.27026 618.66425 129.41162 490
1945.16919 639.15894 156.64735 491
380.07208 58.62449 171.58566 316
416.38712 72.41353 164.77408 312
426.48563 76.19675 165.81689 427
434.27393 79.14399 167.75702 301
1888.33167 629.92566 99.72866 487
1888.13159 629.66852 129.19136 490
1928.06921 644.96564 157.15947 342
379.69437 59.59608 171.58406 316
415.88647 73.57837 164.78728 312
424.85004 77.03509 166.11769 428
433.77832 80.45555 167.77988 301
1887.54968 641.28040 99.75994 486
