# .PCD v.7 - Point Cloud Data file format
VERSION .7
FIELDS x y z rgb
SIZE 4 4 4 4
TYPE F F F U
COUNT 1 1 1 1
WIDTH 1390
HEIGHT 1
VIEWPOINT 6402.590820 -2081.162842 148.650681 -0.790575 -0.065435 -0.119595 0.596998
POINTS 1390
DATA ascii
450.07254 -64.10259 166.19308 429
3884.00854 -1067.78650 91.57553 471
387.48178 -44.76664 171.65810 316
398.23260 -47.80634 171.80141 313
439.23355 -59.51639 164.94092 307
451.75180 -63.13340 165.91722 428
461.26102 -65.80698 167.91058 297
3892.67188 -1047.01807 91.16986 493
4179.41553 -1128.11694 148.67368 496
387.70990 -43.75814 171.67494 316
398.52158 -46.79341 171.79625 313
410.70816 -50.19315 171.88960 309
453.41177 -62.11022 165.61253 427
461.55408 -64.38885 167.94502 297
3903.45337 -1024.85120 90.51099 493
4046.32910 -1064.65564 150.86929 289
387.93222 -42.79143 171.65935 317
398.75723 -45.71832 171.80292 313
411.01041 -49.09928 171.92581 309
455.08823 -61.12243 165.27647 426
461.89777 -62.95520 167.96469 297
3912.84399 -1003.38275 90.75105 493
3948.54712 -1013.40015 153.13199 471
388.18774 -41.81511 171.67772 317
398.97519 -44.68507 171.79001 313
411.26944 -47.96721 171.88441 309
456.77344 -60.04645 165.01236 425
462.15573 -61.47953 167.96657 297
3922.36230 -982.35016 90.94389 493
3976.48340 -996.03723 152.93481 496
388.38062 -40.81501 171.67369 317
399.21347 -43.65371 171.78560 313
411.54999 -46.83265 171.88524 309
457.17795 -58.68671 164.97031 303
462.48325 -60.05487 167.96384 297
3932.43164 -961.03888 90.63286 492
3985.68213 -974.46869 152.44940 495
388.60529 -39.84272 171.67671 317
399.46335 -42.61993 171.76431 313
411.79108 -45.73556 171.90671 309
457.48068 -57.28551 165.02975 303
462.76886 -58.63844 167.96114 297
3942.47144 -938.88855 90.37232 492
4155.32520 -993.07544 149.65314 314
388.80688 -38.87571 171.68428 317
399.69873 -41.53311 171.79076 313
412.02121 -44.60073 171.90057 309
457.78781 -55.90473 164.97128 303
463.01968 -57.17529 167.97375 297
3952.33057 -917.37799 90.49426 491
4061.28345 -944.51990 151.16840 456
389.03400 -37.86960 171.67975 317
399.91089 -40.49593 171.80894 313
412.24622 -43.47993 171.93390 309
458.09830 -54.45634 165.00217 303
463.40720 -55.76610 167.98180 454
3961.86987 -895.36426 90.08033 491
4062.20093 -918.99677 151.19017 497
389.20459 -36.90454 171.70709 317
400.12503 -39.44691 171.79237 313
412.46930 -42.31569 171.90036 309
458.39359 -53.05301 164.99121 304
464.68637 -54.53640 167.79640 453
4025.40137 -886.23407 87.92733 494
4065.43994 -895.00281 150.86830 497
389.39890 -35.90937 171.69933 317
400.33713 -38.38308 171.78102 313
412.72113 -41.19934 171.89362 309
458.65500 -51.64656 164.97231 304
466.05640 -53.29171 167.55048 452
4094.73120 -877.19531 86.43236 468
4066.96973 -871.27557 151.10933 497
4271.04102 -916.89563 215.32465 474
389.60016 -34.90674 171.70631 317
400.51904 -37.35481 171.82314 313
412.90891 -40.04399 171.92198 309
458.95569 -50.22664 165.02803 304
467.31049 -52.05412 167.33913 452
4078.21704 -849.10028 151.74451 476
389.77048 -33.94351 171.69901 317
400.70630 -36.27442 171.80153 313
413.10330 -38.94767 171.94699 309
459.24414 -48.86159 164.97299 304
468.68454 -50.84182 167.11711 451
389.94113 -32.95369 171.67448 317
400.90338 -35.20144 171.81024 313
413.32864 -37.80157 171.94568 309
459.49390 -47.43814 165.01328 304
469.98416 -49.55919 166.92424 450
390.11276 -31.95087 171.70229 317
401.07135 -34.15677 171.81367 313
413.50607 -36.64887 171.94682 309
427.78189 -39.53497 172.04263 305
471.37805 -48.31578 166.70720 449
390.27795 -30.94955 171.69835 317
401.24081 -33.11834 171.82587 313
413.73401 -35.54327 171.94032 309
427.95911 -38.33370 172.07745 305
472.73404 -47.04152 166.51228 448
390.42096 -29.98294 171.69977 317
401.44455 -32.03130 171.80170 313
413.87637 -34.38252 171.93762 309
428.15610 -37.08708 172.06311 305
474.07382 -45.74854 166.25221 447
390.61194 -28.95790 171.72006 317
401.58038 -30.96622 171.79181 313
414.05267 -33.27546 171.92871 309
428.32242 -35.86014 172.08760 305
475.46552 -44.49105 166.05020 446
390.73999 -27.98582 171.68837 317
401.75049 -29.89192 171.83218 313
414.26782 -32.09797 171.91103 309
428.50476 -34.63932 172.06613 305
476.92715 -43.13077 165.75371 445
390.86569 -26.99787 171.68762 317
401.89807 -28.87029 171.81578 313
414.39978 -30.98951 171.92114 309
428.70413 -33.38180 172.06415 305
478.33145 -41.84845 165.54250 445
488.15598 -43.50698 168.02351 293
390.99869 -25.98121 171.68556 317
402.05118 -27.76880 171.79524 313
414.57672 -29.82126 171.95735 309
428.86865 -32.15640 172.04636 305
479.76767 -40.47238 165.31543 444
488.31787 -41.90500 168.06039 294
391.14838 -24.96460 171.70845 317
402.20135 -26.73059 171.82184 313
414.70178 -28.67610 171.91789 309
429.01126 -30.95686 172.06912 305
480.83267 -39.06942 165.14735 300
488.45532 -40.25385 168.07259 294
391.28928 -23.96546 171.71005 317
402.33066 -25.64538 171.82846 313
414.83612 -27.55151 171.93481 309
429.22357 -29.70449 172.07565 305
480.96170 -37.54347 165.12042 300
488.61829 -38.70889 168.08804 294
391.36404 -22.95734 171.69377 317
402.42630 -24.55444 171.81184 313
414.97238 -26.40056 171.94528 309
429.32220 -28.47484 172.09361 305
481.19434 -35.99433 165.15367 300
488.72992 -37.06021 168.11266 294
27120.53711 -3887.71240 6547.04932 1000
391.48651 -22.00352 171.68655 317
402.55963 -23.52327 171.83673 313
415.09979 -25.25861 171.92473 309
429.46069 -27.23114 172.06409 305
481.35275 -34.43769 165.14502 300
488.78857 -35.44621 168.15913 294
391.59564 -20.97904 171.72701 317
402.69504 -22.42706 171.79807 313
415.23166 -24.12265 171.96254 309
429.58185 -26.02464 172.05182 305
446.26016 -28.21078 172.21156 301
488.89078 -33.84264 168.17273 294
391.68234 -19.95572 171.72702 317
402.80005 -21.37627 171.83339 313
415.34061 -22.92547 171.91078 309
429.73444 -24.77706 172.10049 305
446.38342 -26.83863 172.21361 301
488.97049 -32.21062 168.14787 294
391.79599 -18.96245 171.69073 317
402.87906 -20.32493 171.80144 313
415.47974 -21.83969 171.91826 309
429.84830 -23.50128 172.10265 305
446.47269 -25.53176 172.25508 301
489.01398 -30.64734 168.20424 294
391.86035 -17.96407 171.71516 317
402.97952 -19.22769 171.83070 313
415.57956 -20.68711 171.94804 309
429.97763 -22.27237 172.05405 305
446.64093 -24.21919 172.25143 301
489.67368 -29.09626 168.12808 457
391.93719 -16.94799 171.72012 317
403.05344 -18.15947 171.81943 313
415.65927 -19.48707 171.92833 309
430.07852 -21.04553 172.09895 305
446.73315 -22.82271 172.21317 301
490.88406 -27.62128 167.91165 456
4828.12158 -493.22235 824.76172 1000
392.02652 -15.93742 171.72176 317
403.14279 -17.09834 171.84138 313
415.77200 -18.33799 171.96634 309
430.17084 -19.79210 172.06943 305
446.87186 -21.48460 172.26030 301
492.08533 -26.05616 167.74609 455
392.09595 -14.92509 171.71756 317
403.19626 -16.01332 171.83186 313
415.84607 -17.19591 171.95447 309
430.25720 -18.56144 172.06836 305
446.96222 -20.15317 172.25909 301
493.34094 -24.56577 167.48309 454
392.14001 -13.91649 171.68987 317
403.30402 -14.92007 171.84398 313
415.93140 -16.04276 171.92241 309
430.31592 -17.34842 172.08096 305
447.01733 -18.78518 172.27306 301
494.57587 -23.02902 167.29613 454
392.19525 -12.92620 171.70509 317
403.34589 -13.86556 171.82550 313
415.95880 -14.89897 171.95062 309
430.41980 -16.11040 172.08673 305
447.12106 -17.50155 172.26462 301
495.79950 -21.47677 167.11682 453
392.23596 -11.90764 171.70288 317
403.40149 -12.76211 171.83748 313
416.04419 -13.72699 171.93951 309
430.45905 -14.86975 172.05876 305
447.20517 -16.11142 172.22852 301
496.88062 -19.96437 166.88889 483
392.30081 -10.88987 171.72060 317
403.43762 -11.68719 171.82013 313
416.08710 -12.61537 171.92194 309
430.55457 -13.63814 172.08850 305
447.25964 -14.81496 172.23187 301
497.57071 -18.35035 166.80849 483
392.35193 -9.92461 171.73203 317
403.50449 -10.61519 171.82095 313
416.10287 -11.44993 171.92239 309
430.60181 -12.37498 172.06934 305
447.28516 -13.45248 172.23373 301
498.25940 -16.73101 166.70135 482
392.38089 -8.89620 171.68915 317
403.50815 -9.55711 171.82417 313
416.15396 -10.27301 171.93881 309
430.63177 -11.14850 172.06767 305
447.38489 -12.10059 172.25746 301
466.92630 -13.20712 172.41614 297
392.37918 -7.87282 171.68784 317
403.53549 -8.48063 171.80702 313
416.18289 -9.13161 171.94023 309
430.69711 -9.87523 172.09619 305
447.40088 -10.74786 172.22737 301
467.00735 -11.79655 172.40588 297
392.40244 -6.87721 171.72760 317
403.57504 -7.38102 171.79759 313
416.24463 -7.97615 171.92728 309
430.69037 -8.64592 172.09158 305
447.46063 -9.40945 172.23265 301
467.06058 -10.28634 172.40213 297
392.43478 -5.88094 171.69009 317
403.59985 -6.33038 171.80287 313
416.27814 -6.80800 171.96693 309
430.75668 -7.38184 172.10944 305
447.47873 -8.04262 172.21664 301
467.06601 -8.80857 172.46692 297
2906.09277 -105.91101 83.73761 494
2911.87939 -105.81163 127.69824 462
392.45587 -4.87245 171.69962 317
403.62338 -5.22233 171.80104 313
416.27466 -5.68338 171.92488 309
430.73892 -6.12687 172.05586 305
447.51248 -6.69393 172.26855 301
467.08200 -7.34949 172.43651 297
2914.22095 -89.42516 83.28996 376
392.43954 -3.82951 171.71478 317
403.62051 -4.12896 171.81935 313
416.27405 -4.48227 171.92650 309
430.76285 -4.91693 172.05907 305
447.49158 -5.34416 172.23953 301
467.11224 -5.92646 172.41428 297
392.41531 -2.83450 171.70813 317
403.58920 -3.08904 171.80705 313
416.26440 -3.31479 171.91524 309
430.78250 -3.63593 172.06416 305
447.50244 -3.97823 172.21786 301
467.10477 -4.40372 172.45100 297
392.41379 -1.83665 171.71004 317
403.61417 -2.01651 171.81470 313
416.27148 -2.17576 171.95253 309
430.78113 -2.40228 172.07938 305
447.52628 -2.66499 172.25690 301
451.73749 -2.70223 175.23599 422
392.39328 -0.79486 171.71887 317
403.57431 -0.89956 171.82713 313
416.23587 -1.01950 171.95636 309
430.77618 -1.14510 172.10736 305
447.52618 -1.29599 172.22859 301
467.12347 -1.49596 172.43944 297
392.38226 0.19840 171.72180 317
403.55362 0.15481 171.79753 313
416.21768 0.14269 171.92090 309
430.75473 0.09367 172.09709 305
447.46558 0.00559 172.21516 301
467.05460 0.00735 172.45074 297
392.38809 1.22285 171.70804 317
403.54089 1.25557 171.81046 313
416.20172 1.26151 171.96764 309
430.73871 1.34713 172.07747 305
447.43558 1.35706 172.24886 301
451.68942 1.42717 175.25972 425
392.35458 2.24086 171.72392 317
403.50470 2.33005 171.83511 313
416.18207 2.43417 171.95312 309
430.68958 2.58788 172.05406 305
447.42227 2.71568 172.24167 301
467.03656 2.88282 172.42245 297
392.31076 3.22569 171.69432 317
403.44843 3.39516 171.83937 313
416.12097 3.59725 171.95116 309
430.64423 3.79240 172.09972 305
447.35837 4.06885 172.26212 301
466.99646 4.40022 172.43242 297
392.24362 4.25159 171.70470 317
403.40836 4.48182 171.81427 313
416.09958 4.74919 171.95328 309
430.59506 5.03360 172.05273 305
447.30676 5.41591 172.27342 301
466.89185 5.84524 172.46274 297
392.16663 5.24419 171.70050 317
403.36713 5.56049 171.83244 313
416.03433 5.93105 171.96445 309
430.51791 6.31720 172.05531 305
447.28531 6.75982 172.22551 301
466.84061 7.32861 172.45354 297
392.12515 6.28295 171.71333 317
403.31018 6.63195 171.80597 313
415.98441 7.08602 171.95848 309
430.43347 7.56177 172.06602 305
447.21924 8.09326 172.27051 301
466.80524 8.75964 172.43346 297
392.08426 7.27031 171.70824 317
403.21442 7.71987 171.79561 313
415.90039 8.21096 171.95355 309
430.38638 8.78294 172.08867 305
447.15991 9.47830 172.23962 301
466.69516 10.23265 172.44937 297
391.99319 8.31446 171.70697 317
403.16919 8.79231 171.81357 313
415.84033 9.38362 171.95752 309
430.32016 10.02408 172.07927 305
447.06439 10.83295 172.25104 301
466.62781 11.74660 172.41925 297
391.93533 9.27815 171.72459 317
403.09525 9.85492 171.83627 313
415.72702 10.53769 171.94489 309
430.20966 11.28518 172.07150 305
446.97595 12.19122 172.26253 301
466.52985 13.20963 172.44061 297
391.85889 10.30399 171.71162 317
403.00214 10.96161 171.83556 313
415.66501 11.69460 171.92123 309
430.12350 12.55995 172.08908 305
446.86444 13.49223 172.22639 301
498.01984 16.53338 166.67873 482
391.76010 11.29931 171.68135 317
402.92728 12.03645 171.81288 313
415.56299 12.82850 171.95529 309
430.03516 13.78868 172.09393 305
446.77509 14.83294 172.22296 301
497.36206 18.11647 166.76617 483
391.66708 12.30779 171.71877 317
402.81769 13.13571 171.82065 313
415.46399 13.98226 171.95174 309
429.93216 15.03876 172.05295 305
446.63123 16.19574 172.23338 301
496.71158 19.76170 166.83725 451
391.56491 13.34881 171.70222 317
402.70572 14.21666 171.82045 313
415.33359 15.17298 171.92097 309
429.81509 16.28294 172.08345 305
446.50537 17.53752 172.23001 301
495.44839 21.27276 167.05693 452
391.45071 14.33418 171.69833 317
402.60175 15.25951 171.82266 313
415.24908 16.29710 171.91476 309
429.68277 17.49881 172.03966 305
446.36322 18.87512 172.21043 301
494.15005 22.85337 167.26950 453
391.34106 15.38247 171.71857 317
402.48166 16.36751 171.79422 313
415.10837 17.49422 171.91013 309
429.53384 18.77296 172.04680 305
446.27573 20.21420 172.20653 301
492.87848 24.39489 167.42584 454
20361.65625 1794.55823 5274.46094 1000
391.24023 16.37367 171.67262 317
402.38623 17.43308 171.79625 313
414.97574 18.63741 171.92233 309
429.41794 20.01653 172.09050 305
446.08630 21.56691 172.20627 301
491.66760 25.91609 167.66055 454
391.10709 17.35753 171.71672 317
402.24295 18.51944 171.78357 313
414.83414 19.75673 171.90352 309
429.28186 21.25204 172.07019 305
445.94598 22.94174 172.20880 301
490.47305 27.42507 167.85786 455
390.99594 18.38707 171.67915 317
402.10089 19.57100 171.78751 313
414.72281 20.92337 171.92787 309
429.13449 22.48956 172.06584 305
445.79953 24.27344 172.20753 301
489.23361 28.92042 168.03926 456
390.85452 19.37440 171.70088 317
401.97281 20.67044 171.79628 313
414.55966 22.06256 171.93527 309
428.98117 23.70913 172.03514 305
445.63538 25.64532 172.23578 301
488.14883 30.45384 168.16945 294
390.70737 20.41034 171.70514 317
401.82861 21.71379 171.79660 313
414.39499 23.24569 171.89082 309
428.81052 24.97235 172.05989 305
445.46121 26.92422 172.22519 301
488.06012 32.08289 168.15192 294
390.54214 21.40439 171.68758 317
401.63004 22.78142 171.77518 313
414.21729 24.41881 171.92870 309
428.61191 26.22596 172.08200 305
445.25336 28.30039 172.18983 301
487.95700 33.63939 168.11386 294
390.39154 22.40382 171.69066 317
401.50961 23.88399 171.76711 313
414.06134 25.53742 171.91252 309
428.44635 27.44297 172.02805 305
480.38333 34.30434 165.09917 300
487.78937 35.32538 168.10184 294
2192.37695 260.67474 53.29568 355
390.22650 23.40018 171.70410 317
401.30209 24.94905 171.79483 313
413.89520 26.67564 171.92751 309
428.26907 28.64551 172.04691 305
480.12561 35.89960 165.10208 300
487.64328 36.87299 168.13065 294
2166.09937 269.46542 55.16938 356
2157.93823 268.37930 87.98458 334
390.09549 24.41707 171.67352 317
401.13315 26.00377 171.79587 313
413.70468 27.82635 171.88501 309
428.03485 29.89740 172.04007 305
479.92755 37.42300 165.10141 300
487.52478 38.52080 168.10823 294
2145.57056 278.32016 56.98275 353
2130.89087 276.56009 89.76316 355
389.91406 25.40131 171.69029 317
400.97403 27.08666 171.80420 313
413.52692 28.99680 171.92662 309
427.86722 31.13552 172.03835 305
479.63916 38.94042 165.14436 300
487.34949 40.14942 168.03069 294
2119.94873 286.88724 58.91793 354
2105.46387 284.58328 91.02406 361
389.73892 26.39133 171.68092 317
400.79031 28.14739 171.76515 313
413.30661 30.13933 171.92010 309
427.64502 32.39547 172.02739 305
479.04053 40.48801 165.20259 443
487.12552 41.75177 168.08397 293
2094.46265 294.71738 60.57599 356
2074.53589 291.54153 93.24408 365
2123.84839 299.11490 121.37428 365
389.55615 27.42111 171.68500 317
400.58047 29.21740 171.78786 313
413.11530 31.29379 171.88580 309
427.46265 33.63822 172.06818 305
477.60104 41.81022 165.44478 444
486.90750 43.32498 168.06923 293
2069.55615 302.35583 62.88139 354
2056.59424 299.95096 94.45819 367
2099.56226 307.12714 122.48122 377
389.36676 28.43594 171.68089 317
400.38129 30.31767 171.77174 313
412.88464 32.41610 171.89928 309
427.23215 34.87225 172.04813 305
476.21158 43.13295 165.68054 445
486.74664 44.94392 168.04166 293
2044.96643 309.79736 64.51317 355
2034.22595 307.69049 95.51033 369
2093.82056 317.57950 122.77538 426
389.16464 29.43158 171.66539 317
400.19885 31.36279 171.78334 313
412.69080 33.56390 171.91808 309
426.97763 36.05470 172.01672 305
474.76303 44.48955 165.88335 446
2021.12158 316.94913 66.53332 356
2012.36255 315.42587 97.09489 370
2102.58130 331.22241 122.42873 467
24215.69336 4228.96924 4641.82568 1000
388.96899 30.40277 171.67705 317
399.94513 32.41309 171.76590 313
412.48364 34.68734 171.87439 309
426.74899 37.28988 172.01222 305
473.34387 45.79002 166.08765 446
1997.48096 323.87180 68.12455 358
1990.80469 322.65698 98.46979 371
2106.63745 343.90585 121.65145 466
388.77887 31.42736 171.69026 317
399.77219 33.46781 171.79927 313
412.21259 35.85389 171.90758 309
426.51367 38.52681 172.01482 305
471.93854 47.14554 166.29707 447
1974.70361 330.86392 69.83023 359
1969.81042 330.05313 99.30142 373
1992.11914 334.13263 127.61075 345
388.55386 32.41179 171.65460 317
399.51599 34.55540 171.79424 313
411.97345 37.00239 171.89189 309
426.24167 39.76513 172.05128 305
470.56567 48.42938 166.50298 448
1976.25500 342.28696 40.29525 367
1952.06348 337.58136 71.39658 360
1949.44910 337.28976 100.63574 374
1970.38257 340.94113 128.41864 375
388.29868 33.40402 171.67384 317
399.28976 35.63927 171.77719 313
411.77649 38.13427 171.87767 309
426.02112 41.00943 172.01431 305
469.18173 49.73696 166.75304 449
1955.50000 349.25998 42.02325 369
1930.07983 344.02811 73.41002 362
1929.58728 344.15332 102.16881 375
2135.04688 385.31824 120.01767 466
388.10452 34.41755 171.65312 317
399.05194 36.68262 171.78061 313
411.51730 39.27800 171.88678 309
457.60764 48.83014 164.99796 304
467.83386 50.97724 166.93622 450
1935.22839 356.04263 43.81329 370
1909.52649 350.70633 74.74038 358
1909.74915 350.66995 103.00042 377
2139.66577 398.27478 120.03645 465
387.85843 35.37782 171.64021 317
398.80505 37.73929 171.78200 313
411.22556 40.39589 171.85709 309
457.34290 50.27039 164.94962 304
466.48141 52.24782 167.16809 451
1915.51416 362.38538 45.71782 371
1889.16626 357.01501 76.16162 359
1890.78479 357.09451 104.13676 378
2143.79907 411.77658 119.16902 464
387.62756 36.37209 171.63524 317
398.56039 38.82107 171.78493 313
410.97879 41.52662 171.86128 309
457.01657 51.71400 164.93825 304
465.16772 53.46268 167.36713 452
1896.14355 369.13654 47.22213 372
1869.17114 363.23605 77.93900 352
1871.40588 363.74127 105.45895 379
2148.18555 424.73010 119.23696 463
387.38998 37.35642 171.64551 317
398.32901 39.85433 171.74176 313
410.71521 42.68124 171.85417 309
456.63174 53.09768 164.97842 303
463.79889 54.75342 167.59837 453
1876.61768 375.65628 49.02597 360
1848.31104 368.86276 79.24139 353
1852.74365 370.23825 106.71863 380
2152.84375 438.22089 118.96560 462
387.13589 38.37467 171.65331 317
398.03983 40.92901 171.75156 313
410.42371 43.83026 171.86903 309
456.27878 54.50986 164.96864 303
462.47528 55.99929 167.73087 453
1856.97998 381.45505 51.03541 353
1827.44910 374.83359 80.96580 333
1834.56580 376.50464 107.72394 382
2152.36719 450.45465 118.52232 381
386.88809 39.34087 171.66376 317
397.80078 41.94466 171.76512 313
410.12399 44.91130 171.84525 309
455.98499 55.92834 164.94913 303
461.15353 57.19701 167.94455 298
1837.61816 387.62943 52.73470 354
1807.80481 380.57321 82.24944 383
1817.14099 382.67484 108.43239 383
1829.80444 385.74875 134.86586 386
386.61264 40.36127 171.62766 317
397.50897 43.00153 171.75633 313
409.86111 46.06831 171.87314 309
455.56451 57.31541 164.94528 303
460.86353 58.65052 167.92795 297
1818.53467 393.13480 54.29779 355
1788.96265 385.76999 83.88483 384
1799.76135 388.75604 109.82500 384
1813.37195 392.12378 135.70558 387
386.38635 41.33549 171.62430 317
397.21371 44.08068 171.74611 313
409.55951 47.16168 171.85873 309
455.18018 58.71859 164.95291 303
460.53146 60.05911 167.90950 297
1799.98401 398.75735 55.76123 356
1772.75647 392.14059 84.80285 394
1783.29639 394.81464 110.62688 396
1796.07837 397.98813 136.46602 388
386.11020 42.30649 171.65387 317
396.95871 45.14020 171.75493 313
409.26880 48.30536 171.84680 309
454.83777 60.11175 164.93478 303
460.19504 61.54994 167.90157 297
1782.05127 404.44916 57.49730 359
1759.73218 398.99344 86.00945 411
1768.40686 401.02026 111.38302 417
1779.64172 404.05414 136.83797 389
385.83066 43.29008 171.61722 317
396.67029 46.18021 171.71828 313
408.90753 49.44406 171.85355 309
453.64987 61.37040 165.16611 425
459.82925 63.02425 167.89368 297
1765.20935 410.53021 59.11404 367
1750.55188 406.22791 86.71532 424
1755.70996 407.77863 112.04762 418
1765.53186 410.31549 137.49402 420
6645.62988 1709.21387 1311.51135 1000
385.53748 44.28041 171.62517 317
396.33246 47.24131 171.74791 313
408.61615 50.54801 171.87192 309
451.92728 62.39144 165.42755 426
459.49042 64.44031 167.90636 297
1750.27649 416.41089 60.12133 384
1738.74329 412.88443 87.41843 425
1744.51855 414.53363 112.55300 428
1752.93018 417.15463 138.16719 426
385.22266 45.25854 171.61090 317
396.03772 48.28527 171.73563 313
408.30756 51.67019 171.87480 309
450.20398 63.42464 165.69745 427
459.13092 65.91831 167.87241 297
1737.38281 422.73123 61.27520 388
1727.40369 420.05060 87.95177 433
1733.76514 421.64273 113.12024 429
1741.29858 424.08359 138.82446 488
384.94995 46.21347 171.60789 317
395.73462 49.29343 171.74632 313
436.69110 61.04598 164.86429 308
448.51947 64.42070 166.00291 428
458.80017 67.34127 167.86134 297
1725.26758 429.17398 62.12095 393
1716.72766 426.72641 88.91761 439
1724.02173 428.90091 113.89104 425
1737.99426 432.92529 138.66264 489
384.62964 47.21339 171.60507 317
395.41843 50.37403 171.71631 313
436.28448 62.33347 164.89427 308
446.86359 65.41739 166.30443 429
1713.68909 435.94476 63.08521 397
1706.60938 434.02628 89.13591 447
1715.87134 436.28632 114.00124 408
1734.31470 441.90817 138.85141 485
384.34363 48.18339 171.63628 316
395.08859 51.42160 171.74562 313
435.92188 63.63597 164.85532 308
445.22690 66.39223 166.56743 430
1702.78467 442.41440 64.08401 398
1697.13843 440.72998 89.92476 448
1707.90417 444.06104 114.51190 400
1729.90430 450.71786 138.69376 440
383.99329 49.15199 171.64139 316
394.73566 52.42980 171.74321 313
435.51266 64.91679 164.84828 308
443.58209 67.39542 166.83943 431
1691.97705 448.81152 64.69847 399
1688.06152 447.89087 90.70941 443
1712.15430 455.23676 114.14595 298
1734.43494 461.90363 138.56313 437
383.71902 50.13903 171.59898 316
394.40488 53.51328 171.69344 313
435.06805 66.16209 164.85789 308
442.00259 68.32295 167.11647 432
1703.93884 462.54980 37.71682 395
1681.77905 455.73627 65.61505 406
1678.91443 454.85434 91.24128 451
1718.08215 467.24734 113.62036 298
1738.22754 473.44644 138.04878 436
383.37891 51.12317 171.61049 316
394.09439 54.49792 171.72017 313
434.66095 67.49495 164.83548 308
440.39243 69.30220 167.33252 433
1694.07007 469.61618 38.31247 396
1671.57678 462.36670 66.44249 406
1670.02283 461.90863 91.53940 452
1724.36328 479.01038 112.78154 298
1742.30615 484.97113 137.82321 435
383.05176 52.05725 171.60124 316
393.71613 55.53897 171.69742 313
434.20206 68.72839 164.86285 308
438.76657 70.25901 167.60394 420
1683.85461 476.09512 39.38337 397
1662.29077 468.97528 66.86579 407
1661.80750 468.83020 92.04477 458
1730.71411 491.35934 111.98447 298
1746.39575 496.32578 137.53308 434
382.70715 53.04419 171.59575 316
393.36298 56.60394 171.69391 313
433.74435 70.02743 164.84569 308
437.29562 71.16812 167.88211 301
1674.10583 482.75699 39.99110 397
1652.99744 475.52673 67.52564 412
1653.39844 475.82349 92.52531 462
1729.49304 501.30508 112.00452 276
1750.40039 508.02374 136.99060 434
382.38416 54.02382 171.59663 316
392.99652 57.61242 171.71765 313
433.28015 71.29696 164.84055 308
436.88992 72.49321 167.85295 301
1664.38550 489.43802 41.14398 404
1644.01123 482.31238 68.26978 413
1645.42871 482.65475 92.92139 474
1736.76282 513.96442 111.30477 377
1754.18835 519.90826 136.61327 432
382.04224 54.97654 171.61674 316
392.65097 58.62340 171.69907 313
432.80905 72.53197 164.85553 308
436.42261 73.82809 167.81764 301
1655.30737 496.03494 41.89076 404
1635.15674 489.11096 68.98289 423
1638.43958 490.07135 93.34126 471
1907.42065 583.48505 99.21746 447
1758.54456 531.51996 136.26743 432
381.66156 55.96123 171.57826 316
392.24734 59.70099 171.67941 313
431.75320 73.65338 164.97610 423
435.97913 75.11205 167.83006 301
1646.16602 502.44855 42.33007 404
1627.24927 495.96759 69.39063 423
1631.09741 497.36807 93.53265 471
1906.92603 594.91418 98.97054 497
1762.66870 543.81213 135.59822 431
381.29340 56.90247 171.56844 316
417.84238 70.05780 164.79280 312
430.09973 74.43393 165.33177 424
435.58228 76.45060 167.78052 301
1637.68030 509.65311 43.33568 415
1619.37891 502.59192 69.82284 428
1624.60583 504.70242 94.18246 478
1907.00720 606.20166 98.81712 425
1766.41846 555.80914 135.32390 430
380.97156 57.85337 171.60205 316
417.33557 71.21341 164.81056 312
428.41364 75.29621 165.62529 425
435.10379 77.71806 167.78615 301
1629.58801 516.04010 43.88760 416
1611.90149 509.85281 70.33808 429
1617.81323 511.81876 94.23984 478
1780.99939 571.70465 107.49512 395
1770.72144 568.08606 135.05473 429
380.56006 58.79485 171.56274 316
416.87152 72.38129 164.80907 312
426.78571 76.07668 165.85817 426
434.68558 79.05281 167.76512 301
1621.71033 523.05627 44.39887 422
1604.45825 516.69183 70.71485 429
1611.27393 519.00330 94.64931 471
1764.49902 576.15594 108.29827 396
1775.04199 580.46143 134.48808 428
380.19131 59.76487 171.58215 316
416.40201 73.53738 164.80521 312
425.15277 76.89281 166.14984 427
434.21216 80.35542 167.78532 301
1614.13354 529.96356 44.77421 423
1597.09863 523.69055 71.34663 430
1604.84131 526.47693 94.79121 472
1758.51807 584.82123 108.32558 487
1779.19006 593.02509 134.01958 427
379.81320 60.72881 171.55351 316
415.89154 74.73209 164.79146 312
423.50311 77.70779 166.45541 428
433.70813 81.62204 167.75549 301
1606.68848 536.80835 45.30138 423
1590.03516 530.34808 71.53419 430
1598.12952 533.35022 95.15658 472
1762.05054 597.12152 107.85506 303
1783.79895 605.52295 134.00285 426
379.43198 61.66381 171.58035 316
415.37991 75.87690 164.78920 312
421.93442 78.47796 166.74245 429
1599.43384 543.85376 45.71032 424
1581.70215 536.50232 72.42790 332
1591.85815 540.80090 95.48279 472
1767.14014 610.00232 107.45824 303
1787.80701 618.36053 133.47115 426
379.04440 62.62976 171.58344 316
414.91171 77.04012 164.76698 312
420.32773 79.20184 166.98460 430
1591.69556 550.20630 46.20032 431
1574.05212 543.43115 72.50061 480
1585.79053 547.90417 95.64989 473
1771.67676 623.02863 106.65276 303
1792.37964 630.98334 132.74969 425
378.65015 63.57240 171.57841 316
414.37958 78.18343 164.77956 312
418.73679 79.98587 167.24066 431
1584.40210 557.12775 46.83262 431
1566.84717 549.74872 73.28702 393
1579.92993 555.53101 95.99338 466
1776.38965 635.55188 106.18814 304
378.22757 64.53252 171.56427 316
413.87006 79.35086 164.78703 312
417.18973 80.73702 167.53966 432
1576.48499 563.50494 47.24017 432
1560.10925 556.68079 73.34966 483
1573.80322 562.57831 96.29031 465
1780.41187 648.44415 105.55714 295
377.80521 65.44006 171.55070 316
413.34348 80.50199 164.82309 312
415.69962 81.51548 167.74680 433
1569.34924 570.33331 48.09679 438
1553.78662 563.78894 73.90912 488
1568.57764 569.86731 96.26481 465
377.42422 66.37421 171.56560 316
412.81543 81.67667 164.79568 312
415.12567 82.66891 167.77240 305
1562.03210 576.98175 48.25225 441
1547.90332 570.56226 73.90781 488
1563.28369 577.37024 96.62292 465
400.36014 77.59543 164.69470 317
412.29117 82.77808 164.81586 312
414.65964 83.81168 167.77800 305
1554.71167 583.62915 48.86005 441
1541.87585 577.92413 74.18940 488
1558.29456 584.73352 96.42128 453
399.86920 78.64990 164.67601 317
411.18637 83.69867 164.96645 436
414.12741 85.02542 167.76392 305
1550.68811 591.31891 48.76934 279
1536.59192 585.06787 74.49354 429
1553.04199 592.49194 96.86145 453
399.37561 79.73391 164.72272 317
409.70865 84.40304 165.21875 436
413.62912 86.17201 167.76906 305
1557.46619 604.27661 47.48696 273
1530.93433 592.14655 74.85117 491
1548.35718 600.19604 96.81232 453
398.81546 80.78942 164.69124 317
408.23965 85.13948 165.47813 437
413.11154 87.37407 167.72878 305
1565.32092 617.58521 46.18356 273
1527.85474 600.32880 74.44806 466
1543.53894 607.43787 96.82580 454
398.30786 81.85784 164.68307 317
406.78503 85.81343 165.70520 419
49.90125 23.33452 -12.86031 305
1522.62085 607.61383 74.70392 467
1538.30237 615.06982 96.85276 426
397.78671 82.88877 164.67787 317
405.10968 86.38181 166.04053 420
412.06467 89.71532 167.72911 305
1517.31189 614.90350 75.08387 467
397.22391 83.94186 164.70441 317
403.46097 86.99902 166.30663 421
127.09429 61.33754 -32.94475 305
1515.95349 623.88660 74.89926 384
396.64844 84.99928 164.69719 317
401.85641 87.55965 166.65877 422
410.93839 92.05361 167.68248 305
396.10764 86.02242 164.70482 317
400.24219 88.11024 166.95535 423
395.49713 87.09095 164.73567 317
398.64526 88.65656 167.23669 424
394.94049 88.14810 164.73489 317
397.02655 89.23949 167.49051 425
394.38492 89.15748 164.70334 317
395.70609 89.87124 167.72495 311
393.77945 90.22773 164.75375 317
395.17572 90.90938 167.71111 311
392.41699 90.82961 164.99057 427
394.56912 91.99937 167.68073 311
390.90793 91.32890 165.25064 428
393.99567 93.02073 167.71423 309
389.39301 91.85519 165.52385 429
393.46219 94.09153 167.66190 309
387.92828 92.37474 165.77579 430
392.85797 95.16648 167.65501 309
386.48148 92.87815 166.08974 431
392.28314 96.17805 167.66223 309
385.01358 93.37279 166.33417 432
391.72208 97.20320 167.68631 309
383.58002 93.90150 166.57547 433
391.10284 98.27077 167.65823 309
382.14160 94.35413 166.86510 434
390.49570 99.34680 167.66460 309
380.77997 94.86601 167.08357 435
379.36539 95.33837 167.33943 436
378.01730 95.79253 167.57878 437
377.22458 96.65909 167.64613 315
376.61694 97.58546 167.63562 315
375.98401 98.55235 167.61897 315
375.37909 99.46687 167.61053 315
374.77359 100.41619 167.61922 315
374.12479 101.32926 167.60744 315
373.46606 102.25033 167.58926 315
372.82571 103.20280 167.60352 315
372.18973 104.09200 167.58061 315
371.51385 105.00665 167.59880 313
370.90121 105.95304 167.59651 313
370.21964 106.83114 167.55931 313
3312.46558 3057.54541 286.99084 1000
20941.94922 29438.95117 1393.04297 1000
9537.80469 14136.30762 1047.62842 1000
32074.35938 48331.59375 11728.20996 1000
30908.48438 55769.66016 -9310.66895 1000
22447.29883 51835.82812 12324.67578 1000
958.49634 2456.15991 2.97414 417
959.29498 2457.63477 44.84627 417
959.70697 2459.03857 87.09698 417
959.97736 2461.26343 129.15833 417
960.41492 2463.07422 171.18333 417
347.34006 2116.77930 5.31499 399
346.96021 2115.98145 40.31083 399
347.14316 2114.72900 75.71755 399
347.17105 2113.66235 110.39983 454
346.73401 2113.50293 145.08427 454
346.80447 2112.95239 179.48018 454
346.93884 2111.97681 214.50491 454
-275.67688 1756.56763 5.32174 408
-275.88248 1757.16736 35.36344 409
-275.69528 1758.22314 65.71413 460
-275.98141 1759.18347 95.42481 461
-276.50537 1760.19202 125.38103 461
-276.86334 1761.19849 155.10414 492
-277.04883 1762.38672 185.45818 492
-277.49939 1764.00317 215.13693 491
-277.72089 1765.18994 245.15526 436
-286.95395 1756.29285 5.01177 310
127.60664 148.36652 169.50357 485
126.61712 147.95859 169.46242 441
124.75746 148.93044 168.96643 489
123.66098 148.80867 168.78413 277
120.78120 149.32138 168.27420 489
119.76587 149.00072 168.16541 273
117.32367 150.66423 167.44102 316
-24613.83789 35971.82812 -6284.71191 1000
116.49723 150.00262 167.40257 316
115.65855 149.34935 167.40300 316
114.82205 148.66725 167.42212 316
111.67009 151.17722 166.41428 314
110.83328 150.51282 166.40462 314
109.95861 149.83739 166.39519 314
109.11007 149.10966 166.37645 314
108.24267 148.42221 166.39523 314
107.42377 147.71985 166.37589 314
106.57436 147.05769 166.39354 314
105.67345 146.38570 166.37424 423
104.16782 146.51941 166.10132 422
96.74019 155.79314 166.35454 310
102.61087 146.73015 165.76653 421
95.83465 155.00142 166.39276 310
101.06644 146.86174 165.44556 419
94.94762 154.25171 166.35228 310
99.44767 147.03958 165.14748 418
94.07124 153.50125 166.39946 310
97.84448 147.18517 164.83919 417
93.15089 152.69653 166.34401 310
96.24265 147.31619 164.49240 427
92.27033 151.92105 166.38206 310
94.66348 147.36165 164.18773 426
91.38290 151.13950 166.35628 310
-2868.61133 3565.16406 -16.60972 483
93.11103 147.46129 163.92528 425
90.52545 150.37947 166.34775 310
91.48608 147.47758 163.58983 424
89.67213 149.58730 166.33611 310
90.13197 147.27361 163.37091 307
88.79816 148.79495 166.35965 310
89.36489 146.40768 163.40462 307
87.97887 147.95901 166.34448 310
88.60686 145.50864 163.45477 307
86.63081 147.69403 166.13107 421
87.88813 144.55428 163.45976 307
84.92079 147.72554 165.85568 420
-2548.12378 2967.44556 15.65765 352
87.13632 143.67197 163.51137 307
83.20123 147.79703 165.54520 419
75.05164 156.44832 166.27847 305
-2565.28271 2949.98120 15.70070 373
86.40913 142.75745 163.57666 307
81.50140 147.88857 165.22449 418
74.19350 155.55389 166.28990 305
85.69118 141.83466 163.57677 307
79.72542 147.93678 164.91754 417
73.28517 154.65114 166.25351 305
84.95302 140.90535 163.61201 307
77.99631 148.03012 164.53374 416
72.36655 153.76376 166.26440 306
104.93338 119.15864 171.50862 316
76.19336 148.06284 164.20706 415
71.49487 152.83672 166.27205 306
104.25037 118.41350 171.54340 316
74.35709 148.14827 163.90085 414
70.62934 151.90984 166.25755 306
103.62787 117.67773 171.52357 316
72.56200 148.23596 163.51529 413
69.75129 150.99361 166.28419 306
-2167.24365 2350.45947 50.60337 458
102.96146 116.93053 171.54088 316
71.12074 147.89027 163.30168 304
68.84675 150.04631 166.27353 306
102.32137 116.17690 171.53867 316
70.33855 146.88052 163.33160 304
67.99596 149.14259 166.23207 305
101.73631 115.42948 171.55843 316
69.59521 145.80945 163.36086 304
66.88815 148.46448 166.18071 410
101.09100 114.64307 171.55115 316
68.88077 144.82034 163.39177 304
64.89565 148.53815 165.83772 409
100.44727 113.88661 171.57782 316
68.21404 143.74591 163.44720 304
62.90725 148.60736 165.44664 408
99.82947 113.12254 171.55118 316
91.45119 120.79507 171.62131 312
60.91043 148.71617 165.07283 407
51.68408 157.11269 166.14288 301
99.21805 112.36481 171.54510 316
90.80000 119.99591 171.61156 312
58.90658 148.77385 164.69756 405
50.77160 156.03233 166.15834 301
98.60734 111.61382 171.57372 316
90.12209 119.14123 171.66528 312
56.82702 148.82710 164.33093 404
49.91605 155.00392 166.15593 301
98.02975 110.80309 171.58173 316
89.48177 118.31121 171.65811 312
54.69364 148.90465 163.90486 403
49.04734 153.95775 166.13657 301
97.41769 110.02360 171.55832 316
88.85925 117.50856 171.65190 312
52.59259 148.97562 163.56897 402
48.15667 152.85164 166.16428 301
96.82133 109.25465 171.57924 316
88.17785 116.63039 171.66019 312
50.70700 148.86024 163.19711 300
47.26139 151.79813 166.19440 301
96.23140 108.45551 171.57964 316
87.55350 115.80506 171.63867 312
50.00708 147.67818 163.25578 300
46.39652 150.74860 166.12938 301
95.65869 107.65963 171.59000 316
86.92845 114.97417 171.65541 312
49.27023 146.53123 163.28851 300
45.53307 149.63693 166.15895 301
95.09492 106.86790 171.59627 316
86.28872 114.12280 171.67128 312
48.55834 145.34430 163.37170 300
43.73575 149.33965 165.89151 398
94.46788 106.05053 171.61008 316
85.69333 113.24831 171.66858 312
75.70018 121.43639 171.78076 308
41.41571 149.42279 165.50920 397
93.89630 105.23412 171.61717 316
85.09257 112.36810 171.68024 312
75.02921 120.46989 171.78687 308
39.02370 149.52881 165.06621 396
93.36025 104.45975 171.59526 316
84.47964 111.51028 171.70573 312
74.38580 119.54125 171.79189 308
36.64281 149.65193 164.61459 394
26.10590 158.01523 166.06815 297
92.80582 103.60854 171.60989 316
83.88280 110.65071 171.69336 312
73.75564 118.62923 171.79231 308
34.22758 149.75304 164.20096 393
25.21652 156.79663 166.06146 297
92.25518 102.82482 171.64166 316
83.29905 109.79613 171.70325 312
73.06753 117.71348 171.76973 308
31.74626 149.84497 163.79376 392
24.30713 155.57129 166.06706 297
91.68545 101.96960 171.61548 316
82.68626 108.90533 171.68402 312
72.47810 116.74973 171.80405 308
29.24828 149.91525 163.30623 391
23.44491 154.40073 166.02937 297
91.16306 101.17741 171.62338 316
82.10409 108.00861 171.71017 312
71.81479 115.79302 171.80287 308
27.74086 149.21268 163.10841 296
22.56647 153.14949 166.05606 297
90.61749 100.30988 171.63701 316
81.51682 107.13148 171.71506 312
71.20772 114.86932 171.81120 308
27.11189 147.88054 163.20555 296
21.64614 151.88759 166.02187 297
90.06964 99.49937 171.65565 316
80.94324 106.24242 171.70177 312
70.55421 113.89362 171.78850 308
58.70153 122.68471 171.91586 304
20.84169 150.65770 166.07805 297
89.54081 98.68315 171.64711 316
80.38821 105.34512 171.73239 312
69.96626 112.94585 171.80594 308
58.01643 121.65205 171.89952 304
18.75986 150.32001 165.72940 389
89.00601 97.81646 171.67767 316
79.81241 104.45334 171.73927 312
69.37702 111.99636 171.82254 308
57.37651 120.60643 171.92848 304
16.07104 150.37660 165.27568 388
88.48553 96.99810 171.67514 316
79.23472 103.54727 171.72388 312
68.74145 111.02901 171.79346 308
56.72937 119.54533 171.90994 304
13.34227 150.43846 164.82396 387
87.96633 96.17167 171.65881 316
78.68111 102.67869 171.73997 312
68.17237 110.03517 171.82668 308
56.05630 118.55296 171.92551 304
10.49198 150.51959 164.34814 385
87.45718 95.30477 171.66335 316
78.14106 101.77251 171.75861 312
67.53996 109.07018 171.80807 308
55.43137 117.47403 171.91499 304
7.64359 150.54718 163.89256 384
-4.51712 158.97746 165.63127 290
86.97485 94.45063 171.66460 316
77.58603 100.82850 171.77286 312
66.98453 108.08978 171.82433 308
54.79563 116.43427 171.92171 304
4.72890 150.66989 163.41112 383
-5.44257 157.56261 165.65887 290
86.46010 93.57576 171.67082 316
77.07372 99.92168 171.74496 312
66.40108 107.13383 171.86694 308
54.16379 115.34674 171.92877 304
1.75408 150.68242 162.89777 382
-6.37751 156.19429 165.69153 291
85.97330 92.74823 171.66995 316
76.51551 98.99524 171.76506 312
65.80092 106.12587 171.86275 308
53.51849 114.29292 171.91928 304
39.33631 123.80146 172.07564 300
-7.22602 154.77324 165.67091 291
85.45390 91.85636 171.68719 316
76.00211 98.09000 171.74187 312
65.23489 105.15731 171.86046 308
52.91494 113.27605 171.92560 304
38.63250 122.61985 172.03897 300
-8.18602 153.34894 165.62869 291
84.98510 91.03546 171.66760 316
75.50295 97.18172 171.77402 312
64.70400 104.18522 171.86472 308
52.30883 112.15809 171.92863 304
38.02861 121.44850 172.05206 300
-9.08469 152.00127 165.66093 291
84.52346 90.13191 171.69308 316
75.00005 96.24232 171.79417 312
64.14464 103.14137 171.85211 308
51.71290 111.09442 171.95302 304
37.36539 120.30664 172.08905 300
-10.71876 151.02995 165.51155 377
84.03626 89.28221 171.69223 316
74.47428 95.33116 171.74974 312
63.57375 102.16190 171.88776 308
51.11990 110.01994 171.97165 304
36.70466 119.12074 172.08800 300
-13.97859 151.12579 164.94284 376
83.59007 88.37398 171.71170 316
73.97376 94.38597 171.79695 312
63.02870 101.19644 171.86632 308
50.53561 108.93582 171.95776 304
36.06296 117.99728 172.08514 300
-17.28690 151.19052 164.40923 374
83.11073 87.53923 171.68945 316
73.45399 93.44420 171.80188 312
62.48243 100.14941 171.87148 308
49.98809 107.85976 171.97015 304
35.40291 116.81711 172.07092 300
-20.70081 151.28925 163.90820 373
82.64983 86.64941 171.69867 316
72.99474 92.51852 171.80611 312
61.98820 99.18173 171.88484 308
49.39584 106.79038 171.95833 304
34.80660 115.60880 172.10178 300
-24.24948 151.34134 163.30675 372
82.17789 85.75284 171.73550 316
72.50847 91.56273 171.77454 312
61.47731 98.14641 171.88387 308
48.82446 105.68933 172.00403 304
34.19201 114.42642 172.09482 300
17.02565 124.64731 172.23601 296
-41.16102 159.42482 165.11255 286
81.74760 84.85733 171.70976 316
72.00750 90.61763 171.81544 312
60.95106 97.13445 171.88928 308
48.27798 104.57462 171.98114 304
33.58940 113.20906 172.10941 300
16.38059 123.40417 172.25227 296
-42.12460 157.78198 165.14043 286
81.30186 83.98489 171.71861 316
71.53346 89.67567 171.79959 312
60.41161 96.12344 171.86586 308
47.68525 103.50172 172.01344 304
32.98055 112.03545 172.08931 300
15.70014 122.07130 172.29018 296
-42.94630 156.17921 165.11557 286
80.87646 83.08976 171.74324 316
71.08182 88.71248 171.81667 312
59.91034 95.07427 171.89188 308
47.16261 102.40669 171.97893 304
32.37820 110.84602 172.13170 300
15.02503 120.76305 172.29811 296
-43.82612 154.44798 165.13033 286
80.41393 82.18121 171.72940 316
70.58654 87.76487 171.81363 312
59.39661 94.07533 171.90512 308
46.61110 101.28291 172.00635 304
31.79252 109.66141 172.12123 300
14.41984 119.50295 172.25671 296
-44.67726 152.85841 165.16438 286
80.00645 81.30606 171.73122 316
70.15284 86.79501 171.80255 312
58.90118 93.03460 171.88826 308
46.04866 100.20798 171.99579 304
31.17346 108.47878 172.14565 300
13.77343 118.13668 172.27704 296
-46.90114 151.94675 164.89194 364
79.60104 80.37214 171.72940 316
69.65867 85.83369 171.82523 312
58.44831 92.01251 171.91983 308
45.54547 99.06759 172.02779 304
31.77099 106.60847 172.38667 272
13.10609 116.89378 172.27936 296
-50.75417 151.83627 164.34254 372
79.19372 79.46689 171.72430 316
69.22203 84.85767 171.80594 312
57.96158 90.94594 171.92268 308
45.00416 97.98539 172.02135 304
38.11604 101.66497 173.94592 320
23.82504 109.38404 174.64532 272
-54.55412 151.76994 163.79274 371
78.79504 78.59402 171.73607 316
68.77395 83.89149 171.81163 312
57.47103 89.93195 171.91289 308
46.46786 95.76830 172.51994 322
40.69019 98.88583 174.67380 321
34.24645 102.32726 176.92433 273
16.81822 111.59143 177.32063 273
78.35989 77.67147 171.76843 316
68.38928 82.93256 171.80721 312
57.00659 88.88350 171.93394 308
48.81428 93.17559 173.20929 324
43.18979 96.12450 175.34613 323
37.43194 99.18597 177.68234 321
27.32622 104.45798 179.35416 274
9.20771 114.00922 180.11929 288
77.97202 76.74383 171.77414 316
67.92548 81.97294 171.83835 312
56.54076 87.82990 171.92548 308
51.10905 90.67906 173.85652 325
45.63364 93.48557 176.00635 324
40.02482 96.37634 178.32494 322
29.74600 101.71355 179.94717 292
8.62475 112.64173 180.11842 288
77.56215 75.88017 171.74847 316
67.48753 80.98373 171.83978 312
58.37305 85.63860 172.51581 328
53.30778 88.20400 174.53223 326
47.94349 90.94330 176.67641 325
42.53460 93.71214 178.95538 323
29.21261 100.45899 179.95634 292
8.02380 111.25069 180.13699 288
77.17593 74.94093 171.75227 316
67.10506 80.00407 171.82939 312
60.34763 83.36623 173.15271 329
55.39804 85.83850 175.17215 327
50.25337 88.46136 177.26216 325
44.97245 91.10342 179.55919 324
28.70320 99.25241 179.95842 292
7.39530 109.93337 180.11368 288
76.81227 74.01060 171.74376 316
66.67555 79.01068 171.82812 312
61.18820 81.72044 173.49915 387
57.52796 83.53648 175.78004 328
52.44071 86.07782 177.89314 326
45.79272 89.31227 179.78906 296
28.19963 98.05569 179.94557 292
3.13552 110.40665 179.54666 290
-19.46360 121.57656 180.37866 284
76.44806 73.08726 171.75198 316
66.27451 78.05412 171.84764 312
61.94503 80.15643 173.82068 388
58.90218 81.61277 176.19672 386
54.62553 83.72330 178.45848 328
45.33568 88.19975 179.79845 296
-5.84504 113.11245 173.76691 288
-5.88508 113.13351 178.12932 289
-20.14032 120.05763 180.35883 284
76.04832 72.16454 171.75966 316
66.06325 76.92673 171.91878 378
62.64628 78.58966 174.09494 389
59.64955 80.05038 176.50745 387
56.57033 81.49532 178.95996 385
44.91790 87.08770 179.83488 296
8.02459 104.75963 176.47762 285
-14.33065 115.43333 176.81467 345
-20.74621 118.55214 180.39163 284
75.70305 71.22575 171.77798 316
66.81406 75.42680 172.22006 379
63.33306 77.07496 174.37866 390
60.40238 78.45036 176.78105 388
57.33412 79.89265 179.27278 386
44.46635 85.96025 179.80899 296
14.60160 100.03239 177.79662 286
-18.58574 115.71494 176.24471 343
-21.39132 117.04149 180.35365 284
75.33588 70.31737 171.78996 316
67.51341 73.93024 172.50021 380
64.04798 75.57095 174.68689 391
61.12965 76.88335 177.06941 389
58.10922 78.29312 179.53101 387
43.99162 84.84366 179.82072 296
20.76303 95.62084 178.95340 315
6.60295 102.17834 180.48276 285
-22.91692 115.89323 180.23979 342
74.96265 69.39534 171.77103 316
68.20572 72.45179 172.84595 381
64.73928 74.07767 174.94351 392
61.82627 75.39127 177.32220 390
58.61913 76.86102 179.68265 300
43.57445 83.73444 179.82767 296
23.64606 92.80236 179.58873 317
13.21963 97.56036 181.64845 286
-5.25553 105.97346 182.92305 267
74.64972 68.44701 171.78088 316
68.90991 71.04623 173.13837 382
65.41735 72.59856 175.24467 379
62.54232 73.85190 177.59077 391
58.21120 75.84120 179.70807 300
32.11555 87.55872 177.63078 336
25.98538 90.31302 180.13556 333
18.31280 93.74929 182.57329 315
5.22568 99.62888 184.50703 285
-44914.45703 20275.13281 5088.64404 1000
74.30608 67.52563 171.77773 316
69.57754 69.60524 173.42226 383
66.11795 71.11491 175.52025 380
63.24665 72.40121 177.86240 392
57.84161 74.79593 179.71472 300
34.05518 85.31381 178.08752 337
28.04697 87.96466 180.57452 334
21.25794 90.90818 183.09665 316
11.93050 95.03442 185.55240 286
-6.47591 103.22423 187.10037 267
73.94752 66.56235 171.80510 316
70.23815 68.17932 173.66751 384
66.84589 69.63630 175.77225 381
63.95112 70.92836 178.11357 393
57.47394 73.71771 179.73297 300
35.91326 83.09468 178.59920 338
30.04712 85.62782 181.04996 335
23.85740 88.35750 183.58475 333
15.87827 91.77418 186.17233 315
3.95628 96.98979 188.47043 285
74.17289 65.39552 171.94788 387
70.91003 66.78608 173.94012 384
67.56586 68.22806 176.03804 382
64.64325 69.48120 178.33946 394
57.10122 72.70067 179.70549 300
37.74840 80.94710 179.02122 339
31.98185 83.39972 181.48627 336
25.90992 86.00262 184.03699 334
18.92418 89.02622 186.68108 316
10.35081 92.65619 189.38622 314
-7.54275 100.32008 191.31294 267
74.79142 64.04925 172.22534 388
71.58409 65.40907 174.25455 385
68.25877 66.78463 176.33620 383
65.30415 68.06977 178.58308 395
56.70218 71.67234 179.74199 300
39.54917 78.88430 179.46329 340
33.93885 81.22115 181.90714 338
27.99222 83.74007 184.46375 335
21.69067 86.36818 187.14265 333
13.50191 89.77195 189.83716 315
2.74534 94.28934 192.48189 285
75.39838 62.73754 172.51958 389
72.23493 64.07056 174.49506 386
68.94334 65.41431 176.55377 384
65.97807 66.62054 178.81563 396
56.36668 70.59837 179.70865 300
41.04958 76.92702 179.83345 373
35.81124 79.06454 182.31024 339
29.96430 81.46673 184.83380 336
23.86785 84.02107 187.49258 334
16.58192 87.02988 190.25633 316
7.87163 90.62116 193.10185 313
-8.50341 97.40892 195.56586 267
76.00731 61.43416 172.77280 390
72.87624 62.68410 174.75627 387
69.61675 64.01104 176.83490 385
66.60577 65.22969 179.04208 397
55.98956 69.55801 179.73439 300
41.99946 75.25495 180.12343 374
37.64561 76.97014 182.67860 340
31.93750 79.32516 185.19633 337
25.94903 81.74455 187.89868 335
19.53030 84.37581 190.69066 317
11.10382 87.78138 193.49078 315
