# .PCD v.7 - Point Cloud Data file format
VERSION .7
FIELDS x y z rgb
SIZE 4 4 4 4
TYPE F F F U
COUNT 1 1 1 1
WIDTH 1372
HEIGHT 1
VIEWPOINT 6520.408691 -364.827454 148.076660 -0.623826 -0.103523 -0.087439 0.769726
POINTS 1372
DATA ascii
1971.54919 -1784.80396 92.38896 410
1965.61487 -1778.73132 134.02570 452
1972.01196 -1785.36060 174.62195 447
1990.66040 -1782.55542 91.85100 410
1984.64075 -1777.00073 133.60687 444
2010.38257 -1780.11194 91.44849 409
2004.63220 -1774.34949 133.13367 443
2030.51184 -1779.04504 90.96037 412
2024.73315 -1772.90308 132.61072 442
2051.16162 -1777.04248 89.94286 411
2044.72693 -1770.31665 132.55313 441
2071.40137 -1774.75891 89.38395 417
2064.80859 -1769.05005 131.91240 438
2091.85034 -1772.76501 88.62428 416
2085.62451 -1766.42505 130.99440 439
2111.96655 -1770.26086 88.59595 415
2105.72681 -1764.93665 131.23796 438
2132.10059 -1767.41833 87.49434 414
2126.62866 -1762.16333 130.67715 437
2153.30615 -1765.26282 87.09354 413
2148.32788 -1760.35071 130.14684 436
2174.02222 -1762.55884 86.61311 422
2169.68628 -1758.23291 129.79732 435
2196.66040 -1760.90906 85.69036 421
2190.71899 -1755.97205 129.17903 434
2218.21558 -1758.63306 84.51736 420
2212.43750 -1753.36780 128.32700 433
2241.47583 -1757.16882 84.30946 419
2234.60059 -1751.12622 127.95943 432
2264.07275 -1755.27222 82.90175 420
2257.03833 -1748.82666 127.73071 431
2286.73218 -1752.55017 82.80410 419
2279.50073 -1747.07935 126.88523 430
2310.04175 -1750.67126 81.68412 417
2302.90161 -1744.39050 126.34200 429
2333.58569 -1748.36780 80.98254 417
2325.45459 -1742.46716 125.82948 428
2353.42944 -1743.64087 80.06046 416
2381.68896 -1744.01709 79.09808 403
30608.75195 -23695.54688 2724.67358 1000
377.23959 -105.32645 167.66194 313
377.84677 -104.39492 167.64020 313
378.41226 -103.47275 167.66891 313
378.96484 -102.55300 167.66273 313
379.56396 -101.61639 167.65959 313
380.12564 -100.68757 167.68425 315
78.69749 -51.16189 -25.19209 315
27927.83594 -18009.72070 -1962.47986 1000
381.25583 -98.76746 167.70798 315
381.83066 -97.86079 167.69211 315
382.35849 -96.88466 167.70360 315
382.94324 -95.94328 167.68369 315
383.48694 -95.00732 167.71899 315
384.27985 -94.19643 167.63052 435
385.65137 -93.72032 167.34065 434
387.03027 -93.22580 167.10536 433
396.03552 -98.48147 167.68639 309
388.44846 -92.73153 166.86011 432
396.60614 -97.41999 167.70737 309
389.82315 -92.28046 166.54622 431
397.12912 -96.40590 167.71240 309
391.23999 -91.77106 166.29579 430
397.63052 -95.35993 167.71722 309
392.72067 -91.28240 165.99467 429
398.17877 -94.24348 167.75249 309
394.16266 -90.75635 165.74031 428
398.69348 -93.18217 167.75430 309
395.62653 -90.24356 165.42175 427
399.18011 -92.14055 167.74989 309
397.11719 -89.75315 165.16663 426
399.68054 -91.05623 167.75696 309
398.63278 -89.20525 164.81830 425
400.15344 -90.03377 167.78203 309
399.31833 -88.25833 164.76923 317
400.67487 -88.94213 167.76422 311
399.83069 -87.19581 164.80449 317
401.74091 -88.17068 167.61990 423
400.35565 -86.17512 164.76854 317
403.29089 -87.63703 167.29755 422
400.84616 -85.10070 164.75690 317
404.85794 -87.08275 167.01855 421
401.38367 -84.04214 164.79860 317
406.51044 -86.51402 166.73209 420
415.69977 -90.93587 167.73665 305
401.84100 -82.97882 164.77339 317
407.95563 -85.84311 166.45688 439
416.24197 -89.78386 167.75467 305
402.32153 -81.94599 164.74945 317
409.32983 -85.16840 166.21663 438
416.71832 -88.57948 167.76872 305
402.78302 -80.85037 164.76564 317
410.77817 -84.50584 165.93646 437
417.16092 -87.44278 167.77139 305
403.28119 -79.79846 164.79489 317
412.19720 -83.77864 165.70491 436
417.63666 -86.26153 167.76843 305
403.71915 -78.72501 164.74358 317
413.59613 -83.07578 165.44559 435
418.09354 -85.08095 167.82677 305
404.20621 -77.59197 164.76317 317
415.11255 -82.38557 165.14192 434
418.53793 -83.87256 167.81494 305
404.65112 -76.51872 164.76971 317
416.57901 -81.62524 164.84560 433
418.98959 -82.67818 167.79150 305
405.06854 -75.48512 164.75443 317
417.08353 -80.50162 164.84592 312
419.44821 -81.49468 167.81548 305
381.87338 -64.58395 171.60297 316
417.57907 -79.39165 164.84842 312
419.85593 -80.28732 167.82231 305
382.21033 -63.64817 171.60976 316
418.05569 -78.19800 164.85008 312
421.11078 -79.45024 167.65141 431
1575.39160 -548.84375 72.54404 361
382.57877 -62.67409 171.60776 316
418.48044 -77.00960 164.83235 312
422.64560 -78.68552 167.38255 430
1570.58484 -537.64081 73.43636 471
1575.66846 -539.51556 97.06188 471
1580.78882 -541.37714 120.45898 459
1586.78284 -543.89264 144.04306 361
382.89618 -61.70675 171.65060 316
418.96835 -75.86132 164.86824 312
424.20731 -77.92190 167.11548 429
1572.97412 -528.79340 73.77003 495
1577.33813 -530.49365 97.21200 495
1581.93408 -532.24475 120.62841 492
1585.94202 -533.85120 144.27684 469
383.24146 -60.74993 171.65004 316
419.35953 -74.69119 164.85661 312
425.80249 -77.15445 166.79904 428
1579.66345 -522.08051 73.31774 424
1585.56335 -523.99634 96.65285 424
383.56863 -59.82513 171.66100 316
419.79013 -73.50040 164.86365 312
427.36932 -76.36002 166.49849 427
437.67960 -80.28648 167.80258 301
383.87860 -58.83792 171.65916 316
420.23889 -72.33165 164.80495 312
428.98404 -75.63107 166.19206 426
438.04498 -78.94013 167.83040 301
384.20068 -57.89678 171.65581 316
420.67416 -71.18485 164.81010 312
430.64511 -74.81280 165.93564 425
438.47647 -77.64278 167.81252 301
384.54007 -56.90574 171.66219 316
421.08987 -69.96873 164.82701 312
432.30881 -74.01153 165.64099 424
438.88715 -76.31970 167.83600 301
384.84268 -55.93250 171.64651 317
421.49283 -68.82210 164.81094 312
433.95389 -73.19241 165.32469 423
439.26126 -75.04961 167.83704 301
385.14035 -54.96802 171.66037 317
395.76685 -58.63688 171.74307 313
435.64856 -72.37398 164.95753 422
439.61722 -73.73129 167.86031 301
385.43640 -53.97766 171.63469 317
396.05627 -57.56375 171.76724 313
436.36053 -71.15527 164.89873 308
440.02786 -72.40195 167.87587 301
385.71167 -53.02171 171.68144 317
396.36908 -56.56050 171.76591 313
436.79755 -69.86687 164.90874 308
440.36115 -71.07568 167.87312 301
385.98932 -52.05502 171.64688 317
396.65762 -55.48161 171.78590 313
437.21762 -68.60448 164.89044 308
440.70618 -69.74130 167.89629 301
386.26733 -51.08870 171.64998 317
396.95752 -54.43224 171.79062 313
437.58981 -67.30514 164.90536 308
442.28912 -68.76132 167.65027 433
386.52579 -50.08658 171.67267 317
397.23367 -53.41552 171.75090 313
437.98172 -66.03745 164.93683 308
443.84113 -67.85925 167.36469 432
386.79965 -49.09229 171.68181 317
397.52408 -52.37413 171.76622 313
438.30151 -64.75169 164.88994 308
445.42209 -66.88607 167.08278 431
387.08112 -48.11549 171.67468 317
397.82898 -51.29506 171.77028 313
438.69226 -63.42158 164.91196 307
447.03525 -65.89476 166.84335 430
387.33279 -47.13239 171.66898 317
398.08847 -50.27195 171.76208 313
439.01175 -62.15599 164.89592 307
448.67618 -64.92225 166.56274 429
387.53729 -46.14802 171.69812 317
398.36032 -49.22158 171.78610 313
439.39072 -60.79321 164.92868 307
450.36993 -63.92362 166.25073 428
387.81171 -45.16268 171.69788 317
398.58813 -48.17084 171.76262 313
439.71585 -59.49619 164.92157 307
452.03857 -62.92465 165.92223 427
461.78830 -65.60193 167.92763 297
388.05096 -44.16393 171.69215 317
398.85532 -47.08530 171.80519 313
411.13565 -50.40165 171.90031 309
453.75604 -61.91035 165.64920 426
462.11066 -64.16760 167.95340 297
388.24796 -43.19907 171.68327 317
399.10712 -46.05436 171.78325 313
411.37585 -49.28682 171.90517 309
455.46045 -60.87707 165.34520 425
462.41660 -62.70708 167.93478 297
388.50250 -42.21704 171.68945 317
399.34488 -44.99456 171.80925 313
411.63959 -48.12532 171.93257 309
457.19333 -59.82324 165.04175 423
462.67609 -61.26777 167.95987 297
388.69312 -41.19006 171.67108 317
399.57495 -43.92622 171.80542 313
411.91534 -47.01993 171.91939 309
457.63828 -58.46418 165.00102 304
462.99081 -59.75684 167.96675 297
388.94745 -40.22168 171.68761 317
399.80444 -42.86671 171.79007 313
412.17569 -45.87210 171.93469 309
457.96539 -57.01617 165.00656 304
463.25189 -58.29992 167.96054 297
389.11926 -39.19298 171.66724 317
400.02499 -41.82368 171.80295 313
412.37030 -44.72831 171.93858 309
458.24954 -55.65156 165.03081 304
463.55017 -56.85858 167.99080 297
389.31982 -38.23145 171.67448 317
400.23419 -40.72834 171.77887 313
412.64532 -43.56091 171.93962 309
458.55740 -54.16509 165.01894 304
463.80212 -55.39292 168.01218 453
389.52936 -37.19759 171.70302 317
400.46460 -39.65160 171.80035 313
412.83368 -42.47592 171.93517 309
458.89825 -52.78097 164.98134 304
465.12134 -54.16505 167.76068 452
389.71603 -36.22370 171.67686 317
400.64612 -38.60513 171.78955 313
413.07639 -41.31521 171.90250 309
459.16437 -51.30515 164.98123 304
466.39664 -52.94866 167.59621 451
389.91049 -35.22956 171.71542 317
400.82886 -37.52829 171.79143 313
413.25684 -40.15739 171.94589 309
459.38989 -49.90196 165.03960 304
467.78186 -51.68384 167.40009 450
390.05981 -34.23037 171.68832 317
401.04642 -36.46541 171.79039 313
413.50504 -39.02877 171.90741 309
459.65860 -48.51580 165.02345 304
469.14221 -50.44192 167.13138 450
390.25665 -33.22141 171.71977 317
401.21613 -35.40606 171.80136 313
413.70718 -37.87232 171.91754 309
459.95758 -47.03756 164.99648 304
470.49957 -49.11074 166.94002 449
390.41742 -32.21181 171.71893 317
401.42645 -34.32016 171.80115 313
413.87085 -36.69778 171.92400 309
428.14972 -39.48222 172.03969 305
471.88361 -47.84739 166.72624 448
390.56732 -31.18004 171.68835 317
401.57315 -33.23507 171.78188 313
414.04648 -35.55732 171.94423 309
428.35843 -38.21685 172.08278 305
473.27298 -46.53349 166.51262 447
390.70593 -30.19151 171.70905 317
401.74332 -32.13721 171.79378 313
414.24609 -34.39196 171.93819 309
428.56653 -36.99908 172.05643 305
474.67215 -45.26069 166.27765 446
390.84064 -29.16863 171.70146 317
401.90973 -31.08926 171.78827 313
414.42810 -33.24457 171.95543 309
428.74200 -35.74524 172.04611 305
476.07816 -43.92460 165.98352 445
390.98227 -28.17667 171.69196 317
402.06741 -29.99708 171.80116 313
414.55606 -32.08490 171.90919 309
428.90961 -34.47328 172.06404 305
477.49557 -42.56688 165.78076 444
391.14346 -27.13565 171.72704 317
402.18384 -28.92298 171.82458 313
414.70840 -30.92932 171.90941 309
429.05405 -33.22416 172.07310 305
478.93610 -41.25873 165.52075 443
488.65082 -42.87046 168.09419 293
391.25824 -26.14902 171.71735 317
402.35150 -27.84911 171.82300 313
414.87885 -29.76380 171.95529 309
429.21826 -32.03176 172.05055 305
480.36432 -39.92558 165.27542 442
488.83868 -41.21715 168.05733 294
391.38080 -25.13493 171.70081 317
402.44604 -26.79631 171.83392 313
415.02274 -28.62671 171.92995 309
429.41605 -30.74312 172.04875 305
481.23276 -38.43359 165.15630 300
488.95764 -39.55187 168.07274 294
391.51440 -24.10510 171.69460 317
402.56940 -25.66725 171.79216 313
415.18188 -27.45947 171.91287 309
429.55075 -29.53265 172.05319 305
481.47107 -36.86594 165.16977 300
489.07019 -37.92074 168.10304 294
391.58960 -23.10957 171.70055 317
402.72394 -24.60021 171.80569 313
415.28604 -26.30580 171.91867 309
429.68494 -28.25230 172.05315 305
481.65015 -35.33549 165.12318 300
489.12448 -36.31756 168.16133 294
391.73706 -22.07804 171.70972 317
402.82428 -23.51297 171.81831 313
415.39816 -25.17821 171.96465 309
429.83572 -27.01504 172.09908 305
481.79355 -33.74302 165.13853 300
489.20645 -34.70877 168.14809 294
391.82391 -21.05491 171.69418 317
402.91580 -22.42148 171.82285 313
415.52667 -23.96413 171.91968 309
429.97556 -25.76575 172.07019 305
446.58914 -27.85264 172.26984 301
489.29675 -33.08649 168.17606 294
391.92035 -20.04266 171.69986 317
403.04166 -21.36699 171.84297 313
415.61148 -22.81569 171.92557 309
430.04889 -24.52500 172.09993 305
446.72971 -26.47607 172.27193 301
489.39890 -31.46699 168.20348 294
392.01126 -19.01519 171.69472 317
403.12445 -20.28076 171.83658 313
415.75287 -21.65179 171.95651 309
430.16180 -23.26038 172.08110 305
446.84833 -25.14653 172.21832 301
489.44601 -29.82329 168.18921 294
392.05295 -18.00126 171.68843 317
403.18451 -19.16496 171.82932 313
415.85440 -20.52353 171.94806 309
430.26730 -21.98838 172.07661 305
446.98666 -23.73529 172.21661 301
490.32993 -28.24637 168.03975 456
392.16272 -16.97993 171.69795 317
403.31226 -18.09356 171.81235 313
415.93195 -19.33458 171.95392 309
430.36319 -20.75040 172.08569 305
447.09848 -22.37949 172.24246 301
491.53198 -26.80037 167.90172 455
2434.28906 -217.43158 106.90688 336
2436.24463 -217.84007 143.27216 338
392.23682 -15.98273 171.71582 317
403.38803 -17.01881 171.81558 313
415.98267 -18.17365 171.92371 309
430.48676 -19.50592 172.06367 305
447.16498 -21.05922 172.21925 301
492.74634 -25.23161 167.65489 454
2404.88062 -201.06728 108.31960 458
2408.16016 -201.61809 144.56921 404
392.25549 -14.95936 171.70734 317
403.41696 -15.90899 171.84346 313
416.06717 -17.02912 171.95364 309
430.55981 -18.26467 172.10234 305
447.26208 -19.71332 172.25848 301
494.00964 -23.73133 167.46381 453
2397.84253 -187.47826 109.17870 461
2402.64331 -187.83421 144.28824 453
392.35373 -13.93843 171.70020 317
403.47672 -14.83880 171.84245 313
416.17438 -15.86080 171.92639 309
430.63022 -16.99308 172.09055 305
447.35812 -18.32072 172.23100 301
495.27917 -22.18524 167.25082 452
2390.43677 -173.04024 109.15168 447
2398.84644 -173.84749 144.86397 413
392.38876 -12.91787 171.71063 317
403.53653 -13.75442 171.84155 313
416.22482 -14.66228 171.96764 309
430.67670 -15.76278 172.08762 305
447.47394 -16.98644 172.23865 301
496.57880 -20.61465 167.05907 451
2465.15967 -165.31029 68.56992 354
2385.14307 -159.75249 109.64200 463
2395.45166 -160.57330 144.73418 419
392.44272 -11.90800 171.72574 317
403.62558 -12.65586 171.82054 313
416.27130 -13.49188 171.93335 309
430.75299 -14.50156 172.07706 305
447.53033 -15.60900 172.27876 301
497.30063 -18.99481 166.95789 483
2450.71118 -150.46252 70.20817 387
2379.20142 -145.83260 109.94321 472
2392.47192 -146.78214 145.06938 395
392.45950 -10.90035 171.71721 317
403.66571 -11.55875 171.82350 313
416.30627 -12.31964 171.94554 309
430.82516 -13.23287 172.09317 305
447.56949 -14.28181 172.24568 301
497.97672 -17.35002 166.82607 482
2438.20776 -136.10085 70.97204 411
2373.43750 -131.97865 110.65803 473
2389.87354 -133.04642 144.84462 395
392.50027 -9.84230 171.70067 317
403.66211 -10.47498 171.83394 313
416.35681 -11.17523 171.95126 309
430.88498 -11.98619 172.06210 305
447.61975 -12.89470 172.27831 301
498.62506 -15.66892 166.73810 482
2387.81494 -119.53487 74.11153 343
2371.51489 -118.65546 110.41921 473
2386.51587 -120.01933 145.29985 401
392.51276 -8.82393 171.70439 317
403.69308 -9.36162 171.84514 313
416.37756 -9.98122 171.93460 309
430.87427 -10.72362 172.05844 305
447.67072 -11.52962 172.22975 301
467.24612 -12.47195 172.43135 297
2376.05347 -105.64080 75.21918 344
2365.37109 -105.70061 110.91026 474
2385.33765 -106.34100 145.36012 351
392.56436 -7.80819 171.70863 317
403.72858 -8.30431 171.81673 313
416.40475 -8.81843 171.93030 309
430.95926 -9.46496 172.09427 305
447.67383 -10.14931 172.23357 301
467.35071 -11.00710 172.42940 297
2366.21826 -92.10747 75.54087 353
2360.33643 -91.94489 111.41914 480
2384.33179 -92.74668 145.08072 351
392.57431 -6.78680 171.69554 317
403.73019 -7.18086 171.84428 313
416.43964 -7.64060 171.94803 309
430.96582 -8.21427 172.06450 305
447.73190 -8.80218 172.27972 301
467.35153 -9.53886 172.40639 297
2359.03052 -78.91505 76.01973 407
2354.02661 -78.79807 111.56383 386
2382.87158 -80.02551 145.51079 351
392.58533 -5.77526 171.70619 317
403.77762 -6.10349 171.79929 313
416.47192 -6.49208 171.94200 309
430.98767 -6.91039 172.10132 305
447.76266 -7.44531 172.23349 301
467.39920 -8.01284 172.46761 297
2352.54980 -65.57352 76.92458 412
2346.78223 -65.20219 111.96150 482
2398.69580 -67.10049 144.85120 265
392.55539 -4.75143 171.69160 317
403.76581 -5.01096 171.81514 313
416.47272 -5.33160 171.93524 309
430.95871 -5.65868 172.09721 305
447.77084 -6.09531 172.21860 301
467.41818 -6.54019 172.45447 297
2345.96143 -52.25079 77.15998 453
2342.22607 -52.29921 111.85831 483
2549.01465 -57.11632 139.87483 496
392.58130 -3.69710 171.69411 317
403.77222 -3.92304 171.79860 313
416.47830 -4.13009 171.93846 309
430.95206 -4.41912 172.05650 305
447.78851 -4.72006 172.26804 301
451.46182 -4.80386 175.36507 496
2340.24048 -39.07861 77.72369 455
2337.69165 -39.34104 112.51519 484
2551.56372 -43.04990 140.12619 496
392.53714 -2.69838 171.72903 317
403.75894 -2.83596 171.82370 313
416.43246 -2.98831 171.96999 309
430.99667 -3.13185 172.11317 305
447.78455 -3.32369 172.27783 301
451.40302 -3.39948 175.33594 496
2335.02588 -26.17536 77.64536 458
2333.82251 -26.26144 112.31161 487
2554.60156 -28.83198 139.59471 496
392.53125 -1.65366 171.71603 317
403.75424 -1.70827 171.80284 313
416.45343 -1.80549 171.92424 309
430.94452 -1.89611 172.11368 305
447.72446 -1.99981 172.27512 301
451.43900 -2.00166 175.33003 496
2330.05005 -13.49749 77.89622 459
2329.66333 -13.20956 112.98667 487
2556.79053 -14.63386 140.10565 496
392.53973 -0.66074 171.73357 317
403.70847 -0.66758 171.80963 313
416.40601 -0.66682 171.93074 309
430.93301 -0.61355 172.08614 305
447.74854 -0.62169 172.23482 301
451.41910 -0.61651 175.34857 496
2326.01099 0.02124 78.78268 484
2326.21509 -0.10058 113.18799 471
2586.24219 -0.22831 138.98282 256
392.49509 0.35943 171.68825 317
403.66873 0.44750 171.81877 313
416.38998 0.51659 171.94943 309
430.92148 0.62090 172.08244 305
447.71234 0.74727 172.24451 301
451.44965 0.76744 175.30463 496
2321.30933 12.64256 78.76785 485
2323.31348 12.39328 113.08924 472
392.44305 1.41122 171.69128 317
403.65332 1.55695 171.83554 313
416.32736 1.71430 171.94598 309
430.87000 1.88664 172.07108 305
447.66663 2.10082 172.27104 301
451.44901 2.13249 175.32454 496
2317.78076 25.22414 78.99342 487
2320.15210 25.53491 113.21742 473
2404.39990 26.44551 145.12938 309
2424.32715 26.78042 252.21695 306
392.41571 2.44039 171.69002 317
403.58722 2.63627 171.80562 313
416.29517 2.87958 171.94725 309
430.83041 3.14706 172.08507 305
447.65332 3.46469 172.25583 301
451.42776 3.53087 175.32664 496
2313.58374 37.94093 79.13222 488
2316.65137 38.13370 113.61706 474
2362.78394 39.37634 146.37518 486
2374.97339 39.46964 251.53624 309
392.38113 3.43533 171.69141 317
403.58450 3.71840 171.81711 313
416.24881 4.03111 171.91565 309
430.77646 4.42170 172.07822 305
447.58841 4.82715 172.26707 301
467.20020 5.27691 172.46167 297
2310.10791 51.20901 79.45074 488
2313.81445 50.83717 113.70121 444
2358.12769 51.93013 146.15225 486
2464.37158 54.88464 215.85315 307
2391.12280 52.78172 251.63606 309
392.29227 4.47889 171.70337 317
403.51370 4.83571 171.84036 313
416.18890 5.18456 171.93141 309
430.71857 5.68469 172.10245 305
447.53714 6.16688 172.26961 301
467.13510 6.76287 172.42474 297
2306.19434 63.44816 79.46867 492
2311.80835 63.58891 113.74606 445
2353.44434 64.94141 146.49574 487
2415.37744 66.66122 215.94238 309
2344.79565 64.74772 250.86862 311
392.25989 5.49985 171.70389 317
403.46927 5.89692 171.82587 313
416.16278 6.38470 171.94063 309
430.64496 6.92265 172.06880 305
447.44553 7.52729 172.27394 301
467.07251 8.24390 172.40315 297
2303.65796 76.15157 80.08135 492
2309.81104 76.26239 113.62637 446
2348.44604 77.80890 146.52333 487
2439.44067 81.21236 180.15211 308
2360.14282 78.14958 216.00694 456
2337.62402 77.42032 250.75969 499
392.16797 6.49964 171.70464 317
403.39145 7.02716 171.82477 313
416.07480 7.53620 171.93962 309
430.61743 8.18151 172.09634 305
447.37442 8.90906 172.21284 301
466.97604 9.75516 172.41643 297
2300.44360 88.58440 80.22430 492
2307.49585 89.39185 113.75887 446
2343.67456 90.42046 146.66179 488
2391.27222 92.76459 180.97301 309
2336.93506 90.27991 216.44994 499
2336.57007 90.34840 250.61754 499
392.12500 7.54750 171.68605 317
403.31189 8.08295 171.81049 313
416.01175 8.70877 171.91980 309
430.52362 9.46325 172.07449 305
447.29224 10.28423 172.24739 301
466.91208 11.23182 172.41818 297
2297.69019 101.74174 80.18919 494
2305.48242 101.94907 114.16100 446
2338.97705 103.53138 146.76985 488
2344.15845 103.81048 181.37012 311
2336.00098 103.18326 216.24229 499
2335.49048 103.40718 250.65892 499
2457.78076 109.59856 289.53766 396
392.04669 8.55500 171.68250 317
403.23770 9.18939 171.80386 313
415.89291 9.90977 171.93916 309
430.43668 10.72354 172.05565 305
447.17068 11.63608 172.22801 301
466.84268 12.70586 172.44748 297
2294.85132 113.89378 80.45628 494
2303.39502 114.77373 113.97598 447
2334.75195 116.15305 146.91174 489
2333.78394 115.99778 181.42639 498
2334.69189 116.32095 216.36340 499
2334.60815 116.07613 250.81387 499
391.93796 9.59714 171.68396 317
403.12494 10.29501 171.80757 313
415.84106 11.08954 171.93341 309
430.34604 11.96877 172.09512 305
447.12561 12.98305 172.21745 301
498.19153 16.10366 166.66719 482
2292.66724 126.72501 80.53844 494
2301.56250 127.22744 113.72167 447
2333.51196 129.45856 147.26395 499
2333.23901 129.12701 181.38153 499
2333.31006 129.23087 216.04829 499
2333.44946 129.48137 250.88737 499
391.86389 10.61266 171.68668 317
403.03229 11.39534 171.79498 313
415.70087 12.22202 171.94016 309
430.22571 13.20253 172.07683 305
446.99744 14.34426 172.25661 301
497.45844 17.80646 166.79274 483
2293.08447 139.44333 80.29048 268
2299.73389 139.64320 114.30384 422
2332.24390 142.35944 147.00381 499
2332.62500 142.26910 181.89435 499
2332.46167 142.35805 216.12079 499
2331.87085 142.24609 250.99498 499
391.76288 11.65237 171.72475 317
402.94839 12.44314 171.80841 313
415.59406 13.40189 171.91537 309
430.14645 14.46652 172.07953 305
446.88199 15.69878 172.26225 301
496.86877 19.39237 166.89194 483
2288.65430 151.94307 80.37902 498
2297.79297 152.67851 113.95506 423
2330.85693 155.20271 147.30862 499
2330.97241 155.05746 181.37329 499
2331.39136 154.75159 216.11002 499
2330.77075 154.92805 250.75446 499
391.64954 12.67338 171.69139 317
402.83176 13.56090 171.79445 313
415.48123 14.58104 171.90555 309
430.00711 15.71734 172.07744 305
446.78540 17.05856 172.20979 301
495.68314 20.96734 167.05600 452
2287.04102 164.70891 80.93690 498
2296.75977 165.35802 113.91412 423
2330.06982 167.92444 146.95300 499
2329.95679 167.62503 181.69621 499
2329.89624 167.60799 216.44223 499
2329.72534 167.59131 250.73894 499
391.53973 13.67117 171.67805 317
402.72900 14.64280 171.81978 313
415.40924 15.76516 171.93626 309
429.86615 16.98492 172.08163 305
446.65472 18.44674 172.22845 301
494.39880 22.58896 167.29927 453
2285.63477 176.98013 80.46149 472
2295.07910 177.94331 114.05037 424
2328.55688 180.81302 147.00237 499
2328.60229 180.96463 181.81700 499
2329.02930 180.81065 216.37639 499
2321.22632 180.43219 250.48488 468
391.44681 14.69322 171.67883 317
402.62057 15.74220 171.78679 313
415.28336 16.90059 171.94168 309
429.76190 18.25750 172.07712 305
446.50006 19.76947 172.20689 301
493.14767 24.14790 167.50354 454
2285.64478 189.74255 80.87091 498
2293.72363 190.44571 113.88956 424
2321.17041 193.09280 147.53601 499
2321.32153 193.10437 181.54836 499
2321.16724 193.07428 215.94351 499
2320.07886 193.13229 250.56631 468
391.32516 15.71918 171.69722 317
402.49796 16.83256 171.80875 313
415.11697 18.05573 171.90849 309
429.58545 19.51406 172.08711 305
446.35294 21.14375 172.24879 301
491.87885 25.61149 167.63014 455
2283.51904 202.57977 80.41520 499
2292.31201 203.32317 114.11945 424
2321.37183 206.46387 147.07404 499
2320.02710 206.12755 182.07344 499
2320.30859 206.07358 216.25615 499
2318.89795 205.98665 250.78593 468
391.17520 16.76246 171.68475 317
402.34583 17.89011 171.80957 313
414.97708 19.26049 171.90231 309
429.43341 20.77204 172.06889 305
446.16666 22.49431 172.24614 301
490.67053 27.21465 167.89209 456
2281.98242 215.17690 80.43316 499
2290.60474 215.94949 114.33368 424
2319.97632 219.01686 147.13715 499
2320.55347 219.17343 182.00902 499
2320.27588 218.99071 216.35799 499
2318.10278 218.62254 250.84882 467
391.06665 17.74212 171.70833 317
402.20206 19.00875 171.80885 313
414.85745 20.40009 171.90656 309
429.29813 21.98257 172.03493 305
446.00742 23.86896 172.21701 301
489.39792 28.70738 168.05830 457
2278.59766 227.30685 80.98977 499
2289.31836 228.41528 114.23452 424
2319.17114 231.72113 147.15042 499
2319.02881 231.74440 181.54230 499
2319.24243 232.13414 216.45390 499
2316.68115 231.48343 250.71722 467
390.91544 18.78664 171.68773 317
402.08203 20.08231 171.82433 313
414.71939 21.58624 171.92284 309
429.17007 23.24824 172.06219 305
445.87555 25.22902 172.23721 301
488.43665 30.24434 168.19644 294
2277.33447 239.77303 80.91400 499
2288.03394 241.40221 114.34362 424
2317.76514 244.64278 147.44029 499
2317.77930 244.97841 181.53001 499
2317.73364 245.00923 216.46542 499
2315.67261 244.22023 250.88237 466
390.80246 19.80844 171.67691 317
401.88605 21.19306 171.78964 313
414.54190 22.73589 171.89668 309
428.99136 24.50705 172.05412 305
445.69492 26.55688 172.20024 301
488.33820 31.82215 168.15776 294
2277.01123 252.61845 80.69044 461
2286.66650 253.91064 114.09955 424
2316.72168 257.42993 147.24545 499
2317.20288 257.48923 181.58311 499
2316.80469 257.50323 216.20154 499
2314.31934 257.26978 250.73344 466
390.64014 20.84432 171.68370 317
401.76837 22.24983 171.79776 313
414.35257 23.88180 171.94305 309
428.78830 25.75804 172.03018 305
445.47733 27.93456 172.19348 301
488.22849 33.50785 168.16541 294
2277.20874 265.87695 80.56238 499
2286.00244 266.60535 113.91938 424
2315.61108 270.44110 147.28439 499
2315.76782 270.72305 181.49268 499
2315.54492 270.67957 216.11626 499
2313.06982 270.15369 250.68781 466
390.49133 21.83557 171.67725 317
401.59509 23.35791 171.80661 313
414.19373 25.08163 171.90843 309
428.63870 27.01665 172.05992 305
480.61508 34.09826 165.12157 300
488.06433 35.13263 168.14336 294
2275.99243 278.08066 80.59175 499
2284.94678 279.75046 113.88196 424
2319.79150 284.45798 146.89342 499
2319.87183 284.33789 181.94627 499
2319.75073 283.99835 216.28448 499
2312.24146 283.31326 250.79390 466
390.31119 22.87657 171.66478 317
401.39612 24.44968 171.81042 313
414.02615 26.24027 171.91827 309
428.43750 28.25791 172.05254 305
480.38763 35.64148 165.09828 300
487.96729 36.76971 168.12013 294
2274.87158 290.84494 80.69771 499
2283.58496 292.02548 114.25085 424
2318.46899 297.38928 147.18423 499
2319.05200 296.91357 181.40569 499
2318.61987 297.40479 216.52875 499
2311.09570 296.11990 250.47385 466
390.16211 23.89584 171.68895 317
401.25803 25.50638 171.79672 313
413.84357 27.38487 171.91635 309
428.20047 29.54497 172.02368 305
480.11548 37.23958 165.08548 300
487.80270 38.36420 168.11958 294
2272.59619 303.53088 80.42417 469
2282.48853 305.06259 114.31487 424
2317.42261 310.17480 147.15250 499
2317.83594 310.20682 181.49329 499
2317.76733 310.04141 216.17990 499
2309.86255 308.68777 250.83720 466
389.95547 24.87504 171.70448 317
401.05811 26.62690 171.78159 313
413.63980 28.57258 171.91631 309
428.03519 30.80064 172.05191 305
479.85510 38.79890 165.11932 300
487.61639 39.96706 168.08974 294
2269.75000 315.81525 80.87227 498
2281.51099 317.61505 114.20927 424
2315.97021 323.03198 146.84731 499
2316.19873 322.96262 181.62148 499
2316.74341 322.98938 216.42841 499
2308.22705 321.92139 250.74174 465
389.79465 25.88172 171.66527 317
400.87817 27.70243 171.79457 313
413.45081 29.69179 171.92667 309
427.81937 32.04020 172.02415 305
479.20648 40.30774 165.16002 443
487.43509 41.62131 168.04697 293
2268.55444 328.49054 80.84589 498
2280.44312 330.18732 113.73370 424
2315.13452 336.03165 147.08824 499
2315.18677 336.27209 181.50078 499
2315.27734 335.86469 216.53703 499
2307.31641 334.74097 250.84322 465
2406.74414 350.80386 288.37717 256
389.59872 26.88790 171.65504 317
400.69107 28.75997 171.80217 313
413.25104 30.87065 171.87744 309
427.59427 33.25657 172.05022 305
477.76306 41.65507 165.39552 444
487.22543 43.28494 168.04977 293
2270.14551 341.85947 80.16569 498
2279.19019 343.41901 113.70486 424
2313.69214 348.87222 147.06844 499
2314.11084 349.13937 181.71642 499
2314.32520 348.98669 216.21968 499
2306.08203 347.40219 250.77000 465
2393.18628 362.17511 288.43600 499
389.39462 27.90457 171.65787 317
400.48587 29.85225 171.75827 313
412.98975 32.04361 171.90179 309
427.38068 34.54301 172.02853 305
476.32492 43.00135 165.65138 445
486.96500 44.84325 168.00175 293
2268.94043 354.28107 80.43417 498
2278.09399 355.99686 113.63445 424
2312.91260 361.99030 147.03247 498
2313.14404 362.17853 181.81444 499
2313.25122 361.76562 216.49582 499
2304.61084 360.77557 250.75156 465
2392.31494 375.46451 288.33600 498
389.19653 28.94013 171.65857 317
400.27649 30.93921 171.76006 313
412.77289 33.18885 171.87993 309
427.14365 35.75620 172.04147 305
474.90778 44.38737 165.92493 446
2268.11060 367.30350 80.39985 498
2276.71191 368.93979 113.72728 423
2311.93140 374.79288 146.92891 498
2311.26758 374.82794 181.32825 272
2312.01392 374.90378 216.52975 498
2303.84277 373.28760 250.69952 465
2391.07031 389.50690 288.42505 498
2417.21045 393.76477 325.81058 495
389.01898 29.97083 171.65854 317
400.02814 32.02481 171.75191 313
412.54343 34.31167 171.89009 309
426.91330 36.99415 172.02026 305
473.45993 45.69922 166.11053 447
2267.02246 379.68317 80.25294 498
2275.95312 381.81851 113.79415 424
2310.55200 388.12857 146.60533 498
2310.29907 388.22849 181.53230 498
2310.27930 388.04367 216.41875 498
2302.27905 386.41949 250.65012 465
2389.57715 403.01538 288.21118 498
2416.05200 407.73834 325.73849 495
388.82355 30.94674 171.68654 317
399.81616 33.09727 171.77710 313
412.31689 35.47428 171.87912 309
426.63586 38.27056 172.04433 305
472.06839 47.00338 166.36028 448
2263.22461 392.21268 80.31602 498
2274.68359 394.10229 113.48071 424
2309.24341 400.84033 146.83916 498
2309.56372 401.07419 181.79381 498
2309.07544 401.10507 216.29854 498
2301.13257 399.40201 250.64832 464
2388.50854 416.50659 288.68472 498
388.57718 31.94239 171.66432 317
399.57999 34.13075 171.74791 313
412.09045 36.66941 171.87366 309
426.39105 39.49390 172.03609 305
470.68552 48.28645 166.51993 449
2261.89502 405.10065 79.96413 498
2273.50635 407.07187 113.96248 424
2314.95850 415.50864 181.71190 468
2314.79932 415.50620 216.18034 468
2300.39478 412.55728 250.72220 464
2387.25269 430.00916 288.21399 498
388.35538 32.96714 171.67180 317
399.38297 35.24226 171.76065 313
411.83194 37.78811 171.90514 309
426.11441 40.75243 172.01242 305
469.30817 49.59201 166.78841 450
2262.10547 418.07834 79.73914 445
2272.49683 419.80219 113.42570 424
2387.93457 443.93478 288.29141 495
388.12720 33.97886 171.64235 317
399.14490 36.31612 171.76779 313
411.60278 38.92657 171.86554 309
457.77487 48.72926 164.96701 304
467.90118 50.88472 166.98363 451
2262.65918 431.02097 80.05410 497
2271.27759 433.01663 113.52590 423
2385.66626 456.97668 288.38058 493
2388.23950 457.42688 324.83881 452
2430.31641 466.60876 364.35809 485
387.92474 34.97143 171.64447 316
398.86594 37.37609 171.76659 313
411.33243 40.07925 171.89894 309
457.44949 50.15520 164.97685 304
466.55032 52.14732 167.19296 451
2261.12134 443.82388 79.38387 497
2270.41699 445.79742 113.74211 423
2385.85474 471.32654 289.00974 493
2443.12378 483.25290 327.67627 459
2433.49365 481.51099 364.40060 466
387.64587 36.00585 171.67645 316
398.60229 38.43732 171.77284 313
411.03152 41.26253 171.90219 309
457.09506 51.56533 164.94449 304
465.20694 53.44840 167.38829 452
2260.09839 456.94263 79.83434 497
2268.82764 458.96387 113.28677 423
2441.54492 497.20956 327.92084 475
2430.79761 494.99551 364.74786 464
387.42621 36.99866 171.65128 316
398.34125 39.52956 171.77766 313
410.78140 42.37969 171.87004 309
456.78070 53.02387 164.93599 303
463.84665 54.68325 167.60533 453
2258.54175 469.79880 79.32047 478
2268.00195 471.91891 113.04626 423
2427.20923 508.79181 290.46356 332
2423.08398 507.65262 327.40793 360
387.17340 38.01012 171.63637 316
398.10925 40.58593 171.77451 313
410.48199 43.52054 171.85890 309
456.41934 54.44220 164.93361 303
462.55212 55.87535 167.79214 454
2255.51270 481.81885 79.58714 496
2266.43945 484.38589 113.23347 423
386.88782 38.98857 171.63425 316
397.83429 41.64357 171.74915 313
410.19934 44.69235 171.88156 309
456.03934 55.86036 164.97655 303
461.30701 57.18939 167.93808 298
2254.37378 494.87970 79.14146 496
2265.54102 497.50204 113.23894 423
386.61896 40.00912 171.65561 316
397.53214 42.71727 171.76164 313
409.92288 45.83169 171.87036 309
455.70456 57.29885 164.92763 303
460.96509 58.62780 167.96152 297
2255.38989 508.31506 79.18749 496
2570.68799 587.41162 97.61853 262
386.36758 40.99975 171.65839 316
397.23541 43.79090 171.77168 313
409.58588 46.95481 171.86296 309
455.27209 58.70954 164.93259 303
460.68219 60.08093 167.95264 297
2254.74170 521.19421 79.09261 496
2568.56152 602.12964 97.42905 262
386.06604 42.00508 171.65121 316
396.94196 44.84468 171.76602 313
409.28934 48.08257 171.86769 309
454.89139 60.15749 164.96779 303
460.32199 61.58791 167.94574 297
2253.52930 534.49866 78.99799 495
2565.98706 616.69958 97.29242 262
385.79401 42.99288 171.63112 316
396.65396 45.93756 171.74077 313
408.99075 49.22652 171.87914 309
453.65710 61.29904 165.17014 426
459.98047 63.06185 167.89592 297
2252.25635 547.68335 78.60970 495
2539.73120 625.04083 98.20602 495
385.50244 43.96053 171.61296 316
396.37369 46.96344 171.71884 313
408.65686 50.39852 171.86237 309
451.94968 62.36201 165.42474 427
459.61136 64.47070 167.91360 297
2248.62061 560.10669 78.39822 495
2538.10522 640.26312 98.36332 495
385.22675 44.98717 171.64247 316
396.05908 48.01884 171.71295 313
408.34042 51.52037 171.84383 309
450.21201 63.40946 165.75330 428
459.24625 65.98676 167.86647 297
2247.01880 572.76251 78.56028 494
2509.08423 647.37256 99.69052 296
384.93890 45.98077 171.60440 316
395.73215 49.10268 171.70996 313
436.70917 60.99566 164.89500 308
448.54193 64.39619 166.04321 429
458.90503 67.45122 167.86520 297
2248.95483 586.71796 78.09312 494
2412.65186 634.45361 104.13746 426
2412.79590 634.04175 142.00110 426
2412.46997 634.18451 178.79417 427
384.64117 46.97308 171.61047 316
395.41901 50.16222 171.71967 312
436.33044 62.28940 164.87717 308
446.85895 65.40138 166.30698 430
2247.69238 599.90887 78.18619 494
2281.72363 609.93518 110.91394 289
384.31683 47.95927 171.60309 316
395.07452 51.17773 171.72093 312
435.92599 63.63081 164.84268 308
445.22229 66.44965 166.57045 431
2246.28784 612.91064 77.89038 494
2254.04834 615.66718 112.37559 399
383.98749 48.94370 171.59547 316
394.72742 52.22962 171.72183 312
435.52661 64.91441 164.86519 308
443.55884 67.40954 166.81906 432
2245.22217 626.14758 77.64939 493
2252.95776 628.83209 111.99158 399
383.66882 49.88015 171.63388 316
394.39862 53.29797 171.71678 312
435.07950 66.17426 164.87631 308
441.92236 68.40211 167.12296 433
2241.65576 638.88831 77.66185 493
2251.57837 641.69574 111.99914 399
2279.19873 650.88208 145.57149 467
383.34109 50.87827 171.60466 316
394.02710 54.36918 171.70181 312
434.66833 67.52648 164.84540 308
440.31393 69.30878 167.40105 434
2240.30713 651.95795 77.41982 493
2249.89136 655.18427 111.61645 399
383.02908 51.87421 171.61745 316
393.69971 55.40331 171.71109 312
434.20892 68.77071 164.88655 308
438.66812 70.28769 167.65454 420
2241.60278 666.13293 77.17563 492
2249.00073 668.84021 111.53972 398
382.67514 52.83736 171.62483 316
393.35269 56.45282 171.69485 312
433.75928 70.05196 164.85732 308
437.30151 71.25042 167.87888 301
2240.45459 679.84619 76.59881 492
2247.60034 681.84662 111.59129 398
2292.53174 697.17047 144.64171 492
382.29440 53.84145 171.62042 316
392.97583 57.49943 171.69472 312
433.24615 71.33927 164.88492 308
436.85495 72.56709 167.86948 301
2239.13452 692.88690 76.48680 492
2246.44995 695.49231 111.07649 398
2291.25220 710.57184 144.51796 492
381.94281 54.80954 171.57945 316
392.58414 58.55022 171.71573 312
432.75372 72.65099 164.85141 308
436.42087 73.93595 167.83707 301
2236.69287 705.94775 76.40746 267
2244.81812 708.65240 110.98090 398
2289.80347 724.70758 144.42755 492
2449.28174 780.15900 178.12344 283
381.61807 55.76810 171.58490 316
392.19449 59.57266 171.67995 312
431.67368 73.66159 165.02922 424
436.02829 75.25675 167.83847 301
2233.36621 718.48126 76.30689 487
2243.35254 722.44800 111.16582 398
2340.80103 757.36957 142.76483 499
2433.52002 790.14551 177.71361 346
381.26929 56.73238 171.56929 316
417.76279 70.07146 164.76466 312
429.97610 74.55331 165.29381 425
435.52621 76.58089 167.80153 301
2232.35083 732.40393 76.38428 487
2241.94189 735.78448 110.64228 397
2335.12842 769.65546 143.00403 499
2426.36792 802.72479 178.07899 416
380.86533 57.71712 171.59055 316
417.25891 71.24189 164.77278 312
428.29205 75.31593 165.59448 426
435.11423 77.85217 167.77779 301
2230.83203 745.74963 76.07863 487
2241.77222 749.76758 110.54195 325
2270.68286 760.55768 145.05965 345
2343.32593 787.65851 179.18480 304
380.49567 58.69146 171.59714 316
416.77921 72.43089 164.77731 312
426.63974 76.17313 165.90182 427
434.62057 79.19722 167.77298 301
2236.71265 761.99774 75.26202 426
2322.17212 794.26801 106.28945 499
2323.42041 794.90192 142.91615 499
2332.57153 798.38647 179.37387 346
380.11005 59.63906 171.58788 316
416.31955 73.62964 164.78021 312
424.96671 76.93289 166.19812 428
434.12961 80.48941 167.80412 301
2336.05151 814.39423 67.90163 447
2316.65186 806.60919 106.16011 499
2317.94409 807.51392 143.00427 499
2326.40942 810.64948 179.55197 463
379.72400 60.61680 171.59259 316
415.80295 74.80419 164.78371 312
423.32614 77.72197 166.47008 429
2334.71143 828.64636 67.44901 406
2310.53882 819.67468 106.14290 499
2312.54395 819.83032 142.98561 499
2321.32983 823.64075 179.70328 469
2502.29736 894.74738 216.59288 307
379.34705 61.59198 171.56302 316
415.32745 75.96800 164.81303 312
421.72403 78.55089 166.75368 430
2311.99170 834.35614 105.99668 445
2312.66211 835.06885 142.95802 471
2317.73633 837.39014 179.35733 474
2461.44922 894.58038 216.61655 291
378.95071 62.55598 171.58528 316
414.81046 77.11900 164.79222 312
420.17737 79.29469 167.01424 431
2314.36206 850.40436 105.28811 444
2314.21851 850.33966 142.65329 466
2411.12476 889.96124 216.74606 292
378.51468 63.48310 171.54222 316
414.25995 78.27091 164.81049 312
418.55527 80.05153 167.30418 432
2275.12573 849.43713 180.23080 400
2363.37744 886.06903 216.50563 293
378.14282 64.42928 171.56451 316
413.72067 79.48749 164.82722 312
417.03430 80.82838 167.54355 433
2316.99512 881.99139 216.26830 294
377.72458 65.39517 171.57216 316
413.24057 80.60574 164.82239 312
415.54980 81.63223 167.79462 305
377.28375 66.34030 171.55867 316
412.67456 81.81085 164.81892 312
415.03351 82.80000 167.79158 305
400.18918 77.63375 164.69553 317
412.15250 82.96016 164.78699 312
414.56161 83.98680 167.76373 305
399.71646 78.71581 164.71410 317
410.96985 83.79965 164.98683 436
414.01993 85.16520 167.73676 305
399.16348 79.84064 164.69035 317
409.46918 84.51602 165.25677 437
413.48434 86.40580 167.74533 305
398.64273 80.87193 164.68391 317
407.98264 85.24329 165.48712 438
412.95792 87.56773 167.74593 305
398.11292 81.95791 164.71681 317
406.49905 85.93365 165.72740 419
412.44479 88.73997 167.73511 305
397.59616 83.03450 164.68985 317
404.81216 86.50863 166.06119 421
411.87442 89.89322 167.70888 305
397.01224 84.09573 164.69247 317
403.13586 87.08669 166.39383 422
411.33856 91.07264 167.71692 305
396.47272 85.17706 164.70033 317
401.47018 87.66351 166.68190 423
410.77078 92.24226 167.72992 305
395.85837 86.23063 164.69101 317
399.89514 88.22894 166.96988 424
395.30817 87.23875 164.69655 317
398.27121 88.79602 167.25890 425
394.69470 88.30437 164.70905 317
396.68506 89.31575 167.52890 426
394.14444 89.35889 164.72527 317
395.52673 90.05932 167.69504 311
393.51022 90.41599 164.75568 317
394.91458 91.11947 167.69879 311
391.99963 90.94453 165.02869 428
394.33206 92.19569 167.71605 311
390.51627 91.46937 165.30608 429
393.74866 93.24901 167.68524 309
389.01056 91.97808 165.58319 430
393.19418 94.31828 167.66783 309
387.53757 92.51192 165.85866 431
392.62140 95.40385 167.68846 309
386.04318 93.00118 166.12141 432
392.05438 96.43451 167.67671 309
384.59940 93.53876 166.37668 433
391.43018 97.49232 167.65683 309
383.14990 94.00032 166.61148 434
390.84906 98.55180 167.64116 309
381.73050 94.54057 166.89590 435
390.21426 99.60292 167.62082 309
380.35193 95.02486 167.12473 436
378.91098 95.49231 167.37668 437
377.54959 95.96124 167.59433 438
376.91330 96.91465 167.61981 315
376.25507 97.86403 167.60240 315
375.63986 98.80492 167.61617 315
375.03839 99.75239 167.61497 315
374.37064 100.69219 167.59612 315
373.75473 101.61118 167.63150 315
373.11398 102.53544 167.61882 315
372.45151 103.48460 167.61967 315
371.80719 104.41843 167.59563 315
371.14819 105.32642 167.57610 313
370.46002 106.24892 167.58684 313
369.83304 107.19019 167.56909 313
942.20178 935.11176 60.80387 409
945.43756 939.16553 79.92809 342
933.07886 935.14600 61.86264 461
935.10767 937.76355 80.91648 461
937.14807 940.47314 100.17155 461
939.50830 943.57129 119.28193 463
941.76337 946.52496 138.43066 409
926.56219 938.39563 61.81852 499
928.34741 940.89001 81.01360 499
930.43616 943.61584 100.24746 498
932.36987 946.22253 119.52933 499
934.02185 948.52936 138.83630 498
939.18213 955.11462 157.94861 317
921.45831 943.77673 61.66538 481
923.68866 946.64612 80.67537 481
925.98004 949.94208 100.10266 440
928.53015 953.66956 119.04385 389
918.75031 952.14276 61.07214 381
922.32263 957.16705 79.94096 380
30663.94141 46794.67969 9433.88281 1000
8407.93359 28966.92773 -7317.00439 1000
1494.51758 5122.17480 304.11105 1000
11351.52539 56074.66406 9669.64258 1000
969.93988 7237.57666 99.20463 1000
122.37482 4972.30225 -1114.91650 1000
118.50638 932.15051 77.63514 279
103.36584 1075.90955 74.35183 447
114.81083 914.26617 80.12846 394
99.54717 1051.72107 77.39288 279
109.72527 909.09003 80.92422 474
96.00014 1025.82739 80.51933 279
103.83235 911.53320 64.86053 464
104.26988 907.10315 80.96197 485
89.76805 1024.85168 80.75252 279
98.38391 910.20868 65.15099 475
98.88728 906.09241 81.18925 479
98.82741 906.53839 96.19620 394
69.51368 1131.10339 85.39632 495
92.95840 909.41644 64.97697 475
93.53410 905.12439 81.12585 479
93.94498 902.07074 96.66698 476
92.39516 912.06720 110.57538 481
61.16702 1141.57166 103.22968 392
87.39050 908.51917 65.02180 475
88.07605 903.14972 81.14568 292
88.44654 900.35010 96.79994 488
86.96336 910.74573 110.66656 489
81.80142 907.64154 64.97810 475
82.95419 899.78491 81.59500 485
83.04454 899.38043 96.78331 482
83.16626 899.28601 111.97667 395
48.53515 1132.50183 103.77879 494
76.39165 906.76154 64.97295 475
77.50104 898.59900 81.58941 351
77.65615 898.61969 96.76672 482
78.06723 895.27173 112.42783 490
41.68528 1130.78333 104.07144 494
70.90987 905.94086 65.12929 475
71.53581 900.93524 81.16223 460
72.22091 897.63373 96.93658 482
72.69196 893.86810 112.54946 490
34.94300 1129.41345 103.83075 494
65.24408 904.92114 65.13451 475
66.13690 900.23291 81.05243 475
66.56973 896.69214 96.80620 482
67.39088 893.04327 112.33328 484
67.00201 894.88776 127.14417 388
26.91300 1133.59180 122.41711 494
60.53838 899.29889 81.06424 475
61.31018 895.87653 96.85220 482
62.02760 892.01965 112.42949 484
61.94690 891.92389 127.58188 497
43.24507 1000.14972 133.40527 264
55.02607 898.45422 81.17479 475
55.88297 894.87317 96.84174 482
56.42814 891.04041 112.55044 484
56.56202 890.30804 127.42648 497
31.13557 1032.00000 130.61848 421
20.37177 1092.39832 143.97050 253
49.66991 897.64410 81.00748 475
51.06389 890.54999 97.37750 464
51.09098 890.29083 112.34390 484
51.21502 889.40668 127.58105 499
50.34806 893.78790 142.02084 396
30.67748 999.65100 150.07961 265
44.21489 896.92493 81.14792 474
45.63418 889.15326 97.47013 487
45.50117 889.42999 112.48967 484
45.85001 888.59692 127.38142 499
45.17898 891.61694 142.19609 467
27.80784 981.08508 151.14822 265
38.81667 895.92004 80.95791 474
39.55806 890.97888 96.92137 477
40.17086 888.38666 112.38132 484
40.31078 887.80054 127.53118 499
39.90274 890.52209 142.27858 465
24.28089 968.08704 151.98120 266
33.16832 895.04309 81.09564 475
34.16825 890.31201 96.92951 476
34.63594 887.45404 112.34300 484
34.89687 886.78674 127.44634 499
34.34628 889.55182 142.10112 465
18.59556 965.45282 152.07977 265
27.55210 894.32245 81.08993 475
28.83062 889.47388 96.80101 476
29.27224 886.80151 112.37101 483
29.38401 885.78473 127.31982 499
28.89035 888.62469 142.06622 465
12.88599 964.19617 151.94864 265
22.31015 893.48846 80.94273 475
23.11496 888.62115 96.76237 477
23.97331 885.74097 112.18262 483
23.97800 885.01221 127.44468 499
23.53427 887.74713 142.19177 465
15.61714 923.56665 154.59164 263
16.67454 892.50519 81.00165 475
17.72973 887.84839 96.81219 477
19.17517 881.79327 112.48084 444
18.67660 883.98267 127.46033 499
18.11097 886.77917 142.00357 465
14.10381 903.82452 155.80099 477
11.06955 891.70276 80.89658 475
12.28200 886.79437 96.74870 477
13.95988 879.92035 112.60799 498
13.11922 883.13263 127.24477 499
12.61927 885.82520 141.96100 465
7.40832 908.26617 155.57063 256
5.75820 890.64355 80.63586 475
6.71783 885.92395 96.70837 477
8.06035 880.44788 112.35197 316
7.72405 882.20624 127.29624 499
7.06232 884.78833 141.99171 465
-50.03676 1124.94165 140.99794 498
0.23626 889.88342 80.69841 475
1.31184 885.23547 96.74020 477
2.52516 880.43982 112.23663 479
2.30264 881.41876 127.27228 499
1.67946 883.95758 142.09824 465
-56.95956 1123.95337 140.91216 498
-5.24610 889.09857 80.64482 475
-4.29628 884.34827 96.66304 476
-2.94379 879.73712 112.30270 478
-3.17835 880.50549 127.22158 499
-3.80795 882.97278 142.01231 464
-63.91621 1122.62000 140.81204 498
-10.83327 888.19830 80.55853 475
-9.75746 883.57770 96.46811 476
-8.48569 878.70154 112.28500 478
-8.75458 879.61841 127.21752 499
-9.38277 881.94489 141.89638 464
-71.00919 1121.60498 140.68307 498
-16.28170 887.25049 80.55416 474
-15.23701 882.42352 96.34246 476
-14.04369 877.91602 112.27642 478
-14.03950 878.72601 127.19699 498
-14.67909 881.04480 141.83359 464
-77.89967 1120.59875 140.85678 498
-21.91343 886.52734 80.46709 474
-20.75663 881.50281 96.40966 475
-19.42035 876.84723 112.00311 478
-19.62935 877.73724 127.07130 498
-20.15923 880.07690 141.89696 464
-85.01442 1119.38354 140.64313 498
-5726.56689 21984.56836 2842.28857 1000
-27.48592 885.46240 80.13331 474
-26.20115 880.61139 96.21770 475
-24.86035 876.03778 112.01890 478
-25.13119 876.69824 127.04395 498
-25.70599 879.12616 141.71448 464
-91.81876 1118.03882 140.50458 498
-32.98698 884.59766 80.22429 473
-31.57040 879.83905 96.25201 475
-30.43945 875.01752 111.90430 478
-30.56129 875.87000 126.85826 498
-31.28220 878.28149 141.80147 464
-98.95852 1116.93713 140.72444 498
-38.47678 883.69672 80.01186 473
-37.11546 878.83862 96.02085 475
-35.94890 874.19183 111.95747 478
-36.00190 874.92810 126.80344 498
-36.63779 877.24768 141.60533 467
-105.93819 1115.72913 140.42827 497
-44.10172 882.81067 80.05836 473
-42.82433 878.01965 95.89249 475
-41.25124 873.42249 111.90523 477
-41.65377 873.89508 126.77341 498
-42.33900 876.45386 141.70670 467
-44.36242 883.50281 156.22812 496
-49.82422 882.03296 79.94998 449
