# .PCD v.7 - Point Cloud Data file format
VERSION .7
FIELDS x y z rgb
SIZE 4 4 4 4
TYPE F F F U
COUNT 1 1 1 1
WIDTH 1358
HEIGHT 1
VIEWPOINT 6526.718750 -335.580811 148.444244 -0.623453 -0.103860 -0.087270 0.770002
POINTS 1358
DATA ascii
26.65528 -65.73131 199.35867 368
21.94847 -67.29816 202.48940 366
16.94293 -68.96942 205.69269 363
78.48320 -49.64410 175.31381 426
76.01783 -50.48291 177.37172 424
73.46011 -51.32600 179.40904 421
55.86494 -57.24169 178.16061 398
52.66156 -58.33776 180.48428 396
49.28941 -59.47156 182.91983 393
45.83579 -60.66794 185.42102 391
42.22078 -61.84200 187.99243 389
38.53118 -63.13087 190.64719 386
34.59065 -64.42929 193.43484 373
30.15173 -65.95618 196.29411 370
25.56013 -67.51860 199.24147 368
20.75382 -69.09021 202.37022 365
15.67527 -70.81038 205.57739 362
78.20930 -50.71420 175.15295 425
75.71821 -51.57449 177.20695 423
73.17195 -52.46276 179.28093 421
55.27558 -58.61055 177.93575 397
51.99902 -59.77901 180.25470 395
48.60425 -60.94268 182.66754 393
45.09027 -62.14989 185.22375 390
41.46290 -63.40255 187.78293 388
37.74495 -64.68331 190.50941 385
33.53727 -66.11452 193.26926 372
29.09680 -67.63435 196.08698 369
24.42512 -69.28712 199.07660 367
19.55286 -70.92061 202.25117 364
14.34619 -72.72778 205.50760 332
77.95438 -51.85397 174.96027 424
75.46178 -52.73392 177.02899 422
72.87473 -53.64853 179.12309 420
63.49534 -56.93314 179.70602 304
51.32036 -61.18665 180.05365 394
47.93102 -62.41047 182.47849 392
44.39862 -63.64525 185.00296 389
40.70580 -64.94804 187.58430 387
36.86739 -66.29446 190.28784 374
32.49768 -67.81610 193.04591 371
27.98854 -69.37630 195.96613 368
23.26296 -71.08408 198.94157 366
18.29481 -72.78336 202.09569 363
11.50693 -75.20531 205.35571 315
77.69285 -52.98827 174.80730 424
75.15701 -53.88786 176.85147 421
72.60268 -54.77742 178.94481 419
63.86807 -57.91321 179.70343 304
50.66655 -62.65842 179.78860 393
47.22588 -63.90214 182.24640 391
43.63542 -65.19029 184.80292 388
39.92159 -66.49329 187.40350 386
35.84455 -67.93781 190.12662 373
31.46509 -69.51810 192.90434 370
26.89010 -71.18248 195.75723 367
22.06768 -72.88264 198.78352 365
16.25738 -74.97940 201.93558 332
8.22292 -77.84242 205.11655 314
77.40649 -54.10665 174.63477 423
74.88210 -55.03771 176.64357 421
72.28267 -55.99422 178.76660 418
64.25877 -58.90593 179.71202 304
49.96975 -64.12407 179.59109 392
46.49651 -65.39043 182.03864 390
42.84792 -66.70354 184.56761 388
39.11881 -68.06544 187.19556 374
34.85971 -69.62580 189.91206 372
30.40401 -71.27795 192.66318 369
25.71356 -72.97639 195.58360 366
20.41087 -74.88785 198.61752 334
13.56241 -77.38979 201.69943 315
4.87707 -80.62091 204.92902 313
77.17879 -55.25566 174.42738 422
74.61817 -56.18034 176.49898 420
71.96751 -57.15810 178.60257 418
64.69752 -59.89347 179.68102 304
49.28352 -65.62891 179.31961 391
45.78914 -66.88861 181.80090 389
42.08878 -68.26792 184.37589 387
38.14177 -69.73785 186.97490 373
33.84370 -71.35387 189.68616 371
29.32333 -73.05074 192.52312 368
24.48319 -74.85640 195.42506 335
18.19544 -77.18034 198.35435 333
10.39902 -80.09146 201.43330 314
1.35354 -83.45243 204.69090 312
76.87070 -56.38352 174.23672 422
74.32304 -57.37135 176.31688 419
71.67752 -58.35592 178.39433 417
65.08030 -60.84856 179.67648 304
48.61150 -67.12099 179.07849 391
45.01947 -68.44358 181.56146 388
41.37094 -69.85991 184.13158 386
37.19920 -71.45538 186.72855 372
32.77784 -73.11259 189.47307 370
28.24271 -74.85106 192.31628 367
22.34826 -77.07380 195.12764 334
15.65770 -79.62568 198.11340 316
7.10341 -82.85496 201.17537 313
-2.21086 -86.40592 204.51543 311
76.61087 -57.57386 174.06517 421
74.06684 -58.55434 176.12729 419
71.33561 -59.59119 178.21815 387
65.50029 -61.84101 179.69545 304
47.93330 -68.63050 178.83678 390
44.28345 -70.02556 181.34723 387
40.44566 -71.53107 183.91632 374
36.17260 -73.16792 186.52470 371
31.71295 -74.89539 189.25423 369
26.33678 -76.98899 191.97276 335
20.11382 -79.34780 194.83403 333
12.51266 -82.32944 197.77576 315
3.65783 -85.74685 200.86810 312
-6.71014 -89.70053 204.23151 266
76.35709 -58.73153 173.84071 420
73.74474 -59.73132 175.90623 418
70.67256 -60.97185 177.92511 386
65.93943 -62.80979 179.67471 304
47.22516 -70.17855 178.59879 389
43.55541 -71.62911 181.08629 386
39.49063 -73.20956 183.61777 373
35.17371 -74.88644 186.25349 370
30.24191 -76.86704 188.93034 337
24.23358 -79.23087 191.66879 334
17.79791 -81.74908 194.55977 316
9.29021 -85.06609 197.45590 314
0.07926 -88.72822 200.60559 311
76.09080 -59.87909 173.65636 419
73.17731 -61.07473 175.67261 388
69.99020 -62.34778 177.66890 386
66.35998 -63.78062 179.67671 304
46.50295 -71.76545 178.30103 388
42.75294 -73.22816 180.84843 375
38.53533 -74.91988 183.36824 372
33.98969 -76.72289 185.99440 338
28.22473 -79.07799 188.57338 336
22.02695 -81.53631 191.34886 333
14.71552 -84.49503 194.16277 315
5.92034 -87.99734 197.13741 312
-6.79000 -93.10181 200.08801 266
75.64935 -61.14408 173.41060 389
72.57298 -62.42207 175.36412 387
69.35654 -63.73919 177.41554 385
66.49348 -64.87583 179.59390 396
45.75737 -73.33946 178.03011 387
41.79723 -74.93668 180.57518 374
37.53493 -76.67827 183.12524 371
32.04440 -78.89127 185.58163 337
26.13848 -81.34872 188.20656 335
19.84610 -83.91754 190.96552 332
11.51710 -87.28865 193.74339 314
2.39924 -91.01105 196.73924 311
75.03913 -62.47837 173.11153 388
71.93338 -63.80545 175.06963 386
68.68857 -65.12991 177.12859 384
65.83772 -66.31958 179.35313 395
54.25236 -71.11669 179.76227 300
40.85902 -76.66049 180.28786 373
35.87003 -78.77361 182.68097 338
30.08847 -81.12381 185.17589 336
24.02056 -83.68385 187.82773 333
16.87237 -86.60091 190.53949 315
8.19061 -90.23225 193.33447 313
-6.71752 -96.41340 195.88515 266
74.43843 -63.82991 172.81703 387
71.28177 -65.16715 174.77728 385
67.99317 -66.55686 176.82176 383
65.17829 -67.73856 179.08279 394
54.71920 -72.17426 179.76814 300
39.53309 -78.55450 179.89064 340
33.95628 -80.90642 182.27173 337
28.07835 -83.39103 184.79506 335
21.79358 -86.02951 187.46132 332
13.72516 -89.47427 190.05772 314
3.43443 -93.81507 192.78447 285
73.81576 -65.22169 172.48230 386
70.63538 -66.57951 174.48723 384
67.30360 -68.04817 176.54585 382
64.47482 -69.22683 178.80225 393
55.24967 -73.19820 179.79393 300
37.72482 -80.73356 179.41196 338
32.02394 -83.16681 181.82120 336
25.95133 -85.76936 184.36700 334
19.00821 -88.71680 186.96904 315
10.46240 -92.42553 189.60739 313
-6.61070 -99.69952 191.66252 266
73.21918 -66.59943 172.19165 386
69.95349 -68.05561 174.16832 383
66.61594 -69.51961 176.21365 381
63.82599 -70.72465 178.55194 392
55.72925 -74.25887 179.74409 300
35.86232 -82.89106 178.92126 337
29.98624 -85.49104 181.32942 335
23.81919 -88.15047 183.91910 333
15.94626 -91.61411 186.42400 314
4.26138 -96.69407 188.78346 285
72.59368 -68.04198 171.83142 385
69.32047 -69.49114 173.87538 382
65.92355 -70.99049 175.94029 393
63.13101 -72.21983 178.23462 391
56.23207 -75.31240 179.74704 300
33.93823 -85.19733 178.44286 336
27.96316 -87.79652 180.86900 334
21.22359 -90.81077 183.39993 316
12.10280 -94.85728 185.78857 286
-6.29508 -103.04190 187.35205 266
72.95961 -68.99774 171.80823 316
68.59988 -70.96449 173.51682 381
65.20835 -72.47800 175.60841 392
62.42040 -73.77454 177.98624 390
56.71588 -76.34696 179.74170 300
32.00456 -87.46650 177.93071 335
25.85233 -90.27644 180.37126 333
18.23965 -93.67056 182.77933 315
5.25867 -99.56268 184.68735 285
73.43830 -69.94676 171.79935 316
67.94180 -72.45939 173.21039 380
64.53222 -74.02722 175.31879 391
61.71030 -75.29793 177.68307 389
57.21597 -77.34577 179.74901 300
29.99228 -89.82585 177.41093 334
23.46241 -92.84415 179.87700 316
13.11444 -97.56687 181.83821 286
-5.80908 -106.23353 183.03172 266
73.90079 -70.88451 171.81131 316
67.22205 -73.95977 172.86142 380
63.85580 -75.52906 174.99564 390
60.97103 -76.86920 177.35152 388
57.73545 -78.38473 179.75563 300
42.81920 -85.33801 179.88634 296
20.51953 -95.76648 179.17412 315
6.23756 -102.36903 180.66777 285
-22.96437 -116.03220 180.41566 343
74.37534 -71.77467 171.79454 316
66.54330 -75.50111 172.55777 379
63.15675 -77.13067 174.68167 389
60.22345 -78.52001 177.09076 387
57.24479 -79.93373 179.52469 385
43.36533 -86.48365 179.87155 296
14.16125 -100.29636 177.92490 286
-18.55905 -115.78284 176.43050 344
-22.16065 -117.45054 180.45143 284
74.88217 -72.69917 171.81883 316
65.83675 -77.06339 172.21347 378
62.43938 -78.67280 174.36821 388
59.47405 -80.11220 176.74968 386
56.46982 -81.58781 179.19777 384
43.94366 -87.61592 179.85507 296
7.36813 -105.15068 176.53285 284
-14.20438 -115.55503 177.00342 345
-21.38647 -119.03187 180.43755 284
75.36565 -73.65601 171.79422 316
65.28067 -78.57975 171.91200 312
61.74107 -80.31092 174.05075 387
58.73008 -81.76399 176.44604 385
54.42201 -83.88974 178.63380 327
44.53672 -88.69485 179.88826 296
-5.43512 -113.09821 174.08011 289
-5.47076 -113.11130 178.36552 289
-20.65934 -120.52841 180.39464 284
75.87780 -74.56371 171.82739 316
-39.46217 -19.57143 -11.03150 312
61.00114 -81.92735 173.72044 386
57.24886 -83.80288 175.94847 328
52.23469 -86.27057 178.02527 326
45.06855 -89.82529 179.86497 296
27.54169 -98.53011 180.00018 292
3.73259 -110.35409 179.79126 291
76.38942 -75.46898 171.79439 316
66.32036 -80.54664 171.86768 312
60.05341 -83.69300 173.35085 329
55.14073 -86.17052 175.32864 327
49.92231 -88.81512 177.37122 326
44.65720 -91.48265 179.66536 324
28.15221 -99.78822 180.02893 292
6.98165 -110.40720 180.20555 288
-4045.48438 -2150.87378 216.97986 483
76.87491 -76.42179 171.78232 316
66.87203 -81.50953 171.86917 312
58.00842 -86.07590 172.61737 328
52.91701 -88.63482 174.62936 326
47.57398 -91.36566 176.72801 325
42.11537 -94.17971 179.00650 323
28.81590 -100.99573 180.01091 292
7.68524 -111.76019 180.18251 288
77.38551 -77.33521 171.80658 316
67.41455 -82.49139 171.88606 312
56.03801 -88.41364 171.95163 308
50.66942 -91.21696 173.90065 324
45.17336 -94.03284 176.06128 323
39.54081 -96.95048 178.36183 321
29.46503 -102.21585 180.01845 292
8.44054 -113.08501 180.15465 288
77.89981 -78.22125 171.80890 316
67.93774 -83.49973 171.85121 312
56.65369 -89.46185 171.95610 308
48.25824 -93.82925 173.23112 323
42.63141 -96.79816 175.34026 322
36.83164 -99.87337 177.65788 320
25.21980 -106.00405 179.05695 274
78.42311 -79.12774 171.78824 316
68.48063 -84.45625 171.88177 312
57.25175 -90.48180 171.97926 308
45.83248 -96.58253 172.45700 322
40.01474 -99.66119 174.62506 321
31.83126 -104.07661 176.49783 272
14.02557 -113.60488 176.84943 272
78.96832 -80.05164 171.75650 316
69.03812 -85.40945 171.88336 312
57.81020 -91.52602 171.94118 308
44.96757 -98.51812 172.07130 304
37.35959 -102.64159 173.85365 320
20.71065 -111.64780 174.00819 271
-53.46766 -151.86270 163.98531 372
79.50694 -80.92841 171.78477 316
69.63400 -86.35533 171.85004 312
58.42489 -92.57477 171.94536 308
45.57824 -99.61971 172.04590 304
30.73856 -107.78938 172.19269 300
13.31099 -117.38143 172.31747 296
-49.47671 -151.99858 164.61427 373
80.04350 -81.83233 171.75430 316
70.20747 -87.32594 171.82858 312
59.05320 -93.59255 171.95988 308
46.25792 -100.73583 172.05937 304
31.40382 -109.02872 172.19940 300
14.02900 -118.74319 172.35271 296
-45.43728 -151.98022 165.19897 365
80.58566 -82.75755 171.76927 316
70.80040 -88.28967 171.86176 312
59.62773 -94.62812 171.92162 308
46.87762 -101.84011 172.03731 304
32.14305 -110.20746 172.18121 300
14.79984 -120.05559 172.34421 296
-44.06893 -153.44514 165.20990 286
81.12894 -83.63102 171.75587 316
71.34428 -89.27103 171.83139 312
60.24036 -95.63668 171.93147 308
47.56890 -102.96265 172.02036 304
32.84271 -111.39220 172.17683 300
15.54588 -121.33350 172.30469 296
-43.05857 -155.05571 165.21680 286
81.69307 -84.52879 171.73572 316
71.97769 -90.21662 171.84357 312
60.87119 -96.66505 171.92221 308
48.19153 -104.03917 172.03780 304
33.52304 -112.60133 172.14375 300
16.35565 -122.65363 172.31158 296
-42.08158 -156.71281 165.24965 286
82.24561 -85.39594 171.77409 316
72.57259 -91.17659 171.83098 312
61.51784 -97.68452 171.94212 308
48.90083 -105.12492 172.01836 304
34.29739 -113.81367 172.19008 300
17.15351 -123.89438 172.32640 296
-41.09446 -158.34256 165.26926 286
82.84983 -86.30711 171.73936 316
73.12456 -92.08488 171.81068 312
62.14431 -98.69697 171.90678 308
49.57014 -106.27018 172.05089 304
35.03469 -115.00048 172.15121 300
17.94204 -125.19993 172.32782 296
-40.00842 -159.99998 165.26306 286
83.41379 -87.16282 171.72679 316
73.73708 -93.07481 171.80333 312
62.80181 -99.68092 171.92558 308
50.23884 -107.33201 172.03056 304
35.73353 -116.17066 172.15800 300
-22.24578 -151.45547 163.54575 372
83.97124 -88.06872 171.74138 316
74.39029 -93.98889 171.83441 312
63.48833 -100.73152 171.91411 308
50.96602 -108.39825 172.03714 304
36.49174 -117.33511 172.16618 300
-18.65747 -151.31384 164.16603 374
84.55681 -88.96577 171.74631 316
74.99598 -94.94359 171.82365 312
64.10415 -101.72634 171.89961 308
51.64715 -109.52919 172.00529 304
37.24575 -118.51744 172.12570 300
-15.11206 -151.24609 164.66364 375
85.15084 -89.80135 171.71420 316
75.61659 -95.87056 171.79604 312
64.77341 -102.73182 171.93015 308
52.36969 -110.58405 172.02628 304
38.01084 -119.67352 172.11551 300
-11.71388 -151.19513 165.23116 376
85.73389 -90.69765 171.73708 316
76.22411 -96.77422 171.79817 312
65.44136 -103.73804 171.90073 308
53.07818 -111.67230 171.97557 304
38.78695 -120.85279 172.10854 300
-8.29760 -151.06773 165.67960 377
86.34335 -91.56811 171.72754 316
76.85374 -97.71809 171.80379 312
66.13335 -104.69794 171.90678 308
53.77463 -112.71124 171.98167 304
39.53319 -122.02319 172.12465 300
-7.22614 -152.49959 165.71542 291
86.93458 -92.43758 171.72270 316
77.51984 -98.64033 171.77940 312
66.81235 -105.71712 171.91162 308
54.50792 -113.78551 171.97472 304
40.35403 -123.16975 172.11839 300
-6.22621 -153.86703 165.74733 291
87.53218 -93.28654 171.71338 316
78.16186 -99.57378 171.76794 312
67.47325 -106.67122 171.87743 308
55.26718 -114.85730 171.99084 304
41.11273 -124.34033 172.13553 300
-5.18264 -155.23759 165.76230 291
88.18089 -94.16180 171.72328 316
78.82613 -100.49858 171.80705 312
68.16859 -107.66939 171.88451 308
55.99207 -115.92970 171.97762 304
4.52901 -150.77316 163.13333 382
-4.12156 -156.60823 165.78792 291
-17699.92188 -12145.43359 3791.60718 1000
88.78517 -94.97554 171.72357 316
79.49307 -101.40146 171.77106 312
68.87965 -108.66392 171.84839 308
56.73276 -116.99604 171.99344 304
7.63113 -150.71240 163.64156 383
-3.06114 -158.03212 165.73009 290
89.43957 -95.85548 171.67825 316
80.12973 -102.31725 171.78233 312
69.61281 -109.65408 171.87924 308
57.52285 -118.03276 171.99571 304
10.62018 -150.61916 164.12053 385
-2.00724 -159.41492 165.76385 290
90.05789 -96.68634 171.68330 316
80.79577 -103.22886 171.77974 312
70.29923 -110.63493 171.87712 308
58.24958 -119.10110 171.93594 304
13.60278 -150.56339 164.60614 386
90.70275 -97.53685 171.68192 316
81.47434 -104.08939 171.77266 312
71.02813 -111.59922 171.84660 308
59.06197 -120.15384 171.92639 304
16.52441 -150.51202 165.08315 387
91.33611 -98.35595 171.65730 316
82.12991 -105.03051 171.73958 312
71.71898 -112.54762 171.84212 308
59.80170 -121.16315 171.92224 304
19.32087 -150.42448 165.50615 388
91.94797 -99.23616 171.66508 316
82.83254 -105.90855 171.75781 312
72.49496 -113.51168 171.84204 308
60.60574 -122.22111 171.93741 304
22.18837 -150.34634 165.98132 387
92.61517 -100.04309 171.69327 316
83.51496 -106.81049 171.72922 312
73.18420 -114.48795 171.85999 308
61.36541 -123.25481 171.91089 304
23.78244 -151.16324 166.14960 297
93.29214 -100.90108 171.64452 316
84.23975 -107.67631 171.74658 312
73.95201 -115.40428 171.80469 308
29.99641 -148.42953 163.26660 296
24.74245 -152.38091 166.16180 297
93.93141 -101.73367 171.65553 316
84.90510 -108.57958 171.74773 312
74.70033 -116.38193 171.84285 308
30.79375 -149.73776 163.17685 296
25.75014 -153.63452 166.15579 297
94.58737 -102.56429 171.64217 316
85.63902 -109.45293 171.73653 312
75.43707 -117.30348 171.82976 308
33.09661 -149.91167 163.56496 391
26.75849 -154.82869 166.14056 297
95.25169 -103.38192 171.62596 316
86.32263 -110.31921 171.74118 312
76.17934 -118.26860 171.82158 308
35.71852 -149.83733 164.00586 393
27.74380 -156.05182 166.14485 297
95.96294 -104.15820 171.62303 316
87.07926 -111.20006 171.72856 312
76.97372 -119.19701 171.78275 308
38.29044 -149.73483 164.47687 394
28.74484 -157.27005 166.10080 297
96.61942 -104.97815 171.62187 316
87.77486 -112.05146 171.72368 312
77.74968 -120.11027 171.80397 308
40.87828 -149.67119 164.87141 395
29.78152 -158.53539 166.13394 297
97.31095 -105.81057 171.60837 316
88.49535 -112.95076 171.70981 312
78.51524 -121.02345 171.79767 308
43.37967 -149.51649 165.33194 396
97.98088 -106.62138 171.60451 316
89.22160 -113.78373 171.71899 312
79.27545 -121.95930 171.77284 308
45.80215 -149.47852 165.71452 397
98.71603 -107.39124 171.63397 316
89.96083 -114.67467 171.67336 312
52.47702 -145.82648 163.38016 300
48.21181 -149.37962 166.15187 399
99.37399 -108.19579 171.63490 316
90.73119 -115.48972 171.66797 312
53.25877 -147.02963 163.35257 300
49.61421 -150.13200 166.27385 301
100.12399 -109.02399 171.59407 316
91.46175 -116.38573 171.68414 312
54.07985 -148.21185 163.31944 300
50.59900 -151.15663 166.28156 301
100.80619 -109.79228 171.59412 316
92.21447 -117.20280 171.66318 312
55.24828 -149.10260 163.39503 402
51.60710 -152.22844 166.23732 301
101.53450 -110.57275 171.59628 316
92.96243 -118.06873 171.67058 312
57.55353 -149.00990 163.82062 403
52.62412 -153.31367 166.25928 301
102.26558 -111.34826 171.59392 316
93.71937 -118.87789 171.68741 312
59.81039 -148.90285 164.18765 404
53.66490 -154.38248 166.28093 301
-23048.99609 -20591.26562 -1820.76929 1000
102.98785 -112.12897 171.57127 316
94.50742 -119.74160 171.63892 312
62.00777 -148.81447 164.60350 405
54.63707 -155.44565 166.24490 301
103.70554 -112.90432 171.57967 316
95.25846 -120.57097 171.66631 312
64.17503 -148.75777 164.94424 406
55.67664 -156.49406 166.26488 301
104.43009 -113.69026 171.58929 316
72.29945 -143.22665 163.59064 304
66.32201 -148.67067 165.30162 407
56.65672 -157.53230 166.24033 301
105.14645 -114.45551 171.55072 316
73.10765 -144.23927 163.54413 304
68.44628 -148.58449 165.70345 408
105.91474 -115.23685 171.54663 316
73.98380 -145.29346 163.48328 304
70.52444 -148.53503 166.02740 410
106.66272 -115.99963 171.55434 316
74.79417 -146.34514 163.45221 304
72.44519 -148.56644 166.37411 306
107.43235 -116.73340 171.56506 316
75.65685 -147.37859 163.40343 304
73.39542 -149.52142 166.34039 306
-19036.05859 -18576.14648 653.86554 1000
108.14796 -117.49261 171.52049 316
76.63058 -148.30032 163.39203 412
74.40723 -150.48752 166.33427 306
108.93893 -118.22746 171.55263 316
78.58846 -148.20576 163.74876 413
75.40205 -151.36461 166.38077 306
109.68001 -119.01029 171.52940 316
80.54131 -148.12366 164.13153 414
76.37106 -152.31230 166.38057 306
89.86250 -140.54745 163.67441 311
82.45435 -148.09723 164.48001 416
77.38190 -153.19243 166.36948 306
90.71752 -141.47011 163.63718 311
84.35034 -147.98610 164.81044 417
78.38174 -154.11510 166.35791 306
91.63097 -142.36804 163.59883 311
86.24766 -147.91844 165.15785 418
79.45065 -155.04619 166.36073 306
92.46859 -143.26277 163.57938 311
88.11060 -147.84697 165.44464 419
80.44056 -155.89951 166.35794 305
93.32374 -144.16608 163.59888 311
89.93976 -147.81218 165.79706 420
81.44059 -156.80392 166.40761 305
94.21902 -145.09081 163.54547 311
91.75042 -147.73196 166.07396 421
95.08250 -145.97916 163.52156 311
93.56164 -147.66750 166.40059 422
95.97593 -146.86571 163.52739 311
94.63461 -148.35251 166.45604 310
97.13065 -147.47203 163.58130 413
95.65265 -149.12254 166.42284 310
-1276.02612 -1682.19788 105.14067 382
98.93956 -147.29865 163.89066 414
96.62598 -149.94841 166.47789 310
-1259.63171 -1684.08459 105.67427 498
-1262.86975 -1687.94910 142.36147 481
-1266.59888 -1692.24377 179.53723 450
100.74521 -147.13751 164.23732 415
97.62513 -150.74208 166.48303 310
-1252.49048 -1696.81128 105.56660 409
-1256.70691 -1701.98975 142.22858 342
102.53429 -146.95285 164.60001 416
98.58298 -151.51698 166.43805 310
-2396.62354 -3046.53589 149.98485 310
104.32968 -146.79961 164.90788 417
99.59133 -152.33841 166.47603 310
-2323.81250 -2999.01123 152.05913 329
-2491.13208 -3194.23535 215.86452 363
106.03551 -146.59470 165.23697 418
100.58056 -153.12598 166.48582 310
-2267.08911 -2968.36450 152.83600 351
-2477.76440 -3218.24023 216.01553 420
107.75012 -146.45471 165.57352 419
101.58216 -153.90286 166.46042 310
-2217.40137 -2946.70288 153.29738 364
109.47469 -146.27620 165.87155 420
102.58528 -154.68620 166.45158 310
-2174.27124 -2929.95630 153.76363 359
111.14177 -146.11412 166.19734 421
103.57295 -155.46066 166.48361 310
-2131.76465 -2914.75024 155.19737 360
-2243.30469 -3052.38159 216.02643 418
112.72069 -146.07358 166.44838 314
-2090.52417 -2899.73145 155.30911 361
-2233.93677 -3078.42334 216.19771 418
113.64769 -146.77364 166.46808 314
-2049.75830 -2885.32764 155.57866 363
-2223.11108 -3104.56689 216.39275 417
114.59091 -147.46228 166.43748 314
-2009.68481 -2871.09937 156.91138 364
-2118.17017 -3010.04663 215.86646 463
115.57807 -148.19926 166.47647 314
-1970.94092 -2857.11890 156.91544 365
-2026.51123 -2928.49878 215.75719 458
117.10736 -148.13011 166.68616 428
-1931.86499 -2842.95142 157.49452 366
-2017.61987 -2954.82031 216.40085 457
-2093.26196 -3054.16724 279.51746 366
-2068.26855 -3021.38086 340.67209 366
118.65991 -147.99965 166.95998 429
117.93551 -149.01634 169.90802 430
-1894.71716 -2828.83081 157.91440 367
-2008.52991 -2980.51001 216.30791 460
120.17239 -147.99097 167.19873 439
119.49747 -148.84927 170.12761 431
-1857.73389 -2816.33960 158.48758 368
-1998.74390 -3005.94580 216.27905 460
-1939.42334 -2926.36377 275.95129 497
-2035.30115 -3054.96802 402.73453 459
-39436.67969 -53507.08203 7876.15527 1000
121.54659 -148.08179 167.39177 316
121.02168 -148.80637 170.38617 439
-1821.20947 -2802.72485 159.27792 369
-1988.95837 -3031.77100 215.74809 459
122.47935 -148.73836 167.39789 316
122.26678 -149.07657 170.49017 312
-1786.49280 -2790.81616 159.90047 329
-1979.18018 -3057.77441 215.95506 458
-29018.63477 -40482.22266 2667.87085 1000
124.04041 -148.63792 167.68134 490
123.21584 -149.72649 170.46794 312
-1753.32666 -2780.31348 160.28946 385
-1968.38037 -3082.96094 215.87582 461
124.91647 -149.40656 167.59854 490
-3562.88745 -5387.37061 -1206.75623 1000
-1731.25000 -2785.46069 160.28548 335
125.38925 -150.74754 167.40138 316
-1895.92664 -3059.72729 155.22942 391
-1893.53223 -3056.15039 216.04112 475
-1724.69604 -2851.54175 103.09857 361
-1878.46326 -3075.04150 154.73361 376
-1744.31726 -2916.44141 158.52507 394
-1806.19250 -3049.34351 156.40390 378
-1719.90210 -2958.19385 157.81903 348
-1735.53516 -3023.20117 156.70309 380
-1702.16467 -3010.87427 157.29091 381
-1669.15503 -3000.56665 157.91473 432
-1645.03296 -3004.18042 158.02310 382
-9199.34961 -20268.30273 -2727.89697 1000
-14728.37207 -48279.24219 12873.62695 1000
154.22722 -6655.13428 -1107.76001 1000
260.01413 -1317.89368 -68.24345 1000
647.32666 -16709.47852 1861.66675 1000
583.02393 -1088.15173 85.04179 355
587.02942 -1077.47961 86.09785 468
588.14996 -1081.29553 104.55910 420
589.44983 -1085.43530 122.95731 419
591.16382 -1090.59241 141.12003 345
592.84760 -1072.72021 86.29771 494
594.00244 -1076.21460 104.62254 494
595.13458 -1079.83093 123.07345 494
596.33826 -1083.25378 141.61427 491
597.42914 -1086.92224 160.28978 493
599.65747 -1070.88293 86.54312 496
600.87573 -1074.53918 104.66877 474
602.24188 -1078.58862 123.19619 474
603.39423 -1082.62695 141.59766 284
605.03577 -1087.47473 159.93349 368
607.37946 -1072.25378 85.94702 429
608.88843 -1077.22888 104.33589 428
611.93854 -1085.83679 122.14768 293
29338.90820 -56936.35156 5458.76660 1000
1631.09937 -1937.29053 98.54967 389
1641.64478 -1927.41370 98.85844 479
1653.41589 -1919.08936 98.86300 478
1662.78650 -1930.71204 137.36122 391
18878.71484 -25128.06641 3292.83716 1000
1665.51550 -1909.95105 98.66082 478
1673.32446 -1920.77332 137.46184 408
1677.54871 -1901.99182 98.63917 456
1684.55237 -1910.66565 137.15128 421
1689.75220 -1893.34656 98.50578 452
1695.55774 -1901.38623 137.67323 439
1701.84473 -1885.25024 98.19894 452
1706.91589 -1891.86902 137.13245 465
1713.93567 -1877.31177 98.49424 451
1718.76990 -1883.38770 137.10666 465
1726.63489 -1869.58911 98.64223 452
1730.09998 -1874.12024 137.31706 463
1739.10999 -1861.11450 98.47276 451
1742.43762 -1865.48242 137.69189 463
1751.54358 -1853.37512 98.06629 451
1754.44507 -1857.05176 137.32564 425
1763.96631 -1845.66345 97.77463 449
1766.61377 -1848.36951 137.02663 424
1895.72278 -2003.56311 173.36031 376
1776.90015 -1837.71814 98.13696 444
1778.96423 -1840.36133 136.97537 424
1892.92920 -1975.73120 173.99471 378
1789.99805 -1831.04114 97.98101 444
1791.76990 -1832.60474 137.51317 438
1889.91162 -1947.74744 174.41608 455
1803.97583 -1824.34204 97.79719 441
1804.94604 -1825.49548 136.73505 452
1887.43164 -1921.35522 174.63458 380
1817.84094 -1817.90662 97.21720 441
1818.36658 -1818.74658 137.18604 456
1885.08276 -1894.72974 174.52579 381
1831.96057 -1811.67834 97.37357 436
1832.24609 -1812.06628 136.84920 455
1882.61621 -1868.51697 175.10263 382
1846.77380 -1805.65283 96.80860 438
1847.34155 -1806.44995 136.60855 480
1879.81665 -1843.14026 175.73645 383
1861.31885 -1800.15601 96.51984 434
1861.28625 -1800.21423 136.23685 482
1877.83789 -1817.81433 176.06802 484
1876.52222 -1794.81775 96.51344 432
1876.27734 -1794.42004 136.03621 479
1887.19128 -1805.86548 175.71935 485
1892.51855 -1789.67554 96.03921 432
1891.68811 -1788.94031 135.77098 474
1896.61853 -1793.78052 176.12671 474
1909.21509 -1785.89380 95.69862 422
1907.25647 -1783.67920 136.17381 467
1912.89563 -1789.92639 175.47717 470
1927.14197 -1782.47034 95.30190 414
1924.49072 -1779.88647 135.70139 453
1930.00134 -1785.98474 175.47969 453
1945.51672 -1779.82336 94.33128 412
1942.54858 -1776.73901 135.46416 444
1964.33325 -1777.57922 94.28796 411
1961.55334 -1774.58435 134.66393 445
1984.17139 -1776.14526 93.35387 414
1981.20081 -1772.89954 134.70909 444
2004.29333 -1774.30457 92.55354 413
2000.70020 -1770.89246 133.80113 443
2024.47119 -1772.41736 92.39292 412
2020.48474 -1769.02869 133.53581 442
2043.77551 -1770.17944 91.13824 418
2040.43860 -1766.61438 133.27454 439
2063.89258 -1768.28760 90.74440 417
2061.10596 -1765.60193 132.54074 437
2084.10840 -1765.29443 90.44785 416
2081.36768 -1763.41357 132.15031 436
2104.14355 -1762.96802 89.33738 416
2102.12524 -1761.29736 131.80583 435
2124.90503 -1760.94202 89.14281 424
2122.77856 -1759.17029 131.32083 434
2146.25073 -1759.04761 88.23934 423
2143.99878 -1756.59985 130.82898 433
2167.82886 -1756.73938 87.53805 422
2164.97559 -1754.57617 130.22150 432
2189.93896 -1754.67969 86.36568 421
2186.94824 -1752.17126 129.82307 431
2211.97266 -1753.47693 86.05337 420
2208.48242 -1749.84021 129.57234 430
2234.89502 -1751.36243 85.39655 419
2230.11987 -1747.57458 129.14742 429
2257.13306 -1748.91223 84.62327 420
2252.71069 -1744.84644 128.25468 428
2279.29468 -1746.71423 84.06157 419
2274.76489 -1742.83496 128.00125 427
2302.30200 -1744.20557 82.76818 419
2297.54688 -1740.42334 127.38739 418
29092.50586 -23972.00781 -5984.04736 1000
2326.73682 -1742.68616 81.71764 419
2351.04126 -1740.76770 81.00348 404
377.25833 -105.31751 167.63324 313
8114.12402 -5551.06836 215.02467 1000
377.84500 -104.40023 167.64771 313
378.39981 -103.46938 167.66389 313
379.00171 -102.51838 167.66035 313
379.56116 -101.57311 167.65413 313
380.14023 -100.63376 167.69989 315
380.71173 -99.71888 167.70860 315
381.23517 -98.77100 167.70618 315
381.83237 -97.84989 167.66437 315
382.39276 -96.89617 167.71712 315
382.94348 -95.91121 167.68269 315
383.44818 -94.97722 167.69092 315
384.30005 -94.18219 167.60724 435
385.68042 -93.68163 167.33794 434
387.03381 -93.21925 167.08452 433
396.02097 -98.46741 167.71764 309
388.43552 -92.75375 166.84886 432
396.58075 -97.42485 167.70653 309
389.86227 -92.23851 166.57535 431
397.11246 -96.38914 167.72523 309
391.28741 -91.78057 166.27266 430
397.65170 -95.33275 167.71420 309
392.69107 -91.25982 165.98868 429
398.18588 -94.25848 167.73695 309
394.19067 -90.74900 165.72252 428
398.66214 -93.19145 167.75633 309
395.65915 -90.22633 165.42090 427
399.18970 -92.13806 167.74269 309
36450.76172 -19350.33594 2228.59619 1000
397.12689 -89.72898 165.13539 426
399.65042 -91.04935 167.76534 309
398.67764 -89.20360 164.81673 425
400.18042 -89.98141 167.79047 311
399.30200 -88.22006 164.77487 317
400.66943 -88.91129 167.76048 311
399.84848 -87.17876 164.77524 317
401.75491 -88.16479 167.60500 423
400.36020 -86.13593 164.79448 317
403.32825 -87.58527 167.31241 422
400.87704 -85.07270 164.76469 317
404.91541 -87.08189 167.04117 421
401.35547 -84.05322 164.77203 317
406.48758 -86.49717 166.68602 420
415.73184 -90.92199 167.75018 305
401.86496 -82.99966 164.76878 317
407.95792 -85.87735 166.46696 439
416.22601 -89.76924 167.74167 305
402.32028 -81.90514 164.75867 317
409.35196 -85.18594 166.19231 438
416.71613 -88.62374 167.77481 305
402.81351 -80.81601 164.77301 317
410.78543 -84.49174 165.95619 437
417.18765 -87.44430 167.77116 305
403.26340 -79.74532 164.78500 317
412.19473 -83.79998 165.67744 436
417.62997 -86.22162 167.77315 305
403.73987 -78.71518 164.77077 317
413.62085 -83.07669 165.41129 435
418.08832 -85.05216 167.78207 305
404.18997 -77.60570 164.78458 317
415.09897 -82.38698 165.11734 434
418.55472 -83.85551 167.79869 305
404.64365 -76.53537 164.78461 317
416.57019 -81.64222 164.86423 433
418.99887 -82.69405 167.84042 305
405.04202 -75.43121 164.74802 317
417.12115 -80.53069 164.86523 312
419.40665 -81.48898 167.83598 305
381.82703 -64.56620 171.59967 316
417.58868 -79.35951 164.82588 312
419.87527 -80.27678 167.84489 305
1547.03784 -546.76306 75.67910 360
382.20450 -63.60262 171.60400 316
418.03336 -78.21733 164.85777 312
421.08521 -79.45101 167.63957 431
1542.69470 -535.65887 76.28219 471
1547.19763 -537.49139 99.43636 470
1552.33765 -539.48969 122.62910 424
1559.01440 -542.22540 145.57477 360
382.53842 -62.66410 171.60875 316
418.46332 -77.01187 164.83661 312
422.68011 -78.66492 167.37767 430
1545.13171 -527.27008 76.38802 495
1549.23071 -528.95758 99.36957 495
1553.72681 -530.63531 122.45348 492
1557.90051 -532.42523 145.70264 470
382.89105 -61.68398 171.62828 316
418.93936 -75.86011 164.82573 312
424.19308 -77.91064 167.07335 429
1552.26404 -520.69983 76.13036 425
1557.70435 -522.58313 99.19911 361
383.20016 -60.73556 171.63397 316
419.38458 -74.71317 164.82385 312
425.81760 -77.17112 166.78505 428
383.51935 -59.77686 171.64560 316
419.82794 -73.49742 164.80739 312
427.41293 -76.37489 166.51529 427
437.69449 -80.24258 167.81647 301
383.86697 -58.80922 171.62439 316
420.25116 -72.34602 164.85831 312
429.02975 -75.58885 166.20341 426
438.06512 -78.97565 167.80849 301
384.18573 -57.84145 171.63150 316
420.65085 -71.13148 164.81923 312
430.62238 -74.78927 165.91602 425
438.49014 -77.65335 167.81503 301
384.49448 -56.88524 171.66948 316
421.09409 -69.97288 164.84947 312
432.31155 -73.95499 165.63266 424
438.87372 -76.32948 167.87735 301
384.81430 -55.91159 171.65425 316
421.51373 -68.77605 164.80751 312
433.98587 -73.17540 165.30830 423
439.27728 -75.01204 167.83856 301
385.08139 -54.94883 171.64734 316
395.68967 -58.59958 171.76945 313
435.68393 -72.31200 164.99629 422
439.65048 -73.69495 167.89462 301
385.39554 -53.98661 171.65800 316
396.03775 -57.57455 171.75932 313
436.39716 -71.15582 164.88889 308
439.99109 -72.38053 167.86330 301
385.66885 -52.98591 171.66980 316
396.33838 -56.49757 171.76387 313
436.82803 -69.87624 164.87592 308
440.40823 -71.08107 167.91791 301
385.96994 -52.04463 171.66296 316
396.64001 -55.48056 171.74544 313
437.16208 -68.57566 164.90048 308
440.74158 -69.75757 167.91754 301
386.23541 -51.05214 171.66280 316
396.94946 -54.41928 171.78381 313
437.60364 -67.29117 164.88913 308
442.29620 -68.79559 167.63045 433
386.47784 -50.06514 171.68413 316
397.21838 -53.41685 171.75766 313
437.95334 -66.02974 164.92859 308
443.85028 -67.84982 167.34502 432
386.79276 -49.10762 171.68620 316
397.51956 -52.32663 171.75917 313
438.34186 -64.73788 164.93172 308
445.48087 -66.89994 167.12030 431
387.02347 -48.08997 171.66814 316
397.77356 -51.29721 171.77594 313
438.66342 -63.41651 164.91850 307
447.08746 -65.92246 166.80804 430
387.26620 -47.13535 171.67577 316
398.03339 -50.24935 171.77271 313
438.98972 -62.11101 164.90755 307
448.72385 -64.94873 166.50568 429
387.52496 -46.14453 171.68544 316
398.32666 -49.16344 171.77049 313
439.38678 -60.82274 164.90720 307
450.35190 -63.92107 166.23860 428
387.75238 -45.17369 171.65680 316
398.56522 -48.13004 171.78131 313
439.69012 -59.54117 164.91873 307
452.03918 -62.92295 165.93811 427
461.83701 -65.65417 167.94363 297
388.02109 -44.17637 171.67760 317
398.82745 -47.07088 171.78101 313
411.12225 -50.38025 171.91805 309
453.73932 -61.91053 165.63722 426
462.13007 -64.19683 167.90041 297
388.23260 -43.16075 171.66119 317
399.09698 -46.04370 171.77237 313
411.34140 -49.25166 171.88014 309
455.47830 -60.84538 165.32552 425
462.39166 -62.69401 167.90538 297
388.43622 -42.17177 171.65842 317
399.29617 -44.96761 171.77370 313
411.62747 -48.11288 171.88414 309
457.19553 -59.79918 165.00960 423
462.69257 -61.21824 167.95818 297
388.68295 -41.16705 171.68231 317
399.55240 -43.88172 171.78044 313
411.87085 -46.97603 171.90091 309
457.66162 -58.42018 164.97789 303
462.99438 -59.79699 167.95566 297
388.87491 -40.19055 171.70607 317
399.79507 -42.84971 171.81537 313
412.14328 -45.86086 171.92632 309
457.95810 -56.99134 164.99594 303
463.27481 -58.30331 167.96925 297
389.08148 -39.16977 171.70305 317
399.99020 -41.79168 171.79167 313
412.34457 -44.71613 171.92372 309
458.30865 -55.62913 165.02815 303
463.51410 -56.88462 167.99936 297
389.29013 -38.20242 171.67624 317
400.17950 -40.70731 171.78191 313
412.60938 -43.57394 171.94217 309
458.53748 -54.15882 165.02820 304
463.81705 -55.41463 168.00577 453
389.49075 -37.20737 171.68910 317
400.42572 -39.62817 171.81853 313
412.83160 -42.44518 171.91653 309
458.83932 -52.76855 164.98741 304
465.10129 -54.13987 167.78499 452
389.68088 -36.21301 171.70551 317
400.60123 -38.56482 171.77354 313
413.06177 -41.29111 171.90184 309
459.12695 -51.36873 165.01746 304
466.47064 -52.92890 167.55838 451
389.85193 -35.18427 171.69180 317
400.82339 -37.48102 171.81020 313
413.22485 -40.15724 171.93796 309
459.38507 -49.91320 165.01118 304
467.79730 -51.68359 167.34229 450
390.03488 -34.16795 171.71484 317
401.02078 -36.42035 171.80550 313
413.46008 -38.97403 171.92015 309
459.69150 -48.44390 164.98532 304
469.11603 -50.40668 167.16766 450
390.16953 -33.17059 171.70583 317
401.19565 -35.37001 171.81406 313
413.63004 -37.84879 171.92996 309
459.91193 -47.07204 165.00763 304
470.49298 -49.14725 166.95334 449
390.36618 -32.19515 171.69214 317
401.36124 -34.27810 171.80341 313
413.82227 -36.70024 171.94153 309
428.11511 -39.42120 172.06386 305
471.85510 -47.86064 166.71649 448
390.49915 -31.17346 171.70001 317
401.53070 -33.24557 171.81892 313
413.99496 -35.54293 171.94937 309
428.29236 -38.19344 172.05867 305
473.22266 -46.56596 166.44836 447
390.65073 -30.17349 171.70488 317
401.72113 -32.15477 171.82556 313
414.20895 -34.37246 171.91382 309
428.53140 -36.98450 172.04761 305
474.64474 -45.27565 166.21837 446
390.78931 -29.16425 171.69086 317
401.83801 -31.07505 171.78781 313
414.39255 -33.24258 171.90959 309
428.67032 -35.72076 172.09811 305
476.05850 -43.93936 166.03372 445
390.93256 -28.16339 171.70239 317
401.99063 -29.98851 171.80302 313
414.52737 -32.07239 171.94994 309
428.87238 -34.49049 172.06088 305
477.45734 -42.57215 165.75346 444
391.08176 -27.14074 171.70673 317
402.17072 -28.92800 171.81432 313
414.69904 -30.92135 171.91513 309
429.01141 -33.23233 172.07338 305
478.90201 -41.24267 165.54022 443
488.64792 -42.82975 168.04411 293
391.19766 -26.11379 171.71652 317
402.31421 -27.85228 171.80223 313
414.84698 -29.77204 171.94435 309
429.19800 -32.01875 172.09857 305
480.36639 -39.87766 165.29024 442
488.79559 -41.19827 168.06676 294
391.34387 -25.11623 171.70093 317
402.43640 -26.74398 171.83855 313
414.98181 -28.59141 171.95140 309
429.36349 -30.73466 172.06154 305
481.24423 -38.39855 165.16364 300
488.94644 -39.60286 168.13246 294
391.43591 -24.11703 171.71149 317
402.53717 -25.69060 171.80086 313
415.09607 -27.44238 171.92407 309
429.49118 -29.50832 172.08330 305
481.40805 -36.85453 165.14072 300
489.05783 -37.93584 168.12978 294
391.54318 -23.07452 171.69725 317
402.63895 -24.60386 171.79865 313
415.23877 -26.31361 171.93056 309
429.63660 -28.24513 172.10603 305
481.60397 -35.31638 165.11769 300
489.14026 -36.33439 168.12993 294
391.66580 -22.07461 171.68613 317
402.75504 -23.53344 171.80382 313
415.39304 -25.11357 171.95825 309
429.80521 -26.99492 172.10428 305
481.78223 -33.74726 165.13811 300
489.25735 -34.68177 168.18265 294
391.76389 -21.06333 171.72922 317
402.88016 -22.41249 171.83461 313
415.48590 -23.98579 171.96281 309
429.90662 -25.77590 172.06012 305
446.55118 -27.81021 172.26093 301
489.34073 -33.03665 168.14909 294
391.84805 -20.05413 171.70808 317
402.95520 -21.31980 171.80251 313
415.58218 -22.81850 171.94899 309
430.00305 -24.51045 172.07182 305
446.72861 -26.41797 172.26190 301
489.34390 -31.41687 168.19928 294
391.94846 -19.02247 171.71738 317
403.06677 -20.27632 171.83363 313
415.70441 -21.65252 171.94942 309
430.12885 -23.25607 172.06847 305
446.85284 -25.07557 172.22847 301
489.46490 -29.82154 168.20473 294
392.01004 -18.02724 171.72388 317
403.16464 -19.14520 171.80750 313
415.78146 -20.51443 171.94666 309
430.22742 -22.00094 172.09877 305
446.94287 -23.75164 172.22406 301
490.32129 -28.28949 168.09293 456
392.09146 -17.00265 171.71216 317
403.25864 -18.06472 171.83788 313
415.90198 -19.29390 171.96452 309
430.32791 -20.76214 172.11082 305
447.03143 -22.39912 172.23996 301
491.58539 -26.78254 167.90448 455
2401.69360 -214.51103 109.08528 335
2408.65308 -215.43208 144.25311 338
392.16168 -15.96036 171.70087 317
403.30347 -16.98651 171.84390 313
415.96664 -18.16110 171.92691 309
430.41357 -19.50488 172.06888 305
447.13837 -21.01382 172.24678 301
492.79343 -25.26345 167.65799 454
2374.79028 -198.61824 110.47697 458
2381.58789 -199.25447 145.61562 380
392.20416 -14.94561 171.71375 317
403.38000 -15.91927 171.83975 313
416.01163 -16.99830 171.95244 309
430.53137 -18.23737 172.10164 305
447.23782 -19.69482 172.25697 301
494.03479 -23.73076 167.44266 453
2367.70679 -184.43521 110.64008 461
2377.55005 -185.48096 145.37378 418
392.29056 -13.92749 171.73567 317
403.41766 -14.80107 171.80122 313
416.10666 -15.84580 171.96312 309
430.60278 -16.95015 172.09213 305
447.32217 -18.34399 172.24681 301
495.26672 -22.13734 167.23228 452
2414.44067 -175.19775 72.12004 413
2359.78662 -170.61649 111.21016 453
2373.86401 -171.87697 145.62807 395
392.34253 -12.88383 171.70125 317
403.51611 -13.72905 171.81123 313
416.19116 -14.65648 171.92812 309
430.65317 -15.70902 172.09648 305
447.41415 -16.98094 172.22993 301
496.56555 -20.61033 167.00436 451
2380.12939 -158.94788 74.41488 348
2355.24854 -157.35725 111.37176 466
2371.67944 -158.73122 145.79196 391
392.39044 -11.86926 171.72632 317
403.52969 -12.61751 171.83385 313
416.20700 -13.47203 171.95644 309
430.71307 -14.48041 172.09566 305
447.43619 -15.57935 172.24916 301
497.30896 -18.96319 166.90672 483
2371.46851 -145.20094 75.29589 278
2350.10767 -144.03693 111.75141 472
2368.05811 -144.97021 145.92841 395
392.39801 -10.87427 171.72528 317
403.61346 -11.54895 171.82779 313
416.24905 -12.31865 171.96681 309
430.75824 -13.18663 172.11076 305
447.51843 -14.21690 172.27885 301
497.93878 -17.34824 166.82928 482
2359.41284 -131.04280 76.14857 342
2344.31079 -130.73254 112.07195 472
2366.25317 -131.43961 146.12718 345
392.42816 -9.84984 171.70084 317
403.61517 -10.43779 171.81227 313
416.31720 -11.17306 171.93282 309
430.79340 -11.95793 172.08977 305
447.59528 -12.89888 172.26134 301
498.63705 -15.72611 166.68585 482
2347.94971 -117.69501 76.91888 342
2342.17407 -117.13643 112.41788 473
2365.53149 -118.26911 145.96956 350
392.46051 -8.83072 171.72633 317
403.65073 -9.36697 171.80559 313
416.32654 -9.98126 171.92526 309
430.84729 -10.70769 172.09239 305
447.60916 -11.52819 172.23697 301
467.25903 -12.47637 172.40660 297
2339.42139 -103.99621 77.76368 401
2336.14478 -103.84760 112.29331 474
2364.37817 -105.64273 146.27467 350
392.46204 -7.78097 171.69864 317
403.67731 -8.28325 171.81396 313
416.38339 -8.78702 171.93021 309
430.86789 -9.44718 172.10008 305
447.68201 -10.12122 172.26067 301
467.26254 -10.97122 172.41661 297
2331.97998 -90.82564 78.28118 406
2327.20142 -90.27476 112.84081 481
2379.77222 -92.95417 145.42549 265
392.51447 -6.75573 171.72545 317
403.67462 -7.21230 171.81023 313
416.37592 -7.65166 171.94234 309
430.87766 -8.17206 172.07623 305
447.67560 -8.78789 172.24577 301
467.34323 -9.48400 172.42905 297
2326.00586 -77.58535 78.79697 452
2322.69263 -77.79094 112.93309 482
2513.25513 -84.47972 141.46359 496
392.48990 -5.76007 171.72041 317
403.70761 -6.09991 171.80220 313
416.40869 -6.49451 171.94746 309
430.91333 -6.95090 172.08217 305
447.69748 -7.43781 172.22552 301
467.33841 -8.06721 172.43509 297
2320.08032 -64.46700 78.82987 453
2317.96606 -64.66729 113.60122 482
2516.62744 -70.51890 141.50671 495
392.51318 -4.73828 171.72311 317
403.68546 -4.97926 171.82788 313
416.37610 -5.28955 171.97150 309
430.90765 -5.67585 172.07158 305
447.74493 -6.04057 172.23470 301
467.34592 -6.58950 172.46265 297
2314.55688 -51.57950 79.57578 454
2314.00171 -51.74467 113.46296 483
2519.20215 -56.39274 141.10899 496
392.48102 -3.68970 171.69075 317
403.71741 -3.93098 171.83203 313
416.41422 -4.12337 171.96906 309
430.94785 -4.41293 172.06107 305
447.71222 -4.72986 172.22173 301
451.42786 -4.79740 175.36946 496
2309.51025 -38.53886 79.73555 455
2309.22070 -38.36631 113.96957 483
2521.60718 -42.90524 140.98848 496
392.51477 -2.69859 171.72217 317
403.68051 -2.79883 171.83018 313
416.37885 -2.95473 171.96394 309
430.91037 -3.16623 172.11241 305
447.70169 -3.33129 172.27541 301
451.45679 -3.40929 175.36029 496
2304.62085 -25.67871 80.22321 483
2305.79761 -26.00885 114.19433 470
392.49362 -1.63320 171.72495 317
403.66177 -1.74294 171.83571 313
416.39706 -1.78752 171.92354 309
430.90674 -1.89706 172.07480 305
447.72778 -1.97246 172.21623 301
451.42694 -2.00767 175.32628 496
2300.50049 -13.14585 80.48148 484
2302.36108 -13.31161 114.23971 470
392.47162 -0.63437 171.69081 317
403.66022 -0.60930 171.82547 313
416.35861 -0.61285 171.93025 309
430.91296 -0.61502 172.08488 305
447.71204 -0.64684 172.23164 301
451.43021 -0.64693 175.32445 496
2296.60474 -0.42241 80.72543 484
2299.24023 -0.30607 114.37379 471
392.40533 0.40320 171.72160 317
403.64157 0.48597 171.80598 313
416.30896 0.56462 171.94455 309
430.85849 0.63136 172.10307 305
447.64395 0.74779 172.21841 301
451.45056 0.74219 175.31155 496
2292.09839 12.48573 80.93605 485
2295.90674 12.60430 114.50356 472
392.40628 1.39653 171.70180 317
403.57980 1.53029 171.81593 313
416.29105 1.68811 171.95337 309
430.80524 1.88539 172.09303 305
447.63882 2.12181 172.23695 301
451.45618 2.12406 175.32755 496
2288.25195 25.23159 81.34460 487
2292.83765 25.12097 114.51264 443
2409.36450 26.34687 252.31462 280
392.33774 2.43201 171.71768 317
403.57458 2.62800 171.81879 313
416.22513 2.88653 171.95517 309
430.80356 3.13791 172.10941 305
447.54880 3.46925 172.26106 301
451.44391 3.52941 175.32077 496
2284.28760 37.36535 81.58530 488
2290.01294 37.70124 115.07904 443
2337.23145 38.45492 147.10330 309
2352.87427 38.77294 251.07639 281
392.32016 3.48312 171.72285 317
403.49139 3.74784 171.80983 313
416.21268 4.03210 171.93257 309
430.70435 4.42706 172.08543 305
447.49857 4.82181 172.23587 301
467.18491 5.32080 172.46529 297
2280.75049 49.93885 81.38594 488
2287.75391 50.18268 115.02722 444
2329.11157 51.13777 147.49599 486
2303.67090 50.79134 250.15421 310
392.23401 4.48495 171.72246 317
403.44348 4.83188 171.82713 313
416.16248 5.21867 171.93739 309
430.67038 5.65564 172.05243 305
447.43781 6.19968 172.22475 301
467.11023 6.81287 172.43169 297
2276.83911 62.68016 81.96929 488
2285.01367 63.06652 114.98568 445
2324.78198 64.31603 147.77933 487
2390.92432 66.06239 216.27394 309
2301.45850 63.58225 250.53749 467
392.17688 5.49732 171.73076 317
403.38599 5.94606 171.79790 313
416.09662 6.38180 171.91940 309
430.59921 6.93598 172.10051 305
447.40219 7.54133 172.26421 301
467.03198 8.28493 172.45709 297
2273.96997 74.95084 81.95609 492
2283.28760 75.31490 115.13229 445
2319.77295 76.55322 147.97530 487
2415.08032 80.34060 180.21378 308
2344.03687 77.43046 216.59125 310
2300.66284 76.18775 250.05821 468
392.13736 6.52098 171.69888 317
403.33893 7.01970 171.82977 313
416.02997 7.56123 171.91135 309
430.52097 8.18335 172.08647 305
447.29883 8.93281 172.25990 301
466.96408 9.76740 172.45874 297
2272.51782 87.49744 81.99863 495
2281.60742 88.15680 115.35843 421
2315.23657 89.23560 148.06992 488
2367.42358 91.71989 181.21957 309
2307.14258 89.01262 216.24741 499
2299.12012 88.59006 250.10625 468
2448.20679 95.49049 289.13483 258
392.04736 7.55919 171.68456 317
403.25912 8.11238 171.81993 313
415.92911 8.73701 171.94279 309
430.42715 9.44531 172.08748 305
447.21060 10.28592 172.22536 301
466.84369 11.25784 172.44717 297
2291.75781 101.44087 46.84671 295
2270.63550 100.43735 82.08170 483
2279.54785 100.47289 115.52618 421
2310.94287 101.94154 147.84569 488
2317.53198 102.77148 182.12390 338
2306.41260 101.73614 216.37320 499
2298.36938 101.52132 250.46033 468
2427.14209 108.02250 288.60941 496
391.99612 8.57277 171.72716 317
403.13678 9.21378 171.79254 313
415.87476 9.89565 171.94879 309
430.35303 10.69916 172.07541 305
447.13840 11.65012 172.26472 301
466.80573 12.71815 172.43701 297
2284.96851 113.37756 47.40638 295
2269.70166 112.94628 82.35086 496
2277.80103 113.33775 115.37103 421
2305.94287 114.40922 147.90154 489
2304.07910 114.53784 182.55530 498
2305.40649 114.79768 216.61716 499
2297.36548 113.99305 250.22066 467
391.87360 9.58819 171.69952 317
403.08710 10.27112 171.82753 313
415.73184 11.07755 171.90884 309
430.25534 11.93642 172.05579 305
447.06210 13.03426 172.23743 301
498.14410 16.16203 166.64932 482
2280.39600 125.95654 47.48139 369
2267.06519 124.93582 82.38087 497
2276.00439 125.70757 115.49580 422
2303.82153 127.31786 148.12965 499
2304.02417 127.16389 182.22897 499
2303.96851 127.09190 216.25673 499
2295.81934 126.65437 250.17743 467
391.82080 10.63265 171.69653 317
402.99216 11.37203 171.82016 313
415.63312 12.24705 171.94910 309
430.17770 13.20065 172.08115 305
446.96143 14.34394 172.21689 301
497.46439 17.77924 166.75633 483
2276.16455 138.12347 47.71930 369
2264.67163 137.76810 82.17527 497
2273.77246 138.37415 115.47949 422
2302.59985 140.28300 148.22932 499
