# .PCD v.7 - Point Cloud Data file format
VERSION .7
FIELDS x y z rgb
SIZE 4 4 4 4
TYPE F F F U
COUNT 1 1 1 1
WIDTH 1357
HEIGHT 1
VIEWPOINT 6589.187988 -43.697521 144.376526 -0.623100 -0.101573 -0.081938 0.771178
POINTS 1357
DATA ascii
32.07442 -62.65563 196.70308 372
27.62108 -64.09077 199.62326 369
22.92797 -65.58448 202.69727 367
18.06527 -67.20697 205.88597 364
78.48324 -48.59698 175.69167 427
76.02014 -49.40375 177.70584 424
72.88535 -50.46785 179.59819 308
56.28586 -55.92696 178.54655 412
53.10221 -56.99309 180.89513 397
49.75334 -58.11299 183.28311 394
46.34763 -59.24512 185.75536 392
42.81825 -60.39498 188.34270 390
39.12350 -61.62781 190.97301 387
35.35887 -62.87828 193.73529 385
31.02272 -64.26981 196.54285 371
26.52247 -65.76989 199.48158 369
21.76036 -67.35280 202.60840 366
16.82201 -68.96778 205.78500 363
78.21596 -49.68702 175.54900 426
75.78142 -50.53032 177.53537 424
73.20284 -51.37981 179.63084 308
55.68681 -57.29377 178.31738 398
52.41880 -58.41964 180.67578 396
49.08628 -59.52108 183.05031 394
45.62355 -60.69244 185.55400 391
42.07842 -61.89799 188.15683 389
38.34519 -63.13793 190.81369 386
34.37152 -64.47215 193.59010 373
29.97613 -65.97741 196.40320 370
25.38502 -67.50286 199.38014 368
20.57288 -69.12070 202.48526 365
15.56367 -70.82133 205.68970 362
77.95283 -50.79364 175.35095 425
75.47667 -51.66337 177.39304 423
72.93584 -52.52042 179.46321 421
55.06352 -58.69345 178.11749 397
51.79328 -59.78535 180.43596 395
48.39712 -60.98769 182.84938 393
44.88538 -62.15641 185.37712 390
41.29464 -63.39710 187.95053 388
37.55103 -64.73107 190.63158 385
33.37930 -66.12061 193.39488 372
28.89006 -67.68149 196.23642 369
24.26568 -69.30305 199.24428 367
19.36538 -70.96102 202.36310 364
14.22979 -72.74054 205.62576 332
77.71174 -51.89842 175.17618 424
75.22873 -52.76988 177.21248 422
72.67772 -53.66188 179.28496 420
54.44022 -60.04575 177.88086 397
51.09768 -61.21477 180.22989 394
47.72418 -62.44876 182.61931 392
44.18511 -63.65908 185.16409 389
40.52268 -64.95721 187.74762 387
36.68047 -66.32526 190.44576 374
32.31282 -67.80846 193.19385 371
27.81114 -69.39981 196.05450 368
23.12301 -71.05301 199.09259 366
18.14651 -72.80680 202.24806 363
11.37928 -75.21666 205.42838 315
77.46228 -53.00548 174.98337 424
74.94618 -53.88607 177.01675 422
72.34419 -54.81467 179.12428 419
62.89280 -58.22790 179.69911 304
50.47185 -62.64915 179.95685 393
47.03097 -63.90383 182.40099 391
43.44861 -65.15517 184.94977 389
39.73947 -66.49567 187.54581 386
35.70165 -67.98273 190.25426 373
31.29107 -69.54022 193.04605 370
26.71276 -71.16490 195.93265 368
21.91714 -72.88531 198.93457 365
16.13721 -74.93442 202.06604 332
8.08488 -77.82034 205.21497 314
77.18423 -54.14565 174.83394 423
74.65247 -55.04610 176.88072 421
72.06315 -55.98591 178.96065 419
63.25282 -59.20216 179.70155 304
49.76358 -64.12765 179.73003 392
46.28893 -65.42435 182.20096 390
42.69561 -66.71327 184.73935 388
38.91577 -68.08994 187.38171 374
34.68913 -69.63010 190.04102 372
30.23987 -71.29896 192.80730 369
25.60444 -72.97300 195.76331 367
20.28289 -74.88493 198.76535 334
13.46710 -77.38188 201.84261 316
4.74069 -80.54697 205.06555 313
76.90337 -55.27622 174.64806 422
74.39990 -56.22687 176.66837 420
71.78336 -57.19687 178.79543 418
63.64093 -60.21531 179.69150 304
49.11337 -65.61311 179.50903 392
45.57887 -66.91694 181.99628 389
41.91207 -68.28951 184.53859 387
37.95724 -69.77596 187.16209 373
33.63760 -71.37160 189.82576 371
29.13033 -73.04704 192.64085 368
24.31263 -74.81799 195.57169 335
18.07726 -77.13086 198.52890 333
10.24692 -80.03893 201.58572 314
1.29147 -83.40773 204.79160 312
76.63888 -56.39699 174.44643 422
74.09215 -57.36634 176.49249 419
71.49691 -58.38890 178.62636 417
64.06785 -61.17170 179.67072 304
48.39154 -67.11889 179.25352 391
44.82766 -68.44296 181.75563 388
41.18483 -69.84252 184.30849 386
37.00074 -71.44437 186.92468 372
32.64081 -73.06596 189.62079 370
28.05658 -74.81639 192.42751 367
22.16589 -77.05116 195.27190 334
15.57184 -79.56805 198.24437 316
6.97092 -82.82754 201.31042 313
-2.34059 -86.36416 204.57800 311
76.37621 -57.57965 174.26173 421
73.81982 -58.56879 176.30292 419
71.06055 -59.62230 178.42967 388
64.45348 -62.17591 179.70354 304
47.69034 -68.62473 179.00522 390
44.13538 -69.98894 181.50000 387
40.28822 -71.49648 184.08278 374
36.00273 -73.12363 186.69531 372
31.56331 -74.86286 189.37463 369
26.15160 -76.93370 192.17323 336
19.97566 -79.33736 194.96797 333
12.39512 -82.27045 197.94009 315
3.58675 -85.69424 201.01456 312
-6.65416 -89.57991 204.33139 266
76.13504 -58.71968 174.09087 420
73.54504 -59.74669 176.12198 418
70.42293 -60.95751 178.17192 387
64.90890 -63.13745 179.70918 304
47.02670 -70.13491 178.78224 389
43.35597 -71.62296 181.28909 387
39.29703 -73.21793 183.83664 373
34.99394 -74.87955 186.46304 371
30.06399 -76.81591 189.08815 337
24.05938 -79.20468 191.83821 334
17.63805 -81.71980 194.66109 316
9.16357 -85.01511 197.55870 314
0.04483 -88.64781 200.70000 311
75.84155 -59.89528 173.89311 419
72.93002 -61.07792 175.88016 388
69.78415 -62.31170 177.86504 386
65.30631 -64.12435 179.69025 304
46.30598 -71.72230 178.53453 388
42.56891 -73.18929 181.00217 375
38.34792 -74.91674 183.56371 372
33.85747 -76.72179 186.19157 338
28.03912 -79.03899 188.77451 336
21.92154 -81.48151 191.46916 333
14.56311 -84.39803 194.28992 315
5.80381 -87.92691 197.23358 313
-6.61864 -92.88297 200.18884 266
75.41985 -61.13859 173.63496 389
72.33302 -62.38375 175.59500 387
69.11928 -63.70039 177.59959 385
65.71768 -65.11713 179.66774 304
45.55068 -73.29217 178.23358 387
41.61505 -74.91706 180.70915 374
37.36050 -76.64266 183.30348 371
31.90965 -78.87701 185.78537 337
25.98704 -81.24900 188.40744 335
19.74861 -83.84521 191.14380 332
11.42361 -87.19289 193.88911 314
2.33163 -90.90558 196.86635 311
74.81503 -62.49055 173.35225 388
71.69190 -63.79410 175.27774 386
68.43416 -65.13878 177.32777 384
65.70280 -66.26738 179.56718 395
44.81737 -74.90422 177.96120 375
40.70284 -76.62058 180.44513 373
35.70399 -78.67194 182.87427 338
29.97140 -81.06200 185.36894 336
23.87790 -83.55650 188.00443 334
16.74015 -86.54901 190.73010 315
8.10325 -90.13739 193.46587 313
-6.44311 -96.18681 196.01443 266
74.22620 -63.80938 173.01878 388
71.02344 -65.14190 174.99870 385
67.78598 -66.56074 177.03870 383
64.98801 -67.69819 179.29108 394
53.64776 -72.48795 179.78127 300
39.38386 -78.50426 180.08287 340
33.78029 -80.84555 182.46930 337
27.93030 -83.34840 184.95441 335
21.74647 -85.95213 187.59708 332
13.61840 -89.33424 190.24287 314
3.52772 -93.62310 192.93581 285
73.58244 -65.18299 172.74135 387
70.40292 -66.53873 174.69394 384
67.05515 -67.98722 176.75877 382
64.34600 -69.18564 179.03168 393
54.14639 -73.52755 179.76265 300
37.53362 -80.64330 179.64441 339
31.87593 -83.10603 182.00562 336
25.85131 -85.64864 184.54440 334
18.93434 -88.62722 187.11537 316
10.41595 -92.28072 189.78104 313
-6.20970 -99.42242 191.83649 266
72.95566 -66.58488 172.40381 386
69.71741 -67.99792 174.38748 383
66.40281 -69.42749 176.47539 394
63.66998 -70.64448 178.74968 392
54.60852 -74.59917 179.75792 300
35.67968 -82.86075 179.16498 338
29.89110 -85.37315 181.55721 335
23.72685 -88.02438 184.07346 333
15.86538 -91.50638 186.57889 314
4.38555 -96.44933 188.95657 285
72.36454 -67.96263 172.09100 385
69.07600 -69.42601 174.07300 382
65.73270 -70.89596 176.16037 393
62.96157 -72.16055 178.46504 391
55.11192 -75.60350 179.75230 300
33.79193 -85.06829 178.66396 336
27.87004 -87.73174 181.08786 334
21.16372 -90.69560 183.58815 316
12.16678 -94.66228 186.00745 286
-5.78220 -102.65385 187.54762 266
71.94324 -69.28171 171.84642 316
68.41949 -70.91003 173.76839 382
65.06248 -72.39925 175.88458 392
62.27193 -73.64782 178.20503 390
55.58138 -76.65608 179.78140 300
31.83099 -87.35104 178.14168 335
25.74933 -90.09620 180.60670 333
18.12917 -93.52677 183.00537 315
5.37129 -99.28677 184.92639 285
72.40180 -70.22970 171.85269 316
67.72912 -72.38678 173.45023 381
64.38979 -73.91633 175.57111 391
61.57617 -75.21574 177.93701 389
56.09456 -77.71015 179.74255 300
29.89211 -89.71851 177.61031 334
23.38575 -92.65767 180.05278 316
13.21407 -97.37504 182.11113 286
-5.29045 -105.80951 183.23788 266
72.85943 -71.15115 171.80762 316
67.04655 -73.86454 173.11873 380
63.69378 -75.44382 175.24420 390
60.82251 -76.78790 177.62625 388
56.59316 -78.72600 179.75301 300
41.68391 -85.70244 179.90120 296
20.48247 -95.52660 179.39838 315
6.43217 -102.08795 180.84181 285
-24.02492 -116.23189 180.44409 284
73.32041 -72.10732 171.83209 316
66.32847 -75.40884 172.78452 379
63.04617 -76.97150 174.93834 389
60.08834 -78.35343 177.31541 387
57.11632 -79.76670 179.74287 385
42.22154 -86.79460 179.87166 296
14.31563 -99.99413 178.18843 286
-19.10591 -115.82973 176.54440 344
-23.28291 -117.82753 180.44585 284
-4331.84326 -2155.99609 131.64609 451
73.82365 -73.01352 171.81006 316
65.64686 -76.97930 172.44077 378
62.33637 -78.55766 174.66254 388
59.36418 -79.94719 177.02243 386
56.34435 -81.40536 179.45073 384
42.77255 -87.94640 179.89177 296
7.57765 -104.84752 176.79550 285
-14.79669 -115.56584 177.13461 345
-22.52336 -119.28172 180.46478 284
74.26518 -73.94186 171.83081 316
64.92724 -78.52997 172.08963 377
61.59989 -80.14494 174.34290 387
58.64289 -81.61554 176.72266 385
54.42352 -83.67242 178.94395 327
43.35620 -89.03333 179.89041 296
-6.77739 -113.49689 174.04361 289
-6.76559 -113.52158 178.32893 289
-21.79532 -120.87693 180.46175 284
74.78060 -74.89321 171.81776 316
64.70477 -79.88948 171.90224 312
60.86604 -81.78383 173.99355 386
57.27072 -83.58762 176.25082 328
52.22367 -86.08118 178.30965 327
43.92761 -90.17632 179.84676 296
26.33319 -98.88219 180.00899 292
2.42236 -110.72888 179.75272 291
75.28576 -75.78738 171.80669 316
65.19167 -80.87007 171.87744 312
60.03839 -83.46808 173.61214 329
55.11000 -85.93915 175.61659 327
49.99817 -88.53802 177.65712 326
44.49559 -91.31485 179.89076 296
26.97456 -100.12273 180.01231 292
5.80642 -110.73991 180.18544 288
75.74876 -76.73701 171.82474 316
65.71603 -81.85208 171.86867 312
57.97816 -85.78976 172.91721 328
52.92429 -88.39379 174.92937 326
47.62983 -91.12437 177.00513 325
42.21852 -93.86861 179.25563 323
27.60001 -101.30235 180.00731 292
6.51838 -112.09872 180.17918 288
76.28539 -77.61230 171.81393 316
66.26958 -82.79574 171.86296 312
55.87345 -88.22349 172.24902 327
50.67441 -90.89461 174.20705 324
45.23015 -93.74414 176.35002 323
39.66999 -96.63515 178.62024 321
28.23738 -102.52187 179.97934 292
7.21559 -113.43723 180.17648 288
76.79533 -78.52118 171.79282 316
66.79728 -83.82124 171.88326 312
55.48170 -89.76325 171.96523 308
48.35743 -93.54565 173.53368 323
42.76859 -96.45246 175.63687 322
37.00151 -99.47941 177.94234 320
26.28606 -105.11497 179.50409 274
7.90691 -114.77888 180.19830 288
77.28934 -79.47855 171.79579 316
67.34459 -84.76448 171.85860 312
56.04934 -90.83236 171.98647 308
45.90664 -96.20528 172.78743 322
40.19283 -99.30106 174.92538 321
32.75974 -103.26215 176.90868 273
15.27278 -112.58899 177.33623 272
77.83791 -80.36926 171.80722 316
67.92512 -85.74638 171.89136 312
56.64008 -91.85557 171.98859 308
43.76902 -98.84043 172.09718 304
37.48543 -102.21489 174.19258 320
21.78996 -110.72503 174.49725 271
-54.01688 -151.90974 164.13179 372
78.32195 -81.25397 171.79915 316
68.48145 -86.71642 171.85918 312
57.22700 -92.90059 171.94939 308
44.40700 -99.96331 172.06525 304
29.63869 -108.08755 172.19948 272
12.13699 -117.72629 172.33118 296
-50.13221 -152.01491 164.65787 373
78.89041 -82.14199 171.79996 316
69.03543 -87.65060 171.88177 312
57.86002 -93.90959 171.98294 308
45.06475 -101.03175 172.06160 304
30.24478 -109.34107 172.17714 300
12.87220 -119.01240 172.34415 296
-46.26589 -152.01497 165.25700 287
79.38828 -83.07843 171.77774 316
69.57130 -88.64124 171.85071 312
58.42580 -94.92609 171.94720 308
45.68782 -102.17297 172.08597 304
30.94325 -110.50502 172.18214 300
13.60973 -120.33125 172.32515 296
-45.29855 -153.75395 165.22484 286
79.97414 -83.98120 171.78548 316
70.14942 -89.59724 171.85155 312
59.08717 -95.94763 171.95268 308
46.31373 -103.26093 172.05846 304
31.60050 -111.75571 172.19466 300
14.38673 -121.63096 172.34476 296
-44.36510 -155.37170 165.22238 286
80.47992 -84.86758 171.77084 316
70.72786 -90.55708 171.86577 312
59.65975 -97.01373 171.92677 308
47.02312 -104.34568 172.03891 304
32.32146 -112.95499 172.15041 300
15.15862 -122.96807 172.33383 296
-43.36607 -157.01067 165.18987 286
81.05087 -85.72621 171.74580 316
71.31388 -91.49174 171.86386 312
60.30529 -98.00694 171.94635 308
47.67903 -105.49496 172.04536 304
33.03466 -114.12096 172.17731 300
15.87002 -124.23330 172.31169 296
-42.33675 -158.67218 165.16656 286
81.63219 -86.65286 171.77109 316
71.91253 -92.45147 171.84932 312
60.93204 -99.05119 171.93532 308
48.32656 -106.55242 172.01709 304
33.78265 -115.29935 172.19371 300
-26.67724 -151.53474 163.11357 371
-41.31889 -160.29836 165.21071 286
82.18714 -87.50677 171.76845 316
72.51815 -93.36900 171.84834 312
61.58316 -100.05607 171.92111 308
49.03939 -107.67761 172.01285 304
34.47240 -116.49346 172.14302 300
-22.98316 -151.41133 163.69351 372
82.75134 -88.41970 171.76480 316
73.11181 -94.35296 171.83575 312
62.19688 -101.04446 171.91368 308
49.70649 -108.76407 172.01379 304
35.25336 -117.67402 172.12625 300
-19.40066 -151.32465 164.26192 373
83.29040 -89.26798 171.75172 316
73.75626 -95.26891 171.84985 312
62.87398 -102.08525 171.94167 308
50.40942 -109.82002 172.02605 304
36.00952 -118.84995 172.17482 300
-15.91482 -151.24297 164.78777 375
83.90244 -90.15569 171.73849 316
74.36547 -96.20122 171.84639 312
63.50478 -103.07284 171.89568 308
51.11916 -110.89997 172.02422 304
36.70435 -120.00640 172.16508 300
-12.45901 -151.19983 165.27924 376
84.45458 -91.02595 171.71352 316
74.96960 -97.13477 171.82332 312
64.15123 -104.08948 171.91608 308
51.78375 -112.00111 172.02670 304
37.50665 -121.21141 172.16489 300
-9.56904 -151.42696 165.71385 291
85.05554 -91.92593 171.71880 316
75.58615 -98.04070 171.82509 312
64.82705 -105.05379 171.90137 308
52.52444 -113.07185 172.02087 304
38.25926 -122.37706 172.15776 300
-8.61807 -152.80397 165.75557 291
85.64751 -92.75882 171.74602 316
76.22243 -99.00880 171.80647 312
65.51891 -106.04595 171.92404 308
53.26328 -114.16630 172.02016 304
39.03083 -123.50549 172.09552 300
-7.53552 -154.22928 165.71719 291
86.25255 -93.65647 171.73842 316
76.85770 -99.88815 171.79341 312
66.17866 -107.03841 171.90602 308
53.97816 -115.21055 172.00603 304
1.50271 -150.28401 162.93759 285
-6.49228 -155.63412 165.76186 291
86.85757 -94.50529 171.70422 316
77.50382 -100.84275 171.81418 312
66.88381 -108.03131 171.86620 308
54.72095 -116.28612 172.00461 304
3.65852 -150.78308 163.20018 382
-5.52423 -157.05516 165.70889 290
87.47778 -95.37209 171.73338 316
78.14262 -101.73645 171.80362 312
67.56961 -109.03264 171.89801 308
55.43847 -117.30972 171.97899 304
6.76125 -150.71222 163.71529 383
-4.46969 -158.45026 165.75986 290
88.12070 -96.21490 171.71341 316
78.82749 -102.66003 171.78592 312
68.27518 -110.00475 171.87132 308
56.18852 -118.40913 171.95538 304
9.75356 -150.69090 164.23689 385
-3.43467 -159.83128 165.70937 290
88.70226 -97.05293 171.70415 316
79.44848 -103.56680 171.78979 312
68.95229 -110.99398 171.88503 308
56.90313 -119.45924 171.97366 304
12.68625 -150.61794 164.70744 386
89.33673 -97.90765 171.68874 316
80.12490 -104.46458 171.77112 312
69.67294 -111.95419 171.84656 308
57.66581 -120.46986 171.95901 304
15.55285 -150.49814 165.17393 387
89.99089 -98.73312 171.69888 316
80.81042 -105.36716 171.74422 312
70.37488 -112.91341 171.86317 308
58.42799 -121.55894 171.97816 304
18.39152 -150.47121 165.60347 388
90.63352 -99.59735 171.69223 316
81.44508 -106.25671 171.78525 312
71.12191 -113.86901 171.84062 308
59.19706 -122.59003 171.97914 304
21.21680 -150.36845 166.09254 387
91.25005 -100.43571 171.69710 316
82.16894 -107.15794 171.77251 312
71.84288 -114.81536 171.86752 308
60.00900 -123.58819 171.92511 304
22.34062 -151.49091 166.11816 297
91.90860 -101.27236 171.65321 316
82.82844 -108.03358 171.76590 312
72.57056 -115.78167 171.82458 308
28.58224 -148.84827 163.24028 296
23.34728 -152.78014 166.12909 297
92.55267 -102.08636 171.66249 316
83.51498 -108.93009 171.73967 312
73.26397 -116.73843 171.85530 308
29.46209 -150.08850 163.19141 390
24.30201 -153.99693 166.08752 297
93.20759 -102.90405 171.64302 316
84.23112 -109.83983 171.74965 312
74.02736 -117.66698 171.83815 308
32.12190 -150.00209 163.70491 391
25.29173 -155.26160 166.09470 297
93.85808 -103.73246 171.65004 316
84.93006 -110.68456 171.73428 312
74.78218 -118.61634 171.84105 308
34.73120 -149.88174 164.13657 392
26.28674 -156.43727 166.15244 297
94.52708 -104.56515 171.65494 316
85.62252 -111.57285 171.73697 312
75.51392 -119.55222 171.82567 308
37.26928 -149.75568 164.58116 394
27.30780 -157.64459 166.08881 297
95.21281 -105.34042 171.63811 316
86.32772 -112.46783 171.71967 312
76.30945 -120.51435 171.80983 308
39.84669 -149.66431 165.02049 395
28.34165 -158.92268 166.10757 297
95.88459 -106.19025 171.66133 316
87.06137 -113.31688 171.71574 312
77.04935 -121.42773 171.79681 308
42.33000 -149.58611 165.44145 396
96.54648 -106.98375 171.66042 316
87.76730 -114.19449 171.68816 312
50.13792 -145.05508 163.42667 300
44.75795 -149.51701 165.86301 397
97.26379 -107.77560 171.61154 316
88.52529 -115.02152 171.68982 312
50.94314 -146.30254 163.38875 300
47.14501 -149.40121 166.24178 302
97.93494 -108.60567 171.61349 316
89.26452 -115.91574 171.71225 312
51.74473 -147.45177 163.32373 300
48.10724 -150.51385 166.22166 302
98.64733 -109.39233 171.61348 316
90.00513 -116.72627 171.70508 312
52.55969 -148.61777 163.30507 300
49.11314 -151.55707 166.25276 302
99.33881 -110.16570 171.61424 316
90.70609 -117.61445 171.70648 312
54.17839 -149.15276 163.50209 401
50.07773 -152.66182 166.25783 302
100.02261 -110.98045 171.62169 316
91.45483 -118.42629 171.67874 312
56.44666 -149.03569 163.89272 403
51.08754 -153.74123 166.22957 301
100.75620 -111.76189 171.61368 316
92.24940 -119.26303 171.66316 312
58.65331 -148.94849 164.30978 404
52.04983 -154.76678 166.26385 301
101.46405 -112.55447 171.57707 316
93.00321 -120.09622 171.65770 312
60.84599 -148.92403 164.69681 405
53.08039 -155.85689 166.27434 301
102.16743 -113.34408 171.58212 316
93.74377 -120.95024 171.66211 312
62.98677 -148.79886 165.04898 406
54.12355 -156.92386 166.27878 301
102.88831 -114.07803 171.60883 316
70.69285 -143.63724 163.56294 304
65.15247 -148.74507 165.42418 407
55.12243 -157.95030 166.24399 301
103.64092 -114.86053 171.56587 316
71.50994 -144.69725 163.50081 304
67.27716 -148.61879 165.80746 408
104.37766 -115.63718 171.56705 316
72.36608 -145.73814 163.48535 304
69.34449 -148.53981 166.16229 409
-1567.57153 -1687.37268 94.71968 349
105.09724 -116.41315 171.55733 316
73.20602 -146.77042 163.44145 304
70.81976 -149.00381 166.33296 306
-1549.37256 -1691.65942 95.15577 497
-1553.68079 -1696.01147 135.05537 495
-1558.22083 -1700.09644 175.28389 430
105.87218 -117.15967 171.55370 316
74.02235 -147.80591 163.39874 304
71.77333 -149.98726 166.37074 306
-1545.96899 -1708.53711 94.73701 375
106.59387 -117.88570 171.56451 316
75.38435 -148.33679 163.54810 412
72.77678 -150.88252 166.32916 306
107.34631 -118.66743 171.57025 316
77.33961 -148.25076 163.90891 413
73.77162 -151.81331 166.36349 306
108.08440 -119.39748 171.52576 316
79.30804 -148.17464 164.22887 414
74.72192 -152.74994 166.33459 306
88.27737 -140.95372 163.68166 311
81.24483 -148.11586 164.58795 415
75.74432 -153.66791 166.38055 306
89.11541 -141.92329 163.67468 311
83.08447 -148.03462 164.92784 417
76.74593 -154.59138 166.37004 306
89.94712 -142.81314 163.63420 311
84.97128 -147.99101 165.27484 418
77.74179 -155.51190 166.36238 305
90.84669 -143.69496 163.57175 311
86.81566 -147.88705 165.61656 419
78.74036 -156.38693 166.35976 305
-2708.45703 -3083.55688 145.57693 292
91.71790 -144.63367 163.55835 307
88.63654 -147.86394 165.89839 420
-2659.85669 -3070.75854 77.40467 299
-2662.11230 -3072.67456 146.25221 260
92.51120 -145.51071 163.54385 307
90.44269 -147.78476 166.20596 421
-2567.84399 -3009.33960 80.35256 264
-2754.12451 -3209.82129 143.09541 479
93.38755 -146.43456 163.51355 307
92.00053 -147.96426 166.46049 310
-2474.67700 -2945.80249 83.68333 330
-2725.50146 -3217.86963 143.81714 449
94.29008 -147.33449 163.50490 307
92.97202 -148.80156 166.44264 310
-2421.33936 -2923.18530 85.51771 331
-2541.24121 -3055.13452 146.97498 361
95.71697 -147.57095 163.69455 423
93.88380 -149.59998 166.45839 310
-2369.70312 -2901.22705 87.80987 332
-2514.33594 -3062.95386 148.18190 425
97.51253 -147.47394 164.02388 414
94.90144 -150.42865 166.44595 310
-2318.67896 -2880.45703 88.70218 333
-2435.75903 -3012.91333 148.56134 364
99.30202 -147.29013 164.38318 415
95.87579 -151.18149 166.45236 310
-2269.28369 -2860.05200 91.03406 334
-2338.69897 -2938.47998 151.56947 365
101.05784 -147.09071 164.73055 416
96.82919 -151.97285 166.47710 310
-2221.88916 -2839.62305 92.27046 335
-2313.90234 -2945.80151 151.29849 465
-2393.87598 -3039.53369 280.36234 373
102.81142 -146.94527 165.04698 417
97.80186 -152.79022 166.43628 310
-2174.91479 -2819.97314 94.07066 367
-2308.83472 -2976.84497 151.19246 466
-2372.90308 -3052.43652 280.71756 428
104.55295 -146.74156 165.35036 418
98.81706 -153.57967 166.43439 310
-2130.53125 -2803.18726 94.91610 368
-2298.16479 -3003.26318 150.88297 469
-2239.28882 -2932.00513 215.30865 499
-2239.22510 -2932.45972 277.63797 363
-2353.49561 -3067.58594 345.66623 369
106.25271 -146.57497 165.70686 419
99.80456 -154.33826 166.45680 310
-2086.76514 -2785.82202 96.22890 369
-2288.70483 -3028.58032 149.96474 468
107.94675 -146.44765 166.00964 420
100.76894 -155.14301 166.45035 310
-2047.66113 -2773.14209 98.17532 429
-2279.08203 -3054.97827 150.53520 467
109.63098 -146.24728 166.29639 421
101.78716 -155.92186 166.45323 310
-2017.83875 -2770.79883 98.80006 430
-2268.50195 -3080.42090 150.54907 470
110.90217 -146.51846 166.47922 314
-1988.98511 -2771.20898 98.54489 402
-2257.04907 -3104.99390 150.18723 469
-2198.22119 -3032.79468 278.02338 466
111.84192 -147.26302 166.48079 314
-2048.99561 -2881.41260 94.57027 462
112.78839 -147.95512 166.47221 314
-2039.84900 -2906.20117 94.43739 461
113.78777 -148.63469 166.44186 314
-2029.81299 -2930.90430 93.43972 459
115.54444 -148.27727 166.84055 428
-2021.12952 -2955.99658 93.64134 458
117.11745 -148.18405 167.10089 439
-2010.63367 -2980.85400 92.82137 458
118.54316 -148.18098 167.32922 439
117.94007 -149.00819 170.28360 431
-2001.63013 -3006.25049 92.97038 457
-34469.13281 -46788.45703 12772.59082 1000
119.74143 -148.53838 167.40860 316
119.35757 -149.00058 170.47491 439
-1968.03674 -3000.66528 93.31662 424
120.69146 -149.19228 167.41580 316
120.43037 -149.55791 170.52754 312
-1938.13269 -2998.25122 93.57202 424
121.64137 -149.84596 167.39041 316
121.39565 -150.21814 170.49202 312
-1912.72717 -3000.47144 94.12675 351
123.77631 -148.89041 167.97565 269
124.84094 -149.31207 168.01845 489
292.43802 -1071.28198 75.36588 429
292.53729 -1074.68848 92.51666 368
298.70648 -1066.03357 75.91970 474
299.02707 -1067.74292 93.51992 474
298.99719 -1069.25317 110.87387 430
299.15613 -1072.34216 128.43506 431
299.26605 -1075.06848 145.90657 368
305.38638 -1064.04553 76.00484 497
305.34869 -1065.17566 93.66046 497
305.45160 -1066.42834 111.06194 497
305.46671 -1067.93469 128.52713 493
305.59888 -1068.65405 146.19313 497
305.55539 -1070.17249 163.80305 475
311.82687 -1064.54480 76.03625 495
311.84357 -1065.63953 93.45252 470
312.16702 -1066.86609 111.13582 470
312.19223 -1068.43469 128.67061 492
312.18228 -1069.42847 146.13814 472
312.43170 -1070.70581 163.53763 428
318.71320 -1067.89307 75.54364 423
319.03723 -1069.70264 93.02122 423
318.98691 -1071.58484 110.66901 360
326.42197 -1081.04956 73.48335 286
4045.15649 -11300.02246 1587.44470 1000
1344.24500 -1927.43530 107.59123 477
1346.56482 -1918.92664 106.43540 477
1353.70618 -1931.60718 142.48349 476
1357.81055 -1910.85132 106.42059 478
1364.32129 -1922.22485 142.22067 445
1368.41492 -1902.90381 106.41941 469
1374.27637 -1912.47693 142.67899 446
1379.68433 -1894.59875 106.92137 457
1385.00562 -1903.08569 142.97916 462
1391.26855 -1887.29028 106.65768 455
1395.38000 -1894.19971 142.54367 463
1402.39587 -1879.68506 106.65798 454
1406.01611 -1885.68567 142.78265 479
1413.76672 -1872.67114 106.96527 454
1416.78052 -1877.01147 142.73291 479
1425.00647 -1865.03967 106.68265 454
1427.50330 -1869.04211 143.01799 479
1436.79663 -1857.73523 106.70113 454
1438.85376 -1861.27417 142.75067 493
1448.26794 -1850.38086 106.99705 454
1449.99561 -1852.92310 143.19966 493
1459.28638 -1843.20349 106.51275 453
1460.68115 -1845.44678 143.24356 493
1471.56921 -1836.40149 106.71114 453
1472.03711 -1837.35547 143.21840 496
1483.10315 -1829.57825 106.93616 449
1483.39038 -1830.32458 143.05640 496
1596.75562 -1995.16675 175.70821 357
1495.69238 -1823.59692 106.82762 449
1495.14697 -1823.73828 143.23552 496
1593.04260 -1964.25940 176.44849 358
1508.17871 -1817.63220 106.32872 447
1507.30872 -1816.94812 143.00920 496
1590.36316 -1934.46082 177.09627 359
1520.24963 -1811.45154 106.39233 447
1519.61621 -1810.99219 142.96681 495
1586.81140 -1905.25378 177.37592 361
1533.31763 -1805.70203 106.08254 443
1532.08093 -1804.66943 143.08801 495
1583.52637 -1875.40771 177.84840 362
1546.24048 -1801.28955 106.12457 443
1545.00830 -1799.63391 142.95999 489
1580.68835 -1847.87061 178.19817 363
1559.63562 -1795.95496 105.79987 445
1558.11011 -1793.86877 142.80147 489
1577.92163 -1820.15723 178.76683 364
1572.74585 -1790.92273 105.56248 443
1571.44409 -1788.54089 142.63718 489
1583.17334 -1804.22717 178.74770 481
1586.60095 -1786.25305 105.66143 442
1584.42065 -1783.34912 142.08444 485
1591.67749 -1792.25879 178.56387 479
1601.01196 -1782.33960 105.06671 441
1598.39380 -1779.07739 142.40916 484
1603.14246 -1785.29590 178.84979 483
1616.31458 -1779.11768 105.13168 432
1612.45386 -1774.55701 141.89478 479
1617.62744 -1781.19128 178.53134 480
1631.30786 -1776.48047 104.54229 426
1626.97559 -1770.57471 141.72993 467
1632.57544 -1777.74634 178.41878 466
1647.52893 -1774.37549 103.89437 424
1642.87341 -1768.51111 141.31223 466
1648.96729 -1775.95679 178.29884 461
1663.70068 -1772.14075 103.68610 423
1659.14600 -1766.24231 141.64307 459
1665.34924 -1773.81360 178.45351 461
1679.97156 -1770.49890 103.17129 423
1675.47949 -1764.59485 141.03265 458
1696.89038 -1768.58337 102.73291 427
1692.23486 -1763.04150 140.48599 457
1714.22742 -1767.24292 102.10300 426
1709.40906 -1761.11597 140.29799 456
1731.61035 -1765.93311 102.08505 425
1725.89160 -1759.18298 140.30106 455
1748.54919 -1763.89441 101.39851 430
1743.34448 -1757.44885 140.04761 453
1766.26562 -1762.03723 100.79565 430
1760.54358 -1755.89636 139.36971 453
1783.12781 -1759.73022 100.63274 429
1777.92786 -1753.70227 139.04073 453
1800.96387 -1757.56726 100.24081 428
1795.44727 -1751.89636 138.91779 452
1818.25476 -1755.58875 99.70723 427
1813.06665 -1750.03662 138.33838 451
1836.20654 -1752.97961 98.67525 427
1831.39453 -1748.26880 137.81903 450
1853.97949 -1751.49915 98.14734 426
1849.29272 -1746.25964 137.50954 449
1872.21216 -1749.28040 98.04592 435
1867.76343 -1744.20996 137.46117 448
1890.79883 -1747.99402 97.33238 434
1886.02991 -1742.49951 136.83501 447
1909.96350 -1746.52307 96.37231 433
1904.59351 -1740.72913 136.96138 446
1929.28442 -1744.56384 96.23100 432
1923.29077 -1738.66089 136.61282 445
1948.25378 -1742.69336 95.85829 434
1942.04919 -1736.09338 135.61272 444
1967.78174 -1740.72351 95.10555 432
1961.54639 -1734.21985 135.42720 443
1987.59009 -1739.19495 94.53806 431
1980.47900 -1732.62817 134.93407 443
2007.20227 -1736.77148 93.72506 431
1999.76050 -1730.17102 134.85780 442
2026.73584 -1734.73010 93.14498 429
2020.37268 -1728.37769 134.02760 422
2047.40027 -1733.22314 92.21758 431
2069.28491 -1732.86145 91.41708 358
35165.79297 -31663.56641 -10791.45898 1000
49528.14062 -35641.90625 9226.60059 1000
376.86435 -104.92487 167.62682 313
3407.25830 -2211.94458 920.47589 1000
377.43469 -103.99561 167.66391 313
378.01001 -103.03632 167.68033 313
378.61649 -102.07623 167.65503 313
379.20108 -101.15008 167.67123 315
379.77118 -100.23666 167.68571 315
380.31851 -99.25896 167.66272 315
380.88187 -98.29927 167.68781 315
381.45087 -97.37978 167.69907 315
382.00015 -96.39740 167.69263 315
382.56503 -95.43077 167.68484 315
383.20493 -94.57259 167.65424 435
384.58807 -94.05580 167.39473 434
385.98776 -93.60233 167.14088 433
387.40530 -93.10829 166.89447 432
395.76477 -97.91874 167.68462 309
388.82590 -92.61773 166.60168 431
396.26971 -96.87132 167.73598 309
390.21649 -92.13153 166.35683 430
396.79388 -95.82423 167.69542 309
391.69098 -91.60606 166.06566 429
397.30917 -94.74435 167.73347 309
393.16519 -91.10603 165.76210 428
397.85193 -93.68509 167.73567 309
394.61017 -90.59790 165.50557 427
398.35141 -92.59527 167.76544 309
396.12732 -90.07182 165.17891 426
398.86530 -91.52481 167.74625 309
1240.53723 -534.91809 84.67313 405
1244.70935 -536.84827 102.93390 337
51884.52734 -27211.73828 8868.07031 1000
397.64410 -89.58479 164.91243 425
399.37442 -90.47795 167.78044 309
1238.97168 -525.84399 85.32811 490
1240.51208 -526.73761 103.71535 458
1242.91565 -528.08228 122.52271 452
1244.46838 -528.84961 141.14734 401
1248.58435 -531.32617 159.73080 262
398.50656 -88.66409 164.76224 317
399.87070 -89.40184 167.78740 311
1241.09570 -519.17328 85.46027 499
1242.53528 -520.07263 104.04823 499
1243.67480 -520.67975 122.73701 493
1245.14551 -521.42572 141.33965 499
1246.51465 -522.15674 160.08972 499
399.03333 -87.61742 164.79245 317
400.75769 -88.47912 167.65260 423
1245.48706 -513.86536 85.02168 484
1247.02795 -514.47192 103.71099 446
1249.07898 -515.49652 122.62036 388
1251.70520 -516.84454 141.13847 389
399.53473 -86.58490 164.77101 317
402.29721 -87.95148 167.35014 422
1254.47449 -510.24716 84.27183 388
1259.60608 -512.73254 102.67596 318
400.04178 -85.52261 164.78998 317
403.88855 -87.40335 167.06210 421
400.55164 -84.48254 164.77991 317
405.50317 -86.82407 166.76321 420
414.98849 -91.40001 167.72400 305
401.04541 -83.42458 164.76642 317
407.09366 -86.28149 166.44557 439
415.52014 -90.22664 167.74001 305
401.57697 -82.34115 164.74550 317
408.53116 -85.58421 166.19293 438
415.97040 -89.03018 167.76109 305
402.02762 -81.27847 164.78192 317
409.96484 -84.86797 165.96419 437
416.45837 -87.87237 167.78845 305
402.50601 -80.15866 164.74916 317
411.39035 -84.19203 165.69398 436
416.95380 -86.70157 167.80258 305
402.96994 -79.09408 164.75198 317
412.81564 -83.49928 165.41980 435
417.40903 -85.50757 167.80424 305
403.40942 -78.02973 164.74037 317
414.28561 -82.78377 165.13510 434
417.83716 -84.28598 167.81807 305
403.88080 -76.91299 164.74974 317
415.77014 -82.01606 164.88966 433
418.32962 -83.11485 167.78874 305
404.32248 -75.84101 164.77901 317
416.34531 -80.90919 164.87158 312
418.78195 -81.94402 167.79654 305
381.13568 -64.95621 171.62672 316
416.84747 -79.74997 164.85458 312
419.18634 -80.71360 167.84692 305
381.48120 -64.00857 171.63033 316
417.33685 -78.58152 164.83844 312
420.37097 -79.84309 167.64261 431
381.81815 -63.01894 171.60951 316
417.76535 -77.42711 164.86465 312
421.88718 -79.07956 167.37688 430
382.16626 -62.06219 171.63422 316
418.26154 -76.25885 164.84767 312
423.47934 -78.26593 167.10077 429
382.52670 -61.13594 171.61301 316
418.70181 -75.09370 164.84729 312
425.04163 -77.53704 166.83299 428
382.85782 -60.14755 171.63055 316
419.14758 -73.87135 164.80554 312
426.64709 -76.73972 166.54115 427
383.16461 -59.16240 171.63579 316
419.55597 -72.69768 164.80887 312
428.25644 -75.92539 166.22513 426
437.46817 -79.34754 167.83008 301
383.46790 -58.24479 171.62160 316
420.01074 -71.55292 164.85371 312
429.91901 -75.16278 165.90790 425
437.89673 -78.08148 167.81091 301
383.79083 -57.22947 171.65060 316
420.40277 -70.32053 164.80328 312
431.59213 -74.32048 165.60716 424
438.29434 -76.70972 167.85519 301
384.13184 -56.27642 171.64911 316
420.80099 -69.13880 164.80940 312
433.27435 -73.49289 165.32796 423
438.69986 -75.42617 167.88271 301
384.39230 -55.31454 171.66386 316
395.05997 -58.94061 171.72583 313
434.98151 -72.67506 164.97733 422
439.08075 -74.11314 167.89273 301
384.72403 -54.34097 171.66092 316
395.38947 -57.90488 171.74220 313
435.78058 -71.52104 164.88449 308
439.46371 -72.77350 167.90329 301
385.01038 -53.34599 171.67242 316
395.68173 -56.85679 171.74062 313
436.17645 -70.28837 164.90027 308
439.83261 -71.47673 167.88057 301
385.30362 -52.36555 171.63702 316
395.99350 -55.85446 171.75333 313
436.59164 -68.95317 164.89796 308
440.15997 -70.12592 167.87283 301
385.58899 -51.36992 171.67986 316
396.29959 -54.77965 171.77281 313
437.00232 -67.64683 164.92493 308
441.69113 -69.18105 167.63895 433
385.85419 -50.38629 171.66129 316
396.59186 -53.72326 171.77608 313
437.33905 -66.34814 164.89096 308
443.24371 -68.21926 167.40742 432
386.10498 -49.44010 171.67026 316
396.88965 -52.69448 171.76579 313
437.74078 -65.05345 164.91301 308
444.86493 -67.22485 167.07918 431
386.39429 -48.43119 171.65001 316
397.15198 -51.63734 171.74617 313
438.05664 -63.75233 164.88852 308
446.51721 -66.25303 166.80269 430
386.64264 -47.41803 171.68738 316
397.43915 -50.55836 171.76143 313
438.43973 -62.48794 164.88921 308
448.13644 -65.27872 166.56682 429
386.87332 -46.44516 171.64915 316
397.68747 -49.51464 171.78870 313
438.81400 -61.14575 164.89346 307
449.81128 -64.26636 166.26410 428
387.14328 -45.47707 171.65398 316
397.99792 -48.46777 171.78549 313
439.11548 -59.87038 164.92883 307
451.46796 -63.27798 165.96211 427
461.35034 -65.97913 167.91209 297
387.37537 -44.48700 171.68364 316
398.21625 -47.38421 171.76817 313
410.56918 -50.73358 171.87227 309
453.20432 -62.25394 165.63478 426
461.67773 -64.50807 167.89754 297
387.59653 -43.46776 171.68498 316
398.48312 -46.34399 171.78229 313
410.84332 -49.57984 171.90320 309
454.88116 -61.22310 165.35950 425
461.93845 -63.09475 167.96376 297
387.85080 -42.48446 171.67058 316
398.73990 -45.27151 171.79442 313
411.09964 -48.43295 171.91521 309
456.67554 -60.15958 165.00877 423
462.24725 -61.60011 167.93733 297
388.06229 -41.46371 171.65668 317
398.94684 -44.19021 171.79776 313
411.30829 -47.28668 171.90076 309
457.14670 -58.77277 164.97752 303
462.54300 -60.11257 167.95692 297
388.25797 -40.49291 171.69322 317
399.20132 -43.12161 171.77692 313
411.59790 -46.13766 171.88785 309
457.46927 -57.35146 164.98282 303
462.80789 -58.66788 167.96284 297
388.50677 -39.46731 171.70291 317
399.40527 -42.05857 171.76904 313
411.80267 -45.01960 171.89301 309
457.76035 -55.92822 164.99780 303
463.08173 -57.19686 167.97185 297
388.69604 -38.47105 171.69402 317
399.63510 -41.03278 171.78116 313
412.04550 -43.90153 171.91335 309
458.12399 -54.51550 164.96709 303
463.41751 -55.73140 167.97522 453
388.86609 -37.47770 171.69633 317
399.86819 -39.93312 171.77097 313
412.27032 -42.71813 171.89502 309
458.37543 -53.07526 165.02567 304
464.75488 -54.48701 167.79211 452
389.05368 -36.46216 171.70966 317
400.04657 -38.85652 171.79115 313
412.53000 -41.56998 171.93681 309
458.68372 -51.66770 165.01042 304
466.09128 -53.28077 167.59631 451
389.27344 -35.44566 171.66954 317
400.28604 -37.80526 171.81906 313
412.72348 -40.45186 171.92896 309
458.96036 -50.21560 164.98006 304
467.39374 -52.01019 167.37564 450
389.45239 -34.45906 171.70540 317
400.43771 -36.70958 171.80363 313
412.96259 -39.29813 171.90082 309
459.18341 -48.75677 165.01399 304
468.74283 -50.78043 167.13785 450
389.63998 -33.43322 171.71027 317
400.62177 -35.65376 171.82033 313
413.14764 -38.13118 171.92770 309
459.49060 -47.34704 165.02228 304
470.14731 -49.48550 166.88182 449
389.76331 -32.43071 171.70995 317
400.81003 -34.56008 171.79155 313
413.32727 -36.95722 171.94162 309
427.66382 -39.71853 172.04605 305
471.54150 -48.17391 166.66197 448
389.94931 -31.40347 171.68024 317
401.01489 -33.47113 171.80251 313
413.51910 -35.81814 171.91023 309
427.87360 -38.51257 172.08231 305
472.94986 -46.89111 166.44443 447
390.10016 -30.43828 171.68982 317
401.16870 -32.40938 171.79741 313
413.72995 -34.66681 171.94751 309
428.03070 -37.24753 172.04724 305
474.30780 -45.53468 166.20076 446
390.23837 -29.39440 171.68170 317
401.30872 -31.30526 171.78290 313
413.90536 -33.50103 171.92958 309
428.24133 -35.98322 172.05563 305
475.72046 -44.23370 165.99147 445
390.40631 -28.40417 171.67410 317
401.49878 -30.22269 171.81102 313
414.05637 -32.36090 171.90121 309
428.45117 -34.74347 172.04265 305
477.19839 -42.87772 165.74416 444
390.54132 -27.37049 171.69920 317
401.62030 -29.16680 171.80946 313
414.20905 -31.15859 171.92813 309
428.61453 -33.51246 172.07901 305
478.62927 -41.51218 165.48035 443
488.33447 -43.14590 168.04364 293
390.65857 -26.38856 171.67955 317
401.75629 -28.08639 171.79726 313
414.35077 -30.05637 171.90750 309
428.79184 -32.22956 172.07785 305
480.07529 -40.16787 165.26697 442
488.48660 -41.48422 168.10939 294
390.80228 -25.36137 171.69876 317
401.89865 -26.98312 171.79451 313
414.51544 -28.83929 171.94191 309
428.92755 -30.97874 172.04407 305
480.85446 -38.71703 165.11893 300
488.63651 -39.84995 168.08469 294
390.90750 -24.33045 171.68262 317
402.01962 -25.90493 171.79378 313
414.66162 -27.68324 171.93568 309
429.08160 -29.76667 172.08722 305
481.07608 -37.11250 165.17360 300
488.74429 -38.23222 168.12558 294
391.01584 -23.30432 171.69315 317
402.16983 -24.83022 171.82330 313
414.78247 -26.55044 171.93930 309
429.22006 -28.50979 172.08372 305
481.24225 -35.54021 165.13295 300
488.82187 -36.57785 168.13795 294
391.15610 -22.28119 171.71747 317
402.29465 -23.73144 171.83200 313
414.91971 -25.39869 171.92072 309
429.34540 -27.23491 172.05847 305
481.40018 -33.98130 165.16014 300
488.94687 -34.93694 168.17528 294
391.26331 -21.25553 171.71104 317
402.36929 -22.63785 171.82568 313
415.04657 -24.19081 171.92293 309
429.51038 -25.97405 172.09857 305
446.20032 -28.02857 172.20767 301
489.02750 -33.31933 168.19250 294
391.32224 -20.25974 171.69028 317
402.51654 -21.56053 171.82347 313
415.15503 -23.04599 171.96129 309
429.62396 -24.73820 172.06844 305
446.34882 -26.69592 172.25194 301
489.13504 -31.70122 168.19484 294
391.45160 -19.24947 171.70476 317
402.58084 -20.49872 171.82648 313
415.25455 -21.87638 171.96330 309
429.76230 -23.48516 172.06203 305
446.50421 -25.34298 172.22165 301
489.15643 -30.10795 168.22508 294
2115.93213 -210.33952 122.93124 317
2107.66602 -209.53670 154.53770 332
391.52353 -18.21019 171.68451 317
402.69836 -19.35995 171.80916 313
415.35605 -20.72237 171.93433 309
429.86258 -22.22495 172.05185 305
446.62415 -23.97780 172.21111 301
490.12326 -28.55729 168.09157 456
2084.20117 -195.41982 124.84478 365
2079.36401 -195.18794 155.30548 415
2119.09937 -199.27180 185.30861 304
391.58563 -17.19435 171.72205 317
402.78107 -18.26525 171.79735 313
415.45236 -19.52110 171.95850 309
429.93726 -20.99075 172.10576 305
446.71579 -22.59844 172.24442 301
491.32498 -27.05282 167.88040 455
2073.74707 -182.86786 125.26427 428
2072.09937 -182.63417 155.78955 460
2103.11450 -185.91534 185.41327 291
391.65869 -16.16392 171.68829 317
402.83716 -17.20169 171.79562 313
415.51270 -18.39661 171.95021 309
430.01782 -19.71997 172.10408 305
446.81503 -21.25954 172.24231 301
492.58505 -25.46296 167.64764 454
2067.50464 -170.93405 125.74236 460
2065.73682 -170.78101 155.87955 461
2101.23169 -173.77623 185.52435 329
58272.41797 -5359.74561 216.35661 1000
391.74921 -15.13003 171.71948 317
402.92426 -16.10573 171.82491 313
415.61951 -17.19982 171.94632 309
430.10931 -18.44818 172.05504 305
446.94098 -19.89023 172.25046 301
493.83743 -23.93926 167.44212 453
2061.19458 -158.85646 125.83649 483
2060.19727 -158.68240 156.32782 485
2099.86206 -162.31544 185.89114 279
391.80539 -14.10984 171.69292 317
402.97992 -15.02893 171.81790 313
415.69778 -15.99731 171.94035 309
430.20264 -17.19982 172.10085 305
447.00772 -18.49920 172.21423 301
495.13528 -22.38724 167.23888 452
2138.84814 -153.85612 90.75941 361
2055.79834 -146.99045 126.36890 462
2056.40576 -147.20691 156.36821 466
2106.99634 -151.41855 185.62111 462
391.82703 -13.07340 171.69328 317
403.02536 -13.89948 171.82195 313
415.72891 -14.87917 171.91646 309
430.29037 -15.95417 172.05417 305
447.04767 -17.15689 172.25244 301
496.37000 -20.82060 167.03508 451
2124.98633 -141.01057 91.92461 387
2050.74927 -135.37624 126.73322 468
2051.25781 -135.61238 156.43631 471
2204.31396 -146.94235 184.24654 380
391.87518 -12.07574 171.71942 317
403.11414 -12.82437 171.80698 313
415.82285 -13.66127 171.96150 309
430.31662 -14.67065 172.09465 305
447.16559 -15.78332 172.26074 301
497.20779 -19.19442 166.89870 483
2114.10352 -128.67725 92.67695 401
2045.66821 -123.96368 126.93343 469
2047.23315 -124.10323 156.56424 457
2105.16553 -127.65080 185.64639 454
391.94489 -11.06556 171.68434 317
403.13635 -11.71391 171.83795 313
415.86496 -12.50180 171.91621 309
430.38931 -13.41053 172.08034 305
447.21323 -14.41462 172.25905 301
497.86633 -17.58705 166.77321 482
2105.13159 -116.32817 92.97547 412
2040.27283 -112.22481 127.18861 469
2043.66357 -112.70229 157.03989 458
2215.86035 -123.27636 183.64348 499
391.97495 -10.01921 171.69284 317
403.16409 -10.63616 171.81818 313
415.89520 -11.34935 171.93776 309
430.45560 -12.13019 172.10735 305
447.29501 -13.09577 172.25829 301
498.57144 -15.93115 166.67442 482
2092.74390 -104.26636 93.85308 447
2035.12402 -101.11104 127.30270 470
2039.36682 -101.13354 157.29021 456
2165.00269 -107.82664 184.54541 260
391.98077 -8.99185 171.71236 317
403.23044 -9.54207 171.83296 313
415.90866 -10.15213 171.93588 309
430.46835 -10.86994 172.07985 305
447.30096 -11.73871 172.25851 301
466.97229 -12.65506 172.43893 297
2053.02515 -90.55976 96.44717 283
2030.55444 -89.25257 127.61266 477
2036.35474 -90.02792 157.00465 428
392.03119 -7.94043 171.69400 317
403.25357 -8.45794 171.79704 313
415.94711 -9.00745 171.93221 309
430.54504 -9.60151 172.09337 305
447.33032 -10.37788 172.22061 301
467.04190 -11.19098 172.47038 297
2043.73767 -78.78555 97.09231 349
2030.40417 -78.20790 127.52696 480
2033.34424 -78.34184 157.18649 428
392.05362 -6.93179 171.72470 317
403.25439 -7.34091 171.81937 313
415.97824 -7.80916 171.91446 309
430.52020 -8.33938 172.09613 305
447.40979 -8.96660 172.25331 301
467.06299 -9.71752 172.41486 297
2036.30090 -67.57580 97.82935 349
2022.80811 -67.15816 128.05655 481
2030.41699 -67.26723 157.33008 429
392.04236 -5.93654 171.72107 317
403.27054 -6.27168 171.82280 313
416.02530 -6.64320 171.92366 309
430.59805 -7.10727 172.05403 305
447.39752 -7.60926 172.21382 301
467.09869 -8.19615 172.44443 297
2029.06482 -55.95329 98.07231 356
2019.08252 -55.68626 128.18359 481
2027.92810 -56.28507 157.47670 433
392.05292 -4.86362 171.70209 317
403.28131 -5.15315 171.80357 313
415.99594 -5.49364 171.94373 309
430.60934 -5.84963 172.05975 305
447.42969 -6.27443 172.21666 301
467.11826 -6.71925 172.43889 297
2022.53845 -44.68059 98.51355 409
2014.93848 -44.70611 128.44569 482
2025.14148 -44.84068 157.74905 401
392.05139 -3.87799 171.73033 317
403.29590 -4.07607 171.82193 313
416.00787 -4.31939 171.93687 309
430.56183 -4.56918 172.10776 305
447.41797 -4.88348 172.26405 301
467.13742 -5.22914 172.44768 297
2017.17969 -33.70312 99.29548 414
2014.12097 -33.82444 128.60715 482
2022.76135 -33.91848 157.80104 408
392.05734 -2.82497 171.70714 317
403.28024 -2.96549 171.81328 313
416.02744 -3.14394 171.95807 309
430.56049 -3.33149 172.10823 305
447.40948 -3.51813 172.23788 301
467.12213 -3.78014 172.46280 297
2011.57373 -22.54433 99.50581 416
2009.98730 -22.76895 128.78709 486
2020.30762 -22.70250 157.94264 409
392.05502 -1.81501 171.73064 317
403.27466 -1.88894 171.82329 313
415.97659 -1.94331 171.95090 309
430.58655 -2.05440 172.10265 305
447.39957 -2.16036 172.26321 301
451.73840 -2.15138 175.19775 425
2006.97864 -11.67864 99.89452 420
2006.66113 -11.74313 128.99734 487
2018.23279 -11.76768 157.78999 409
391.99945 -0.76326 171.68259 317
403.26163 -0.77492 171.80223 313
415.95966 -0.75721 171.91277 309
430.56494 -0.77723 172.06451 305
447.42816 -0.79810 172.21347 301
467.09515 -0.78929 172.42674 297
2002.56641 -0.56789 99.83624 460
2002.89734 -0.70036 129.15036 487
2015.97498 -0.85136 158.02209 413
391.97314 0.24882 171.71437 317
403.21957 0.34088 171.81862 313
415.94525 0.38819 171.91904 309
430.51880 0.50145 172.09970 305
447.36310 0.56944 172.26480 301
467.08463 0.70116 172.40152 297
1998.25098 10.07137 100.19740 461
1996.82019 10.21271 129.49332 488
2013.61475 10.41962 157.82965 413
391.94043 1.27267 171.68663 317
403.17206 1.40933 171.83109 313
415.91040 1.55325 171.93497 309
430.47269 1.74406 172.08914 305
447.33972 1.92462 172.24915 301
451.88330 1.97693 175.19839 422
1994.52759 20.81826 100.77384 461
1991.97290 20.96452 129.77664 488
2012.36377 20.89194 157.82217 360
391.91425 2.30993 171.71696 317
403.15533 2.50625 171.83244 313
415.85669 2.76205 171.91029 309
430.42706 3.02899 172.06779 305
447.29568 3.33457 172.25746 301
467.00769 3.67784 172.46161 297
1990.53320 31.76323 100.71901 464
1988.88330 31.64822 129.67845 490
2011.21924 31.83615 158.10669 361
2104.52148 33.86555 278.00375 311
391.85269 3.30510 171.71049 317
403.09268 3.62779 171.81769 313
415.85623 3.93799 171.95720 309
430.41974 4.24682 172.10068 305
447.27121 4.72038 172.25139 301
466.99310 5.17348 172.43819 297
1986.82727 42.62354 100.95719 465
1986.05518 42.46433 129.90883 491
2010.23584 43.05156 158.18979 361
2059.21631 44.27482 186.51833 309
2125.29370 45.72461 278.73328 312
391.81873 4.34748 171.70427 317
403.04733 4.69552 171.83066 313
415.76978 5.06860 171.90884 309
430.34506 5.54428 172.08755 305
447.17612 6.03465 172.26807 301
466.91080 6.66327 172.45993 297
1983.75928 53.23286 101.12938 488
1982.85999 53.17360 130.08643 491
2008.68872 54.00692 158.36798 361
2032.09888 54.84248 186.78700 487
2086.23706 56.16613 277.36774 313
391.75998 5.39289 171.69185 317
403.01227 5.82236 171.78703 313
415.73129 6.27610 171.91895 309
430.28354 6.80084 172.08672 305
447.12817 7.40066 172.21156 301
466.84113 8.14250 172.41066 297
1980.50818 64.04755 101.64123 489
1980.12878 63.99165 130.45546 492
2007.98987 64.67721 158.21605 361
2027.76160 65.50723 187.13986 487
2106.56177 68.70396 247.26404 312
2032.10938 65.75178 275.58371 489
391.68433 6.40750 171.70346 317
402.91898 6.86364 171.78520 313
415.65665 7.44245 171.93636 309
430.24701 8.04298 172.05617 305
447.05518 8.78869 172.21727 301
466.76422 9.65041 172.43947 297
1977.51404 74.31511 101.60154 492
1977.64246 74.66782 130.51559 495
2020.52429 76.58797 157.98351 261
2023.74255 76.68340 187.24522 488
2123.81982 80.94552 216.72842 492
2068.15308 78.52735 246.94235 314
2012.71301 76.28239 274.95087 316
2097.39917 79.66547 308.62888 276
391.62772 7.42474 171.68613 317
402.87784 7.98729 171.78856 313
415.60330 8.61784 171.91501 309
