# .PCD v.7 - Point Cloud Data file format
VERSION .7
FIELDS x y z rgb
SIZE 4 4 4 4
TYPE F F F U
COUNT 1 1 1 1
WIDTH 1375
HEIGHT 1
VIEWPOINT 6466.631836 -621.925110 145.615295 -0.629864 -0.098918 -0.087230 0.765427
POINTS 1375
DATA ascii
429.21075 17.27744 172.05692 305
445.90305 18.73761 172.20956 301
494.14786 22.88018 167.22363 453
2538.13159 199.73158 101.89862 499
2561.36035 202.05899 139.60423 368
2578.40332 203.46162 177.38614 499
2578.19263 203.27499 216.44173 499
2576.55957 203.45309 255.05112 499
2598.41431 205.25931 294.08240 423
390.76068 15.00521 171.71404 317
401.92084 16.03369 171.81578 313
414.57980 17.22010 171.91327 309
429.04816 18.51690 172.07838 305
445.81213 20.10924 172.19957 301
492.84222 24.42106 167.36731 454
2536.47583 213.67358 101.81679 499
2560.27539 216.51733 139.39925 368
2577.03687 217.90292 177.24544 499
2577.22510 217.55266 216.30428 499
2576.05835 217.97162 255.06479 499
2597.81519 219.59984 294.25330 423
390.65182 15.99977 171.67203 317
401.81061 17.10686 171.81998 313
414.43268 18.34420 171.91713 309
428.88870 19.80404 172.04422 305
445.65460 21.46046 172.22488 301
491.58661 26.02159 167.55855 455
2538.38232 228.21800 102.11194 499
2560.21973 230.63533 139.07504 368
2576.52759 232.49142 177.58621 499
2575.10449 232.34834 215.80017 498
2576.00244 232.38293 254.71960 499
2596.63306 234.43478 294.43552 423
390.51596 17.01009 171.66805 317
401.64392 18.21598 171.78554 313
414.29083 19.54123 171.90366 309
428.78891 21.06167 172.07915 305
445.49503 22.77703 172.21114 301
490.39642 27.54673 167.79085 456
2537.21704 242.63750 101.56123 499
2558.94385 245.24002 139.45390 368
2581.09375 247.17171 177.61089 499
2580.19751 247.23091 216.34344 499
2580.20728 247.47516 255.14474 499
2595.86035 248.60515 293.86792 423
390.39221 18.06329 171.69966 317
401.53311 19.28207 171.81635 313
414.15759 20.71136 171.93437 309
428.61469 22.27668 172.07541 305
445.32376 24.15250 172.20000 301
489.13666 29.02727 167.97450 457
2536.58789 256.99567 102.06453 499
2558.56445 259.48584 139.46600 368
2579.92627 262.09381 177.38220 499
2580.09937 261.80518 216.22949 499
2578.59277 261.53513 254.57146 499
2594.40137 263.34540 294.06793 409
272.46939 5.22681 203.48320 285
401.37036 20.38740 171.81004 313
413.99457 21.84535 171.90565 309
428.45010 23.57585 172.02985 305
445.15738 25.49408 172.21301 301
487.92242 30.56803 168.15469 457
2533.21240 271.14404 102.09695 468
2557.69067 274.19598 139.02074 368
2578.76733 276.00824 177.61345 499
2579.01270 276.74429 215.91705 499
2577.62549 276.54706 255.06805 499
2593.48706 277.87564 294.38028 409
272.40591 5.52526 203.48141 285
401.21176 21.43154 171.77441 313
413.83368 23.02397 171.89330 309
428.31305 24.81283 172.02277 305
444.95139 26.88307 172.18657 301
487.58957 32.10538 168.19347 294
2531.72778 285.02026 101.77530 499
2556.66309 288.37634 139.36180 311
2578.30396 290.71698 177.39491 499
2578.21680 290.86078 215.81265 499
2576.79346 290.77603 255.18892 498
2592.56714 292.57413 294.28143 409
272.33078 5.80808 203.48439 285
401.09332 22.56089 171.78133 313
413.68188 24.17965 171.92880 309
428.11575 26.08449 172.07823 305
444.80298 28.25438 172.23096 301
487.47946 33.79098 168.14241 294
2531.18774 299.27051 101.62706 499
2556.57690 302.83243 138.91197 311
2577.32886 305.72110 177.02118 499
2576.90356 305.11304 215.77975 499
2576.11523 305.07617 254.95471 498
2591.70703 307.63208 294.02002 409
272.24417 6.10403 203.49561 285
400.92636 23.62343 171.80647 313
413.51782 25.35559 171.88783 309
427.91125 27.30584 172.06526 305
479.85031 34.36745 165.11310 300
487.38049 35.43581 168.10806 294
2533.03271 314.14691 101.61728 498
2555.75903 317.08838 139.14543 311
2576.21436 320.05750 177.33693 499
2575.97876 319.71826 215.89651 499
2574.88501 319.92715 254.82684 498
2590.78320 321.84262 294.01709 409
272.22647 6.39645 203.47211 286
400.74695 24.68689 171.76031 313
413.30966 26.50699 171.91583 309
427.73938 28.54592 172.04221 305
479.64429 35.94496 165.08119 300
487.21170 36.99305 168.12973 294
2531.97095 328.18802 101.48099 498
2555.32617 331.93329 139.21161 311
2575.58423 334.40622 177.17375 499
2575.44653 334.37231 215.93756 499
2574.19897 334.38596 254.82089 498
2590.27637 337.07874 294.05304 409
2679.43579 349.36493 338.24393 495
389.49164 24.12693 171.68987 317
400.57169 25.76482 171.79439 313
413.14172 27.65090 171.91907 309
427.54590 29.78453 172.04483 305
479.41037 37.47908 165.09985 300
487.04156 38.65342 168.10255 294
2531.22925 342.71054 101.56591 498
2554.80151 345.97552 138.76331 311
2574.38403 349.09482 176.88489 499
2574.03540 348.89896 215.84630 499
2574.15210 349.43454 254.65811 499
2590.01978 351.66312 294.55951 423
2678.80176 365.09778 337.69894 495
389.29779 25.14716 171.67409 317
400.37061 26.84848 171.77467 313
412.93735 28.80546 171.89578 309
427.33130 31.03434 172.05182 305
479.15329 39.04604 165.12575 300
486.85587 40.27127 168.07878 294
2527.52222 356.97412 101.74356 498
2554.00977 360.75082 138.75240 311
2573.22754 363.97269 176.92281 498
2573.14136 363.46561 216.38638 498
2572.80396 363.50452 254.82182 498
2589.41992 366.11572 294.61948 423
2636.17285 373.64374 335.79047 463
389.13019 26.18279 171.66063 317
400.18411 27.92710 171.76735 313
412.72827 29.98302 171.90211 309
427.15576 32.29259 172.02866 305
478.87985 40.61485 165.12828 443
486.67023 41.91367 168.06535 293
2526.64697 370.86789 101.47543 498
2553.65527 375.23672 138.60124 311
2578.66821 379.13306 215.93626 469
2651.63354 391.53561 296.34586 498
388.91357 27.16272 171.66347 317
400.02090 29.01222 171.77866 313
412.55789 31.14697 171.88123 309
426.90634 33.50746 172.01096 305
477.41357 42.02484 165.37173 444
486.45331 43.53969 168.05977 293
2527.61206 385.92181 101.23839 447
2552.93774 389.84784 139.09953 311
2670.69019 409.62781 297.21503 269
2654.14868 406.88174 337.11603 285
388.73749 28.18382 171.68457 317
399.80829 30.11636 171.75279 313
412.33694 32.28564 171.89705 309
426.69080 34.80875 172.04007 305
476.00812 43.34807 165.59282 445
486.27109 45.13796 168.02780 293
2527.48828 400.02356 101.09941 498
2552.14160 404.39621 138.41798 311
2651.99023 421.90344 296.95071 493
2651.00122 421.97693 336.93033 492
2694.18579 429.38397 380.47968 485
45650.10547 7902.89355 4749.35254 1000
388.53610 29.19777 171.65660 317
399.61935 31.16895 171.78786 313
412.11014 33.42979 171.87286 309
426.46518 36.01952 172.01379 305
474.55008 44.66083 165.82437 446
2526.74976 414.78909 101.10590 497
2551.68164 419.21371 138.97455 311
2652.83472 437.25488 337.47916 427
2699.92310 445.92969 380.60272 487
388.34479 30.21443 171.65312 317
399.35995 32.25697 171.77725 313
411.88367 34.56863 171.89091 309
426.20325 37.27977 172.00868 305
473.10031 46.01066 166.02130 447
2525.74609 429.35721 100.92033 497
2551.00000 433.62540 138.53290 311
2705.69531 462.88000 339.75806 452
2694.27563 460.47333 380.82144 445
388.12122 31.21177 171.66290 317
399.15179 33.31690 171.76843 313
411.65070 35.71942 171.86601 309
425.96320 38.47642 172.02605 305
471.71240 47.31963 166.26562 448
2522.18042 443.31238 100.81693 497
2550.25586 448.16089 138.24739 311
2692.79443 475.72238 298.06619 384
2672.64795 471.78305 338.60007 330
387.93167 32.23205 171.67006 317
398.94342 34.38717 171.77759 313
411.44345 36.87904 171.90863 309
425.73651 39.72204 172.03958 305
470.31235 48.61869 166.48616 449
2520.74438 457.43744 100.86617 497
387.72568 33.21202 171.67618 317
398.70755 35.50577 171.75368 313
411.14261 38.06408 171.87817 309
425.43848 41.00858 171.99400 305
468.90915 49.94868 166.72247 450
2522.62573 472.18738 100.87880 497
387.49783 34.21241 171.65268 317
398.44897 36.56657 171.78424 313
410.89581 39.19139 171.88136 309
457.08365 48.97663 164.95108 304
467.57825 51.23409 166.91656 451
2521.90918 487.04178 100.79217 496
387.26764 35.21226 171.65263 317
398.21893 37.60738 171.77254 313
410.65738 40.33308 171.85080 309
456.71002 50.43373 164.99333 304
466.24893 52.47332 167.07909 451
2520.66821 501.77048 100.47157 496
387.02792 36.21788 171.64728 317
397.96347 38.70353 171.73087 313
410.39694 41.47598 171.85040 309
456.42935 51.80764 164.93643 304
464.84238 53.75822 167.33157 452
2519.59448 516.17560 100.42051 479
19509.15820 4339.83691 5164.12158 1000
386.74960 37.20960 171.64398 317
397.72903 39.78603 171.75706 313
410.13834 42.65305 171.84984 309
456.08224 53.25519 164.98271 303
463.53534 54.96170 167.50978 453
2516.21021 530.19525 100.54868 496
2808.56592 597.95709 129.27985 496
386.52255 38.21021 171.66258 317
397.45667 40.80454 171.77170 313
409.83051 43.78587 171.84650 309
455.69177 54.67397 164.98631 303
462.16013 56.23662 167.71158 421
2515.45728 544.77454 100.56789 495
2718.80591 592.96295 131.80286 285
386.28235 39.21451 171.64645 317
397.17230 41.87940 171.73566 313
409.54425 44.91275 171.84569 309
455.35083 56.11937 164.94911 303
460.62695 57.38578 167.97627 298
2517.43823 560.03082 99.95586 495
2647.14941 591.80750 134.15388 404
2815.29907 633.18945 172.09012 423
386.00684 40.23338 171.62286 317
396.89795 42.97799 171.72723 313
409.23508 46.06428 171.83820 309
454.99936 57.51472 164.98799 303
460.24878 58.87142 167.94632 297
2516.41113 574.51764 99.82919 495
2600.58789 595.94879 135.82561 295
385.71332 41.23814 171.64577 317
396.59714 44.01723 171.74728 313
408.93646 47.20553 171.87236 309
454.63269 58.96430 164.95392 303
459.95078 60.33294 167.95610 297
2515.29980 589.27673 99.97145 495
2541.94604 596.01978 137.79420 316
385.45172 42.19804 171.63824 316
396.33307 45.05880 171.72777 313
408.67682 48.32133 171.85664 309
454.25064 60.38086 164.98763 303
459.63733 61.75974 167.90334 297
2512.06592 603.28711 100.07667 494
2541.07080 611.33459 137.25896 312
2550.13159 613.30548 176.88843 494
385.20126 43.19632 171.63084 316
396.04858 46.13192 171.75633 313
408.33530 49.47036 171.87212 309
453.21887 61.58033 165.12622 426
459.28085 63.27526 167.92952 297
2511.12769 618.52722 99.56320 494
2540.17383 626.17023 137.52753 312
384.91516 44.21342 171.63329 316
395.71869 47.18605 171.74947 313
408.03683 50.60694 171.86429 309
451.49789 62.62612 165.40338 427
458.89435 64.73125 167.88432 297
2512.56958 633.88953 99.23650 494
2538.65479 641.45038 137.36798 312
2548.33081 643.89520 176.78825 484
384.61697 45.18357 171.61697 316
395.42389 48.24295 171.73354 313
407.69000 51.75256 171.82672 309
449.74429 63.65480 165.66530 428
458.55853 66.15675 167.85544 297
2511.58765 648.70306 99.34409 493
2538.04102 656.11121 137.36226 312
2547.10132 658.65259 176.53185 483
384.29395 46.17756 171.63065 316
395.08530 49.32616 171.70686 313
436.06299 61.17089 164.83916 308
448.05286 64.70351 165.96097 429
458.19586 67.63755 167.84857 297
2511.16528 663.67487 98.81226 493
2537.34668 671.63153 136.99509 312
2545.98242 674.24066 176.77000 483
384.03043 47.15530 171.61850 316
394.77301 50.34275 171.72488 313
435.65958 62.48506 164.85501 308
446.39780 65.68648 166.23241 430
2507.28711 677.80438 98.90199 493
2536.34131 686.77454 137.24229 312
2545.22266 689.18121 176.53574 483
383.70053 48.16105 171.62627 316
394.48367 51.41703 171.72108 313
435.25336 63.81964 164.88889 308
444.75873 66.66029 166.52425 431
2506.21143 692.55548 99.08917 492
2535.44385 701.44080 137.18655 312
2544.52075 704.77167 176.37338 389
383.39917 49.15020 171.62999 316
394.10629 52.46195 171.71315 313
434.84280 65.08360 164.83842 308
443.11060 67.65263 166.77510 432
2507.98462 708.97644 98.80965 492
2604.90796 738.55554 134.64293 498
2607.18701 739.26050 175.50548 498
383.05475 50.10707 171.61284 316
393.77557 53.52474 171.73450 313
434.44440 66.40684 164.86841 308
441.50821 68.64779 167.06355 433
2508.14160 724.01825 98.11582 432
2599.46533 752.96667 134.69157 499
2600.81519 753.55511 175.12584 498
382.72449 51.10086 171.60440 316
393.45789 54.57138 171.71877 313
434.01392 67.66735 164.83313 308
439.90677 69.63232 167.28946 434
2606.47046 771.20312 93.24345 450
2593.67065 767.52155 134.42172 498
2595.10889 767.56073 174.90573 498
382.41794 52.05832 171.62277 316
393.06763 55.59280 171.70396 313
433.55350 68.98323 164.87106 308
438.20013 70.52754 167.63127 420
2602.90259 786.51056 92.91298 429
2587.62280 781.58490 134.18349 499
2588.96729 781.86975 175.15942 499
2787.74316 847.53320 215.63284 494
382.07910 53.03498 171.62015 316
392.72476 56.66576 171.72127 312
433.10422 70.28825 164.82744 308
436.64624 71.46703 167.82562 301
2605.95166 803.82428 92.46827 405
2586.36475 797.29565 134.31404 470
2588.31763 797.39905 175.12314 476
381.74182 54.02027 171.58588 316
392.36136 57.67787 171.69543 312
432.57535 71.54671 164.83151 308
436.20084 72.77383 167.83965 301
2588.95044 813.99139 134.19556 469
2550.73682 801.33990 175.87196 481
381.38678 55.00038 171.59279 316
391.99200 58.74041 171.69012 312
432.14786 72.83014 164.89064 308
435.76526 74.09181 167.80049 301
381.04034 55.96229 171.60225 316
391.62668 59.76076 171.67648 312
431.17325 73.89564 164.98108 424
435.33969 75.44846 167.79318 301
2549.01147 832.44617 215.68294 480
2590.25122 846.99207 256.89490 450
380.63596 56.92788 171.56560 316
417.15005 70.27581 164.74783 312
429.46011 74.74638 165.29353 425
434.88153 76.74738 167.77661 301
380.28122 57.89494 171.58376 316
416.65085 71.40302 164.78137 312
427.83371 75.57182 165.55232 426
434.43591 78.02103 167.77600 301
379.93570 58.85072 171.56564 316
416.18893 72.60038 164.78310 312
426.15164 76.36723 165.86646 427
433.98389 79.36028 167.79187 301
379.55646 59.82006 171.56282 316
415.71109 73.81422 164.80315 312
424.52344 77.17088 166.16850 428
433.48297 80.68990 167.78658 301
379.18057 60.77212 171.57436 316
415.22595 74.94139 164.78990 312
422.87592 78.00893 166.40390 429
432.99261 81.98106 167.77518 301
378.77783 61.75189 171.54245 316
414.71771 76.11693 164.78929 312
421.25311 78.78864 166.68036 430
378.37787 62.72418 171.54747 316
414.19757 77.28306 164.81064 312
419.71927 79.55280 166.98651 431
377.99716 63.64732 171.54004 316
413.66870 78.43723 164.77199 312
418.12088 80.31406 167.22041 432
377.54150 64.61877 171.52882 316
413.16006 79.62457 164.80971 312
416.54910 81.05122 167.51973 433
377.15662 65.56346 171.53633 316
412.61929 80.79084 164.81433 312
415.05844 81.80376 167.74593 434
376.73105 66.53487 171.52438 316
412.09842 81.96732 164.79039 312
414.40851 82.97926 167.79123 305
399.67065 77.79475 164.68118 317
411.52762 83.08511 164.78465 312
413.90497 84.16802 167.74846 305
399.15640 78.89019 164.71629 317
410.50180 84.04716 164.94273 436
413.39948 85.35059 167.74850 305
398.61768 79.95992 164.67831 317
409.02975 84.76001 165.22383 437
412.87723 86.48638 167.72617 305
398.12726 81.02351 164.69330 317
407.57217 85.43652 165.45094 438
412.37326 87.69799 167.75587 305
397.59866 82.11638 164.69263 317
405.98807 86.12318 165.74548 419
411.84525 88.89565 167.73434 305
397.03827 83.15166 164.68738 317
404.28687 86.65938 166.07353 421
411.30258 90.06458 167.75029 305
396.45859 84.20679 164.71971 317
402.64743 87.23637 166.37473 422
410.78586 91.20042 167.71426 305
395.90393 85.31467 164.72142 317
401.04199 87.82880 166.66008 423
410.22079 92.39877 167.69002 305
395.33350 86.31451 164.70305 317
399.39902 88.37366 166.93277 424
394.78464 87.39990 164.70839 317
397.80249 88.93304 167.21173 425
394.18585 88.42475 164.72520 317
396.24924 89.49388 167.53569 426
393.58673 89.47118 164.72916 317
394.94205 90.21796 167.71686 311
393.00613 90.49134 164.70642 317
394.38522 91.24518 167.69437 311
391.56885 91.09243 165.00536 428
393.81201 92.28551 167.72415 311
390.05380 91.62747 165.24724 429
393.25314 93.36094 167.70959 309
388.58215 92.13173 165.53110 430
392.69171 94.41833 167.70480 309
387.06818 92.65172 165.81224 431
392.11026 95.51417 167.70200 309
385.61600 93.18314 166.06714 432
391.53604 96.56973 167.65965 309
384.20245 93.65031 166.35666 433
390.94324 97.59017 167.67268 309
382.77560 94.15167 166.59760 434
390.35312 98.65546 167.65874 309
381.34360 94.66826 166.87489 435
389.70493 99.69997 167.65314 309
379.91327 95.14584 167.11191 436
378.52594 95.62782 167.36841 437
377.17242 96.10734 167.61340 438
376.41724 97.00088 167.60426 315
375.80878 97.96294 167.64526 315
375.19662 98.90923 167.62778 315
374.59424 99.83068 167.63620 315
373.97742 100.75126 167.60695 315
373.31116 101.69523 167.58203 315
372.67746 102.63164 167.58774 315
372.04404 103.54436 167.60995 315
371.36105 104.50153 167.59230 315
370.72784 105.40372 167.57501 313
370.07880 106.35033 167.57188 313
369.38922 107.27688 167.57101 313
1212.88538 920.22394 83.12633 466
1215.44104 922.81958 105.20649 465
1218.64062 925.95581 126.99698 419
1222.83093 929.88843 149.38536 274
1202.85059 922.18793 61.29105 494
1205.39453 924.48480 83.36320 498
1207.88586 926.91321 105.37746 497
1210.53162 929.69501 127.44987 497
1212.95312 931.93652 149.39574 497
1197.96362 929.36285 61.09840 477
1200.97180 932.20056 83.07853 477
1204.29346 935.09613 105.09666 434
1208.76599 939.22809 126.93674 360
1204.07935 946.21985 81.78098 300
33951.26172 47897.24609 -13445.69141 1000
29059.50000 57441.65625 -14821.96289 1000
388.46054 907.06244 78.83978 285
963.23242 3905.72266 1209.99719 1000
382.60284 907.64014 78.85281 434
377.66888 911.21143 62.93319 376
376.62021 905.80005 79.20657 465
371.51953 909.49866 63.43109 461
370.78152 904.87042 79.50382 466
370.61694 903.19116 95.23699 436
365.80167 908.37939 63.78982 462
364.92923 903.83307 79.82378 467
364.46295 900.08148 95.70219 468
366.20346 911.28723 109.47852 457
359.82806 907.22510 64.04053 462
358.82715 899.78680 80.72517 431
358.64685 898.55829 95.95320 470
360.25906 909.48553 109.77195 468
354.07364 906.24377 64.49225 463
352.90057 897.80426 81.07082 471
352.89706 897.61920 96.13702 470
352.30368 895.31982 111.52136 439
348.29770 905.23822 64.76373 464
347.18567 897.48090 81.20712 466
347.04962 896.80261 96.46667 471
346.48328 892.95215 112.02214 471
342.57428 904.38654 64.91484 465
341.92801 899.34351 81.05360 454
341.44031 895.66998 96.84906 471
340.83282 891.64105 112.12613 473
336.86920 903.35327 65.22215 465
336.17529 898.41217 81.47691 465
335.55682 894.81915 96.91267 472
335.06186 890.83618 112.34216 473
335.33881 891.76782 127.20045 434
331.04736 902.49542 65.50204 466
330.43808 897.53284 81.65225 465
329.97885 893.74255 97.13942 472
329.54279 889.82574 112.77850 474
329.48373 889.76373 127.64329 481
325.39182 901.47369 65.77767 466
324.86511 896.48798 81.83869 465
324.41272 892.87280 97.47350 473
323.84787 888.83710 112.97265 474
323.74829 888.59473 127.72047 490
319.67215 900.68146 66.23825 466
319.21210 895.53589 82.02129 466
318.42947 888.13019 98.07478 435
318.33936 887.86908 113.08031 474
318.38580 887.69989 127.91325 490
318.86456 892.47784 142.09230 376
314.11090 899.62225 66.49335 467
313.50699 894.67255 82.41128 466
24.56447 223.13737 -29.69370 475
312.87424 886.91681 113.12109 475
312.63049 886.88287 128.12253 491
313.19504 890.77710 142.33221 385
308.61130 898.68640 66.62124 467
308.11481 893.81464 82.50218 467
307.26556 887.81909 98.43509 332
307.07733 885.98035 113.43066 475
307.23526 885.90674 128.26035 491
307.65521 890.23145 142.60561 386
302.91174 897.59625 66.92654 468
302.33401 892.95074 82.82482 467
301.86884 887.84167 98.55204 458
301.66187 885.04474 113.60670 484
301.53973 885.19818 128.41501 492
302.01309 889.82440 142.47304 386
297.33389 896.67993 67.17085 468
296.78943 891.87347 82.97689 468
296.44519 886.88837 98.51499 469
296.06418 884.13422 113.74702 485
296.23254 884.24500 128.46436 492
296.50943 889.06573 142.63699 386
291.68817 895.83386 67.52113 468
291.30594 891.03040 83.28353 468
290.90225 886.01141 98.89535 470
290.53613 883.29919 113.94627 485
290.57172 883.52161 128.59457 492
291.12637 888.56580 142.83786 386
286.25461 894.92828 67.74206 469
285.67453 890.05518 83.54546 468
285.45358 885.09583 99.08167 471
284.84930 879.66199 114.35327 483
285.09036 882.67749 128.63034 493
285.61395 888.06451 142.76538 386
293.72372 990.11145 150.71165 264
280.59235 893.77850 67.95763 469
280.32410 888.97034 83.53778 469
279.90436 884.20178 99.27805 471
279.40457 877.22540 114.72343 492
279.73712 881.85681 128.77417 493
280.03543 887.45978 142.85536 386
282.45752 918.55591 155.42361 283
275.17828 893.06537 68.11333 470
274.74744 888.05353 83.94981 469
274.46890 883.31854 99.30124 471
273.88046 876.33740 114.84405 492
274.20145 880.93024 128.83911 493
274.72797 886.76343 143.09445 386
277.31335 927.70251 154.94319 284
269.49994 891.97205 68.31756 470
269.44589 887.13055 84.10760 470
269.00821 882.49426 99.44330 471
268.67798 875.70282 114.97736 492
268.80444 880.04181 128.95680 494
269.27737 886.06049 143.21623 387
272.92899 945.20233 153.88162 290
264.19116 891.22382 68.60562 470
263.92154 886.21851 84.28172 470
263.56546 881.41492 99.70662 471
263.31198 874.80542 115.03984 493
263.37286 879.18304 129.06136 494
263.81876 885.58441 143.21793 387
268.36536 967.52026 152.36893 286
258.58936 890.25616 68.66468 471
258.47253 885.48456 84.37521 470
258.12454 880.53497 99.73052 471
257.91745 873.93622 115.22059 493
258.08063 878.37524 129.31563 494
258.45584 884.99207 143.34375 387
266.39456 1050.81299 146.81714 300
253.05107 889.26465 68.92722 471
252.86806 884.51300 84.51752 469
252.80623 879.62952 100.03836 471
252.38361 873.03339 115.29893 493
252.76077 877.59546 129.35339 495
252.92627 884.39020 143.29202 387
260.11630 1052.09277 146.89082 494
247.70757 888.54242 69.05981 471
247.45212 883.53809 84.68488 470
247.41403 878.63965 100.13143 471
247.09477 872.39349 115.37679 436
247.35146 876.76990 129.63255 495
247.57538 884.05109 143.40819 302
253.46791 1051.48816 146.91383 496
242.35864 887.62317 69.25574 471
242.14674 882.60107 84.80899 470
242.05920 877.70575 100.37032 472
241.88293 871.81921 115.50054 436
241.95685 875.96198 129.68089 495
242.10999 883.81396 143.51210 302
247.37209 1059.45276 146.32317 299
236.95682 887.00183 69.31282 472
236.77715 881.76294 85.05742 470
236.63264 876.71759 100.36597 472
236.59117 871.15002 115.74822 436
236.62048 875.02313 129.76654 496
236.66602 883.79608 143.42480 302
242.02721 1108.42859 142.99121 497
231.43199 886.32788 69.64231 472
231.27991 880.74591 85.15816 470
231.35934 875.83752 100.69068 472
231.10315 870.36072 115.70929 436
231.12672 874.31836 129.91679 496
231.47020 883.51373 143.45345 302
235.70367 1119.81702 142.35181 291
226.16093 885.48413 69.61182 472
226.04677 879.82812 85.30618 471
226.03331 875.02692 100.75429 473
225.78967 869.77936 115.99807 436
226.02119 873.56024 129.97462 496
225.93697 883.30487 143.46286 302
228.74895 1125.66101 142.17169 496
220.64027 884.77881 69.83286 472
220.75145 878.82123 85.45847 471
220.55322 873.92657 100.79836 473
220.58499 868.84521 116.02856 495
220.50061 872.68610 129.97543 496
220.61314 883.18860 143.63182 303
221.90096 1126.35962 141.84547 264
215.21594 884.00513 69.92660 472
215.35223 877.88696 85.59236 471
215.32233 873.06384 101.02367 473
215.21767 867.95831 116.06704 495
215.44266 871.69855 130.11743 497
215.27913 882.99658 143.55159 268
215.28221 1127.82642 142.04303 264
209.93439 883.26379 70.10988 473
209.97363 876.94037 85.72843 471
210.05447 872.04999 101.00914 473
209.93802 867.29364 116.20751 495
210.09831 871.07489 130.23289 497
209.85051 883.85638 143.53253 268
208.41898 1127.12744 142.06956 490
204.56346 882.69843 70.15273 473
204.64502 876.09650 86.03304 472
204.71664 871.37219 101.19418 473
204.77403 866.62561 116.32018 292
204.85857 870.16974 130.20065 497
204.51001 884.78436 143.31377 268
199.13063 881.89771 70.30487 473
199.44240 875.11029 86.00598 472
199.35802 870.38599 101.39296 474
199.61055 866.55481 116.16119 292
199.48743 869.43420 130.24651 497
199.10213 885.48688 143.29826 268
193.87532 881.15131 70.26708 473
194.15807 874.28870 86.25479 472
194.22308 869.43500 101.51752 474
194.38129 866.62830 116.31900 283
194.26125 868.60638 130.27916 497
193.73235 886.19556 143.37022 268
188.54344 880.50354 70.38909 473
188.86200 873.43500 86.25072 472
188.82195 868.57758 101.54971 474
188.90228 866.35748 116.29036 497
189.07921 867.62451 130.47687 498
181.11041 1113.99219 124.49738 497
183.19745 879.64850 70.65618 473
183.38889 872.38818 86.53021 472
183.65659 867.57770 101.55685 474
183.77681 865.79596 116.32561 498
183.71706 867.02026 130.46098 498
174.54918 1112.17480 124.61852 498
177.75702 879.07617 70.57653 473
178.20786 871.51288 86.53004 473
178.36827 866.65399 101.62810 474
178.58282 864.79199 116.43156 498
178.50845 866.21674 130.58939 498
167.86125 1111.08862 124.66918 498
172.56619 878.41022 70.68890 474
172.87796 870.59790 86.65924 451
173.08449 865.79407 101.80283 475
173.21724 864.09253 116.54320 498
173.30484 865.39966 130.70825 498
161.15334 1110.15259 124.71074 498
167.28824 877.67975 70.91673 474
167.55899 869.99805 86.65821 451
168.01221 864.91357 101.93130 475
168.02548 863.16974 116.59653 498
167.96211 864.42847 130.77184 498
154.34882 1108.92969 124.82031 498
161.91084 876.93970 70.99176 474
162.30122 869.37701 86.84477 451
162.75012 863.97821 102.10152 475
162.84744 862.44763 116.66571 498
162.72069 863.62830 130.79887 498
147.57082 1107.83459 124.81180 498
156.62480 876.15930 70.91305 474
157.21596 868.71667 86.85948 451
157.61464 863.18646 101.98926 475
157.63503 861.72504 116.73551 498
157.54570 862.83936 130.70407 499
140.89824 1106.86304 124.91522 498
151.26732 875.46893 70.98028 474
151.82137 867.94037 86.88759 451
152.25662 862.28833 102.05779 475
152.39395 860.75262 116.66563 498
152.41266 862.10522 130.82510 499
134.29256 1105.90808 125.03116 498
145.97430 874.73871 71.04523 474
146.75163 867.32654 86.92231 451
147.22437 861.48114 102.16248 475
147.31871 860.03827 116.75716 499
147.13995 861.21069 130.95103 499
127.36015 1104.69165 124.93968 498
140.76111 874.23187 71.20022 474
141.51033 866.59119 86.91010 451
141.84900 860.63202 102.27680 475
142.00531 859.18207 116.64836 499
141.90485 860.42108 131.00514 499
120.72534 1103.65186 125.07864 498
135.38533 873.37207 71.23895 474
136.09969 865.89014 86.96978 451
136.82634 859.72620 102.19722 476
136.74083 858.45648 116.76076 499
136.86377 859.58429 130.86317 499
114.16966 1102.63660 125.18994 498
130.04428 872.75830 71.10577 474
130.83365 865.17908 86.93082 451
131.47908 858.90448 102.41023 476
131.62585 857.70703 116.94332 499
131.46115 858.85419 130.98904 499
107.61343 1101.60303 124.97826 498
124.85385 871.92249 71.21503 474
125.69832 864.56256 87.06544 451
126.44032 857.86835 102.47892 476
126.47632 856.75287 116.91538 499
126.31329 857.88623 131.11317 499
125.54028 866.77997 144.48647 498
119.57167 871.27515 71.09028 474
120.31744 863.92755 87.11175 451
121.18954 857.16992 102.50676 476
121.27206 855.90759 116.91628 499
121.15501 857.07855 131.01707 499
94.02810 1099.57764 125.31922 499
114.43669 870.62726 71.32321 474
115.28785 863.24884 87.08131 451
115.96582 856.27356 102.59315 476
116.18964 855.15692 117.05876 499
115.99557 856.43884 130.96233 499
87.61394 1098.46338 125.28640 499
86.30843 1108.69946 142.69751 466
108.94173 870.04022 71.24104 474
109.98728 862.49750 87.12963 451
110.73494 855.41553 102.45602 476
110.94709 854.29211 116.86126 499
110.77907 855.53607 131.16341 499
80.69485 1097.27454 125.15282 499
103.62655 869.31030 71.26627 474
104.61095 861.84021 87.08769 451
105.60720 854.48450 102.48874 476
105.75192 853.59460 117.00719 499
105.61109 854.66449 131.10344 499
74.04306 1096.36890 125.33721 499
98.50874 868.75079 71.11546 474
99.49409 861.24969 87.08811 451
100.59667 853.54980 102.57132 476
100.49916 852.84619 117.06970 499
100.40890 853.84357 131.14415 499
67.45792 1095.75574 125.13696 255
93.15430 868.01013 71.28069 474
94.15275 860.58167 87.09200 451
95.33289 852.69513 102.51598 476
95.50877 851.97827 117.11591 499
95.42067 853.06976 131.09868 499
60.41566 1098.56982 125.04959 499
87.73560 867.34509 71.30045 474
89.04280 859.81030 87.06628 451
90.14091 851.89301 102.63915 476
90.31300 851.18005 117.03532 499
90.07438 852.34479 131.16399 499
53.46148 1097.46741 124.78708 499
82.52035 866.59882 71.17088 474
83.72935 859.23370 86.98152 451
84.88545 851.02826 102.49670 453
85.13924 850.32147 117.13699 499
84.81422 851.55536 131.04251 499
46.91225 1096.64026 124.93954 499
77.24399 865.93542 71.13828 474
78.38018 858.59216 86.97741 451
79.78446 850.51233 102.47687 453
79.98976 849.54236 116.99684 499
79.63423 850.75555 131.12923 499
40.32647 1095.45911 125.05225 499
72.03326 865.14471 71.10424 474
73.27297 857.96332 86.96493 451
74.51119 849.84424 102.64130 453
74.83692 848.87659 117.04693 499
74.69035 849.97437 131.26805 499
33.42986 1094.24475 124.99111 499
66.69844 864.71820 71.19895 440
68.07044 857.33801 86.95303 451
69.41785 849.12817 102.50994 453
69.58187 847.83173 117.02658 499
69.41457 849.19128 131.11658 499
68.22045 856.02472 144.79529 285
26.21646 1096.65576 142.96967 499
61.33168 864.50720 70.95588 440
62.73861 856.59003 86.93994 451
64.28378 848.53473 102.43003 453
64.42419 847.12933 116.96969 499
64.34531 848.26746 131.20706 499
63.64313 850.95294 145.23848 478
19.47185 1095.49438 143.04137 499
55.87217 863.91986 70.75216 440
57.44652 856.12372 86.93182 451
59.00185 847.98065 102.35345 453
59.31641 846.41815 116.94679 499
58.99231 847.26825 131.02061 499
58.62087 849.50897 145.26363 493
14.90110 1084.11621 143.59950 258
50.64305 863.73004 70.85174 440
52.30219 855.39221 86.79828 451
53.72462 847.17749 102.55698 452
54.20713 845.47015 117.06851 499
53.96526 846.45648 131.11920 499
53.51183 848.77570 145.15318 493
20.64550 1018.03326 148.00851 270
45.20275 863.38995 70.58742 440
46.85836 854.47095 86.82710 450
48.62376 846.28662 102.36140 452
48.96765 844.80841 117.04295 499
48.74393 845.72070 131.05505 499
48.29919 848.03925 145.18042 493
15.85240 1010.86646 148.43344 485
39.91285 862.62396 70.54070 440
41.66840 853.60974 86.73147 449
43.50763 845.32819 102.51758 452
43.63044 843.96613 116.81179 499
43.59160 844.88348 131.13756 499
43.07438 847.19635 145.24779 493
9.60372 1010.28479 148.51434 466
34.50959 862.09485 70.51461 440
36.49296 852.90112 86.62630 449
38.13647 844.62946 102.45698 452
38.61834 843.14941 116.95729 499
38.24926 844.07471 131.11906 499
37.95757 846.42883 145.18874 493
3.12128 1009.39136 148.35341 493
29.03849 861.52802 70.48503 440
31.26451 851.97534 86.65185 449
33.13443 843.78009 102.35352 452
33.40956 842.25360 116.93549 499
33.09162 843.23779 130.99480 499
32.66967 845.64758 145.00919 493
-3.06529 1009.01709 148.15912 468
23.92874 860.80853 70.31534 440
25.90175 850.98859 86.59338 449
27.81156 842.80804 102.40881 452
28.27542 841.53058 116.72282 499
28.00395 842.33698 130.94040 499
27.52384 844.81262 145.10144 492
-27.15832 1087.17883 142.95215 498
18.48039 860.34924 70.11473 440
20.87120 850.25342 86.56724 449
22.55667 842.04150 102.20594 452
22.88252 840.59290 116.89319 498
22.83987 841.61603 130.96068 499
22.33191 844.04272 145.15543 492
-33.73636 1086.17688 143.03293 498
-36.01669 1094.88293 160.77107 498
13.00777 859.62299 70.04314 440
15.59257 849.58441 86.59490 435
17.37853 841.13049 102.31176 452
17.84757 839.93195 116.66544 498
17.68120 840.70264 130.97264 499
16.91101 843.27667 144.88071 492
16.32646 846.06976 158.95059 499
-42.66707 1094.30444 160.56709 498
7.56132 859.14465 69.96210 439
10.22422 848.96844 86.37833 435
12.23170 840.31012 102.09566 451
12.59325 838.95770 116.60194 498
12.42280 840.05835 130.91310 499
11.69165 842.26917 144.95926 492
-47.34581 1083.93677 143.00879 498
-49.72200 1093.26086 160.71236 498
2.22446 858.52191 69.99554 439
4.76414 848.21155 86.28204 435
7.15807 839.47998 102.06754 451
7.46383 838.32019 116.74068 498
7.18594 839.18750 130.82726 498
6.45276 841.66089 144.91112 492
5.61226 845.71722 158.99365 498
-56.39854 1092.19556 160.64796 498
-3.06548 857.75085 69.77457 439
-0.62822 847.72162 86.10939 435
1.93637 838.73889 102.01220 451
2.10160 837.42139 116.62027 498
1.86915 838.25012 130.75424 498
1.27553 840.79236 144.77805 492
0.19418 844.75800 158.87650 498
-63.28276 1091.01489 160.72180 498
-8.51178 857.33997 69.56380 439
-5.98053 847.16876 86.16380 435
-3.45554 837.84320 101.96284 451
-3.11677 836.67249 116.47935 498
-3.39133 837.49371 130.71391 498
-4.00615 839.96063 144.74065 492
-5.08748 844.12219 158.78847 498
-70.08986 1089.76208 160.47954 498
-14.01859 856.63055 69.41389 439
-11.28464 846.64386 85.91621 434
-8.58533 836.95020 101.85530 451
-8.22676 835.65247 116.39378 498
-8.57871 836.64282 130.70255 498
-9.28693 839.16864 144.87842 492
-10.20453 843.30725 158.86656 498
-76.95015 1088.79846 160.63106 497
-19.46995 855.96027 69.29674 439
-16.62957 845.97406 85.89751 434
-13.88438 836.14459 101.77921 451
-13.54233 835.03009 116.41092 497
-13.86736 835.89484 130.53246 498
-14.35471 838.32983 144.85109 491
-15.58701 842.66974 158.86607 497
-83.61275 1087.36707 160.65999 497
-24.85411 855.60339 69.06507 419
-21.87363 845.48486 85.59041 434
-19.00451 835.26410 101.78049 451
-18.66920 834.12292 116.35127 497
-18.95495 835.11572 130.57271 498
-19.81276 837.53748 144.59172 491
-20.90188 841.70923 158.73100 497
-90.34471 1086.43726 160.51862 498
-89.85155 1084.94312 179.11920 498
-30.46071 855.42181 68.93174 418
-27.46280 844.82935 85.65198 434
-24.45942 834.48535 101.71731 436
-24.00377 833.15771 116.31896 497
-24.31786 834.11285 130.54422 497
-25.01850 836.75751 144.60085 491
-26.28567 841.13550 158.65938 497
-26.21659 840.86261 173.20607 497
-96.67948 1083.44458 179.14018 499
-35.91041 855.06146 68.84744 418
-32.63713 844.09625 85.41631 434
-29.84855 834.05945 101.64718 436
-29.21559 832.37701 116.15332 497
-29.45904 833.30017 130.38336 497
-30.26194 835.93811 144.57349 491
-31.53958 840.35901 158.67531 497
-31.63341 840.62024 173.10246 497
-103.15995 1081.34521 179.17703 499
-41.56468 855.05627 68.50985 419
-38.16827 843.52441 85.19429 433
-35.13920 833.37476 101.48561 436
-34.44940 831.53217 115.97626 495
-34.86467 832.52167 130.36067 495
-35.61688 834.90393 144.50215 489
-36.82716 839.53210 158.53111 497
-37.16468 840.23981 172.88864 497
-109.67665 1079.14465 179.09570 499
-47.21985 854.56146 68.29245 419
-43.72077 843.06018 85.06521 433
-40.41667 832.75970 101.21097 436
-39.95626 831.01624 116.07378 495
-40.04330 831.91223 130.30661 495
-40.91783 834.39221 144.58020 488
-42.22382 838.78101 158.62198 496
-42.42808 839.48682 172.95107 496
-116.17776 1077.02087 179.16469 499
-52.63363 853.99872 68.16624 412
-49.00847 842.60095 84.99061 433
-45.83821 832.30402 101.00723 435
-45.26525 830.36548 115.83797 494
-45.50817 831.29059 130.09241 494
-46.23785 833.80884 144.44653 488
-47.59558 837.96600 158.56047 496
-47.85069 838.60522 172.93507 496
-121.74498 1071.89856 179.08595 434
-58.55069 853.81195 67.79538 413
-54.72779 842.14044 84.68857 431
-51.38684 831.80682 100.83235 434
-50.76151 829.92065 115.73444 494
-50.86877 830.74805 130.13814 494
-51.75095 833.18304 144.22331 488
-52.80926 836.97968 158.51666 492
-53.06137 837.65869 172.89044 492
-126.56657 1064.46985 179.52118 435
-64.10459 853.88293 67.53674 413
-60.09541 841.88544 84.57195 431
-56.88198 831.52893 100.78790 434
-56.07051 829.30420 115.68417 488
-56.28559 830.34088 129.89253 488
-57.32188 832.98840 144.11269 481
-58.56023 836.92908 158.44409 487
-58.79985 837.97540 172.82127 486
-131.78040 1057.91687 179.43826 340
-69.71124 853.48138 67.42018 413
-65.88943 841.63031 84.22656 430
-62.39904 831.51245 100.44672 434
-61.59879 829.28790 115.43131 488
-61.95919 830.36267 129.72296 487
-62.90031 832.95215 144.01016 480
-64.21931 837.13049 158.09840 486
-64.44607 838.01550 172.72719 486
-136.35703 1050.58069 179.81480 273
-75.70926 853.74622 67.04917 406
-71.42638 841.42908 84.18472 431
-67.90059 831.26068 100.33966 434
-67.19823 828.96497 115.23645 487
-67.53496 830.30621 129.72673 486
-68.50317 832.91510 143.80975 480
-70.04074 837.26343 158.13025 483
-70.33978 837.86359 172.50911 485
-81.61904 853.99835 66.55896 403
-77.16754 841.42169 83.82648 427
-73.69537 831.12793 100.02851 433
-72.89388 829.02795 114.99847 486
-73.22764 830.12238 129.34363 486
-74.25415 832.78558 143.64726 479
-75.72029 837.37262 158.03139 482
-76.01965 838.10992 172.37189 485
-87.68645 854.78986 66.11553 403
-83.21389 841.78412 83.36018 421
-79.26034 831.35431 99.79323 429
-78.45088 828.99951 114.79656 482
-79.06922 830.54449 129.33177 481
-79.95036 833.33270 143.64140 473
-81.68166 837.59320 157.71355 481
-81.86048 838.16437 172.49127 482
-93.89529 855.25153 65.72467 403
-89.13325 842.27338 83.04807 420
-85.11752 831.74432 99.49265 428
-84.31274 829.22186 114.66806 482
-84.97697 830.82397 128.94217 479
-85.83859 833.45544 143.25128 473
-87.33463 837.86823 157.59961 481
-87.60001 838.22711 172.26376 389
-100.03144 856.30090 65.11705 400
-94.99336 842.79193 82.66500 420
-91.11657 831.81201 99.20405 428
-89.96135 829.29895 114.29342 481
-90.55533 830.99902 128.86655 478
-91.85721 833.96045 143.21873 472
-93.07124 837.42963 157.64700 482
-96.00663 845.57483 171.81456 374
-2616.44629 7615.47510 1692.22046 1000
-106.48481 857.13892 64.78770 399
-101.16618 843.47711 82.22943 413
-97.05945 832.20703 99.02982 422
-95.74172 829.46558 114.03225 479
-96.57713 831.28265 128.62823 477
-97.66360 834.34369 142.89241 471
-101.48865 843.97461 157.03696 374
-104.51351 852.21643 171.42516 386
-112.81036 858.08282 64.27537 407
-107.45387 844.47314 81.75031 413
-102.91278 832.77875 98.66438 422
-101.77875 829.85785 113.74592 476
-102.62931 831.76965 128.40326 474
-103.98256 835.45007 142.65379 453
-109.44785 849.44489 156.35162 386
-113.76563 845.24451 81.23512 412
-109.07414 833.44342 98.20749 415
-107.74039 830.18878 113.58479 476
-108.72892 832.48340 127.96317 471
-110.04556 836.00793 142.39728 446
-117.13924 854.45380 155.88257 375
-120.01559 846.17065 80.98981 412
-115.32150 834.29175 97.85397 415
-113.85055 830.68536 113.25101 471
-114.69663 833.18866 127.80212 468
-116.13000 836.83563 142.31755 446
-126.35325 847.33771 80.36349 405
-121.30624 834.98297 97.49596 414
-120.02582 831.27338 112.93308 471
-120.90914 833.99127 127.54305 466
-122.78397 838.60657 141.95587 399
-133.04893 848.49872 79.84111 404
-127.79037 836.11432 96.88766 410
-125.20805 830.12909 112.62987 276
-127.33221 834.73529 127.03439 466
-129.28873 839.59961 141.60771 407
-10497.37402 25833.94531 3424.64307 1000
-139.58614 849.76886 79.17807 400
-134.19810 837.29242 96.59782 409
-130.79863 829.26501 112.66944 467
-133.56123 835.46417 126.91093 465
-135.64867 840.54846 141.30635 406
-146.40538 851.28003 78.66637 399
-140.66586 838.32758 96.04237 408
-137.21451 829.93945 112.11781 466
-139.81583 836.40106 126.50996 462
-142.25456 841.49500 140.92580 406
-153.00418 852.40576 78.07611 398
-147.30737 839.39801 95.40846 405
-143.26135 830.35046 112.01749 415
-146.41963 837.17529 126.22469 462
-155.45581 857.84894 139.29387 267
-160.13667 854.23987 77.48183 388
-154.00395 840.67676 94.89989 404
-149.67842 830.83649 111.62522 415
-152.80112 838.19592 125.84634 461
-160.76273 856.17865 139.41716 267
-166.98701 856.25171 76.64304 387
-160.91946 842.11200 94.50201 400
-155.90280 831.41162 111.22035 409
-159.58586 839.40613 125.54575 455
-166.42392 854.46930 139.39413 267
-174.23671 857.95697 76.22074 387
-167.80045 843.86847 93.92703 399
-162.43336 832.57727 110.70685 455
-166.15118 840.57849 125.07877 455
-171.60513 852.52820 139.24889 267
-181.49724 859.84113 75.34061 388
-174.80312 845.43127 93.39787 398
-169.22253 833.47247 110.43112 454
-172.97992 841.70148 124.75014 454
-177.24567 850.70044 139.30278 267
-188.63547 861.53864 74.67810 383
-181.83720 847.25696 92.81496 397
-175.88110 834.80225 109.99207 453
-179.77162 843.08777 124.35450 446
-182.50932 848.91876 139.00807 267
-196.10075 864.00421 73.78728 382
-189.09615 849.01447 92.14374 393
-182.89105 836.05261 109.49368 447
-186.88527 844.35760 123.72624 447
-189.37334 849.66663 138.79036 415
-203.75146 866.27362 73.04277 384
-196.52809 851.10284 91.35281 393
-189.68785 837.55096 108.96772 446
-193.79167 845.84973 123.40155 446
-196.45473 851.43250 138.58617 407
-211.52881 868.28992 72.35988 383
-203.87596 853.17896 90.63808 392
-196.92577 838.94055 108.33532 445
-201.07152 847.48627 122.96829 445
-203.78249 853.13086 137.94136 393
-219.57185 871.33374 71.26511 374
-211.29828 855.09570 90.18125 391
-203.98706 840.46851 107.84258 444
-208.45593 849.23291 122.57098 428
-211.73659 855.64929 137.64212 392
-227.79471 874.37152 70.31795 377
-219.39470 857.87067 89.32899 382
-211.69740 842.93317 107.17917 355
-216.12747 851.32001 122.00157 427
-219.25854 857.71118 137.21129 382
-236.01364 877.14221 69.41647 376
-227.57225 861.04346 88.45509 382
-219.55380 845.38196 106.60611 430
-223.76671 853.43402 121.37270 426
-227.06720 860.00848 136.59010 376
-244.69174 880.59113 68.40424 369
-235.65308 863.83691 87.48647 381
-227.47943 848.04559 105.79798 341
-231.55290 855.79346 120.82787 418
-234.98030 862.60095 136.18933 375
-253.24850 883.94098 67.52330 370
-244.40100 867.16553 86.67175 371
-235.98485 851.47876 105.13177 343
-239.63876 858.26691 120.34679 417
-243.44388 865.29187 135.79224 397
-262.22903 887.66199 66.23296 382
-253.25229 870.88062 85.55920 370
-244.82549 855.40680 104.12585 377
-247.73621 860.99536 119.58122 416
-251.79184 868.42236 135.20715 396
-262.04852 874.53741 84.73056 369
-253.41690 858.59625 103.40111 376
-255.94142 863.46674 119.03487 415
-260.13846 871.37695 134.63704 395
-271.08542 878.33472 83.52861 368
-262.17731 862.14124 102.65842 375
-264.22867 866.11804 118.44110 414
-268.86679 874.31897 133.92746 394
-280.17636 882.08960 82.68130 367
-270.80212 865.60907 101.64215 374
-272.75412 868.69269 117.90468 413
-277.77893 877.69672 133.51602 388
-289.41714 885.29828 81.68867 380
-279.93567 869.06390 100.91227 373
-281.12488 871.17902 117.28827 412
-286.68631 880.80701 132.92793 381
-298.54083 888.54712 80.80481 379
-289.24121 872.66986 99.79855 373
-289.61914 873.54407 116.51797 411
-295.62247 883.98993 132.26143 380
-307.56790 892.07928 79.67673 378
-298.57495 876.30066 98.91398 371
-298.55255 876.52405 115.74700 402
-305.12357 887.64038 131.57234 377
-317.26627 895.39886 78.64976 382
-308.06100 880.17242 98.18785 370
-307.55219 879.50616 115.30569 403
-315.06976 892.24860 130.89789 376
-317.80957 884.36780 97.06660 366
-316.46188 882.25311 114.41129 402
-325.07535 896.55023 130.26836 377
-327.72281 888.46143 95.97567 367
-326.36261 885.95081 113.72913 389
-335.33969 900.61633 129.30013 362
127.56592 148.33795 169.38647 485
-337.92776 892.62506 95.08087 379
-336.04510 889.47839 112.86250 388
-345.81833 905.64154 128.50874 363
-348.38617 897.21588 94.00677 378
-345.76898 893.36804 112.08766 378
-356.22589 909.52887 127.96556 362
124.74200 148.92374 168.87903 489
-358.95303 901.55627 92.97423 376
-356.18222 897.18048 111.28070 379
123.29296 149.21336 168.58125 278
-366.48724 901.28436 110.40219 378
-377.00195 905.27234 109.41960 377
120.73328 149.26830 168.18515 489
-385.63226 906.10590 108.87097 383
118.28290 150.98299 167.43497 316
117.43539 150.32686 167.39557 316
116.54568 149.69751 167.40111 316
115.67760 149.02306 167.43527 316
114.83224 148.36949 167.44987 316
111.72803 150.82268 166.37418 314
110.85054 150.20041 166.37213 314
109.96410 149.47025 166.40872 314
109.08376 148.80141 166.41563 314
108.22578 148.10631 166.37213 314
107.38391 147.40959 166.41553 314
106.48919 146.72682 166.39709 314
105.33452 146.40332 166.24438 423
103.79607 146.60565 165.93753 422
96.65589 155.50812 166.35883 310
102.21121 146.71121 165.66234 421
95.76063 154.75366 166.37404 310
100.64902 146.91580 165.33966 420
94.81872 153.99513 166.36401 310
99.03159 147.06030 165.04633 419
93.90845 153.22226 166.39014 310
-1695.26440 2303.85718 68.92067 489
-1695.32959 2304.47412 117.61350 489
-1696.45410 2305.47681 166.79506 456
-1696.58252 2306.37793 216.29836 456
-1697.34534 2307.25000 265.35553 402
97.41299 147.21698 164.72134 418
93.00819 152.45828 166.36519 310
95.81886 147.34824 164.38376 427
92.14860 151.62970 166.36499 310
94.25283 147.36708 164.08470 426
91.22795 150.87755 166.34532 310
92.62285 147.44574 163.82533 425
90.36258 150.06960 166.38298 310
91.03871 147.54207 163.46710 424
89.45659 149.29736 166.33977 310
89.98795 146.94656 163.40723 307
88.62142 148.47830 166.34750 310
89.17134 146.07272 163.46233 307
87.74208 147.65289 166.32130 310
88.40815 145.15909 163.47844 307
86.05033 147.69714 166.06801 422
87.66595 144.21590 163.48627 307
84.38161 147.78542 165.75256 421
75.70193 157.08357 166.30934 305
-40144.94922 43422.39453 5068.97852 1000
86.89077 143.33328 163.54514 307
82.64229 147.81311 165.40417 420
74.76897 156.18980 166.30562 305
86.16519 142.42416 163.53615 307
80.91570 147.89442 165.10175 418
73.85890 155.27214 166.28575 305
85.43177 141.50319 163.56834 307
79.15977 147.96423 164.77126 417
72.96507 154.40997 166.30499 306
105.22881 119.53255 171.49731 316
77.38077 148.03123 164.45685 416
72.06783 153.47932 166.27226 305
104.55711 118.77040 171.53448 316
75.57626 148.12321 164.12915 415
71.14388 152.55252 166.26140 305
103.91590 118.02879 171.50708 316
73.69834 148.20801 163.75990 414
70.29042 151.64949 166.24394 305
103.24182 117.29725 171.51961 316
71.85500 148.27348 163.40245 413
69.40074 150.73396 166.25272 305
102.57217 116.55584 171.52068 316
70.77097 147.60097 163.30775 304
68.50325 149.80995 166.26413 305
101.93595 115.81094 171.56195 316
69.97654 146.53130 163.36165 304
67.57351 148.87740 166.23123 305
101.30856 115.02843 171.54546 316
69.24531 145.51622 163.38342 304
66.11435 148.47281 166.06583 410
100.65285 114.28328 171.52957 316
68.49563 144.47552 163.42862 304
64.15705 148.55498 165.70450 409
100.02060 113.53730 171.57982 316
67.80362 143.42619 163.46912 304
62.17317 148.64687 165.32285 408
52.19104 157.94604 166.18428 301
99.35112 112.75983 171.58328 316
90.95200 120.47610 171.64638 312
60.15903 148.69365 165.01112 407
51.23092 156.87198 166.18185 301
98.73092 111.95076 171.58473 316
90.29085 119.62750 171.62802 312
58.10196 148.78629 164.63144 406
50.30677 155.80829 166.15216 301
98.11700 111.20664 171.59442 316
89.62550 118.82025 171.64716 312
56.03325 148.86006 164.23347 405
49.43177 154.77962 166.17409 301
97.49720 110.40882 171.60265 316
88.96536 117.95386 171.62433 312
53.92688 148.94174 163.81766 404
48.54786 153.72395 166.18671 301
96.90540 109.62054 171.60133 316
88.28266 117.14258 171.64133 312
51.74978 149.03964 163.41721 402
47.62368 152.61346 166.14844 301
96.29314 108.84589 171.58833 316
87.64377 116.29501 171.65440 312
50.22416 148.55779 163.21510 300
46.74823 151.59021 166.17935 301
95.68890 108.03813 171.60423 316
86.99926 115.44851 171.64954 312
49.49865 147.40060 163.29123 300
45.82861 150.49446 166.12598 301
95.07973 107.26736 171.61203 316
86.38689 114.56632 171.65227 312
48.73489 146.22969 163.29156 300
44.93382 149.41063 166.15112 301
94.50458 106.48174 171.62244 316
85.71706 113.75309 171.66374 312
75.76542 122.01887 171.73828 308
42.82843 149.35968 165.76660 398
93.91180 105.64482 171.61084 316
