# .PCD v.7 - Point Cloud Data file format
VERSION .7
FIELDS x y z rgb
SIZE 4 4 4 4
TYPE F F F U
COUNT 1 1 1 1
WIDTH 1351
HEIGHT 1
VIEWPOINT 6389.877441 -1066.358398 148.116379 -0.659344 -0.091576 -0.099551 0.739573
POINTS 1351
DATA ascii
61.36639 -97.36800 171.94281 308
48.77202 -104.83379 172.03194 304
34.13936 -113.55240 172.17435 300
17.01871 -123.69893 172.33434 296
-40.93421 -158.19487 165.20268 286
82.64398 -85.93407 171.73453 316
72.99223 -91.75845 171.84344 312
62.02901 -98.38281 171.92896 308
49.43235 -105.93546 172.03609 304
34.85086 -114.70542 172.14726 300
17.81560 -125.00136 172.29356 296
-39.93001 -159.81079 165.18793 286
83.25262 -86.79577 171.74837 316
73.60334 -92.71268 171.81676 312
62.67110 -99.39630 171.90558 308
50.13618 -107.00765 172.00703 304
35.63872 -115.87904 172.13878 300
-22.54744 -151.45898 163.52977 373
83.81473 -87.67657 171.71887 316
74.23660 -93.62644 171.84608 312
63.31023 -100.41066 171.89449 308
50.85355 -108.11050 172.00072 304
36.38375 -117.06793 172.12665 300
-18.91080 -151.35899 164.07535 374
84.42065 -88.53941 171.75606 316
74.81596 -94.58829 171.80528 312
63.96704 -101.36794 171.89217 308
51.51379 -109.20297 171.98941 304
37.14344 -118.23302 172.14566 300
-15.42111 -151.25626 164.62427 375
85.01027 -89.43651 171.73526 316
75.48130 -95.51134 171.82835 312
64.66997 -102.38605 171.90965 308
52.23253 -110.29823 171.99295 304
37.89710 -119.39043 172.14894 300
-11.96356 -151.21170 165.12932 377
85.59883 -90.31051 171.70416 316
76.11208 -96.43145 171.79872 312
65.34724 -103.37328 171.91496 308
52.99710 -111.32630 172.02940 304
38.66720 -120.59261 172.12245 300
-8.61693 -151.11102 165.60146 378
86.19365 -91.15793 171.73747 316
76.74959 -97.36461 171.80775 312
66.02933 -104.38941 171.89465 308
53.67803 -112.44169 172.00214 304
39.46018 -121.70992 172.11003 300
-7.15479 -152.23338 165.72981 291
86.82103 -92.01363 171.70502 316
77.38256 -98.25360 171.78897 312
66.70061 -105.38284 171.87305 308
54.42879 -113.48076 172.00992 304
40.26450 -122.85927 172.09790 300
-6.14144 -153.59221 165.75427 291
87.41743 -92.90940 171.69556 316
78.05972 -99.21746 171.81412 312
67.37175 -106.34703 171.86151 308
55.19505 -114.54530 172.00539 304
41.03616 -124.06286 172.12605 300
-5.08533 -154.98416 165.72955 291
88.06718 -93.73346 171.69106 316
78.67962 -100.11721 171.79224 312
68.10478 -107.33640 171.88647 308
55.91223 -115.62313 171.95245 304
4.22198 -150.76575 162.99286 383
-4.05617 -156.43369 165.80186 291
88.69141 -94.61783 171.72000 316
79.35962 -101.04389 171.80562 312
68.76733 -108.29537 171.88303 308
56.66393 -116.64181 171.95320 304
7.24553 -150.70403 163.52303 384
-3.02281 -157.83492 165.77446 290
89.28516 -95.44465 171.70877 316
80.01306 -101.94350 171.79327 312
69.46900 -109.29720 171.84070 308
57.44328 -117.68845 171.96230 304
10.24430 -150.63670 164.01657 385
-1.95066 -159.19650 165.73192 290
89.95256 -96.28736 171.70360 316
80.68375 -102.84019 171.75378 312
70.21349 -110.28188 171.86241 308
58.16520 -118.75198 171.94232 304
13.23477 -150.61356 164.50426 386
90.58704 -97.15852 171.70634 316
81.36588 -103.73518 171.78326 312
70.94733 -111.23061 171.86700 308
58.99256 -119.80294 171.98007 304
16.10419 -150.49603 164.98633 388
91.22220 -97.98946 171.66747 316
82.06861 -104.60590 171.76929 312
71.66999 -112.19551 171.86009 308
59.75009 -120.85758 171.96002 304
18.96336 -150.45084 165.39502 389
91.85800 -98.81876 171.67609 316
82.77014 -105.54575 171.73808 312
72.41998 -113.13554 171.86836 308
60.55555 -121.88835 171.95418 304
21.78341 -150.37207 165.86826 387
92.55312 -99.63670 171.65840 316
83.42023 -106.39323 171.72377 312
73.14842 -114.10773 171.84537 308
61.29071 -122.89619 171.91566 304
23.81800 -150.87973 166.13171 297
93.20877 -100.46350 171.64990 316
84.15263 -107.29308 171.76205 312
73.85751 -115.03289 171.81232 308
30.10572 -148.07068 163.29167 296
24.80558 -152.08531 166.14388 297
93.84013 -101.30302 171.63785 316
84.85315 -108.20794 171.73131 312
74.63724 -115.98662 171.81841 308
30.91664 -149.40172 163.23390 296
25.79436 -153.33025 166.11987 297
94.54662 -102.10928 171.65437 316
85.55610 -109.06544 171.75592 312
75.40556 -116.94494 171.80656 308
32.76815 -149.96815 163.41663 392
26.78913 -154.54187 166.11313 297
95.19263 -102.94519 171.63518 316
86.29471 -109.91177 171.73839 312
76.16281 -117.88609 171.81674 308
35.34557 -149.88194 163.86652 393
27.80097 -155.73894 166.12531 297
95.88503 -103.73209 171.66577 316
87.01048 -110.78748 171.73448 312
76.92583 -118.81235 171.79582 308
37.91178 -149.74486 164.32201 394
28.83636 -157.00406 166.13031 297
96.55882 -104.54775 171.63437 316
87.74895 -111.67386 171.71365 312
77.66806 -119.72531 171.81329 308
40.49534 -149.62929 164.79312 395
29.84109 -158.21709 166.16171 297
97.26647 -105.39595 171.61037 316
88.47167 -112.54447 171.73267 312
78.44763 -120.68073 171.77548 308
42.94551 -149.54591 165.17194 397
97.96376 -106.17760 171.62422 316
89.18645 -113.38976 171.71750 312
79.22909 -121.62398 171.78320 308
45.45362 -149.45222 165.58934 398
98.67316 -106.99514 171.63779 316
89.94875 -114.24960 171.67836 312
52.59117 -145.46674 163.41768 300
47.82835 -149.36157 166.00197 399
99.37857 -107.79607 171.59889 316
90.67606 -115.10152 171.69714 312
53.38671 -146.62016 163.39265 300
49.70358 -149.74080 166.26041 302
100.07610 -108.56905 171.61723 316
91.43279 -115.93549 171.67224 312
54.21404 -147.77667 163.32864 300
50.73059 -150.80629 166.26489 302
100.76395 -109.36330 171.62024 316
92.17960 -116.79496 171.69455 312
55.08454 -148.96085 163.32832 300
51.67538 -151.85031 166.22464 302
101.50076 -110.15720 171.59727 316
92.94973 -117.62519 171.68855 312
57.17735 -149.05910 163.68153 403
52.73084 -152.94286 166.27737 302
102.22893 -110.90189 171.59848 316
93.73599 -118.49475 171.64999 312
59.38877 -148.92717 164.07463 404
53.70472 -154.01813 166.28207 301
102.95512 -111.71274 171.60007 316
94.48782 -119.28060 171.65538 312
61.63454 -148.85646 164.45059 405
54.75698 -155.01402 166.24034 301
103.71522 -112.47356 171.59625 316
95.27992 -120.13480 171.64587 312
63.80057 -148.80635 164.83971 406
55.74484 -156.12125 166.26981 301
104.41344 -113.22255 171.57516 316
72.41139 -142.74994 163.58797 304
65.97108 -148.71057 165.19276 408
56.76927 -157.11069 166.26985 301
105.15542 -114.01893 171.56042 316
73.29121 -143.80249 163.53575 304
68.08955 -148.61444 165.53185 409
105.89701 -114.76199 171.54796 316
74.10458 -144.83609 163.50172 304
70.13863 -148.51944 165.89268 410
106.66663 -115.54973 171.54420 316
74.96558 -145.85406 163.49811 304
72.24046 -148.44380 166.27271 411
107.41916 -116.28200 171.56097 316
75.79801 -146.89583 163.45917 304
73.50658 -149.13121 166.34883 306
108.19709 -117.02451 171.52016 316
76.67036 -147.89156 163.39972 304
74.49728 -150.02214 166.38130 306
108.97118 -117.74780 171.54091 316
78.22226 -148.25687 163.60693 414
75.49636 -150.94720 166.33087 306
109.71108 -118.52119 171.54817 316
80.19724 -148.15558 163.95792 415
76.48778 -151.87050 166.39142 306
110.52470 -119.23660 171.50600 316
82.14040 -148.08563 164.29666 416
77.48232 -152.82039 166.39755 306
90.84761 -140.97772 163.66533 311
84.05534 -147.98979 164.66296 417
78.53615 -153.67152 166.40500 306
91.71614 -141.90186 163.62778 311
85.94353 -147.91905 164.94992 418
79.55123 -154.58717 166.40942 306
92.59311 -142.78584 163.61859 311
87.77760 -147.86781 165.27173 419
80.57867 -155.47911 166.36160 305
93.49432 -143.70619 163.58911 311
89.61332 -147.81392 165.64034 420
81.61748 -156.39847 166.35634 305
94.35529 -144.58304 163.56975 311
91.42715 -147.71512 165.94398 421
95.24971 -145.47115 163.51820 311
93.23920 -147.64461 166.21474 422
96.13306 -146.31740 163.53412 311
94.75371 -147.83330 166.44225 310
97.04294 -147.22867 163.46336 311
95.73587 -148.68201 166.45941 310
98.57671 -147.32799 163.74007 414
96.72881 -149.46780 166.46587 310
100.43014 -147.17810 164.07301 415
97.71416 -150.22836 166.48016 310
102.22330 -146.97769 164.40109 416
98.70029 -151.02162 166.46631 310
103.95052 -146.84317 164.72873 417
99.68959 -151.82668 166.44543 310
105.71169 -146.66866 165.08563 418
100.70257 -152.60034 166.44472 310
107.44654 -146.45364 165.35989 419
101.72861 -153.37569 166.44844 310
109.17032 -146.27742 165.71281 420
102.69180 -154.14639 166.46101 310
110.85337 -146.13010 165.99951 421
103.73734 -154.95352 166.47545 310
112.53137 -145.98589 166.31680 423
104.74610 -155.67232 166.47231 310
113.82985 -146.22864 166.47609 314
114.74290 -146.93698 166.44571 314
-1991.15308 -2855.38574 215.24298 323
115.73737 -147.64748 166.48099 314
-1939.57520 -2824.19727 215.28357 351
116.78581 -148.16904 166.51820 428
-1895.39307 -2803.18481 216.09201 360
118.39217 -148.03189 166.77191 429
117.66656 -149.03929 169.73036 430
-1856.99353 -2787.04077 215.43768 362
119.97999 -147.90314 167.06578 440
119.22195 -148.89342 169.97578 431
-1819.61475 -2772.30811 215.91780 372
121.41059 -147.93373 167.28297 440
120.78733 -148.74890 170.21779 432
-1784.96411 -2761.03125 215.26834 337
122.66106 -148.18678 167.39902 316
122.24992 -148.76527 170.40953 440
-1752.67517 -2753.03638 215.40324 343
-1820.04187 -2845.63892 272.64972 406
123.62141 -148.88077 167.39333 316
123.36802 -149.20528 170.50728 312
-1721.89136 -2744.76904 215.75121 341
-1797.19238 -2850.80884 273.22406 403
124.78486 -149.26523 167.47661 490
124.34109 -149.88049 170.50616 312
-1708.57043 -2762.24072 160.37418 398
-1690.38257 -2736.71509 216.19841 342
-1776.87085 -2859.64014 272.98325 379
125.56189 -150.17786 167.37415 316
-1677.05981 -2753.75903 161.10149 399
-1660.08728 -2728.38086 215.78697 343
-1780.86975 -2903.05566 272.99286 401
126.51932 -150.81654 167.38666 316
-1647.16931 -2745.71582 161.68333 400
-1629.92578 -2719.88184 215.52719 343
-1689.78259 -2807.21289 271.21997 410
-1616.81030 -2736.47363 162.10573 383
-1599.41882 -2711.37061 216.02469 344
-1667.94568 -2812.32373 270.86349 440
-1585.83252 -2727.92139 162.26016 384
-1570.69434 -2703.88208 215.65994 345
-1556.11768 -2718.55835 162.64099 385
-1541.35217 -2695.95801 215.61017 345
-1570.19849 -2739.23462 269.03314 414
-1647.92578 -2857.64331 327.81522 494
-1525.81482 -2707.63818 162.91283 301
-1512.94202 -2688.48096 215.50346 346
-1559.13074 -2759.32715 269.59222 384
-1495.68774 -2697.61108 163.43321 301
-1484.11841 -2681.01465 215.82343 346
-1555.40308 -2791.65210 269.67740 436
-1599.53479 -2859.85083 438.07758 416
-1466.17957 -2687.97266 163.69443 301
-1456.52905 -2673.33472 215.40985 347
-1548.53235 -2817.62842 270.66125 435
-1436.64978 -2678.24561 164.62044 302
-1429.35449 -2666.02588 216.24976 348
-1540.82190 -2844.51416 270.38931 434
-1408.20605 -2668.77417 164.70328 302
-1402.34399 -2658.09277 216.03036 348
-1532.72913 -2871.78979 271.35730 433
-1472.50598 -2773.54150 376.05157 406
-1380.10913 -2659.31616 165.19730 303
-1375.49683 -2651.37524 216.22894 349
-1524.85449 -2898.59814 271.39236 437
-1465.13428 -2799.60352 376.67154 405
-714.26361 -1581.30859 125.47578 300
-1352.28284 -2649.83740 165.46338 303
-1348.33167 -2644.16357 216.11026 350
-1457.66785 -2826.11304 377.18738 404
-696.18713 -1573.74243 126.13158 477
-698.35004 -1577.41260 156.06013 476
-701.75537 -1582.38867 185.94852 425
-1322.93518 -2636.46704 215.47807 350
-1450.25940 -2853.52222 378.72342 403
-686.11395 -1578.02637 126.22893 493
-687.89392 -1581.12756 155.97105 493
-689.85266 -1584.29895 185.88986 492
-691.90466 -1588.19055 216.03067 491
-679.58002 -1589.75171 126.30225 416
-684.70331 -1598.56824 156.06033 276
-1275.04114 -2629.59619 166.64421 352
-1274.64673 -2628.56421 216.20876 334
-1296.50342 -2705.33130 165.18916 418
-1402.98328 -2894.14624 215.86462 406
-1289.42712 -2731.43750 165.07930 417
-1375.80286 -2887.12036 216.05196 407
-1281.94507 -2758.38086 164.32703 413
-1280.72668 -2755.48340 216.08629 490
-1278.76306 -2752.96143 267.49652 479
-1258.03235 -2755.51440 164.42313 429
-1321.69348 -2872.22119 216.19656 409
-1267.74854 -2813.38916 164.08479 411
-1294.85388 -2864.53223 216.31294 409
-1260.16870 -2842.23901 163.45860 410
-1262.06604 -2846.13892 216.31145 431
-1224.90637 -2816.63037 163.91214 338
-1242.69275 -2850.38599 216.22284 411
-1217.64771 -2844.71973 215.80305 453
-1195.66272 -2845.36182 215.49593 453
-1176.09290 -2849.46924 215.76109 392
-22703.41016 -58612.81641 14883.94238 1000
-304.99176 -1397.45544 488.67838 1000
675.36761 -13972.19531 -700.12744 1000
15762.97168 -46943.58203 5904.92725 1000
1448.66992 -3377.45972 451.46689 1000
1206.21448 -1167.72473 92.08142 434
1210.95020 -1173.62109 116.61845 373
1209.91528 -1157.25562 92.46822 498
1212.58862 -1160.66016 117.05242 477
1215.07910 -1163.78796 141.73007 477
1219.15576 -1168.30554 166.71904 370
1216.87183 -1151.52991 92.36593 493
1219.26587 -1154.39050 117.15268 493
1221.54517 -1156.56531 142.15512 493
1224.72571 -1160.32703 166.67482 492
1227.90515 -1164.08606 191.76318 406
1227.60132 -1149.92883 92.07999 415
1230.56360 -1152.77490 116.63669 415
1235.59668 -1158.66772 141.58199 275
2185.41602 -2119.70825 170.03949 436
34245.22656 -36872.76562 12797.29883 1000
2240.73413 -2152.90698 120.62113 278
2201.09961 -2109.87866 170.39977 435
2233.08765 -2117.36597 121.84857 281
2215.34399 -2099.74927 169.69133 452
2236.76807 -2095.74585 122.29451 445
2230.82373 -2089.83203 169.57642 465
2253.49951 -2087.45215 122.12424 446
2245.90063 -2080.87744 170.25401 469
2269.97266 -2079.66406 121.58392 439
2261.69897 -2070.96216 169.49190 476
2286.52246 -2070.33618 121.38668 438
2278.48389 -2062.29517 169.60745 478
2427.38135 -2212.69189 217.18021 408
2302.67871 -2061.67627 121.58656 433
2294.54492 -2053.27783 169.48367 486
2427.81104 -2185.90234 217.34523 409
2319.49512 -2052.96240 121.22614 433
2310.46021 -2043.94043 169.39925 482
2427.77441 -2158.93896 217.27196 410
2337.71729 -2045.52759 121.14169 424
2327.65234 -2035.57446 169.72006 485
2427.84326 -2133.20459 217.59248 411
2355.63867 -2038.67224 120.66717 419
2344.69824 -2027.65503 169.59695 478
2427.10889 -2106.43823 217.18279 412
23976.23828 -22767.81445 4557.45020 1000
2374.97144 -2030.86389 120.45975 418
2363.17944 -2020.19116 169.00009 472
2427.50635 -2081.36230 217.44193 413
2394.03125 -2024.93750 120.39401 418
2382.57593 -2013.23840 169.36595 469
2427.01855 -2055.56445 217.21614 414
2414.06836 -2018.23608 119.83466 418
2402.11963 -2007.19971 169.00977 464
2426.97266 -2030.02393 217.63649 415
2434.94287 -2013.00757 119.96233 413
2421.80054 -2000.88403 169.19475 461
2435.78101 -2013.39465 217.08868 490
2457.53223 -2008.26599 119.06620 399
2443.51392 -1995.60693 169.00360 455
2448.94897 -2000.37512 217.78375 451
2482.76636 -2006.57568 118.61521 390
2466.13086 -1991.38464 168.76953 445
2471.63135 -1996.36780 217.06525 446
2509.69409 -2005.15479 117.97823 388
2490.72827 -1988.71216 168.28229 426
2536.17993 -2004.34631 117.71912 387
2517.58545 -1988.47559 168.09320 416
2563.91748 -2003.26721 116.88091 386
2546.19922 -1987.27405 167.76297 415
2592.11084 -2002.88123 116.37649 394
2574.07031 -1987.43945 167.50510 414
2620.98389 -2001.02185 115.11755 393
2602.99097 -1986.75891 167.09384 413
2649.36035 -2000.11047 114.45193 392
2632.29443 -1986.01917 166.58229 412
2678.14453 -1999.47290 114.10680 391
2661.96240 -1985.67932 166.25763 411
2708.09033 -1998.42603 112.94087 390
2691.54834 -1985.57458 165.84036 409
2737.41504 -1996.88049 112.87675 389
2722.76392 -1984.71484 164.97339 408
2768.47974 -1995.71423 111.45123 388
2753.10400 -1984.27222 165.40450 407
2799.47705 -1995.29041 110.63815 396
2784.37769 -1984.14929 164.69070 406
2832.47461 -1995.51416 109.95728 395
2816.48071 -1983.60461 164.55238 405
2865.20557 -1995.18933 109.47467 395
2849.19971 -1982.97168 163.59125 404
2897.71973 -1993.99536 108.26972 394
377.39288 -105.17805 167.64401 313
377.96527 -104.28058 167.64783 313
378.54279 -103.36072 167.63770 313
379.11417 -102.40238 167.66533 313
379.71979 -101.47605 167.65704 313
380.26010 -100.53999 167.66191 315
36471.58984 -24086.76953 -7687.14307 1000
380.84485 -99.58770 167.69608 315
381.42178 -98.64821 167.69621 315
382.00766 -97.71980 167.68204 315
382.53708 -96.76891 167.69780 315
383.12167 -95.84564 167.71112 315
383.67123 -94.89398 167.72256 315
384.53430 -94.09042 167.61205 435
385.89197 -93.64342 167.34795 434
387.27136 -93.13634 167.07150 433
396.25717 -98.45252 167.71233 309
388.63165 -92.68341 166.83815 432
396.80548 -97.40633 167.72455 309
390.02438 -92.22558 166.55307 431
397.36963 -96.36565 167.70216 309
391.46896 -91.71329 166.27396 430
397.86154 -95.32654 167.70950 309
392.91620 -91.22684 166.00392 429
398.38251 -94.28025 167.75450 309
394.35690 -90.67905 165.74425 428
398.90051 -93.20354 167.74374 309
395.81866 -90.20094 165.43478 427
399.40225 -92.14202 167.74878 309
397.28937 -89.66425 165.15085 426
399.92484 -91.07320 167.76561 309
398.81693 -89.18214 164.86313 425
400.42569 -90.00034 167.78900 309
399.52057 -88.21568 164.80362 317
400.90161 -88.92787 167.76642 311
400.09512 -87.18882 164.79103 317
401.87668 -88.08836 167.66852 424
400.58835 -86.16088 164.77664 317
403.41223 -87.57924 167.35855 423
401.08011 -85.11305 164.80215 317
405.00970 -87.03927 167.09004 422
401.62741 -84.03997 164.76190 316
406.59079 -86.47756 166.77693 421
402.11057 -82.99140 164.75822 316
408.01767 -85.81579 166.47874 439
416.57019 -89.87691 167.73766 305
402.58606 -81.94101 164.76149 316
409.38321 -85.13844 166.23438 438
417.02884 -88.71979 167.78407 305
403.07330 -80.86198 164.78979 316
410.83673 -84.45487 166.00743 438
417.50113 -87.54801 167.78479 305
403.54419 -79.77688 164.75706 316
412.21692 -83.78477 165.74719 437
417.98502 -86.35690 167.76584 305
403.98178 -78.72161 164.78027 316
413.65759 -83.03812 165.50363 436
418.48166 -85.17848 167.81850 305
404.43134 -77.65137 164.74899 316
415.11652 -82.35925 165.19197 435
418.89487 -84.00623 167.79585 305
404.86420 -76.56773 164.78815 316
416.60550 -81.65614 164.93321 434
419.34985 -82.82558 167.81757 305
405.35474 -75.46451 164.78371 316
417.42551 -80.63306 164.83936 312
419.80591 -81.66439 167.84892 305
382.12180 -64.51083 171.60876 316
417.87912 -79.45022 164.83315 312
420.24268 -80.43693 167.83928 305
382.44153 -63.52102 171.60982 316
418.34259 -78.28817 164.87035 312
421.12137 -79.47051 167.74051 432
382.79431 -62.60566 171.63454 316
418.81119 -77.17215 164.83354 312
422.61517 -78.69398 167.48209 431
383.14310 -61.63029 171.62729 316
419.23190 -75.96983 164.85413 312
424.20932 -77.94765 167.19438 430
383.49255 -60.65876 171.62398 316
419.73279 -74.83250 164.86784 312
425.73367 -77.20228 166.92949 429
383.80002 -59.70233 171.65111 316
420.16672 -73.65260 164.81903 312
427.31848 -76.40350 166.64122 427
384.15714 -58.74366 171.64948 316
420.56427 -72.44383 164.80768 312
428.93243 -75.61060 166.31107 426
438.53299 -79.25192 167.81975 301
384.45770 -57.78975 171.65382 316
420.97504 -71.29281 164.80775 312
430.55682 -74.85775 166.02768 425
438.94083 -77.92551 167.84015 301
384.77280 -56.85293 171.63223 316
421.41660 -70.09554 164.83865 312
432.25565 -74.05621 165.73253 424
439.36572 -76.58342 167.83429 301
2219.77734 -721.92126 78.61337 481
2227.41284 -724.80652 112.91300 441
385.07501 -55.86655 171.64865 316
421.81332 -68.91747 164.83522 312
433.87006 -73.22657 165.41835 423
439.75388 -75.30746 167.86919 301
2223.09741 -709.17780 78.46101 490
2228.36353 -710.96533 112.64873 489
2234.18750 -713.22791 147.53056 490
385.39301 -54.91684 171.67914 316
396.06268 -58.59305 171.75583 312
435.55966 -72.39538 165.09450 422
440.14841 -74.00305 167.83759 301
2239.90723 -701.14734 77.21941 338
385.69775 -53.95868 171.64410 316
396.34116 -57.57948 171.77899 312
436.80637 -71.41616 164.90785 308
440.50793 -72.64020 167.88553 301
385.96252 -52.95811 171.66986 316
396.68329 -56.53342 171.75606 312
437.22342 -70.13219 164.89008 308
440.84381 -71.34218 167.86935 301
386.28421 -52.00931 171.63911 316
396.95941 -55.50056 171.75107 312
437.62177 -68.84456 164.91144 308
441.23019 -70.04255 167.90691 301
386.53848 -51.03178 171.64980 316
397.29700 -54.44842 171.75856 312
437.95413 -67.52309 164.92654 308
442.12314 -68.88555 167.78645 433
386.80890 -50.01820 171.64990 316
397.59134 -53.41394 171.79657 312
438.36145 -66.26975 164.92374 308
443.67569 -67.91327 167.52477 432
387.07715 -49.06836 171.68257 316
397.82974 -52.36684 171.78978 312
438.70810 -64.93816 164.88269 307
445.27869 -66.97860 167.22174 431
387.31696 -48.06942 171.67474 316
398.15167 -51.31048 171.76624 312
439.12238 -63.69134 164.91745 307
446.90155 -65.99673 166.93631 430
387.59250 -47.09941 171.67337 316
398.40036 -50.26258 171.78009 312
439.46082 -62.39170 164.88663 307
448.55295 -65.06041 166.70898 429
387.83179 -46.12806 171.69284 316
398.69028 -49.22071 171.79791 312
439.81125 -61.08022 164.92519 307
450.15427 -64.06448 166.41745 428
388.10950 -45.11587 171.69263 316
398.94955 -48.17602 171.77928 312
440.15894 -59.74591 164.93515 307
451.80408 -63.06031 166.09312 427
462.41907 -66.05260 167.92638 297
388.31827 -44.13852 171.68027 316
399.19925 -47.15410 171.79865 312
440.44427 -58.48570 164.90695 307
453.50986 -62.05253 165.82471 426
462.72784 -64.58261 167.91356 297
388.57071 -43.14556 171.67447 316
399.46048 -46.09557 171.80219 312
411.77756 -49.40338 171.89709 308
455.20514 -61.02051 165.49675 425
463.06241 -63.15004 167.91406 297
388.76877 -42.18780 171.70522 316
399.67133 -45.00708 171.77130 312
412.04996 -48.23826 171.93054 308
456.97174 -59.98138 165.22171 424
463.33466 -61.68335 167.92845 297
388.99008 -41.19382 171.71077 316
399.93484 -43.97196 171.81282 312
412.32233 -47.13485 171.92886 308
458.18005 -58.81610 165.02438 303
463.62704 -60.22448 167.97870 297
389.21429 -40.16328 171.69630 316
400.12943 -42.91790 171.78992 312
412.53217 -45.98474 171.93028 308
458.45639 -57.41809 165.00357 303
463.91013 -58.76326 167.99240 297
389.44485 -39.17946 171.69005 316
400.39206 -41.85015 171.80289 312
412.77380 -44.86127 171.89250 308
458.81699 -55.98815 164.96889 303
464.15659 -57.26707 168.00244 297
389.63849 -38.17505 171.70876 316
400.60089 -40.79548 171.82016 312
413.01602 -43.67891 171.93092 308
459.08618 -54.55637 165.03497 303
464.41446 -55.77189 168.02037 297
389.80945 -37.21262 171.68950 316
400.80728 -39.70328 171.82269 312
413.23944 -42.58681 171.93819 309
459.39981 -53.12939 165.00536 303
464.83191 -54.38429 167.97141 453
390.02878 -36.17995 171.70341 316
400.99081 -38.64836 171.80609 312
413.46579 -41.40624 171.94574 309
459.65735 -51.73996 165.03386 303
466.20584 -53.15601 167.72800 452
390.17987 -35.21480 171.68524 316
401.19443 -37.58217 171.80905 312
413.68167 -40.26934 171.92914 309
459.93900 -50.25985 165.03607 303
467.51077 -51.90140 167.55118 451
390.36215 -34.18718 171.68359 316
401.40240 -36.51377 171.79439 312
413.90790 -39.10965 171.92360 309
460.21237 -48.84377 165.01044 303
468.86896 -50.68693 167.36430 450
28555.34570 -5941.58008 -3103.89087 1000
390.54193 -33.21509 171.71034 316
401.55774 -35.42979 171.81433 312
414.06900 -37.98668 171.93980 309
460.49359 -47.41903 164.98846 303
470.20074 -49.38536 167.08386 449
390.73236 -32.21566 171.67917 316
401.76230 -34.36784 171.80554 312
414.30127 -36.84550 171.94608 309
428.63586 -39.64875 172.07608 305
471.60272 -48.12861 166.87967 448
390.85373 -31.19125 171.72131 316
401.93600 -33.30740 171.82619 312
414.46973 -35.70641 171.95750 309
428.82864 -38.41131 172.05977 305
472.96655 -46.80719 166.67923 448
391.01422 -30.18599 171.71770 316
402.09015 -32.25845 171.83319 312
414.65881 -34.53284 171.92740 309
429.03046 -37.19026 172.07520 305
474.36191 -45.54890 166.45303 447
52654.45703 -9663.48633 9934.45703 1000
391.18976 -29.17181 171.69948 316
402.28046 -31.14688 171.82542 312
414.84756 -33.37705 171.92113 309
429.18893 -35.97651 172.08794 305
475.72586 -44.26357 166.19269 446
391.30219 -28.19504 171.68617 316
402.40686 -30.10593 171.83650 312
414.99417 -32.24573 171.92043 309
429.39438 -34.71550 172.04750 305
477.17719 -42.87589 165.99994 445
3108.06714 -494.67163 121.83435 344
391.45361 -27.16573 171.68382 316
402.55182 -28.99460 171.79320 312
415.16757 -31.10906 171.94769 309
429.55905 -33.49645 172.05858 305
478.59549 -41.54257 165.73601 444
489.49542 -43.40373 168.08817 293
3072.03784 -470.58234 123.00735 418
3113.13379 -477.52240 169.22511 310
391.60822 -26.16367 171.69356 316
402.67944 -27.90939 171.83777 312
415.31244 -29.95925 171.92133 309
429.74997 -32.25087 172.05786 305
480.00104 -40.23735 165.47697 443
489.64865 -41.78304 168.04449 293
3063.04736 -451.25592 123.60793 467
3101.74854 -457.05844 169.56444 322
391.71045 -25.16281 171.69275 316
402.85898 -26.84344 171.79324 312
415.42471 -28.77318 171.91455 309
429.89963 -31.00954 172.10764 305
481.48419 -38.85009 165.24199 442
489.76346 -40.12028 168.08636 293
3143.70020 -445.46027 72.02869 366
3056.79834 -432.12814 123.36403 490
3109.40771 -440.62085 169.51926 467
391.85410 -24.13011 171.70114 316
402.94986 -25.78475 171.82146 313
415.58243 -27.61495 171.96593 309
430.00378 -29.74179 172.10838 305
482.07019 -37.39277 165.11351 300
489.81329 -38.50873 168.09744 294
3124.80884 -424.82928 73.37478 395
3052.61475 -414.38538 123.82994 476
3201.52148 -435.41345 168.33064 481
391.95374 -23.11153 171.70650 316
403.10129 -24.67517 171.82008 313
415.71887 -26.46347 171.94395 309
430.20355 -28.51347 172.05659 305
482.28754 -35.79400 165.14606 301
489.97748 -36.84317 168.09961 294
3111.42969 -404.32385 74.56914 419
3047.35449 -395.55093 124.11227 477
3091.65698 -402.19821 169.90810 479
392.05316 -22.14293 171.70639 316
403.21375 -23.59702 171.82886 313
415.84705 -25.33227 171.97050 309
430.32959 -27.22001 172.07977 305
482.43658 -34.27212 165.16551 301
490.00897 -35.26906 168.18279 294
3097.23267 -384.45322 75.25710 453
3040.62183 -376.99811 124.49844 478
3143.85669 -391.14273 169.64357 275
392.14801 -21.11862 171.72493 316
403.28421 -22.52682 171.83942 313
415.97211 -24.13484 171.92410 309
430.46335 -26.02695 172.06754 305
482.60013 -32.68831 165.18402 301
490.10141 -33.60764 168.19768 294
3054.56299 -361.19095 77.13876 354
3036.41431 -359.34186 124.63680 484
392.23956 -20.07799 171.73524 316
403.38959 -21.47895 171.80551 313
416.04626 -22.98248 171.96098 309
430.55444 -24.78415 172.06520 305
447.29205 -26.82531 172.24051 301
490.23050 -31.97592 168.17857 294
3045.25439 -342.44641 77.98324 354
3032.38037 -340.69525 124.48208 484
392.33752 -19.07020 171.69290 316
403.52164 -20.36122 171.82773 313
416.18906 -21.83238 171.96382 309
430.66437 -23.51175 172.07912 305
447.44043 -25.45676 172.22552 301
490.24063 -30.39319 168.20615 294
3035.54712 -324.37912 78.25639 413
3028.96606 -323.03378 125.24287 467
392.43375 -18.07268 171.72795 316
403.59079 -19.30186 171.82413 313
416.29657 -20.64605 171.93158 309
430.75858 -22.27679 172.06358 305
447.58411 -24.05704 172.23349 301
490.29019 -28.74182 168.21992 294
3029.47974 -305.75220 79.04603 418
3025.83618 -305.77350 124.86946 468
392.47430 -17.05448 171.71257 316
403.69815 -18.22591 171.82130 313
416.37866 -19.48520 171.95789 309
430.86227 -20.98889 172.10722 305
447.67563 -22.75636 172.23994 301
491.15216 -27.20876 168.08466 455
3022.78442 -287.60077 78.85780 462
3022.98047 -287.93372 125.23668 470
392.58539 -16.04261 171.72205 316
403.73544 -17.12493 171.83456 313
416.43948 -18.33131 171.95235 309
431.00168 -19.75451 172.07013 305
447.78461 -21.38358 172.23517 301
492.36844 -25.67638 167.91139 455
3018.19312 -270.31046 79.27177 463
3020.89380 -270.64392 125.73226 438
37519.68359 -3609.65430 6414.31348 1000
392.61591 -15.00971 171.72136 316
403.80161 -16.01835 171.83025 313
416.51917 -17.18961 171.96355 309
431.05972 -18.47311 172.07330 305
447.86789 -20.02246 172.26848 301
493.61719 -24.14186 167.70309 454
3013.76416 -252.45210 79.50180 464
3019.85425 -252.83356 125.42727 440
392.68097 -14.00961 171.72372 316
403.87964 -14.94410 171.80380 313
416.61270 -16.02646 171.95726 309
431.13596 -17.27740 172.07497 305
447.97382 -18.65130 172.23500 301
494.86581 -22.60879 167.47838 453
3010.43188 -234.89995 79.96275 489
3018.27197 -235.30864 125.74955 441
3195.08325 -250.38338 266.12189 336
392.71832 -13.00907 171.69408 316
403.95145 -13.83548 171.81409 313
416.65155 -14.86346 171.96840 309
431.21329 -16.02046 172.06232 305
448.03256 -17.32563 172.25719 301
496.18036 -21.10172 167.27875 452
3006.84937 -217.32469 80.55421 490
3017.47217 -218.28127 125.46137 415
3115.31909 -226.07945 169.61063 384
3108.98120 -225.31194 264.89865 283
392.80115 -11.97226 171.72046 316
403.98697 -12.75209 171.84419 313
416.69632 -13.67574 171.94264 309
431.27164 -14.72324 172.08368 305
448.10577 -15.93964 172.27455 301
497.04468 -19.46402 167.10715 483
3003.86035 -199.89709 80.87653 490
3016.71655 -200.87636 125.52824 417
3141.10986 -210.03194 217.01825 312
3045.38940 -203.07263 263.32614 284
392.84360 -10.95455 171.71066 316
404.03778 -11.67349 171.84468 313
416.77817 -12.54289 171.96115 309
431.34796 -13.48081 172.08366 305
448.13971 -14.62671 172.26775 301
497.75070 -17.87510 166.99461 483
3001.94775 -183.03732 80.84774 493
3016.94702 -183.83911 125.66994 418
3056.67944 -186.86288 217.18617 495
3024.71118 -184.27269 263.43414 411
392.86996 -9.94502 171.72284 316
404.05963 -10.60727 171.82764 313
416.82016 -11.37894 171.94087 309
431.34677 -12.23959 172.06790 305
448.22672 -13.22201 172.24997 301
498.40717 -16.27640 166.92366 482
3000.11670 -165.60094 81.00004 494
3016.26904 -166.98404 125.62976 418
3109.85205 -172.48746 169.93179 313
3036.48926 -167.65939 217.64819 499
3035.64575 -168.20573 263.22610 425
392.88303 -8.89572 171.72461 316
404.10101 -9.50765 171.82393 313
416.83459 -10.16980 171.96198 309
431.39813 -10.99771 172.10548 305
448.23166 -11.89458 172.26712 301
467.94196 -12.92854 172.43295 297
2998.18872 -148.43976 80.75553 495
3017.99146 -149.42114 125.45447 364
3053.06958 -151.24020 171.00206 314
3037.10400 -150.88364 217.25046 499
3036.22607 -150.68694 263.38672 425
392.90524 -7.89286 171.70494 316
404.13867 -8.42469 171.83022 313
416.89578 -9.01644 171.95609 309
431.46100 -9.73505 172.11031 305
448.28256 -10.54968 172.22627 301
468.04340 -11.46219 172.43710 297
2996.63843 -131.27797 81.27628 495
3018.49707 -132.77525 125.74454 364
3036.35669 -133.66196 171.40686 499
3037.73291 -133.29283 217.05229 499
3037.61865 -133.28929 262.99625 425
392.89828 -6.84933 171.70364 316
404.17004 -7.33951 171.81729 313
416.88855 -7.87920 171.97273 309
431.48758 -8.47133 172.11295 305
448.32507 -9.17795 172.24274 301
468.04922 -9.95195 172.45349 297
2994.98999 -114.36588 80.90145 495
3019.14526 -115.18783 125.81744 364
3036.71191 -115.88757 171.01610 499
3038.26807 -116.57042 217.00710 499
3025.04150 -115.36445 263.00940 350
392.92700 -5.85450 171.73247 316
404.16388 -6.27092 171.80896 313
416.92435 -6.68193 171.97099 309
431.46664 -7.23365 172.09344 305
448.34943 -7.77942 172.27811 301
468.07123 -8.49019 172.46527 297
2993.73462 -97.58896 80.95764 496
3020.08276 -98.56120 125.83453 364
3037.17651 -99.14162 171.22322 499
3039.02222 -99.10823 217.07515 499
3024.76343 -98.40309 262.80798 350
392.94458 -4.81191 171.69650 316
404.15817 -5.18038 171.84892 313
416.89169 -5.52284 171.93858 309
431.48416 -5.97891 172.11763 305
448.34750 -6.44933 172.25560 301
468.06665 -7.01839 172.45351 297
2994.32837 -80.29270 81.60088 499
3021.29468 -81.07144 126.16316 364
3037.89404 -81.94991 171.07787 499
3037.96753 -81.84937 217.46405 499
3024.70386 -81.52121 263.24063 482
392.93552 -3.81934 171.72453 316
404.19580 -4.06993 171.83813 313
416.92374 -4.34103 171.93410 309
431.50946 -4.71219 172.06891 305
448.35776 -5.06663 172.24055 301
451.42346 -5.18493 175.48524 496
2996.82642 -63.34750 81.07617 499
3037.89722 -64.37602 125.59446 261
3032.81323 -64.23510 171.07997 499
3033.49512 -64.07548 217.56926 499
3024.71265 -63.89651 263.48776 482
392.91931 -2.79448 171.71574 316
404.16034 -2.97336 171.82878 313
416.91559 -3.19476 171.97015 309
431.50146 -3.42884 172.09779 305
448.38715 -3.73606 172.24153 301
451.43552 -3.79603 175.49147 496
2996.42554 -46.55002 81.54548 499
3038.59912 -47.42373 125.48527 499
3034.60425 -46.91663 171.17268 499
3034.72021 -47.34477 217.16083 499
3025.40747 -47.30882 263.04474 482
392.89990 -1.75035 171.71100 316
404.14343 -1.91413 171.83047 313
416.88327 -2.01209 171.92647 309
431.46674 -2.16413 172.10941 305
448.37036 -2.35675 172.24049 301
451.44870 -2.42464 175.44099 496
2993.82373 -29.71132 81.02077 499
3039.28662 -30.00173 125.52565 499
3035.47192 -30.19832 171.73961 499
3035.01733 -30.21785 217.15508 499
3025.78516 -30.13395 263.02185 482
392.89655 -0.74794 171.69566 316
404.13815 -0.81506 171.81679 313
416.89575 -0.86873 171.93587 309
431.46310 -0.93820 172.06810 305
448.34970 -0.98548 172.23746 301
451.45129 -1.02872 175.47917 496
2994.21509 -12.55487 81.61609 499
3039.92188 -12.68191 124.79643 499
3035.53833 -13.07327 171.54558 499
3035.83008 -13.21611 217.25661 499
3025.97974 -13.02697 262.96777 482
392.86386 0.28137 171.69873 316
404.10663 0.26713 171.82892 313
416.87012 0.30716 171.93518 309
431.42099 0.32756 172.09842 305
448.30890 0.35973 172.22690 301
451.44754 0.38459 175.46544 496
2996.69971 4.02816 80.86295 499
3040.12402 4.46511 125.40512 499
3036.27197 4.58924 170.93449 499
3036.59546 4.53794 217.63875 499
3026.23193 4.39464 263.35529 478
392.83929 1.30554 171.73692 316
404.05536 1.40475 171.82263 313
416.84393 1.46133 171.96640 309
431.43668 1.62007 172.09081 305
448.26688 1.70435 172.27338 301
451.41772 1.71619 175.44008 496
2997.54712 21.61555 81.22118 499
3040.36792 21.85098 124.75004 499
3042.12915 21.53209 170.85548 499
3042.21094 21.80923 217.49129 499
3026.80371 21.37090 263.48627 478
392.79724 2.33903 171.71805 316
404.05136 2.49233 171.80334 313
416.76892 2.62535 171.92426 309
431.35031 2.81882 172.11124 305
448.24612 3.09183 172.26637 301
451.43695 3.14840 175.44798 496
2998.07275 38.25010 80.99967 499
3041.13330 39.17940 125.32162 499
3042.17603 39.14129 171.35713 499
3042.85229 39.19046 217.42189 499
3027.84790 38.44348 263.25348 478
392.74744 3.35338 171.73579 316
403.96747 3.57046 171.83852 313
416.71689 3.81816 171.92458 309
431.32474 4.12619 172.11491 305
448.18954 4.41542 172.25372 301
451.40820 4.51627 175.41812 496
2995.14453 55.34162 81.12222 499
3041.78491 56.34684 124.74543 499
3042.54517 56.23903 170.94290 499
3042.67358 56.51931 217.48218 499
3027.95117 56.02284 262.87003 478
3191.89819 58.80364 314.37137 261
392.71713 4.34134 171.71501 316
403.95932 4.66422 171.81273 313
416.66333 5.00645 171.96039 309
431.25488 5.38783 172.09612 305
448.11703 5.76898 172.22989 301
467.90390 6.31346 172.40877 297
2995.89282 72.19280 80.81426 499
3042.36279 73.39005 125.03230 499
3043.08057 73.14185 171.11824 499
3043.67261 73.41930 217.13940 499
3028.77808 73.31545 262.83197 478
392.64175 5.35444 171.70956 316
403.86621 5.74888 171.83556 313
416.61063 6.14569 171.96455 309
431.21295 6.64496 172.08197 305
448.05154 7.17038 172.22290 301
467.79623 7.78993 172.46446 297
2998.84863 89.34871 81.30476 499
3042.65527 90.99091 125.40382 499
3044.22095 90.53024 170.75525 499
3044.02319 91.13416 217.49640 499
3029.41772 90.34078 263.29971 478
392.57776 6.38321 171.71658 316
403.80331 6.84205 171.83781 313
416.54260 7.29502 171.92612 309
431.12253 7.87490 172.09950 305
447.96637 8.54193 172.24673 301
467.71298 9.31088 172.44156 297
2999.89551 106.45895 80.79324 499
3044.01562 108.14342 125.34898 499
3044.08838 108.01811 170.96312 499
3044.43188 107.84490 217.26500 499
3030.56079 107.75935 263.05209 340
3150.08521 112.49439 313.45911 496
392.50839 7.40960 171.72473 316
403.75894 7.91582 171.79980 313
416.48013 8.49767 171.95840 309
431.05017 9.11094 172.05948 305
447.92993 9.87824 172.22894 301
467.60452 10.77995 172.44353 297
3000.27832 123.65421 81.01622 499
3044.17456 125.12330 124.51723 499
3044.55444 125.10863 170.84399 499
3044.81006 125.55833 217.12605 499
3032.51514 125.22852 263.40326 340
3131.92822 129.12103 312.31256 459
3225.90503 133.69771 365.09521 456
392.44720 8.44841 171.73186 316
403.63986 9.02888 171.80069 313
416.40686 9.63069 171.94267 309
430.96786 10.37309 172.10593 305
447.83865 11.23904 172.22220 301
467.52502 12.25455 172.40849 297
2997.72729 140.61642 80.96893 498
3044.76318 142.68770 124.86503 499
3045.31055 142.33554 170.84814 499
3045.02539 142.98404 216.92990 499
3051.31104 142.78780 263.26599 424
3110.67212 145.82990 312.08124 455
392.34903 9.44668 171.70207 316
403.56982 10.10822 171.79868 313
416.28210 10.84046 171.94565 309
430.87476 11.63833 172.10994 305
447.71759 12.61616 172.27412 301
498.47736 15.46398 166.80540 482
2998.05811 157.08310 80.87832 498
3294.52637 173.77524 116.40308 498
3126.09399 164.90863 264.80597 499
3172.49487 167.18390 313.92715 481
392.26602 10.48605 171.70543 316
403.46484 11.19031 171.80801 313
416.20486 12.00335 171.94609 309
430.77765 12.90768 172.07053 305
447.60315 13.93916 172.23026 301
497.74850 17.11408 166.91289 482
3001.77368 174.60257 80.47626 498
3295.03491 192.68205 117.07536 498
3128.77832 182.43985 312.35480 493
392.16299 11.48007 171.72119 316
403.36346 12.29156 171.82988 313
416.10373 13.17587 171.93240 309
430.68851 14.13952 172.05125 305
447.47433 15.33013 172.27219 301
497.13248 18.75620 166.99655 483
3002.10669 191.57381 80.70529 498
3296.37524 211.71968 116.31985 498
3128.25049 200.02313 312.78143 487
3175.68555 204.09967 362.93301 480
392.06989 12.52146 171.68352 316
403.28595 13.36957 171.81403 313
416.01553 14.33593 171.91405 309
430.58328 15.42761 172.09157 305
447.37772 16.70715 172.25966 301
496.21173 20.35439 167.10115 452
3002.55298 208.50262 80.32141 498
3191.56665 222.67241 314.94144 484
3177.24268 222.32217 362.57339 461
391.96371 13.51482 171.71201 316
403.18533 14.42595 171.82204 313
415.86664 15.48408 171.95618 309
430.45447 16.65654 172.09540 305
447.25601 18.05079 172.21371 301
494.89865 21.94519 167.30370 453
3000.06689 225.64958 80.18342 498
3164.81323 239.19977 313.62399 345
391.83301 14.53958 171.70938 316
403.05420 15.55317 171.79488 313
415.76974 16.66473 171.92058 309
430.30579 17.93858 172.09726 305
447.10538 19.37930 172.26656 301
493.66782 23.49244 167.55663 453
3000.88062 243.26851 80.37736 498
391.72061 15.55665 171.71809 316
402.91556 16.59284 171.79877 313
415.63831 17.81425 171.94205 309
430.13541 19.19423 172.06012 305
446.97278 20.75043 172.25652 301
492.41891 24.99947 167.72993 454
3003.63403 260.71344 79.82312 497
391.63379 16.58365 171.68591 316
402.78659 17.71803 171.81613 313
415.47223 18.99032 171.92714 309
430.02417 20.45173 172.06332 305
446.81525 22.12814 172.24313 301
491.20978 26.55923 167.93393 455
3004.72681 278.05603 80.39701 497
391.46268 17.61565 171.69276 316
402.68073 18.79068 171.80440 313
415.35733 20.15431 171.91545 309
429.88922 21.65899 172.04349 305
446.65686 23.45346 172.25856 301
489.94949 28.07950 168.09171 456
3005.16455 294.92648 79.85570 497
391.35562 18.60863 171.69305 316
402.50598 19.85155 171.82091 313
415.20377 21.29593 171.92831 309
429.73773 22.92755 172.05360 305
446.50308 24.78578 172.20705 301
489.24777 29.61429 168.16945 294
3002.85327 312.22018 79.92767 497
391.18127 19.64242 171.67574 316
402.37830 20.93604 171.78349 313
415.04391 22.47416 171.91188 309
429.54825 24.15790 172.08231 305
446.30786 26.14938 172.20651 301
489.12772 31.23664 168.19162 294
3004.61206 329.44547 79.48965 438
3288.53540 363.28998 116.47897 286
391.04242 20.65008 171.67908 316
402.24091 22.05725 171.82411 313
414.87891 23.59991 171.93013 309
429.34500 25.42527 172.08659 305
446.13727 27.54546 172.20886 301
489.01849 32.86745 168.11250 294
3006.26440 346.53940 79.84258 496
3164.56982 366.31915 120.04924 496
390.90115 21.63949 171.67564 316
402.06232 23.13286 171.77551 313
414.68564 24.79496 171.89333 309
429.20816 26.69419 172.04869 305
481.33655 33.53102 165.16560 300
488.92365 34.48838 168.16252 294
3007.06934 364.60101 79.34869 496
3165.62231 385.18207 120.21733 496
390.71811 22.68004 171.70052 316
401.90335 24.21720 171.77933 313
414.53201 25.91777 171.90707 309
429.01712 27.90609 172.03702 305
481.08365 35.07977 165.16048 300
488.75372 36.08487 168.10971 294
3005.17212 381.50467 79.22997 496
3165.84302 403.78677 120.34301 496
390.58832 23.66815 171.69969 316
401.71259 25.26006 171.78493 313
414.36243 27.07555 171.93123 309
428.81906 29.15395 172.04474 305
480.85956 36.63257 165.11671 300
488.58844 37.77136 168.11502 294
3005.68140 398.71634 79.22174 496
3313.09302 442.49765 114.79198 424
390.41669 24.69633 171.70435 316
401.53479 26.34670 171.78055 312
414.17548 28.24612 171.90746 309
428.60248 30.43340 172.06396 305
480.64136 38.21791 165.09984 300
488.42795 39.37295 168.04488 293
3008.85107 416.38849 79.02040 495
3044.54395 422.28644 123.99586 495
390.23441 25.71907 171.67189 316
401.35425 27.42108 171.79607 312
413.97598 29.41887 171.91188 309
428.39243 31.65384 172.04382 305
479.90790 39.68073 165.22696 443
488.27393 40.99889 168.03824 293
3008.84888 434.05215 78.47088 495
390.02048 26.71105 171.67238 316
401.13702 28.54611 171.81122 312
413.73080 30.58010 171.93007 309
428.19031 32.90061 172.06528 305
478.40872 41.04745 165.42598 444
488.04037 42.59820 168.05579 293
3009.35449 451.95303 78.29147 482
3046.14771 457.68964 123.95419 496
389.83713 27.74779 171.68246 316
400.96341 29.58764 171.79176 312
413.55026 31.71103 171.92636 309
427.95251 34.17430 172.01959 305
477.00940 42.42179 165.68994 445
487.82797 44.22078 168.00366 293
3007.40967 469.24686 78.46733 495
3063.79663 478.49359 122.99974 495
3217.55591 504.48911 167.72191 305
389.67654 28.74585 171.65889 316
400.74402 30.69310 171.79109 312
413.31335 32.89144 171.92824 309
427.68420 35.39466 172.01871 305
475.54227 43.77867 165.94450 445
3009.92114 486.63113 78.50343 430
3112.35229 505.22833 121.59220 497
3129.99634 507.59222 168.74464 273
389.46375 29.72517 171.66429 316
400.51321 31.76816 171.76292 312
413.08981 34.02778 171.87946 309
427.49551 36.64758 172.05093 305
474.15594 45.05100 166.12128 446
3012.20508 505.00659 77.67185 424
3106.85889 522.45258 121.05363 498
3116.78296 523.73676 168.92239 343
389.24762 30.73454 171.67339 316
400.32324 32.82791 171.78998 312
412.85480 35.18005 171.89175 309
427.24020 37.85060 172.06807 305
472.74921 46.40000 166.35220 447
3110.59741 540.69611 72.92073 453
3101.92798 539.04517 121.43910 498
3110.77393 540.80090 169.19720 461
389.01031 31.73412 171.68987 316
400.06503 33.90409 171.78105 312
412.62051 36.30351 171.90111 309
426.99091 39.12005 172.01990 305
471.31641 47.73758 166.60641 448
3105.92090 558.80139 72.62769 431
3096.53076 556.91492 121.76698 498
3105.67505 558.86603 169.54491 468
388.82651 32.75096 171.67691 316
399.85532 34.98103 171.78522 312
412.35544 37.48340 171.90627 309
426.70099 40.36111 172.03249 305
469.95114 48.97447 166.78174 449
3112.49146 577.75836 72.72883 411
3097.84912 575.61505 121.01550 474
3104.18506 576.44977 168.75928 482
388.57782 33.78171 171.64542 316
399.60776 36.05976 171.74680 312
412.11456 38.63863 171.89972 309
458.47040 48.19132 164.95889 303
468.59183 50.30603 167.03102 450
388.33417 34.76601 171.68394 316
399.35040 37.10536 171.75853 312
411.88330 39.75780 171.89070 309
458.13223 49.61435 164.95901 303
467.22006 51.58501 167.20807 451
388.12732 35.76318 171.67830 316
399.11765 38.15653 171.75641 312
411.60452 40.90844 171.89809 309
457.81549 51.05088 164.95096 303
465.83548 52.84790 167.42725 452
387.88956 36.75187 171.67313 316
398.85123 39.22082 171.77574 312
411.30637 42.08371 171.87430 308
457.46442 52.49294 164.96030 303
464.49231 54.05521 167.59612 452
387.59665 37.75234 171.65019 316
398.61261 40.33556 171.77113 312
411.03320 43.18109 171.90407 308
457.11514 53.88693 164.99939 303
463.20074 55.34343 167.81447 453
387.35129 38.73688 171.65091 316
398.34033 41.36647 171.74471 312
410.75153 44.32483 171.88060 308
456.76193 55.35631 164.95444 303
462.03857 56.57290 167.92848 297
387.09625 39.76695 171.64694 316
398.05740 42.42966 171.73790 312
410.47519 45.50874 171.86983 308
456.39658 56.72147 164.95723 303
461.72192 58.06362 167.93106 297
386.83618 40.73826 171.63039 316
397.76102 43.49483 171.76311 312
410.16266 46.63403 171.85535 308
455.98798 58.15027 164.96935 303
461.38861 59.52412 167.93903 297
386.56421 41.76419 171.66219 316
397.45453 44.54241 171.75444 312
409.83734 47.73814 171.84930 308
455.63831 59.55961 164.93932 303
461.10538 60.97196 167.93268 297
386.27124 42.75295 171.61844 316
397.16150 45.61908 171.72418 312
409.52417 48.86515 171.85890 308
454.50800 60.82598 165.13333 425
460.74835 62.46059 167.93423 297
386.00906 43.73507 171.63750 316
396.85397 46.67649 171.72398 312
409.23773 50.05555 171.87943 308
452.79831 61.85946 165.40820 426
460.39359 63.92863 167.88863 297
385.71927 44.69659 171.62015 316
396.54410 47.74971 171.75609 312
408.88834 51.16745 171.87549 308
451.09854 62.89410 165.70401 427
460.03320 65.33971 167.90225 297
385.42407 45.68695 171.62880 316
396.23264 48.80199 171.75531 312
437.40857 60.46685 164.90059 308
449.37384 63.89676 166.01273 428
459.64478 66.82156 167.87592 297
385.12036 46.69584 171.61194 316
395.95053 49.84721 171.71162 312
436.97977 61.79253 164.88426 308
447.71237 64.88833 166.28979 429
384.79553 47.69304 171.64619 316
395.61554 50.90535 171.74490 312
436.59937 63.09114 164.87219 308
446.04092 65.92503 166.51634 430
384.49292 48.65861 171.62515 316
395.26691 51.94951 171.70204 312
436.17996 64.41061 164.89641 308
444.36890 66.92545 166.80168 431
384.16788 49.64193 171.63950 316
394.94168 53.00236 171.72673 312
435.75909 65.69405 164.84740 308
442.78964 67.87569 167.07251 432
10674.49512 3252.83350 2025.88123 1000
383.81702 50.62284 171.60861 316
394.61255 54.01935 171.70749 312
435.28601 66.98862 164.83835 308
441.13971 68.86865 167.32117 433
383.49890 51.59267 171.62502 316
394.24796 55.09634 171.70844 312
434.88498 68.29187 164.85715 308
439.54550 69.81452 167.59128 434
383.17453 52.55586 171.61000 316
393.87375 56.13287 171.72404 312
434.43420 69.53378 164.83173 308
438.00992 70.72832 167.88048 301
382.79343 53.55264 171.61815 316
393.49689 57.15920 171.69040 312
433.94443 70.84468 164.83357 308
437.57773 72.04507 167.86182 301
382.47662 54.49084 171.60628 316
393.15054 58.22060 171.70389 312
433.47949 72.12280 164.84386 308
437.15005 73.38240 167.82256 301
382.12988 55.49332 171.61078 316
392.77502 59.22226 171.72299 312
432.54285 73.24725 164.99071 423
436.74487 74.69553 167.85475 301
381.74823 56.44353 171.57446 316
418.39389 69.62391 164.75545 312
430.84103 74.10073 165.26755 424
436.28931 76.02067 167.83328 301
381.36026 57.41684 171.59090 316
417.92825 70.79218 164.76054 312
429.19644 74.88675 165.58676 425
435.80661 77.33663 167.79123 301
381.00705 58.36097 171.58772 316
417.40756 71.98240 164.78874 312
427.51562 75.68913 165.83374 426
435.36465 78.66279 167.77908 301
380.65359 59.33238 171.55843 316
416.97012 73.12340 164.81050 312
425.84552 76.55322 166.14941 427
434.89319 79.94150 167.77925 301
380.24664 60.31516 171.57942 316
