# .PCD v.7 - Point Cloud Data file format
VERSION .7
FIELDS x y z rgb
SIZE 4 4 4 4
TYPE F F F U
COUNT 1 1 1 1
WIDTH 1422
HEIGHT 1
VIEWPOINT 6424.348633 -846.026733 145.569733 -0.640782 -0.094624 -0.092201 0.756270
POINTS 1422
DATA ascii
179.92303 831.24164 93.52506 441
179.88399 829.20648 107.60979 499
180.03409 830.61066 121.33026 499
179.73659 832.74445 134.80635 493
179.67485 837.90039 148.17805 498
179.54594 838.76794 162.08826 499
168.47783 1087.38086 163.76346 497
173.90552 852.09943 61.59167 414
174.44975 840.90747 78.04738 438
174.79308 831.25482 93.57130 441
174.80022 829.41687 107.53814 498
174.93306 830.87897 121.36596 498
174.73805 833.15503 134.85957 491
174.51808 838.29346 148.17949 498
174.41431 838.89099 161.90787 498
162.01485 1085.93372 163.83563 492
168.55165 852.65997 61.57322 416
169.29744 841.13751 77.87149 434
169.69809 831.59625 93.48840 441
169.96710 829.56360 107.59911 498
169.82451 831.03802 121.31164 497
169.68359 833.60712 134.73346 491
169.35173 838.51538 148.04555 498
169.38332 839.25421 162.01971 498
155.57787 1083.93457 163.86873 492
163.45432 853.11554 61.47905 416
163.99783 841.45032 77.65887 434
164.73227 831.97095 93.31802 441
164.80736 829.80469 107.48576 498
164.73453 831.47675 121.09522 497
164.55878 834.08862 134.69975 491
164.12381 838.84253 147.99792 497
164.25146 839.17474 161.93394 498
148.97336 1081.90503 163.81252 492
158.06805 853.76080 61.14799 416
158.82227 842.08051 77.61456 434
159.65324 832.17780 93.17284 440
159.63988 830.10065 107.48408 497
159.47491 831.99438 121.02528 496
159.39842 834.61469 134.64182 490
159.03661 838.63525 148.04369 497
158.86212 843.03003 161.73055 423
142.70432 1079.90417 163.88937 493
152.80870 854.19818 61.02930 415
153.65463 842.46832 77.52425 434
154.42279 832.56140 93.07025 436
154.61298 830.47162 107.32692 497
154.40369 832.33203 120.83443 496
154.17523 835.11841 134.38301 490
153.77667 841.60876 147.85770 423
153.32144 847.61865 161.36113 422
136.17549 1077.30225 164.00652 413
147.47891 855.19940 60.82208 415
148.54846 843.04321 77.18213 430
149.39177 832.94696 93.05559 436
149.62230 830.81897 107.28241 496
149.38748 832.97583 120.88257 495
148.97232 835.87604 134.47659 474
148.24188 845.85541 147.27571 433
147.66270 852.25708 161.01012 432
130.21208 1069.91431 164.37091 399
142.14862 855.88287 60.55325 414
143.15990 843.99579 76.95072 429
144.13055 833.54840 92.86379 436
144.49039 831.28265 107.11089 495
144.20013 833.52728 120.62530 493
144.00357 836.55396 134.31625 473
142.64958 849.92969 146.90094 432
142.17183 856.23108 160.70219 431
136.18559 925.98260 171.47203 262
137.00607 856.70526 60.42173 420
138.15053 844.79529 76.88586 429
139.08583 834.11670 92.65632 432
139.15314 831.91217 107.05212 493
139.05644 834.34399 120.65366 492
138.59906 837.25806 134.09669 468
137.21375 853.99194 146.76466 431
132.26498 906.00122 157.26091 262
118.74090 1050.78247 165.34457 260
131.63033 857.18030 60.29541 420
132.88589 845.33044 76.69139 429
133.78369 834.81055 92.44192 431
134.18694 832.45343 106.70669 493
133.92178 834.97955 120.38226 492
133.41331 838.11664 133.93469 468
129.39729 879.08813 144.53587 263
115.85666 1015.48431 150.21303 261
126.23221 858.10095 59.80175 417
127.52470 846.38654 76.49895 426
128.63893 835.39447 92.19733 431
128.83301 833.11487 106.59245 493
128.58719 835.91449 120.30032 490
128.24628 839.06183 133.90660 416
114.22169 971.38629 137.02687 261
120.78766 859.43732 59.61374 417
122.09145 847.33160 76.16499 424
123.49028 836.48486 91.94640 429
123.73177 833.91498 106.44807 489
123.43932 836.66290 120.19468 490
123.00591 840.29266 133.66458 426
105.46169 995.81836 134.80443 497
115.46433 860.33374 59.17228 416
116.94071 848.48956 75.85889 423
118.04881 837.46350 91.84563 428
118.40285 834.60461 106.38994 488
118.21276 837.44110 119.82448 490
117.62971 841.28674 133.52554 426
95.78140 1027.77734 132.17580 263
109.93591 861.56653 58.96167 408
111.58726 849.31671 75.53781 423
112.91498 838.42322 91.56862 428
113.16609 835.36200 106.14326 488
112.93635 838.36493 119.77655 488
112.25600 842.22827 133.44444 426
87.01464 1046.05066 130.70534 280
104.53244 863.16718 58.62669 407
106.07750 850.42371 75.33386 423
107.44805 839.32825 91.34225 428
107.99232 836.22864 105.99891 488
107.61430 839.22998 119.56752 488
106.99835 843.30035 133.25964 425
79.37935 1055.64148 129.69383 278
99.03728 864.57532 57.98252 407
100.75821 851.52087 74.99657 422
102.19036 840.25763 91.02242 425
102.71251 836.07349 105.74909 277
102.11108 840.19653 119.30766 488
101.76981 844.36597 133.11343 425
93.27005 866.21545 57.66095 406
95.35094 852.76172 74.65186 422
96.97121 841.34607 90.74472 425
97.77046 835.60449 105.70650 277
96.96296 841.06781 119.15542 484
96.08840 846.15540 132.79607 269
87.81144 867.56342 57.37576 406
89.76226 854.02246 74.24397 420
91.57533 842.61938 90.57618 422
92.62656 835.13062 105.72100 483
91.47909 842.39160 118.82508 483
90.99444 846.41431 132.52914 449
82.03290 869.05048 56.75672 406
84.18116 855.50909 73.96033 409
85.92506 843.98444 90.20309 422
87.32005 836.21106 105.37586 483
86.17530 843.39606 118.65694 484
85.42035 847.61676 132.41083 448
76.43727 870.72925 56.42503 407
78.56498 857.02136 73.66647 408
80.46915 845.23285 89.92630 422
81.90319 837.48260 105.31365 482
80.56050 844.34314 118.49490 483
80.03488 848.79999 132.13072 448
70.64272 872.19684 56.05962 407
73.11089 858.51422 73.13068 408
75.09980 846.53693 89.53226 421
76.47249 838.33917 105.02644 428
75.14085 845.53510 118.18915 483
74.46091 849.90576 132.06102 443
65.03267 873.67114 55.54388 406
67.49332 859.89557 72.78432 407
69.63477 847.90717 89.29058 421
70.99198 839.33154 104.78352 427
69.54612 846.94568 117.95661 477
68.86208 851.39838 131.72913 443
61.64032 861.39679 72.24634 406
63.87784 849.35883 88.82922 418
65.46873 840.47675 104.36179 425
64.00479 848.20471 117.68758 477
63.16876 852.89374 131.43237 442
56.08779 863.33270 71.92818 406
58.36821 851.00415 88.41410 418
60.17793 841.36243 104.23389 424
58.65521 849.62646 117.41720 477
57.52709 854.34412 131.21269 432
50.09649 865.09186 71.26598 405
52.49868 852.57745 88.12305 417
54.46123 842.65350 103.76784 476
52.91413 850.92596 117.06787 476
51.87883 855.69739 130.97278 432
44.35886 866.78778 70.81715 407
46.84541 854.42853 87.62717 417
49.01461 843.86639 103.53551 475
47.29286 852.39160 116.97845 464
46.14844 857.61371 130.80736 422
38.65343 868.52979 70.34961 402
41.14833 855.93433 87.25256 416
43.25363 845.38055 103.16640 467
41.47651 854.32104 116.48979 465
40.30164 859.59027 130.37634 421
32.60285 870.90851 69.94740 401
35.10761 858.25433 86.63081 411
37.68097 847.09778 102.71272 466
35.76869 856.05054 116.28205 464
34.47274 861.46399 130.17427 408
26.48671 873.39197 69.26662 400
29.26749 860.48505 86.09757 410
31.79345 848.96515 102.34000 465
29.70366 857.92450 115.70742 460
28.74507 863.31262 129.80096 407
20.27265 875.70416 68.63329 403
23.37472 862.73340 85.55362 410
26.02674 850.72559 102.07641 464
24.01559 859.90283 115.45053 459
22.69734 865.53943 129.58572 403
14.31505 877.88489 67.96396 402
17.38234 864.83740 85.15935 409
20.10507 852.80927 101.57899 459
18.07584 861.81287 115.18974 454
16.61868 867.63013 129.21507 402
8.05202 880.72711 67.45293 398
11.17744 867.29803 84.48305 406
14.19198 854.71240 101.17903 458
11.81317 863.95490 114.76009 453
10.42932 869.90894 128.85033 430
1.71015 883.54431 66.70602 397
4.80928 870.06854 83.86308 405
7.94651 857.00494 100.80057 457
5.75040 866.18243 114.29870 452
4.27628 872.33307 128.38670 429
-4.89783 886.15027 65.91827 396
-1.27627 872.70111 83.29243 404
2.03998 859.14734 100.14553 371
-0.27111 868.17267 113.92941 451
-1.97454 874.62769 128.05952 428
-11.19154 888.85706 65.29829 409
-7.76860 875.36847 82.78992 403
-4.26672 861.93982 99.59834 370
-6.46378 870.30402 113.42765 450
-8.21022 877.16138 127.64211 428
-17.48965 891.24237 64.52994 408
-13.99940 877.84729 81.98914 398
-10.53468 864.34723 99.20048 455
-12.69256 872.50055 113.03037 449
-14.58022 879.47272 127.15240 427
-24.05554 893.87054 63.84639 396
-20.48560 880.68756 81.41276 397
-16.70109 866.57648 98.70043 363
-19.05338 874.57007 112.57357 447
-20.96980 882.16376 126.74148 422
-27.19421 883.43915 80.78764 396
-23.12316 869.33539 98.02283 362
-25.32338 876.75928 112.11176 447
-27.41526 884.78540 126.34211 413
-33.78447 886.34698 80.19689 396
-29.93284 873.22913 97.26289 313
-31.61644 878.68988 111.65927 446
-33.91413 887.23376 125.92759 412
-40.50475 889.28119 79.38945 395
-36.66918 876.06818 96.61073 402
-38.05555 880.99121 111.33224 438
-40.58216 889.89453 125.47281 411
-47.14143 891.71735 78.76555 407
-43.31700 878.87378 96.12698 402
-44.55056 883.48364 110.82510 437
-47.20730 892.44153 125.08604 411
-53.65549 894.33521 78.00196 407
-49.94303 881.47095 95.60734 401
-51.12772 885.70636 110.39954 437
-54.21315 895.53485 124.72318 412
-60.56801 896.93506 77.50377 401
-56.54034 884.40186 94.91256 397
-57.86922 888.16907 109.94439 436
-61.02806 898.98517 124.19723 412
-67.57115 899.91144 76.60886 411
-63.42413 887.53156 94.15125 396
-64.43854 890.48657 109.34278 423
-68.35986 902.30963 123.62023 411
-74.40740 902.56873 76.02125 402
-70.45584 890.65533 93.44859 396
-71.52150 893.49341 108.77780 422
-75.38857 905.44794 122.99920 409
-77.66914 893.93536 92.68925 398
-78.32433 896.32721 108.21001 423
-82.63000 908.80237 122.59585 395
-84.77108 897.44391 92.18269 390
-85.45215 899.15881 107.57849 422
-89.96440 912.40222 122.04060 394
-92.24416 901.28003 91.20667 403
-92.45193 902.03973 107.09903 413
-97.39031 915.86285 121.26900 392
-99.64571 904.89520 90.63255 402
-99.71381 905.47607 106.36659 413
-104.53993 919.06995 120.91473 391
-107.12271 908.20441 89.71243 401
-107.26091 908.47711 105.88555 412
-114.92097 912.38873 88.86809 400
-114.55212 911.54968 105.04919 412
-122.74276 916.56891 87.86331 399
-121.90990 914.51105 104.45798 411
127.50193 148.28551 169.59541 485
126.47026 148.00374 169.48549 441
124.67900 148.84377 169.03171 489
120.66963 149.24306 168.30315 489
117.05543 150.76401 167.39601 316
-1396.74988 2354.63110 76.58826 493
-1398.21289 2356.11963 123.49966 464
-1398.68616 2357.66553 170.16502 464
-1400.27173 2359.17529 216.69263 413
-1402.32568 2362.95068 263.65430 271
116.19249 150.08992 167.42361 316
115.30086 149.42200 167.43727 316
113.98258 149.41805 167.19151 267
111.29697 151.22438 166.36536 314
110.41998 150.57907 166.38710 314
109.54458 149.89503 166.39116 314
108.72457 149.18774 166.41273 314
107.85712 148.50302 166.39326 314
106.97792 147.76962 166.41461 314
106.12268 147.10394 166.36952 314
105.19877 146.44835 166.36581 423
103.68965 146.61290 166.05292 422
96.24474 155.84818 166.35999 310
102.08945 146.75369 165.73596 421
95.33044 155.12749 166.35104 310
100.51793 146.90007 165.43010 420
94.45293 154.31866 166.40111 309
98.91679 147.08682 165.14691 419
93.49720 153.57373 166.39442 309
97.30873 147.23419 164.81020 418
92.61826 152.80264 166.36101 309
95.72056 147.31683 164.51471 427
91.73470 151.97083 166.35324 309
94.15530 147.39017 164.18498 426
90.84570 151.20370 166.36154 309
92.54916 147.47423 163.91646 425
89.97250 150.42607 166.33401 309
-29873.60352 34416.53516 9312.01562 1000
90.90625 147.54488 163.61075 424
89.10490 149.57736 166.37344 309
89.58129 147.29327 163.37370 307
88.19405 148.81224 166.34438 309
88.77809 146.35219 163.40088 307
87.33491 147.96504 166.35358 309
88.04343 145.44527 163.44016 307
85.94091 147.72820 166.15001 422
87.24970 144.52980 163.48825 307
84.27880 147.76286 165.85736 421
86.53475 143.64578 163.52319 307
82.54401 147.87386 165.50743 420
74.35526 156.49171 166.29402 305
85.78676 142.69174 163.52983 307
80.82101 147.92291 165.20711 418
73.48890 155.63174 166.26494 305
85.05242 141.80028 163.56261 307
79.06042 147.97221 164.89755 417
72.58587 154.71338 166.27281 305
104.89376 119.74249 171.49432 316
77.23477 148.01730 164.53751 416
71.65034 153.78123 166.25078 305
104.23148 118.97931 171.53720 316
75.47502 148.09776 164.20085 415
70.76839 152.82965 166.25256 305
103.58821 118.24631 171.53812 316
73.60784 148.20522 163.82382 414
69.88969 151.93797 166.24132 305
102.91950 117.51388 171.54134 316
71.77303 148.23663 163.47566 413
69.00355 150.96521 166.25562 305
102.26368 116.75555 171.53175 316
70.37733 147.81914 163.29044 303
68.10415 150.07144 166.24001 305
101.60216 115.96484 171.53697 316
69.62585 146.79645 163.34373 304
67.21249 149.10165 166.25673 305
100.97779 115.22594 171.52570 316
68.87915 145.77495 163.38461 304
66.01834 148.49249 166.14041 410
100.35696 114.44769 171.56039 316
68.13210 144.71318 163.44809 304
64.06387 148.58827 165.78648 409
99.67597 113.71259 171.56120 316
67.42128 143.64569 163.43335 304
62.05410 148.63986 165.42174 408
99.07528 112.90096 171.56694 316
90.62735 120.65860 171.65367 312
60.02846 148.71823 165.07916 407
50.83807 157.16121 166.15865 301
98.44482 112.16527 171.56729 316
89.96107 119.79409 171.66331 312
57.98972 148.81953 164.67648 406
49.91073 156.09525 166.14197 301
97.80103 111.38236 171.59895 316
89.32243 118.97579 171.64200 312
55.88382 148.85194 164.32164 405
49.01109 155.02684 166.15508 301
97.23203 110.57767 171.59906 316
88.64531 118.12119 171.65372 312
53.74474 148.92490 163.93391 404
48.15350 153.93367 166.17099 301
-1798.55334 1785.92822 84.07158 429
-1798.04163 1785.01587 128.46996 429
-1798.00305 1784.63843 172.13416 429
-1797.47864 1784.75989 216.76160 474
-1797.27454 1784.46265 260.40820 474
96.62342 109.80128 171.57635 316
88.00812 117.31570 171.64688 312
51.64249 149.03946 163.48732 402
47.27467 152.85799 166.19510 301
96.01553 108.97992 171.59254 316
87.37412 116.44355 171.64053 312
49.80224 148.77493 163.20140 300
46.35097 151.74344 166.13971 301
95.38612 108.18407 171.58234 316
86.73186 115.58260 171.68829 312
49.08172 147.61169 163.22845 300
45.46318 150.71324 166.13457 301
94.81361 107.39167 171.59869 316
86.05117 114.72626 171.66748 312
48.38452 146.44533 163.28458 300
44.59708 149.58882 166.13681 301
94.20679 106.60275 171.59282 316
85.45946 113.88765 171.69142 312
75.44790 122.13194 171.76698 308
42.70364 149.37173 165.87112 398
93.64729 105.77211 171.62186 316
84.82101 113.01608 171.66493 312
74.79294 121.21117 171.74185 308
40.35030 149.50836 165.42821 397
93.03373 104.96613 171.60278 316
84.19708 112.17801 171.68881 312
74.14880 120.28699 171.79987 308
37.95420 149.59242 165.03842 396
92.45058 104.14553 171.61952 316
83.55680 111.28027 171.71490 312
73.45638 119.38895 171.76707 308
35.57141 149.63734 164.59082 395
25.08810 158.07034 166.03842 297
91.91180 103.33463 171.64973 316
82.95626 110.42767 171.72276 312
72.77369 118.44241 171.77875 308
33.14451 149.78072 164.19330 393
24.15882 156.82985 166.05516 297
91.32436 102.50301 171.64015 316
82.32826 109.53981 171.69521 312
72.12330 117.49505 171.79156 308
30.62901 149.84805 163.70111 392
23.28346 155.54648 166.01071 297
90.76516 101.69820 171.65546 316
81.75711 108.66548 171.68594 312
71.52064 116.55347 171.77895 308
28.10045 149.93262 163.28191 391
22.40863 154.35065 166.02588 297
90.20182 100.84586 171.63443 316
81.17404 107.77004 171.69130 312
70.82815 115.60097 171.78423 308
26.80152 149.12744 163.12070 296
21.53805 153.08197 166.02135 297
89.64480 100.01329 171.67004 316
80.54960 106.86038 171.74297 312
70.23997 114.65202 171.79320 308
26.06020 147.78661 163.17940 296
20.59474 151.84802 166.05801 295
89.10732 99.21807 171.63211 316
79.98637 105.96344 171.72775 312
69.57976 113.67867 171.83693 308
57.68749 122.46378 171.89224 304
19.74509 150.59744 166.06261 295
88.58831 98.37263 171.67331 316
79.38836 105.07469 171.74823 312
68.96026 112.71789 171.83292 308
57.00750 121.41452 171.90051 304
17.54759 150.32724 165.68094 389
88.05531 97.51865 171.64934 316
78.84562 104.16662 171.75008 312
68.33087 111.75072 171.82367 308
56.34457 120.41856 171.90492 304
14.87053 150.36429 165.23094 388
87.52699 96.65794 171.65741 316
78.24867 103.27373 171.74481 312
67.75304 110.77847 171.81934 308
55.69290 119.37807 171.93192 304
12.06542 150.43616 164.80203 387
87.00126 95.80798 171.68440 316
77.71015 102.38619 171.72878 312
67.16027 109.78687 171.83687 308
55.06005 118.29533 171.92586 304
9.21565 150.53093 164.31773 386
86.45567 94.97760 171.66983 316
77.12323 101.42467 171.73436 312
66.51505 108.82986 171.82747 308
54.37152 117.26367 171.90887 304
6.38094 150.61351 163.79930 384
-5.75936 158.97333 165.66528 290
85.92540 94.11588 171.68805 316
76.57486 100.52556 171.76445 312
65.94711 107.80742 171.84309 308
53.75725 116.19263 171.96570 304
3.43808 150.67973 163.33971 383
-6.60664 157.61513 165.68250 290
85.41914 93.24156 171.67755 316
76.02826 99.62487 171.75761 312
65.35062 106.84112 171.83092 308
53.10381 115.12466 171.94246 304
0.50797 150.71654 162.86026 382
-7.57668 156.17992 165.63812 291
84.90840 92.40733 171.67111 316
75.47265 98.66656 171.79123 312
64.77915 105.83862 171.87637 308
52.50392 114.03938 171.95151 304
38.22860 123.54745 172.09621 300
-8.47832 154.79297 165.63943 291
84.41487 91.53780 171.68613 316
74.94501 97.76525 171.77850 312
64.21095 104.86800 171.88274 308
51.84294 112.96542 171.93930 304
37.56697 122.38536 172.04881 300
-9.40415 153.34854 165.64586 291
83.92450 90.63159 171.72191 316
74.40197 96.85951 171.78365 312
63.63606 103.87875 171.89047 308
51.25788 111.93304 171.99326 304
36.90989 121.20848 172.05644 300
-10.26839 151.94511 165.60066 291
83.47148 89.79319 171.70537 316
73.89884 95.89080 171.77481 312
63.03244 102.85047 171.85144 308
50.64853 110.86332 171.98138 304
36.20726 120.04684 172.07571 300
-12.04469 151.03851 165.45451 377
82.95947 88.92438 171.68600 316
73.39259 94.96130 171.79922 312
62.49599 101.87373 171.85396 308
50.00635 109.75195 171.99976 304
35.57394 118.89557 172.11438 300
-15.37101 151.16368 164.94221 376
82.48862 88.03322 171.71492 316
72.84768 94.02224 171.80400 312
61.94488 100.84218 171.85962 308
49.40196 108.67728 171.96811 304
34.92855 117.71210 172.10280 300
-18.72226 151.23982 164.38423 375
82.00751 87.13152 171.71457 316
72.36568 93.11033 171.79417 312
61.39579 99.86345 171.88326 308
48.85515 107.60474 171.97560 304
34.31190 116.54305 172.08595 300
-22.16175 151.29759 163.83508 373
81.57332 86.26186 171.74243 316
71.88174 92.14423 171.77528 312
60.85990 98.82343 171.90791 308
48.27658 106.50197 171.98775 304
33.64613 115.36548 172.11981 300
-25.65981 151.43607 163.26688 372
81.07483 85.39304 171.71626 316
71.34862 91.17937 171.79338 312
60.34403 97.79791 171.89601 308
47.66255 105.36209 172.01511 304
33.05344 114.17834 172.13678 300
15.85146 124.46558 172.27068 296
-42.53823 159.36700 165.10643 286
80.63493 84.49114 171.75024 316
70.85345 90.23569 171.78645 312
59.82653 96.77045 171.92015 308
47.09909 104.27222 171.99275 304
32.39800 112.99018 172.10925 300
15.17200 123.14925 172.27119 296
-43.37541 157.79955 165.11469 286
-19651.09570 11738.46094 -540.39734 1000
80.15623 83.57951 171.74101 316
70.40974 89.29908 171.81914 312
59.27977 95.79130 171.88602 308
46.54530 103.21009 172.01552 304
31.77915 111.76644 172.11470 300
14.52818 121.85357 172.26624 296
-44.32028 156.06822 165.12868 286
79.70721 82.69782 171.75591 316
69.91137 88.33781 171.80804 312
58.74887 94.74664 171.92340 308
45.98304 102.10654 172.02905 304
31.16433 110.59647 172.16466 300
13.83109 120.56068 172.27371 296
-45.18464 154.42223 165.16879 286
79.27355 81.77492 171.71690 316
69.43334 87.36832 171.84361 312
58.26242 93.70808 171.91278 308
45.43305 100.99315 172.01115 304
30.58488 109.36371 172.14331 300
13.20869 119.19137 172.28137 296
-46.00402 152.74922 165.11868 286
78.86393 80.89847 171.73622 316
68.96955 86.42918 171.81235 312
57.75650 92.68527 171.91478 308
44.86549 99.85047 171.99454 304
29.98455 108.17019 172.12437 300
12.54788 117.93786 172.29599 296
-48.46212 151.94853 164.89326 374
78.40987 79.98808 171.73306 316
68.51152 85.43996 171.84915 312
57.25368 91.64593 171.93373 308
44.32635 98.72492 172.03990 304
36.90683 102.84846 173.82545 319
18.25956 113.07276 173.63878 270
-52.19320 151.86153 164.26845 373
78.02189 79.07423 171.74211 316
68.06859 84.48466 171.83887 312
56.73282 90.59418 171.92899 308
45.44653 96.75132 172.42624 321
39.60039 99.89793 174.61302 320
29.72437 105.22255 176.09868 271
11.14212 115.32292 176.39258 271
77.58396 78.19096 171.75418 316
67.62250 83.51562 171.82872 312
56.29526 89.56939 171.91216 308
47.85391 94.03931 173.14525 322
42.13689 97.13039 175.29988 321
36.27871 100.24871 177.59857 319
22.69601 107.49802 178.68451 273
77.16153 77.24866 171.77615 316
67.15519 82.55735 171.86307 312
55.76813 88.50824 171.91425 308
50.18404 91.44052 173.85010 323
44.63818 94.39366 175.95341 322
38.89265 97.40654 178.26410 320
29.01821 102.61497 179.93201 292
7.89801 113.68655 180.13409 288
76.75671 76.33100 171.77905 316
66.70435 81.54221 171.83580 312
57.60408 86.30988 172.54550 327
52.44862 88.97948 174.50208 325
47.05267 91.75514 176.59894 324
41.51205 94.64739 178.87181 322
28.44799 101.36932 179.92876 292
7.31302 112.38457 180.11504 288
76.36695 75.43890 171.74255 316
66.30137 80.58852 171.83238 312
59.64120 83.99133 173.20885 328
54.61110 86.54011 175.19635 326
49.34811 89.19423 177.25314 325
43.99422 91.94559 179.49048 323
27.94976 100.14367 179.98016 292
6.70377 110.96944 180.09947 288
75.96333 74.50990 171.78940 316
65.85203 79.61010 171.84938 312
60.86348 82.12486 173.64285 385
56.76382 84.19612 175.78946 327
51.62700 86.76154 177.88292 325
44.99343 90.10081 179.79985 296
27.41102 98.97109 179.93672 292
6.13575 109.66286 180.13472 288
75.56903 73.57287 171.76826 316
65.45053 78.62374 171.86755 312
61.57575 80.49752 173.94894 386
58.55091 81.99260 176.33058 384
53.81980 84.33964 178.49237 326
44.54878 88.95448 179.80296 296
-1.67728 111.89948 174.71080 290
-1.73266 111.88635 178.95912 290
-20.77769 121.35298 180.34587 284
75.18748 72.68419 171.79526 316
65.69211 77.29219 172.02805 377
62.27065 78.96608 174.21939 387
59.31257 80.42513 176.61290 385
55.98520 82.04521 179.04781 327
44.06059 87.84072 179.83748 296
4.41720 107.21105 175.95863 283
-10.99157 114.68679 177.51323 289
-21.47292 119.75757 180.37827 284
-2209.77393 1186.90527 127.85883 428
-2210.92603 1187.72290 171.61497 292
74.79930 71.73305 171.79463 316
66.40553 75.76123 172.37563 378
62.98553 77.41180 174.51334 388
60.02409 78.82267 176.89630 386
57.01450 80.30482 179.37663 384
43.56366 86.74758 179.81078 296
11.36044 102.18098 177.31694 285
-16.49093 115.54433 176.74860 345
-22.07327 118.26639 180.34984 284
74.44693 70.79780 171.75978 316
67.10915 74.25491 172.65332 379
63.70170 75.88702 174.83604 389
60.77800 77.25206 177.17928 387
57.75727 78.68388 179.64183 385
43.12849 85.62005 179.83334 296
17.88765 97.54267 178.62276 286
3.01690 104.54737 180.03761 284
-22.69058 116.75205 180.35185 284
74.03352 69.86930 171.77867 316
67.80007 72.78597 172.96452 380
64.37635 74.34555 175.10103 390
61.50045 75.72495 177.44467 388
57.67827 77.48271 179.72934 300
42.66642 84.45795 179.83624 296
22.19306 93.97433 179.48878 315
10.01050 99.68637 181.25157 285
-25.13513 116.01058 180.11977 342
73.69277 68.95694 171.80087 316
68.51492 71.32835 173.28464 381
65.06133 72.87426 175.35901 391
62.20196 74.21722 177.74066 390
57.28154 76.43644 179.72906 300
31.15404 88.43515 177.63852 334
24.95177 91.25053 180.07759 332
16.56131 95.05724 182.41357 286
1.68718 101.92854 184.07230 284
73.33206 67.98053 171.79967 316
69.19530 69.85088 173.56842 382
65.76680 71.41022 175.64384 379
62.91430 72.67234 177.99091 391
56.86349 75.38702 179.73820 300
33.10216 86.09100 178.08820 335
27.00560 88.85473 180.55067 333
19.84650 92.06213 183.01587 315
8.74374 97.11021 185.18730 285
73.17664 66.98232 171.84155 385
69.86945 68.44637 173.85199 382
66.43314 69.96732 175.93996 380
63.59372 71.21429 178.25639 392
56.47478 74.36297 179.74815 300
35.04856 83.84892 178.56084 336
29.07718 86.51756 181.03360 334
22.74368 89.33478 183.60625 316
14.39470 92.98380 186.09309 314
0.41806 99.17837 188.19449 284
73.78661 65.62897 172.11720 386
70.55132 67.05912 174.12512 383
67.15430 68.48668 176.23203 381
64.29713 69.74975 178.52783 393
56.10392 73.30301 179.70644 300
36.87395 81.70969 179.03662 338
31.10815 84.21508 181.48799 335
24.95609 86.88256 184.05681 333
17.47077 90.16363 186.59189 315
7.53283 94.47039 189.13013 285
74.44411 64.25551 172.42476 387
71.22623 65.64243 174.40869 384
67.87507 67.06318 176.48335 382
64.98094 68.32777 178.74825 393
55.71819 72.27118 179.72121 300
38.73483 79.53613 179.51926 339
33.02315 81.97066 181.90701 336
27.03269 84.55953 184.45973 334
20.46642 87.39551 187.13292 316
12.00076 91.03642 189.73976 313
-0.68161 96.44550 192.22699 284
-51110.73828 21990.30664 -1615.24072 1000
75.02923 62.90427 172.71651 388
71.87729 64.25378 174.66678 385
68.57433 65.67181 176.76392 383
65.66737 66.89514 178.98462 394
55.33479 71.22118 179.74379 300
40.49557 77.48074 179.94296 340
34.92665 79.81834 182.31088 337
29.07766 82.26167 184.87080 335
22.83879 84.87250 187.50887 333
15.16198 88.17619 190.22052 315
6.28081 91.87731 193.05495 312
-17.10710 101.68662 194.89453 265
75.64330 61.63309 172.96339 388
72.50978 62.91660 174.97035 386
69.23015 64.27897 176.99394 384
66.34760 65.46658 179.22151 395
54.98859 70.16649 179.74277 300
41.46221 75.74516 180.23427 373
36.81972 77.66515 182.75804 339
31.07776 80.06219 185.26277 336
25.01160 82.56033 187.87111 334
18.19780 85.43123 190.63078 316
9.58333 88.98327 193.47661 313
-1.80310 93.70712 196.26166 284
76.24834 60.32726 173.22342 419
73.16290 61.56736 175.23193 387
69.90163 62.90955 177.27531 385
66.97858 64.06277 179.46764 396
46.27380 72.50223 177.93280 387
42.41402 74.05950 180.45949 374
38.15787 75.84082 183.03792 372
33.02136 77.90418 185.62901 337
27.06834 80.33979 188.23851 335
20.81295 82.85896 191.02054 332
12.80723 86.08842 193.85750 314
3.83339 89.77982 196.84421 312
-17.76772 98.54434 199.23885 266
76.55538 59.14151 173.41685 419
73.78325 60.26161 175.49683 388
70.57678 61.55228 177.53212 386
67.38659 62.82294 179.65402 304
47.01268 70.95779 178.19510 388
43.30346 72.42426 180.74019 386
39.11539 74.12069 183.30759 372
34.70715 75.85462 185.93919 370
29.10259 78.08550 188.58611 336
22.96322 80.54581 191.34450 333
15.92278 83.39897 194.22820 315
7.19215 86.83241 197.15727 313
-2.82596 90.86427 200.32385 284
76.80850 58.02726 173.58545 420
74.18551 59.05088 175.69452 418
71.27187 60.20217 177.75018 387
67.03584 61.83197 179.65393 304
47.74923 69.42676 178.40955 389
44.07126 70.84203 180.97287 387
40.07962 72.46144 183.52507 373
35.73129 74.10157 186.19218 371
31.10830 75.97348 188.92871 337
25.11770 78.29727 191.66994 335
18.76756 80.78558 194.54335 332
10.45434 84.05132 197.48430 314
1.34710 87.64236 200.66901 312
77.10548 56.88261 173.74428 421
74.49907 57.87261 175.84926 419
71.84258 58.92351 177.98392 416
66.71741 60.87959 179.65842 304
48.44922 67.89922 178.64449 390
44.84473 69.29499 181.19594 388
41.02034 70.79286 183.74409 374
36.71847 72.41393 186.41481 372
32.25600 74.16434 189.16492 369
27.17840 76.12103 191.98434 336
20.93329 78.52817 194.82681 333
13.61963 81.33456 197.84514 315
4.85268 84.70530 200.92862 313
-4.73195 88.40271 204.37219 310
77.39225 55.71321 173.90486 422
74.82355 56.69539 176.00165 419
72.15515 57.74176 178.15671 417
66.41838 59.88422 179.65738 304
49.13585 66.41452 178.88753 391
45.55128 67.80449 181.39900 388
41.84805 69.17818 183.97116 386
37.74453 70.74362 186.60710 373
33.30140 72.43166 189.37347 370
28.76423 74.13825 192.22510 368
23.13189 76.23952 195.09726 334
16.70081 78.72672 198.12520 332
8.13878 81.95432 201.22595 314
-1.08554 85.42777 204.54597 311
77.65865 54.59445 174.08789 422
75.08859 55.55587 176.17754 420
72.44601 56.53853 178.30638 418
66.15046 58.90436 179.64915 304
49.86743 64.93704 179.07822 392
46.31464 66.27110 181.57812 389
42.62211 67.64074 184.16319 387
38.72314 69.11121 186.84799 374
34.34091 70.69568 189.57744 371
29.79454 72.35928 192.40382 369
25.10514 74.13425 195.35176 366
18.93812 76.43356 198.37613 333
11.37803 79.19275 201.44579 315
2.45265 82.52451 204.77057 312
77.97711 53.51157 174.24536 423
75.42013 54.41246 176.32173 421
72.79178 55.38030 178.43430 419
65.82439 57.92963 179.67326 304
50.55892 63.47029 179.33255 393
47.00294 64.79156 181.80989 390
43.39695 66.10750 184.38219 388
39.63443 67.45856 187.02359 385
35.37944 69.04176 189.76562 372
30.87459 70.64573 192.60005 370
26.23064 72.33480 195.53091 367
21.18738 74.18056 198.57605 334
14.48092 76.64129 201.71255 316
5.83110 79.78922 204.95277 313
78.23571 52.39756 174.38205 424
75.68328 53.31460 176.47076 422
73.08775 54.20789 178.57144 419
65.54855 56.93699 179.63284 304
51.19998 62.06697 179.55592 393
47.73089 63.28588 181.99716 391
44.11686 64.60347 184.57483 389
40.37379 65.91041 187.19952 386
36.38894 67.37244 189.93095 373
31.95835 68.95411 192.77142 370
27.36101 70.56587 195.68770 368
22.49834 72.30701 198.75224 365
16.94655 74.28168 201.94673 333
9.13095 77.07806 205.18822 315
78.53048 51.26811 174.55594 424
75.99432 52.16396 176.60506 422
73.39456 53.08501 178.74463 420
65.26290 55.92314 179.63426 304
51.91147 60.64271 179.75604 394
48.42580 61.81215 182.23317 392
44.85726 63.06098 184.74380 390
41.19872 64.37177 187.37657 387
37.33533 65.73882 190.11504 374
32.96241 67.24905 192.90938 371
28.42361 68.85146 195.86661 369
23.69654 70.50767 198.85648 366
18.69756 72.24491 202.07816 363
12.30644 74.52058 205.34543 316
78.81134 50.18334 174.73155 425
76.30753 51.04977 176.77243 423
73.68400 51.92465 178.87009 421
64.98245 54.95129 179.64693 304
52.58283 59.19622 179.97125 395
49.17193 60.39569 182.41057 393
45.62786 61.62757 184.96036 390
41.95581 62.85034 187.60263 388
38.16367 64.13831 190.28011 385
33.99784 65.57734 193.10280 372
29.51447 67.14254 196.00658 370
24.83559 68.72721 199.01038 367
19.92121 70.42311 202.20793 364
14.79300 72.18475 205.49275 362
79.09840 49.11252 174.88388 426
76.57523 49.93143 176.93027 424
73.98954 50.80740 179.00787 421
64.70804 53.93940 179.63921 304
53.24494 57.80927 180.17145 396
49.84159 58.93066 182.62029 394
46.34085 60.13163 185.12938 391
42.73480 61.34173 187.74594 389
38.99213 62.60705 190.46413 386
35.03303 63.92564 193.25255 373
30.58700 65.46923 196.15433 371
25.94872 67.00302 199.15372 368
21.11797 68.64539 202.26518 365
16.01930 70.34055 205.57571 363
79.36025 48.03901 174.99982 428
76.86648 48.83192 177.07057 424
74.33437 49.67313 179.16594 422
57.09136 55.36459 177.96753 412
53.90846 56.42102 180.35339 397
50.51712 57.56025 182.78468 395
47.08054 58.68556 185.33055 392
43.49222 59.87657 187.92270 390
39.78009 61.07634 190.60136 387
35.94363 62.35490 193.41516 385
31.64340 63.75890 196.28340 372
27.06304 65.26893 199.26234 369
22.28835 66.85036 202.37881 366
17.28703 68.52544 205.66336 364
79.64620 46.94419 175.14526 429
77.16245 47.78213 177.19397 425
74.63563 48.56866 179.30118 423
57.50863 54.09446 178.17291 412
54.47160 55.10275 180.55396 410
51.20683 56.13299 182.98869 395
47.77234 57.23404 185.50104 393
44.22416 58.39827 188.07074 391
40.54829 59.57164 190.75916 388
36.77751 60.80270 193.54366 386
32.68680 62.15618 196.45049 372
28.14859 63.59827 199.39911 370
23.47328 65.12283 202.52444 367
18.49969 66.72810 205.75153 364
79.90637 45.91011 175.30927 429
77.44566 46.67906 177.32825 426
74.95219 47.45774 179.43871 423
57.99269 52.84526 178.29420 413
54.95906 53.81699 180.68893 411
51.86248 54.80899 183.16580 409
48.48142 55.82866 185.67032 394
44.98241 56.93299 188.22113 391
41.34489 58.08161 190.93097 389
37.55806 59.28683 193.69041 386
33.66278 60.52157 196.53917 384
29.27278 61.93350 199.50911 371
24.60527 63.38106 202.58293 368
19.72684 64.96380 205.79306 365
80.17930 44.82468 175.42133 430
77.76514 45.59366 177.47002 426
75.24274 46.36372 179.53851 424
58.41535 51.58222 178.49509 421
55.44231 52.50526 180.84621 412
52.31782 53.45741 183.29993 409
49.16893 54.48399 185.84589 407
45.73264 55.52975 188.41628 392
42.11919 56.62402 191.07104 390
38.36790 57.77734 193.84363 387
34.51863 58.96095 196.67482 385
30.35497 60.29315 199.65378 372
25.72416 61.72243 202.68636 369
20.94033 63.20102 205.87350 366
-5331.67627 1721.00781 121.68929 497
80.44992 43.81661 175.56778 431
78.02805 44.52415 177.61108 427
75.07959 45.42625 179.55414 308
58.78196 50.35503 178.63889 422
55.87832 51.22330 181.03114 412
52.81967 52.16756 183.46361 410
49.64664 53.12873 185.98322 408
46.42843 54.10813 188.53268 405
42.87102 55.18988 191.18585 391
39.21957 56.30320 193.95871 388
35.34558 57.47556 196.80972 386
31.38276 58.67746 199.76877 373
26.83093 60.01610 202.80937 370
22.08533 61.47593 206.00450 367
80.72875 42.73737 175.70834 431
78.30411 43.46570 177.72903 428
74.84319 44.51712 179.55486 308
59.18134 49.13938 178.78410 422
56.34793 49.99216 181.17683 413
53.31116 50.87972 183.58395 411
50.19763 51.81204 186.07127 408
46.95000 52.79593 188.69273 406
43.60227 53.76668 191.36894 403
39.98380 54.80878 194.08684 389
36.21636 55.95876 196.90652 386
32.25261 57.10658 199.82841 384
27.95091 58.40614 202.90433 371
23.24240 59.78214 206.08081 368
80.98341 41.72729 175.83434 432
78.62712 42.40510 177.86415 428
74.64429 43.57870 179.58180 308
59.53416 47.93692 178.90628 423
56.79380 48.72317 181.29593 421
53.81294 49.59897 183.74968 412
50.65010 50.51261 186.24622 409
47.49144 51.42006 188.79605 407
44.15496 52.38243 191.48158 404
40.75274 53.39399 194.19923 402
37.01186 54.43351 197.04147 387
33.13683 55.57681 199.95233 385
29.02599 56.76284 203.00966 372
24.39516 58.13002 206.13339 369
81.27106 40.71169 175.96733 433
78.89204 41.34737 177.99489 429
74.44935 42.63705 179.56470 308
59.92339 46.74024 179.02336 424
57.15419 47.51077 181.41495 422
54.28022 48.34461 183.87183 412
51.18568 49.19083 186.34430 410
47.99161 50.11900 188.91393 407
44.71213 51.07253 191.59442 405
41.31488 52.03424 194.31573 402
37.76674 52.99309 197.15529 400
34.00589 54.07457 200.07555 386
29.99858 55.23633 203.06973 383
25.49609 56.45618 206.17184 370
81.55114 39.69259 176.12180 433
79.19145 40.31236 178.13126 430
74.25024 41.67464 179.57774 308
60.31359 45.52787 179.20395 424
57.54988 46.28416 181.57922 422
54.72805 47.08898 183.99779 420
51.69037 47.94917 186.49631 411
48.50816 48.82912 189.04572 408
45.23365 49.68155 191.65730 406
41.84714 50.64334 194.40727 403
38.39100 51.60168 197.21606 400
34.78151 52.59504 200.14418 398
30.86556 53.66724 203.17587 384
26.61804 54.82397 206.28049 371
-187.24559 113.98390 202.40106 495
81.80671 38.64965 176.25989 434
79.45969 39.27410 178.25356 430
74.04112 40.77053 179.60501 308
60.68889 44.34771 179.29347 425
57.93317 45.09341 181.68907 423
55.12045 45.87213 184.12563 421
52.16716 46.67928 186.59938 411
49.05358 47.49114 189.16573 409
45.78922 48.35780 191.79185 406
42.46615 49.26874 194.51012 404
38.99181 50.24083 197.31740 401
35.41220 51.19265 200.22766 399
31.71111 52.21281 203.21370 396
27.66926 53.29322 206.32152 382
21.43151 54.93275 209.50732 262
82.09032 37.66529 176.35510 435
79.74067 38.25800 178.38290 431
73.85567 39.82229 179.60358 308
61.04567 43.19283 179.44826 426
58.33909 43.91451 181.80168 424
55.56236 44.62244 184.22635 421
52.65432 45.39206 186.74702 419
49.55530 46.22549 189.27248 410
46.32548 47.06153 191.92017 407
43.02602 47.92509 194.59563 405
39.58184 48.85068 197.37932 402
35.99943 49.77246 200.31158 399
32.35493 50.75486 203.25839 397
28.49512 51.76673 206.40871 394
23.85314 53.01627 209.60271 337
82.35155 36.64356 176.50652 435
80.03975 37.21759 178.50482 432
73.68159 38.89018 179.57216 308
61.43671 42.04099 179.59766 426
58.70343 42.72070 181.93083 424
55.95561 43.43469 184.34850 422
53.06365 44.13699 186.84276 420
50.04865 44.91167 189.39848 410
46.88635 45.74405 191.98341 408
43.56327 46.62524 194.70645 405
40.15626 47.48723 197.49696 403
36.60574 48.35913 200.37393 400
32.98200 49.35119 203.36874 397
29.16522 50.29568 206.45837 395
24.96871 51.39753 209.61681 355
-4797.59619 1290.13184 131.59926 489
82.65266 35.62812 176.62009 436
80.32853 36.22799 178.63116 432
73.51142 37.93369 179.61179 308
61.78561 40.87023 179.71622 427
59.12045 41.51039 182.07323 425
56.34587 42.22549 184.48148 423
53.48975 42.95410 186.92897 420
50.56775 43.68794 189.48323 411
47.40721 44.48448 192.10307 408
44.12490 45.31074 194.81061 406
40.73241 46.11554 197.57532 403
37.21510 46.99266 200.44681 401
33.60739 47.92719 203.38219 398
29.83161 48.83113 206.47810 395
25.74022 49.85736 209.70090 356
-186.75920 103.12534 209.41721 485
82.91973 34.65401 176.72807 437
80.60192 35.19631 178.75124 433
73.33199 36.96728 179.58073 308
62.19228 39.71876 179.82632 428
59.51554 40.34386 182.15813 426
56.74641 41.04646 184.56104 423
53.89982 41.71331 187.05751 421
51.00835 42.42397 189.57608 419
47.91899 43.18883 192.18985 409
44.67325 43.96873 194.85931 407
41.28864 44.79943 197.63487 404
37.85697 45.62186 200.49902 401
34.25349 46.52098 203.44437 399
30.51789 47.43291 206.52916 396
26.47733 48.43419 209.73479 356
-186.83026 100.41074 209.44958 484
83.19185 33.65587 176.84943 437
80.87868 34.20871 178.84174 433
73.17235 36.05550 179.58691 308
62.53984 38.56932 179.95442 428
59.86278 39.19307 182.28691 426
57.11689 39.84608 184.69122 424
54.32785 40.52250 187.15472 422
51.42472 41.20243 189.71687 419
48.44581 41.93000 192.32069 410
45.21275 42.65934 194.97395 407
41.85861 43.45985 197.70970 405
38.41946 44.26590 200.58528 402
34.86139 45.11184 203.52815 400
31.18281 46.01350 206.56482 397
27.17541 46.94581 209.73248 357
-187.32446 97.91032 209.49118 485
83.44023 32.68410 176.96109 438
81.17825 33.19300 178.95070 434
72.99002 35.08615 179.57425 308
62.91703 37.41806 180.08545 429
60.26067 38.02663 182.43045 427
57.55931 38.66496 184.78319 425
54.75969 39.29203 187.24477 422
51.88894 39.98158 189.80345 420
48.90683 40.64108 192.38228 417
45.74717 41.36813 195.06487 408
42.43801 42.13160 197.81056 406
39.02657 42.92558 200.61322 403
35.50377 43.76438 203.55550 400
31.81731 44.59658 206.64236 398
27.93909 45.48483 209.75287 360
-187.85257 95.28702 209.52927 485
-195.61557 97.12786 216.45317 294
83.71103 31.70645 177.07973 438
81.45718 32.23594 179.08252 436
72.82729 34.14946 179.57880 308
63.29111 36.27773 180.19954 430
60.62117 36.88806 182.50490 428
57.92955 37.49273 184.90279 425
55.17502 38.10831 187.38326 423
52.30034 38.73292 189.90465 420
49.37004 39.44062 192.46956 418
46.29856 40.11737 195.14441 409
43.00984 40.83249 197.89864 406
39.60277 41.59193 200.68491 404
36.11226 42.40005 203.60309 401
32.44854 43.20561 206.67200 398
28.63310 44.07744 209.81909 361
-188.26122 92.80301 209.52808 485
-188.67273 92.87170 216.39496 296
83.84098 30.78700 177.16656 458
81.73453 31.22388 179.17088 437
66.17561 34.60180 178.05624 433
63.62054 35.18200 180.32840 430
61.01237 35.74155 182.62825 428
58.32350 36.33607 185.00539 426
55.55885 36.92073 187.45099 424
52.74144 37.56677 189.96831 421
49.83594 38.16552 192.54387 419
46.81918 38.85368 195.20259 416
43.58129 39.56197 197.95676 407
40.17334 40.27191 200.78893 404
36.69742 41.04239 203.70592 402
33.09152 41.82826 206.69455 399
29.35199 42.64441 209.82915 361
-182.81461 88.87753 216.41725 438
83.89914 29.85482 177.20528 458
81.85888 30.30546 179.26144 456
66.53709 33.53275 178.14706 433
63.99131 34.04051 180.41780 431
61.38844 34.62183 182.72534 429
58.72812 35.16868 185.13474 427
55.96231 35.75251 187.55315 424
53.17345 36.34917 190.06168 422
50.24159 36.94077 192.64793 419
47.26817 37.61882 195.31830 417
44.12600 38.25806 198.04501 408
40.74806 38.99186 200.81442 405
37.31829 39.69543 203.73192 402
33.74278 40.46543 206.74548 400
29.98452 41.26055 209.83783 397
-182.95355 86.29472 216.39899 439
83.95494 28.95204 177.26891 458
81.90582 29.34271 179.29837 456
66.91558 32.42058 178.28729 434
64.34599 32.95624 180.52409 432
61.76642 33.48096 182.87173 429
59.10542 34.00895 185.23460 427
56.38121 34.59120 187.65108 425
53.59624 35.18051 190.14587 422
50.71798 35.74627 192.72339 420
47.72464 36.38324 195.36658 418
44.68322 36.97499 198.08551 408
41.37598 37.66597 200.91350 406
37.90273 38.35564 203.78969 403
34.36803 39.09854 206.79887 400
30.65090 39.88159 209.86644 398
-4181.84473 903.94458 142.71892 468
-183.03331 83.73627 216.41899 439
84.01823 28.02039 177.30058 459
81.93981 28.42365 179.32373 457
67.25501 31.35529 178.40015 434
64.74206 31.83875 180.65134 432
62.16441 32.37130 182.95871 430
59.48048 32.87473 185.33147 428
56.79753 33.43362 187.76216 425
54.01654 33.96738 190.27103 423
51.11765 34.52718 192.82330 421
48.19744 35.14965 195.44029 418
45.17935 35.72720 198.14395 416
41.94460 36.37000 200.96065 406
38.52806 37.04639 203.82280 404
34.94790 37.74266 206.80624 401
31.31240 38.47397 209.90057 398
-182.98270 81.06274 216.49347 424
84.08415 27.09776 177.35117 459
82.00592 27.48680 179.39117 457
67.60706 30.26748 178.51312 435
65.08192 30.77494 180.77393 433
62.53043 31.23303 183.06053 431
59.88374 31.75102 185.43550 428
57.19189 32.26432 187.86557 426
54.41893 32.81155 190.34885 424
51.58849 33.34168 192.86842 421
48.62356 33.89743 195.50154 419
45.64548 34.51259 198.23723 416
42.49775 35.11060 201.01198 407
39.10397 35.77542 203.86795 404
35.57804 36.41704 206.87219 402
31.93786 37.12502 209.92700 399
-183.01843 78.55782 216.47717 424
-189.73460 79.74992 223.37178 322
84.12669 26.18510 177.42053 459
82.09131 26.57285 179.44283 457
67.84155 29.24316 178.61768 455
65.45054 29.69536 180.87358 434
62.90812 30.15846 183.16945 431
60.25377 30.63199 185.49947 429
57.58559 31.11560 187.94983 427
54.84589 31.66587 190.39388 424
52.02570 32.17783 192.94824 422
49.10870 32.72905 195.56798 419
46.06528 33.28603 198.31155 417
42.98373 33.83137 201.07414 414
39.67416 34.46710 203.95404 405
36.20461 35.10238 206.88806 402
32.57265 35.78347 209.96040 400
-183.05765 75.95992 216.42477 424
-187.18097 76.61704 223.38101 322
84.18508 25.30678 177.45155 460
82.14425 25.63720 179.48460 458
67.90096 28.23777 178.65126 455
65.57528 28.62773 180.94545 453
63.19633 29.06870 183.27098 451
60.65321 29.50927 185.63177 430
57.97365 29.98135 188.02109 427
55.27735 30.47932 190.49620 425
52.45790 31.00408 193.03888 422
49.54369 31.50937 195.67418 420
46.53817 32.07114 198.34904 417
43.48524 32.60426 201.10458 415
40.23893 33.19254 203.96336 406
36.81842 33.78138 206.92131 403
33.24200 34.44324 209.97495 400
-183.12611 73.29620 216.39204 425
-184.55031 73.56784 223.24741 323
84.24974 24.36909 177.49887 460
82.20383 24.71785 179.53172 458
67.98360 27.20602 178.68127 455
65.66502 27.62480 180.99304 453
63.28652 28.03244 183.29559 451
60.86518 28.45850 185.67755 449
58.35368 28.86975 188.12909 446
55.67173 29.35810 190.56018 426
52.86261 29.83979 193.14047 423
49.96691 30.34092 195.71411 421
47.03937 30.81830 198.42113 418
43.96420 31.38233 201.19127 416
40.79224 31.91030 204.05351 413
37.39817 32.51750 206.99112 404
33.85292 33.14432 210.01047 401
-183.15335 70.74728 216.39523 425
-182.40311 70.63858 223.20674 361
84.30721 23.45788 177.52359 460
82.12739 23.82597 179.51239 312
68.02602 26.19898 178.71884 456
65.72227 26.59398 181.00348 454
63.36235 26.96345 183.36128 451
60.94235 27.36803 185.69800 449
58.48288 27.77710 188.15332 447
55.94124 28.21109 190.65790 444
53.31504 28.67363 193.21214 424
50.42563 29.12601 195.78056 421
47.49854 29.61506 198.47887 419
44.43940 30.14106 201.23898 416
41.32281 30.67051 204.06256 414
37.98743 31.18155 207.03741 404
34.47340 31.81409 210.03033 402
-181.79482 67.99365 223.26645 361
84.35134 22.56921 177.56624 461
82.03643 22.96220 179.52623 312
68.11694 25.17440 178.78548 456
65.79134 25.58075 181.05888 454
63.42328 25.91954 183.37729 452
60.99792 26.31716 185.72795 449
58.55362 26.72130 188.19400 447
56.01675 27.13892 190.67152 444
53.41638 27.55455 193.22916 442
50.75712 27.97296 195.86026 439
47.95387 28.41890 198.52103 419
44.91373 28.93256 201.30046 417
41.79954 29.40467 204.12845 414
38.59750 29.91312 207.06091 411
35.10601 30.46966 210.07121 402
-181.14348 65.28291 223.22525 361
84.42926 21.67854 177.60995 461
81.94520 22.05741 179.50981 312
68.19770 24.16698 178.82806 456
65.88820 24.52015 181.10336 454
63.52308 24.90231 183.40759 452
61.09394 25.27436 185.80611 450
58.60401 25.67381 188.19485 447
56.10093 26.05750 190.71503 445
53.49598 26.45568 193.24678 442
50.85634 26.83869 195.87117 440
48.08936 27.28307 198.57076 437
45.28873 27.73017 201.29584 435
42.29962 28.18250 204.17249 415
39.12843 28.65399 207.05519 412
35.72349 29.22003 210.08185 403
-180.54692 62.60061 223.20955 361
84.47424 20.76998 177.64510 461
81.86684 21.14809 179.52737 312
68.24161 23.19262 178.84930 457
65.94584 23.51148 181.11635 454
63.57243 23.87142 183.45129 452
61.18146 24.23765 185.81444 450
58.70000 24.59755 188.23148 447
56.20710 24.99171 190.74954 445
53.60666 25.36210 193.26405 443
50.94522 25.76830 195.90256 440
48.21490 26.15184 198.59789 437
45.38307 26.57384 201.34991 435
42.50216 27.00207 204.16821 432
39.52548 27.41951 207.11942 429
36.33739 27.89016 210.13040 403
-179.89650 60.02469 223.20024 361
84.55408 19.86046 177.70087 461
81.79479 20.24715 179.51031 312
68.30627 22.18130 178.88396 457
66.00568 22.49273 181.15750 455
63.64420 22.84921 183.47856 452
61.24820 23.15923 185.85388 450
58.77675 23.54772 188.26266 448
56.27735 23.89646 190.74944 445
53.71609 24.25274 193.31546 443
51.04478 24.63089 195.90219 440
48.31952 25.01438 198.59805 438
45.49919 25.43157 201.35963 435
42.63252 25.84727 204.20097 432
39.66750 26.25719 207.12288 430
36.60799 26.70298 210.13640 427
-179.63882 57.40932 223.22993 383
84.63590 18.98928 177.74915 462
81.73871 19.35415 179.53993 312
68.37423 21.17851 178.95232 457
66.08194 21.50459 181.21127 455
63.72278 21.82889 183.52103 453
61.35577 22.12270 185.88136 450
58.89556 22.47664 188.29433 448
56.39094 22.80540 190.80753 446
53.76418 23.16503 193.30923 443
51.14692 23.50637 195.94733 441
48.41120 23.87027 198.63426 438
45.63084 24.27716 201.35605 435
42.77413 24.64896 204.19325 433
39.76352 25.06008 207.13910 430
36.73577 25.48911 210.12872 428
-179.60298 54.84676 223.12253 383
84.69136 18.07464 177.77002 462
81.69727 18.48420 179.51936 312
68.48914 20.20528 178.97528 457
66.18708 20.46750 181.24855 455
63.81675 20.76032 183.56465 453
61.45840 21.07814 185.90785 451
58.98703 21.40761 188.34325 448
56.45560 21.72272 190.82777 446
53.89819 22.07484 193.35861 443
51.23069 22.41383 195.93909 441
48.50323 22.75461 198.64075 438
45.72359 23.11389 201.36882 436
42.85560 23.50655 204.22678 433
39.93459 23.89354 207.12190 431
36.87856 24.26757 210.14453 428
-179.55077 52.30304 223.17354 383
84.75871 17.20697 177.80748 462
81.62037 17.56530 179.50693 312
68.56502 19.20619 179.02332 458
66.25880 19.47291 181.27104 455
63.92176 19.74734 183.58525 453
61.52461 20.06772 185.96301 451
59.07868 20.37343 188.36946 448
56.55079 20.66311 190.84116 446
53.98556 20.95933 193.35225 444
51.33674 21.32887 195.97606 441
