# .PCD v.7 - Point Cloud Data file format
VERSION .7
FIELDS x y z rgb
SIZE 4 4 4 4
TYPE F F F U
COUNT 1 1 1 1
WIDTH 1385
HEIGHT 1
VIEWPOINT 6666.158691 318.264221 141.796310 -0.626111 -0.097998 -0.079434 0.769462
POINTS 1385
DATA ascii
-157.09224 -16.93224 241.26241 358
-181.74139 -18.00482 269.48306 486
83.04882 -7.53165 179.52080 316
70.11411 -8.14729 178.70242 462
67.98188 -8.24717 180.81706 460
65.81310 -8.36583 182.95248 458
63.60754 -8.48481 185.16908 456
61.34148 -8.60486 187.44238 454
59.06373 -8.70403 189.72086 451
56.67809 -8.80024 192.11922 449
54.26340 -8.92864 194.53610 447
51.80873 -9.05670 197.02168 444
49.26565 -9.19053 199.54633 442
46.67807 -9.29504 202.17334 439
43.99118 -9.43416 204.85626 436
41.20446 -9.58312 207.65256 434
38.40709 -9.73123 210.47856 431
-179.27353 -20.35134 222.95164 384
-162.00819 -19.53623 235.25993 294
-181.77737 -20.48238 269.52518 486
83.11155 -8.38627 179.53665 316
70.05264 -9.08823 178.64830 462
67.92078 -9.20090 180.76364 460
65.71214 -9.33084 182.92566 458
63.52473 -9.46084 185.12173 456
61.26882 -9.56169 187.40492 454
58.93375 -9.72585 189.72189 451
56.60114 -9.81701 192.06665 449
54.19207 -9.95222 194.47282 446
51.71919 -10.09948 196.99626 444
49.15886 -10.26892 199.52483 441
46.53542 -10.38880 202.14064 439
43.87335 -10.54387 204.87064 436
41.08560 -10.67300 207.62477 433
38.24067 -10.83396 210.45361 431
-179.33943 -22.86081 223.04222 384
-181.68518 -22.97591 269.44922 486
83.18678 -9.23615 179.53738 316
69.98998 -10.03959 178.62935 462
67.85471 -10.16584 180.71844 460
65.64046 -10.28513 182.89604 457
63.44806 -10.43867 185.09972 455
61.16875 -10.54668 187.36424 453
58.87138 -10.70991 189.69519 451
56.50114 -10.86337 192.03149 449
54.07585 -11.00751 194.49001 446
51.57353 -11.14763 196.96358 444
49.02861 -11.32108 199.52397 441
46.42215 -11.45259 202.15669 439
43.74954 -11.63456 204.80896 436
40.96895 -11.80790 207.59155 433
38.13000 -11.95080 210.48915 430
-179.28932 -25.25405 223.00330 384
-181.79008 -25.45219 269.56656 486
83.30034 -10.07817 179.51320 316
69.91321 -10.98380 178.54788 462
67.76940 -11.09537 180.67558 459
65.58453 -11.24747 182.83978 457
63.35336 -11.39425 185.06178 455
61.07633 -11.55997 187.30956 453
58.74298 -11.71061 189.66170 451
56.40845 -11.87884 192.02516 448
53.95329 -12.04074 194.43396 446
51.49694 -12.18184 196.95067 443
48.92904 -12.38717 199.47198 441
46.32845 -12.56418 202.10002 438
43.62710 -12.73672 204.79344 436
40.81993 -12.91650 207.59013 433
37.97437 -13.10444 210.47322 430
-179.29237 -27.77402 222.99655 384
-181.68994 -27.87094 269.57477 486
83.35051 -10.89864 179.53076 316
69.84756 -11.90738 178.53671 461
67.70306 -12.06553 180.66789 459
65.52307 -12.22260 182.80826 457
63.26620 -12.38826 185.01776 455
60.99960 -12.55767 187.28374 453
58.65914 -12.71763 189.63060 450
56.30661 -12.89580 191.95963 448
53.86071 -13.07887 194.41595 446
51.39652 -13.25603 196.89166 443
48.81275 -13.45918 199.48811 441
46.17704 -13.65840 202.12137 438
43.48914 -13.83707 204.78435 435
40.70303 -14.03696 207.59009 433
37.84843 -14.27551 210.43710 430
-179.36441 -30.23583 223.00986 384
-181.73071 -30.38433 269.54785 486
83.45710 -11.76234 179.51939 316
69.79321 -12.86092 178.49191 461
67.65591 -13.00866 180.59941 459
65.44689 -13.21409 182.78961 457
63.21406 -13.38231 185.00981 455
60.93546 -13.54208 187.26343 452
58.60725 -13.73579 189.59685 450
56.20886 -13.93058 191.96246 448
53.78617 -14.11609 194.37859 446
51.24869 -14.30371 196.90390 443
48.70578 -14.52469 199.43964 441
46.08443 -14.73258 202.09094 438
43.35330 -14.95983 204.77649 435
40.59779 -15.17121 207.59744 433
37.69593 -15.40536 210.46429 430
-179.30748 -32.65190 223.05838 384
-181.74867 -32.93782 269.61331 486
83.54700 -12.58531 179.52130 316
69.70805 -13.79186 178.46277 461
67.56340 -13.97360 180.58904 459
65.36483 -14.17397 182.74605 457
63.14059 -14.34629 184.95654 454
60.86229 -14.53493 187.22133 452
58.50975 -14.74658 189.56435 450
56.10649 -14.93376 191.90384 447
53.66160 -15.16264 194.37717 445
51.14908 -15.37777 196.84143 443
48.58022 -15.60525 199.42827 440
45.96997 -15.82211 202.03864 438
43.23201 -16.07061 204.77730 435
40.43734 -16.28066 207.54373 432
37.56652 -16.55121 210.42148 430
-179.38310 -35.15238 222.96788 384
-181.69060 -35.41878 269.60211 486
-186.86185 -35.84423 277.17682 496
-186.81000 -35.80283 283.98978 495
-186.78192 -35.78668 290.85272 495
83.52650 -13.46703 179.46890 463
69.64560 -14.73580 178.41115 461
67.52959 -14.92705 180.50903 459
65.31718 -15.11861 182.71179 456
63.08485 -15.35596 184.90462 454
60.76754 -15.54865 187.20045 452
58.41358 -15.77396 189.50775 450
56.03004 -15.96465 191.87321 447
53.54885 -16.21564 194.32370 445
51.04326 -16.42618 196.82689 443
48.47207 -16.70216 199.39069 440
45.84703 -16.94372 202.04317 437
43.12346 -17.19335 204.73236 435
40.33344 -17.43062 207.53537 432
37.44068 -17.67286 210.43396 429
-179.30629 -37.69112 223.05052 384
-181.72575 -37.85391 269.66455 486
83.49962 -14.30953 179.45222 463
69.59689 -15.66556 178.33472 461
67.45509 -15.89268 180.47292 458
65.25506 -16.11092 182.67987 456
62.98477 -16.30791 184.88402 454
60.69434 -16.56111 187.14844 452
58.37029 -16.77616 189.46075 449
55.93833 -17.03284 191.87625 447
53.46235 -17.28864 194.30829 444
50.93638 -17.53683 196.79749 442
48.36822 -17.76468 199.36513 440
45.73187 -18.02118 202.02055 437
42.99770 -18.30714 204.74997 435
40.17451 -18.58664 207.54910 432
37.32178 -18.85095 210.42828 429
-179.35600 -40.10423 223.07063 384
-181.68622 -40.37539 269.70291 486
83.42391 -15.18503 179.37250 463
69.55191 -16.61326 178.30818 460
67.39537 -16.86450 180.42285 458
65.20914 -17.09069 182.60129 456
62.91769 -17.31078 184.86009 454
60.63103 -17.55331 187.12607 451
58.29311 -17.77808 189.43410 449
55.85589 -18.03832 191.81874 447
53.41223 -18.33293 194.24606 444
50.82930 -18.56064 196.77168 442
48.26794 -18.86153 199.33179 440
45.59334 -19.11744 201.97437 437
42.88038 -19.41795 204.71938 434
40.06460 -19.72734 207.49701 432
37.19130 -20.00714 210.40050 429
-179.34828 -42.62696 222.99658 384
-181.62640 -42.80198 269.73746 485
83.38374 -16.05284 179.35599 463
69.46684 -17.56402 178.26103 460
67.32645 -17.81630 180.39175 458
65.11519 -18.05154 182.56146 456
62.88212 -18.31152 184.80196 454
60.57842 -18.56346 187.05630 451
58.18837 -18.84027 189.42439 449
55.77481 -19.10176 191.77548 446
53.31359 -19.35567 194.22432 444
50.77765 -19.65611 196.76482 442
48.14900 -19.94381 199.34653 439
45.47501 -20.22315 201.97523 437
42.74655 -20.54160 204.69534 434
39.92090 -20.86237 207.51743 431
37.04038 -21.15763 210.41602 429
-179.34740 -45.06601 223.03270 383
83.33781 -16.89478 179.28386 462
69.43073 -18.54877 178.20522 460
67.25579 -18.78138 180.36688 458
65.05831 -19.04080 182.51807 456
62.81868 -19.30402 184.76685 453
60.47401 -19.55885 187.03691 451
58.11530 -19.86134 189.34969 449
55.71949 -20.11056 191.74461 446
53.19972 -20.42162 194.21916 444
50.67979 -20.74040 196.69635 441
48.03513 -21.01283 199.27969 439
45.37450 -21.35618 201.97484 436
42.62605 -21.68312 204.69720 434
39.79528 -22.00660 207.51736 431
36.91295 -22.30305 210.36409 428
-179.33421 -47.63089 223.06229 383
83.29449 -17.75867 179.23949 462
69.37836 -19.50669 178.17700 460
67.21812 -19.76090 180.30780 458
65.00026 -20.02329 182.46109 455
62.73427 -20.31687 184.71404 453
60.41316 -20.60380 186.99138 451
58.04109 -20.87488 189.30923 448
55.61424 -21.16412 191.72585 446
53.15663 -21.49531 194.17052 444
50.56528 -21.79161 196.68036 441
47.98067 -22.11545 199.28798 438
45.26146 -22.44148 201.92525 436
42.49088 -22.77075 204.68785 434
39.66733 -23.16590 207.49158 431
36.76980 -23.47564 210.36104 428
-179.38255 -50.08582 223.00566 383
83.24737 -18.66063 179.19142 462
69.33473 -20.42171 178.11624 459
67.16604 -20.74273 180.24666 457
64.93755 -21.02553 182.43678 455
62.64958 -21.31041 184.66608 453
60.33866 -21.61084 186.94409 451
57.95169 -21.89502 189.27812 448
55.52953 -22.22795 191.67868 446
53.04697 -22.56755 194.14221 443
50.47620 -22.86864 196.63995 441
47.85265 -23.24340 199.24156 438
45.18900 -23.56613 201.91637 436
42.38398 -23.90242 204.65457 433
39.51945 -24.28187 207.46288 431
36.61864 -24.66683 210.34485 428
-179.44458 -52.59013 222.99187 383
83.18630 -19.49874 179.12427 462
69.28622 -21.41611 178.05339 459
67.11990 -21.70716 180.18286 457
64.86111 -22.00492 182.36714 455
62.60913 -22.32113 184.61276 453
60.29942 -22.64012 186.90146 450
57.87709 -22.93777 189.22838 448
55.47821 -23.29086 191.66872 446
52.98763 -23.60229 194.09685 443
50.40401 -23.98035 196.63264 441
47.77052 -24.33346 199.22998 438
45.04595 -24.66755 201.90965 435
42.29619 -25.07642 204.62523 433
39.41863 -25.44749 207.44598 430
36.47661 -25.84427 210.35068 428
-179.39975 -55.09555 223.09218 383
83.14533 -20.39545 179.07597 461
69.20747 -22.36901 177.99449 459
67.02888 -22.66070 180.15768 457
64.82195 -22.97351 182.34843 455
62.55283 -23.30622 184.59399 452
60.19484 -23.63398 186.87482 450
57.82575 -23.97415 189.18748 448
55.36752 -24.30882 191.59752 445
52.90271 -24.67835 194.07538 443
50.32914 -25.05215 196.58032 440
47.69342 -25.41367 199.21199 438
44.98775 -25.81142 201.83900 435
42.19283 -26.19345 204.62373 432
39.28736 -26.61858 207.42107 430
36.36079 -27.00619 210.35432 427
-179.39436 -57.65055 223.00955 383
83.08143 -21.25779 179.03435 461
75.67278 -22.37069 179.59015 312
66.98840 -23.63844 180.09125 457
64.74551 -23.96775 182.28571 454
62.45454 -24.33550 184.52142 452
-74.81719 -11.08254 -13.77092 450
57.74194 -25.00595 189.16687 447
55.28833 -25.39190 191.55702 445
52.78772 -25.75039 194.03159 443
50.22751 -26.13109 196.54559 440
47.59755 -26.54932 199.14702 437
44.87486 -26.90819 201.82213 435
42.07579 -27.32611 204.59917 432
39.19279 -27.75282 207.42192 429
35.97422 -28.24067 210.32906 403
-179.80919 -60.16952 223.04370 361
83.04230 -22.17057 178.96664 461
75.79816 -23.26294 179.60187 312
66.94102 -24.63591 180.03394 456
64.67556 -24.97964 182.25226 454
62.42107 -25.32289 184.45996 452
60.06456 -25.70697 186.78207 449
57.67738 -26.04493 189.10654 447
55.21380 -26.46703 191.54745 445
52.73698 -26.84917 194.02325 442
50.16594 -27.24460 196.52231 440
47.47007 -27.65199 199.12982 437
44.74737 -28.07218 201.82895 435
41.79513 -28.52006 204.57336 415
38.68742 -28.97344 207.36243 412
35.41460 -29.52497 210.30446 403
-180.32957 -62.82495 223.14337 362
83.02525 -23.04739 178.92050 461
75.99409 -24.17199 179.58078 312
66.89334 -25.61301 179.96437 456
64.66071 -25.98229 182.18066 454
62.32641 -26.34035 184.43936 452
60.01970 -26.73367 186.72736 449
57.59864 -27.12821 189.07854 447
55.16557 -27.52061 191.49004 444
52.63503 -27.92592 193.96725 442
50.03242 -28.34205 196.52010 439
47.30324 -28.76661 199.07855 419
44.37032 -29.24469 201.75180 417
41.34819 -29.72819 204.49802 414
38.22295 -30.20297 207.33592 405
34.80585 -30.76389 210.28795 402
-181.01025 -65.49375 223.09720 361
82.97636 -23.91047 178.84998 460
76.18007 -25.03930 179.60344 312
66.82198 -26.62568 179.91040 456
64.58782 -26.98194 182.12785 453
62.28135 -27.36438 184.36659 451
59.94495 -27.74152 186.67429 449
57.53402 -28.16386 189.04831 447
55.06656 -28.59471 191.42805 444
52.48475 -28.99944 193.93939 424
49.71532 -29.49063 196.43159 421
46.85068 -29.96869 199.01581 419
43.89597 -30.45249 201.70216 416
40.83244 -30.93892 204.47383 413
37.61082 -31.50578 207.29720 404
34.19525 -32.04507 210.27310 401
-181.64670 -68.11265 223.16743 361
82.93696 -24.81686 178.78510 460
76.34425 -25.95312 179.59215 312
66.75857 -27.60764 179.85381 455
64.51932 -27.98087 182.05963 453
62.23521 -28.39304 184.32487 451
59.90211 -28.79833 186.60867 449
57.43901 -29.19532 188.99945 428
54.78874 -29.65891 191.39128 425
52.08605 -30.13396 193.83965 423
49.27617 -30.63602 196.34984 421
46.41864 -31.15034 198.98788 418
43.41265 -31.67469 201.66245 415
40.35080 -32.15916 204.39745 413
37.02763 -32.76024 207.28195 403
33.55600 -33.34523 210.21146 401
-183.15837 -70.90244 216.43474 425
-182.31584 -70.78653 223.08476 361
82.88228 -25.67332 178.74251 460
76.53316 -26.82559 179.56079 312
66.73972 -28.61238 179.80113 455
64.45936 -29.01642 182.02850 453
62.15154 -29.41367 184.25835 432
59.65149 -29.85459 186.55560 430
57.05191 -30.34872 188.88644 427
54.38624 -30.78766 191.30136 425
51.63405 -31.31467 193.73639 422
48.82824 -31.78808 196.26744 420
45.94134 -32.32247 198.88644 417
42.95890 -32.84509 201.60338 415
39.80886 -33.41005 204.34679 405
36.44861 -34.03881 207.24522 403
32.94716 -34.65764 210.16571 400
-183.10938 -73.44350 216.48636 425
-184.49991 -73.67069 223.22475 323
82.86000 -26.56367 178.69536 459
76.72888 -27.72505 179.55937 312
66.65295 -29.57454 179.75659 455
64.27058 -30.01781 181.94618 433
61.80776 -30.49299 184.13853 431
59.26605 -30.96392 186.43257 429
56.65725 -31.46162 188.78262 427
53.98216 -31.92953 191.21056 424
51.26541 -32.46516 193.67191 422
48.39783 -33.01455 196.23009 419
45.47161 -33.51904 198.84702 417
42.51327 -34.10822 201.55182 414
39.24461 -34.70021 204.33029 405
35.84558 -35.30032 207.19286 402
32.34550 -35.98920 210.16817 399
-183.04895 -76.04832 216.41780 424
-186.97394 -76.77219 223.23299 322
82.82829 -27.46614 178.61372 459
76.92374 -28.61732 179.58470 312
66.37892 -30.63535 179.63197 435
63.93293 -31.09740 181.79823 433
61.43917 -31.57157 184.05498 431
58.90219 -32.09898 186.33350 428
56.26323 -32.56674 188.68167 426
53.58525 -33.11393 191.09077 424
50.81437 -33.60961 193.55894 421
47.96923 -34.17870 196.11180 419
45.04846 -34.76315 198.75076 416
41.98444 -35.32851 201.48424 407
38.67112 -35.96300 204.27922 404
35.26882 -36.62570 207.13145 401
31.70840 -37.30199 210.13597 399
-183.00050 -78.64945 216.41577 424
-189.55042 -79.88759 223.29869 322
82.77553 -28.36406 178.56581 459
77.12185 -29.49021 179.57362 312
66.04910 -31.67983 179.50159 434
63.60785 -32.17784 181.70193 432
61.08848 -32.70149 183.91331 430
58.53191 -33.17374 186.22162 428
55.90107 -33.70672 188.59343 425
53.16888 -34.25298 191.01451 423
50.40635 -34.80278 193.46794 421
47.51960 -35.39894 196.03354 418
44.58394 -35.94308 198.71461 416
41.39198 -36.60297 201.40639 406
38.09403 -37.24110 204.18663 403
34.66478 -37.93784 207.08968 401
31.05109 -38.65517 210.09932 363
-183.02870 -81.13415 216.46268 424
82.74407 -29.28486 178.48361 458
77.31410 -30.39224 179.55962 312
65.72112 -32.74792 179.37343 434
63.29511 -33.26981 181.55185 432
60.75746 -33.79895 183.81744 429
58.14729 -34.30961 186.09064 427
55.52281 -34.83739 188.49538 425
52.78000 -35.41625 190.90100 422
49.99369 -36.01598 193.38922 420
47.09146 -36.58323 195.95932 417
44.12318 -37.21377 198.61624 408
40.84419 -37.88371 201.31354 405
37.50922 -38.52891 204.13670 403
34.03257 -39.24182 207.06589 400
30.38021 -40.02192 210.07248 363
-183.06551 -83.77737 216.47527 439
82.71785 -30.16611 178.41045 458
77.53331 -31.27894 179.56972 312
65.40012 -33.84258 179.22449 433
62.93126 -34.37654 181.41374 431
60.38432 -34.90816 183.66479 429
57.78699 -35.43985 186.00703 426
55.14358 -36.01125 188.34258 424
-41.80276 -8.84107 -6.34269 422
49.55129 -37.20767 193.29581 419
46.66030 -37.81810 195.89911 417
43.54388 -38.47461 198.53703 407
40.30231 -39.16169 201.26288 405
36.90471 -39.88128 204.09123 402
33.43779 -40.59706 207.03183 399
29.73012 -41.36263 210.02448 362
-182.89482 -86.38070 216.39722 439
82.65875 -31.08277 178.34135 458
77.75706 -32.17216 179.58835 312
65.08321 -34.91711 179.11644 433
62.58008 -35.44738 181.32277 430
60.04009 -36.01291 183.56764 428
57.40248 -36.58250 185.87210 426
54.71863 -37.17903 188.25212 423
51.98737 -37.78592 190.70886 421
49.13931 -38.40471 193.23213 419
46.19817 -39.02203 195.78734 409
42.99870 -39.72491 198.43697 407
39.74532 -40.43425 201.17032 404
36.31787 -41.21421 204.05438 401
32.79986 -41.95589 206.97658 399
29.01642 -42.79412 210.02620 362
-182.82210 -88.95366 216.43806 438
82.47792 -32.04699 178.23509 438
77.96825 -33.02568 179.56274 312
64.73933 -36.00336 178.95531 432
62.24814 -36.55412 181.17397 430
59.68231 -37.16669 183.42877 427
57.03909 -37.72690 185.76317 425
54.32685 -38.34896 188.15227 423
51.57045 -38.95907 190.59311 420
48.69994 -39.60786 193.09793 418
45.67886 -40.27246 195.69350 409
42.46633 -41.02348 198.35260 406
39.16496 -41.73775 201.10002 403
35.75208 -42.53619 203.95828 401
32.19097 -43.29533 206.94617 398
28.30660 -44.21064 209.98488 358
-188.25975 -92.71519 209.52037 485
-188.79977 -92.94286 216.46814 296
82.23488 -32.97738 178.08806 438
78.20195 -33.91468 179.54846 312
64.43886 -37.12838 178.81340 431
61.91218 -37.66679 181.02223 429
59.31203 -38.30633 183.30035 427
56.67987 -38.87463 185.66261 425
53.93677 -39.53661 188.04288 422
51.14898 -40.14682 190.49991 420
48.26410 -40.84576 193.01508 417
45.13102 -41.53716 195.59322 408
41.90023 -42.30168 198.31081 405
38.58984 -43.08879 201.05107 403
35.12910 -43.85184 203.93260 400
31.54760 -44.71683 206.86711 397
27.62103 -45.58293 209.95930 358
-187.80499 -95.29381 209.58156 485
-195.74524 -97.11356 216.40321 294
81.98588 -33.94764 177.96091 437
78.42397 -34.80164 179.54939 312
64.08216 -38.23703 178.68399 431
61.55168 -38.83172 180.90036 428
58.95916 -39.40969 183.16443 426
56.28052 -40.06471 185.53711 424
53.54418 -40.73958 187.92174 422
50.75531 -41.37561 190.40317 419
47.78063 -42.07962 192.92566 410
44.62854 -42.84282 195.50130 407
41.20919 -43.64333 198.28763 405
37.99861 -44.38575 200.99846 402
34.52898 -45.20878 203.87085 399
30.91857 -46.09917 206.82182 397
26.92296 -47.00633 209.90292 357
-187.34207 -97.92902 209.57141 485
81.73427 -34.95648 177.84145 437
78.68446 -35.70034 179.57283 312
63.75299 -39.33565 178.50914 430
61.21457 -39.93899 180.77628 428
58.56267 -40.57850 183.03580 426
55.88942 -41.26146 185.36971 423
53.15928 -41.88758 187.81964 421
50.30733 -42.60856 190.28128 418
47.24109 -43.32782 192.80688 409
44.06413 -44.11826 195.39540 406
40.80461 -44.91988 198.12531 404
37.41558 -45.75180 200.91209 401
33.91144 -46.61058 203.78452 399
30.23926 -47.48536 206.79597 396
26.19131 -48.45824 209.84306 357
-186.79245 -100.39629 209.50632 484
81.47982 -35.93701 177.69096 436
78.93797 -36.57996 179.56680 312
63.43274 -40.46089 178.40874 429
60.83172 -41.10347 180.61304 427
58.20830 -41.76686 182.91132 425
55.53851 -42.42601 185.24544 423
52.76250 -43.09347 187.68431 420
49.84922 -43.83672 190.15585 411
46.77274 -44.63810 192.71315 408
43.54337 -45.44163 195.31390 406
40.24466 -46.23162 198.00706 403
36.83753 -47.08507 200.84241 401
33.27465 -47.99998 203.71889 398
29.60694 -48.91920 206.71410 395
25.44602 -49.96908 209.81407 356
-186.75999 -103.05689 209.54562 485
81.25011 -36.91090 177.54742 435
78.98463 -37.50311 179.51022 432
63.08914 -41.56375 178.21461 429
60.49767 -42.22616 180.47774 426
57.86039 -42.92474 182.75981 424
55.14191 -43.61866 185.12498 422
52.35226 -44.31154 187.58435 420
49.33533 -45.08490 190.06702 410
46.21230 -45.89498 192.60681 408
43.00175 -46.75198 195.21506 405
39.67331 -47.56697 197.95433 402
36.23322 -48.44996 200.73050 400
32.66116 -49.38428 203.67284 397
28.95771 -50.31702 206.66028 394
24.41116 -51.48871 209.77209 269
80.97128 -37.89973 177.41510 435
78.70615 -38.49988 179.37886 431
62.74651 -42.70754 178.07590 428
60.14830 -43.41977 180.34409 426
57.49482 -44.08765 182.62776 424
54.72396 -44.82859 185.00598 421
51.91924 -45.59283 187.45399 412
48.83339 -46.36430 189.90742 409
45.72982 -47.20456 192.50032 407
42.44073 -48.06976 195.09535 404
39.11975 -48.94520 197.84746 402
35.60252 -49.86433 200.67946 399
32.02003 -50.82932 203.60489 396
28.26777 -51.81007 206.61357 394
-188.43272 -108.88816 202.57635 483
80.74696 -38.92500 177.28767 434
78.42508 -39.52326 179.22945 430
62.37662 -43.86824 177.92984 427
59.78352 -44.57887 180.17671 425
57.11392 -45.28038 182.50340 423
54.35233 -46.04471 184.86707 421
51.41957 -46.85190 187.31526 411
48.36441 -47.67310 189.81000 409
45.19641 -48.50966 192.35175 406
41.89066 -49.41779 194.98997 404
38.54821 -50.31446 197.73906 401
34.99906 -51.28008 200.57553 398
31.39344 -52.24328 203.52823 396
27.44616 -53.28103 206.57918 382
-187.88672 -111.42989 202.56857 495
80.48492 -39.92822 177.14964 433
78.14830 -40.59058 179.07135 430
69.72934 -42.87843 179.62297 308
59.44648 -45.73381 180.02904 424
56.73188 -46.51854 182.37569 422
53.96910 -47.28141 184.73341 413
50.94666 -48.08424 187.17787 410
47.84311 -48.93198 189.68605 408
44.64640 -49.82959 192.26660 405
41.34689 -50.76985 194.91692 403
37.92488 -51.71480 197.67833 400
34.39913 -52.67329 200.52101 398
30.59713 -53.70772 203.43408 384
26.40646 -54.89508 206.50977 370
-187.29648 -113.92535 202.54465 495
80.23779 -40.94419 176.97375 433
77.89822 -41.59507 178.93120 429
70.04678 -43.82890 179.64542 308
59.07645 -46.94933 179.87915 424
56.36116 -47.69557 182.22659 421
53.47942 -48.50695 184.60316 412
50.46684 -49.35651 187.02011 410
47.34135 -50.26562 189.55013 407
44.10009 -51.15860 192.09917 405
40.81734 -52.10585 194.82050 402
37.35980 -53.07042 197.54141 400
33.61532 -54.15556 200.42166 385
29.68162 -55.23598 203.37419 383
25.32887 -56.49723 206.39763 369
79.96250 -41.96383 176.85078 431
77.63954 -42.65173 178.78928 428
70.31471 -44.75862 179.65399 308
58.70575 -48.11869 179.75545 423
55.98230 -48.90099 182.06955 421
53.03408 -49.79633 184.42906 411
49.97076 -50.66615 186.86847 409
46.80890 -51.57888 189.39645 406
43.60249 -52.48632 192.00954 404
40.19891 -53.47829 194.69577 401
36.60188 -54.51873 197.45396 387
32.78421 -55.67364 200.33336 385
28.73382 -56.83870 203.26822 371
24.21497 -58.13700 206.32362 369
79.71780 -42.98672 176.68599 430
77.35532 -43.71652 178.63635 428
70.64931 -45.70796 179.61533 308
58.36275 -49.33109 179.58459 422
55.53941 -50.15337 181.89198 413
52.58243 -51.06389 184.27032 411
49.49774 -51.95458 186.74873 408
46.30716 -52.93086 189.26642 406
43.06166 -53.87552 191.88589 403
39.47629 -54.93634 194.53683 389
35.75535 -56.01232 197.32610 386
31.91424 -57.15545 200.17526 384
27.66858 -58.44677 203.18427 370
23.04235 -59.79752 206.28275 368
79.47529 -44.02808 176.51230 429
77.07928 -44.75726 178.51463 427
70.93179 -46.64499 179.64590 308
58.00234 -50.56285 179.42911 422
55.07818 -51.40988 181.73500 412
52.08224 -52.33173 184.11418 410
48.97588 -53.27864 186.62146 407
45.80615 -54.25400 189.11655 405
42.34726 -55.31902 191.73276 391
38.69450 -56.41510 194.39639 388
34.95859 -57.51398 197.18681 385
31.06623 -58.70063 200.07912 372
26.55655 -60.09657 203.04723 370
21.92161 -61.46097 206.15746 367
79.19827 -45.11515 176.34933 429
76.80502 -45.81588 178.33743 426
71.22488 -47.55879 179.60970 308
57.58448 -51.80682 179.27475 414
54.64831 -52.70076 181.58319 411
51.59046 -53.64377 183.97672 409
48.47469 -54.60627 186.42714 407
45.09682 -55.63863 188.97292 392
41.57533 -56.72961 191.58859 390
37.93940 -57.89451 194.27725 387
34.12345 -59.04666 197.08218 385
29.98125 -60.36847 199.94608 371
25.46195 -61.76846 202.99347 369
20.74134 -63.18789 206.09587 366
78.93053 -46.13134 176.19809 428
76.52097 -46.89707 178.18079 426
71.57323 -48.50256 179.64238 308
57.15532 -53.06459 179.09406 413
54.21160 -53.97299 181.43175 411
51.15504 -54.96441 183.82108 408
47.86561 -56.00599 186.26442 394
44.38047 -57.07713 188.80907 391
40.79763 -58.21383 191.41063 389
37.10885 -59.37828 194.12299 386
33.28340 -60.57743 196.95782 384
28.93410 -61.96396 199.82713 370
24.31899 -63.43314 202.85454 368
19.55655 -64.92459 206.04416 365
78.70048 -47.22869 176.05513 427
76.27303 -47.99709 178.02710 425
71.85848 -49.41967 179.61716 308
56.72984 -54.30098 178.91861 412
53.71698 -55.26688 181.25104 410
50.53139 -56.30199 183.64323 395
47.14545 -57.39933 186.10555 393
43.67355 -58.51241 188.64497 390
40.05243 -59.69198 191.27878 388
36.31247 -60.93843 193.96162 385
32.30211 -62.23227 196.81903 372
27.82016 -63.63761 199.68681 369
23.19165 -65.15540 202.74396 367
18.30464 -66.71288 205.91525 364
78.44918 -48.29629 175.89354 426
76.01149 -49.07803 177.89862 424
72.20155 -50.35733 179.62355 308
56.26901 -55.61813 178.69318 412
53.16331 -56.64403 181.03844 397
49.83258 -57.70533 183.41748 394
46.41870 -58.86789 185.90807 392
42.91605 -60.02664 188.47453 390
39.28856 -61.19485 191.12292 387
35.51033 -62.47377 193.82362 385
31.24244 -63.83656 196.64659 371
26.73020 -65.36851 199.58203 369
22.00887 -66.88422 202.65321 366
17.12046 -68.49906 205.86951 363
78.16446 -49.38345 175.72975 426
75.72485 -50.18596 177.73468 424
72.53781 -51.25966 179.63586 308
55.72241 -56.93914 178.48885 398
52.49553 -58.00974 180.83002 396
49.16862 -59.14763 183.20863 394
45.72572 -60.31487 185.71732 391
42.15195 -61.51014 188.24712 389
38.48169 -62.75607 190.94286 386
34.55825 -64.06783 193.68576 373
30.20109 -65.53867 196.48676 370
25.60448 -67.07178 199.43567 368
20.85582 -68.65111 202.53069 365
15.82820 -70.39449 205.77202 362
77.88741 -50.45018 175.56776 425
75.43412 -51.29681 177.54906 423
72.85085 -52.17973 179.61745 308
55.06550 -58.27925 178.28696 397
51.84369 -59.41466 180.62424 395
48.47126 -60.57708 183.01646 393
45.02172 -61.76777 185.49718 390
41.38143 -62.98262 188.06790 388
37.69924 -64.30321 190.76932 385
33.55486 -65.72176 193.51599 372
29.11984 -67.21448 196.36388 369
24.49533 -68.79697 199.29745 367
19.62985 -70.45557 202.39342 364
14.59880 -72.21156 205.67178 361
77.61810 -51.53678 175.37653 424
75.14398 -52.41879 177.37422 422
72.63097 -53.30547 179.46927 420
54.44497 -59.68576 178.01723 397
51.15726 -60.82694 180.36684 394
47.81818 -62.03829 182.81485 392
44.25675 -63.26455 185.29010 389
40.63478 -64.50887 187.91939 387
36.83537 -65.84086 190.56514 374
32.54157 -67.37526 193.34390 371
28.06232 -68.94194 196.18401 368
23.32433 -70.57323 199.15222 366
18.42029 -72.33459 202.32178 363
12.13078 -74.54204 205.51639 315
77.37199 -52.64131 175.20436 424
74.89647 -53.53094 177.21814 421
72.33255 -54.45638 179.30107 419
53.82270 -61.07384 177.81641 396
50.53325 -62.27092 180.14001 393
47.11098 -63.48067 182.57104 391
43.56332 -64.77786 185.08775 389
39.86028 -66.05281 187.73534 386
35.87003 -67.52932 190.39478 373
31.52169 -69.04257 193.16356 370
26.93335 -70.71098 196.02943 368
22.17461 -72.38363 199.01613 365
16.70295 -74.35024 202.14984 332
8.92253 -77.11835 205.30977 314
77.09688 -53.76263 175.01784 423
74.59920 -54.67566 177.06769 421
72.02489 -55.63560 179.15852 419
62.51547 -59.09165 179.70110 304
49.86287 -63.68790 179.93930 392
46.37994 -64.97096 182.35452 390
42.80040 -66.30672 184.90134 388
39.09780 -67.63091 187.52371 385
34.88198 -69.18649 190.18620 372
30.43506 -70.79977 192.94087 369
25.85625 -72.47982 195.82864 367
20.83863 -74.29035 198.84250 334
14.25589 -76.70490 201.91461 316
5.59867 -79.84719 205.11850 313
76.86732 -54.89308 174.82550 422
74.33006 -55.84322 176.89116 420
71.73380 -56.80675 178.97984 418
62.90477 -60.05699 179.68863 304
49.14060 -65.17467 179.68835 392
45.67201 -66.47475 182.16457 389
42.02240 -67.80479 184.67267 387
38.15773 -69.28020 187.28488 373
33.87043 -70.87930 189.96393 371
29.35513 -72.54364 192.74089 368
24.68904 -74.27884 195.70250 366
18.60726 -76.50458 198.62469 333
11.08128 -79.35034 201.68163 314
2.20172 -82.66467 204.93011 312
76.58128 -56.01737 174.66557 422
74.05184 -57.00080 176.70879 419
71.41861 -57.96533 178.82550 417
63.25901 -61.05862 179.69684 304
48.47282 -66.69413 179.46840 391
44.96945 -68.00018 181.94135 388
41.26320 -69.38293 184.48865 386
37.16280 -70.95238 187.04681 372
32.82426 -72.60833 189.78058 370
28.28052 -74.29878 192.59032 367
22.68241 -76.40091 195.42586 334
16.30276 -78.81697 198.41132 316
7.83406 -82.03040 201.39246 313
-1.39921 -85.55075 204.71417 311
76.30967 -57.15528 174.48607 421
73.74717 -58.15174 176.50717 419
71.13889 -59.15332 178.63229 416
63.67645 -62.06226 179.69736 304
47.76545 -68.15480 179.22855 390
44.24372 -69.56340 181.67244 387
40.39429 -70.99239 184.22153 374
36.22363 -72.65601 186.81827 372
31.78397 -74.31532 189.56523 369
26.70618 -76.28771 192.34215 336
20.53964 -78.68009 195.12654 333
13.23305 -81.46194 198.04303 315
4.45255 -84.84715 201.12450 312
-5.08869 -88.54947 204.44980 310
76.06630 -58.33895 174.28619 420
73.46785 -59.31379 176.35606 418
70.51609 -60.50024 178.38737 387
64.08117 -63.00912 179.70627 304
47.08611 -69.69611 178.95644 389
43.47748 -71.13702 181.45844 387
39.46997 -72.69303 184.01076 373
35.19577 -74.33487 186.60236 371
30.52396 -76.18094 189.32155 337
24.59464 -78.52256 191.98203 334
18.31766 -80.99108 194.84444 332
10.03915 -84.25920 197.76808 314
0.89830 -87.78989 200.88905 311
75.79827 -59.49330 174.12332 419
72.99785 -60.57731 176.12794 388
69.86947 -61.86190 178.11974 386
64.47355 -63.99460 179.67802 304
46.38757 -71.23445 178.72025 388
42.71467 -72.69770 181.22966 375
38.53698 -74.38745 183.71881 372
34.16401 -76.13731 186.38849 370
28.53794 -78.35049 188.97722 336
22.47230 -80.76530 191.64842 333
15.36012 -83.62156 194.45676 315
6.68445 -87.10992 197.40369 312
-3.52833 -91.19186 200.48163 284
75.46429 -60.68451 173.90796 389
72.35325 -61.94297 175.83664 387
69.16073 -63.21607 177.83032 385
64.87193 -65.00313 179.66624 304
45.67398 -72.80439 178.46530 387
41.79842 -74.39890 180.94160 374
37.53576 -76.11872 183.49747 371
32.38012 -78.20177 185.98897 337
26.52516 -80.60770 188.58971 335
20.30849 -83.14697 191.35059 332
12.23737 -86.40569 194.06360 314
3.24405 -90.05157 197.02890 311
-19.78383 -99.43832 199.29887 265
74.82316 -61.99778 173.58275 388
71.74116 -63.30568 175.54428 386
68.53758 -64.61138 177.57594 384
65.28407 -65.97834 179.70386 304
44.92573 -74.37380 178.21037 386
40.86832 -76.07943 180.66682 373
36.09346 -78.02264 183.14838 338
30.41741 -80.38256 185.62721 336
24.39798 -82.88882 188.23634 334
17.51864 -85.73155 190.91945 315
8.95149 -89.27645 193.68057 313
-2.75790 -94.14480 196.45781 284
74.25566 -63.31347 173.28232 387
71.11307 -64.67334 175.24808 385
67.84246 -66.03233 177.27689 383
65.11314 -67.17332 179.56367 394
44.05408 -76.06723 177.89975 374
39.74498 -77.87875 180.32426 340
34.23820 -80.19432 182.70477 337
28.42383 -82.60371 185.18741 335
22.27775 -85.19894 187.81334 332
14.43671 -88.53733 190.47456 314
5.40437 -92.29807 193.21732 285
73.62900 -64.67982 172.98529 387
70.47068 -66.04737 174.96526 384
67.16831 -67.47950 176.98877 395
64.43961 -68.60326 179.30321 393
53.20858 -73.40912 179.76244 300
37.95546 -79.96302 179.90051 339
32.34332 -82.39332 182.27058 336
26.37891 -84.95788 184.78323 334
19.68101 -87.82476 187.41295 316
11.25393 -91.41652 190.00143 313
-1.89378 -97.00744 192.38568 284
73.02665 -66.05928 172.71935 386
69.80505 -67.45460 174.65129 383
66.52158 -68.89482 176.74844 394
63.79770 -70.07198 179.00557 392
53.68669 -74.48013 179.78105 300
36.13894 -82.09560 179.45203 337
30.38850 -84.65193 181.84483 335
24.25229 -87.29878 184.32005 333
16.67217 -90.58213 186.85138 314
6.32197 -95.14121 189.31961 285
72.39375 -67.46318 172.40427 385
69.12219 -68.91420 174.36134 382
65.87740 -70.34332 176.45203 393
63.11367 -71.57001 178.72285 391
54.14230 -75.53922 179.80075 300
34.25918 -84.36826 178.93979 336
28.36141 -86.97917 181.35333 334
21.88305 -89.84743 183.86061 316
13.52188 -93.52528 186.30591 313
-1.45659 -100.14530 188.27629 266
71.73914 -68.87240 172.04832 384
68.46329 -70.35239 174.05017 381
65.18494 -71.82122 176.16779 392
62.40199 -73.08447 178.48128 390
54.66311 -76.56890 179.79286 300
32.30891 -86.61956 178.46846 335
26.30757 -89.31492 180.85078 333
18.92082 -92.64795 183.29121 315
7.29735 -97.87494 185.32654 285
71.44816 -70.13153 171.81604 316
67.78506 -71.79133 173.74831 381
64.54146 -73.29825 175.84465 391
61.69370 -74.61354 178.19193 389
55.14735 -77.59660 179.75618 300
30.36733 -88.95244 177.92569 334
24.12429 -91.82345 180.40125 316
15.01432 -95.99267 182.54800 286
-0.84014 -103.24890 184.06218 266
71.89588 -71.09164 171.83743 316
67.10107 -73.28824 173.42578 380
63.84596 -74.81532 175.54729 390
60.98260 -76.13107 177.87859 388
55.59807 -78.64556 179.75473 300
28.35104 -91.35271 177.43729 333
21.24229 -94.62527 179.74493 315
8.33831 -100.66745 181.37172 285
-25.09185 -116.22176 180.44492 284
72.32242 -71.99296 171.84680 316
66.38951 -74.81133 173.07826 379
63.14404 -76.32046 175.26819 389
60.25516 -77.72662 177.61659 387
56.13721 -79.66389 179.76723 300
41.19235 -86.69484 179.89465 296
16.13778 -98.54549 178.72223 286
-0.08065 -106.22014 179.83827 266
-24.38151 -117.74786 180.43588 284
72.79552 -72.91975 171.84560 316
65.69449 -76.35674 172.75044 378
62.43565 -77.89801 174.92375 388
59.51533 -79.28453 177.30524 386
56.51463 -80.72896 179.74402 384
41.71564 -87.84919 179.90256 296
9.53096 -103.35051 177.39229 285
-16.20666 -115.65781 177.09322 345
-23.67187 -119.26188 180.46474 284
73.24647 -73.85421 171.80116 316
64.99062 -77.91502 172.40376 377
61.75013 -79.47986 174.64323 387
58.77521 -80.94514 177.00308 385
55.14482 -82.71279 179.30734 327
42.30987 -88.97227 179.88077 296
-10.03446 -114.48646 173.66988 289
-10.11675 -114.50345 177.99911 289
-22.93259 -120.80848 180.45595 284
73.71799 -74.78174 171.82304 316
64.25615 -79.45355 172.10023 376
61.04668 -81.06467 174.32567 386
57.92242 -82.58920 176.66721 328
52.96838 -85.04760 178.70473 327
42.87736 -90.08988 179.90463 296
-0.80099 -111.69923 175.22093 290
-0.84629 -111.69761 179.44006 291
74.21737 -75.68475 171.81039 316
64.11790 -80.75638 171.90938 312
60.29178 -82.68172 173.99905 385
55.85313 -84.95829 176.03152 327
50.74688 -87.51214 178.11266 326
43.41549 -91.17527 179.86075 296
25.89090 -100.01870 179.99286 292
4.65655 -110.66772 180.20883 288
74.67908 -76.61440 171.79326 316
64.64196 -81.74637 171.88596 312
58.67763 -84.81582 173.39806 328
53.70557 -87.36150 175.38708 326
48.45485 -90.01141 177.47992 325
43.09346 -92.76074 179.66452 323
26.50360 -101.22060 179.99435 292
5.37115 -112.04156 180.16209 288
75.20800 -77.51531 171.82272 316
65.16457 -82.72671 171.87828 312
56.57286 -87.16391 172.72694 326
51.45382 -89.84474 174.69827 324
46.09851 -92.62920 176.80629 323
40.57294 -95.50398 179.03043 321
27.12205 -102.43681 180.01401 292
6.03571 -113.40090 180.17375 288
75.70447 -78.46420 171.78963 316
65.69344 -83.70164 171.90149 312
54.45171 -89.65159 172.00125 325
49.16230 -92.44318 173.97769 323
43.64201 -95.34410 176.08624 322
37.92474 -98.31239 178.39041 320
27.79322 -103.70460 179.98332 292
6.72277 -114.75744 180.17294 288
76.17706 -79.35388 171.81512 316
66.24640 -84.67859 171.86189 312
54.93497 -90.73007 172.00044 308
46.78885 -95.10002 173.28900 322
41.08297 -98.09550 175.36958 321
35.18261 -101.28533 177.68755 319
19.40702 -109.71928 178.33051 272
76.70449 -80.25548 171.80171 316
66.75388 -85.67170 171.86443 312
55.52810 -91.74354 172.00331 308
44.30400 -97.82823 172.47768 321
38.44176 -101.03408 174.63670 320
25.93418 -107.78401 175.61577 271
-55.31272 -151.85258 164.13300 372
77.18921 -81.17314 171.80794 316
67.28619 -86.61569 171.88824 312
56.09707 -92.80704 171.94937 308
43.20681 -99.89378 172.09998 304
33.57009 -105.19243 173.42276 272
13.92690 -115.95617 172.95851 270
-51.44641 -151.94368 164.65363 373
77.69848 -82.07194 171.78748 316
67.83694 -87.57059 171.88039 312
56.65816 -93.81358 171.97964 308
43.85460 -100.97039 172.05038 304
29.04351 -109.28796 172.19167 300
11.64629 -118.97911 172.36948 296
-47.79246 -152.14471 165.19243 288
78.25499 -82.96623 171.77922 316
68.43224 -88.54186 171.87199 312
57.28201 -94.87222 171.95444 308
44.48534 -102.08524 172.06430 304
29.71257 -110.49689 172.21744 300
12.32886 -120.30363 172.34406 296
-46.85938 -153.82335 165.17131 286
78.76112 -83.86639 171.77069 316
68.98159 -89.47456 171.86830 312
57.85181 -95.86883 171.93918 308
45.13019 -103.17323 172.08168 304
30.39816 -111.67294 172.21219 300
13.11593 -121.59490 172.32666 296
-45.92338 -155.46446 165.17993 286
79.28823 -84.77244 171.79259 316
69.55892 -90.45333 171.87523 312
58.47616 -96.90568 171.97595 308
45.78402 -104.30669 172.08107 304
31.09284 -112.84706 172.19661 300
13.81539 -122.92517 172.34593 296
-44.89970 -157.13361 165.15820 286
79.83063 -85.67403 171.76373 316
70.13010 -91.38783 171.84792 312
59.07042 -97.92847 171.94496 308
46.38858 -105.38965 172.06134 304
31.75863 -114.08421 172.16867 300
14.63045 -124.17527 172.31664 296
-43.94061 -158.79799 165.17799 286
80.37566 -86.55132 171.76794 316
70.70929 -92.37000 171.83833 312
59.67365 -98.97950 171.92918 308
47.10012 -106.47404 172.02884 304
32.47730 -115.26128 172.17537 300
-28.13243 -151.55661 163.09474 371
-42.90060 -160.47372 165.21060 286
80.93169 -87.45123 171.76019 316
71.24899 -93.31062 171.85283 312
60.31331 -99.96373 171.92075 308
47.72036 -107.57650 172.06865 304
33.20976 -116.44301 172.16275 300
-24.50811 -151.43776 163.66904 372
81.48135 -88.31577 171.75197 316
71.85323 -94.24432 171.84175 312
60.91716 -100.97250 171.91675 308
48.39189 -108.66772 172.04369 304
33.88661 -117.61713 172.18378 300
-20.88359 -151.36563 164.22066 373
82.02186 -89.19098 171.76498 316
72.46816 -95.20750 171.85863 312
61.57376 -101.99483 171.91348 308
49.08586 -109.80100 172.01157 304
34.65406 -118.82135 172.15041 300
-17.39984 -151.29994 164.77121 375
82.62536 -90.05019 171.73938 316
73.04122 -96.11111 171.85680 312
62.19828 -102.99786 171.91994 308
49.76105 -110.84663 172.02983 304
35.41091 -119.98537 172.18146 300
-14.02073 -151.22894 165.28134 376
83.18941 -90.92307 171.75571 316
73.63297 -97.06231 171.81105 312
62.84162 -103.98905 171.94608 308
50.46952 -111.96603 172.02118 304
36.15216 -121.15818 172.12924 300
-11.19400 -151.48610 165.72612 291
83.77068 -91.81923 171.73933 316
74.28195 -97.99295 171.83714 312
63.49201 -104.99129 171.93443 308
51.17159 -113.03539 172.00069 304
36.87389 -122.32440 172.13844 300
-10.23978 -152.92657 165.72368 291
84.34441 -92.68914 171.71439 316
74.89310 -98.92065 171.82817 312
64.17245 -105.95991 171.88960 308
51.86714 -114.06250 171.98947 304
37.66489 -123.48384 172.15738 300
-9.17803 -154.29170 165.69788 291
84.89992 -93.56989 171.72000 316
75.48245 -99.83861 171.80138 312
64.80320 -106.96001 171.91316 308
52.58220 -115.13744 172.02434 304
-0.12141 -150.35052 162.87932 285
-8.15879 -155.73943 165.74768 291
85.51616 -94.42090 171.74796 316
76.12829 -100.76469 171.80464 312
65.48122 -107.95772 171.91393 308
53.28758 -116.23846 171.97478 304
2.15773 -150.80344 163.24161 382
-7.13923 -157.16435 165.73131 290
86.11911 -95.25310 171.72034 316
76.77184 -101.68541 171.82251 312
66.16203 -108.92413 171.90387 308
54.00379 -117.29118 171.97452 304
5.21699 -150.76987 163.74802 383
-6.15943 -158.59348 165.68845 290
86.70348 -96.13517 171.72574 316
77.41058 -102.59579 171.78470 312
66.84721 -109.90663 171.89621 308
54.72444 -118.31988 171.99352 304
8.15502 -150.69283 164.23703 385
-5.16872 -159.98154 165.71365 290
87.33119 -96.95443 171.69731 316
78.02416 -103.47768 171.80080 312
67.50742 -110.88363 171.89417 308
55.51074 -119.40324 171.95558 304
11.06543 -150.62329 164.67628 386
87.92976 -97.83305 171.68959 316
78.71645 -104.39964 171.78772 312
68.22385 -111.85146 171.86238 308
56.24154 -120.42805 171.99724 304
13.97223 -150.52742 165.17247 387
88.53442 -98.66096 171.71532 316
79.35959 -105.28247 171.80034 312
68.94459 -112.83918 171.86922 308
56.94962 -121.46189 171.98308 304
16.84194 -150.48766 165.64288 388
89.14175 -99.49335 171.70998 316
80.04349 -106.21323 171.78293 312
69.64155 -113.81400 171.88402 308
57.70979 -122.53402 171.93806 304
19.56626 -150.42061 166.11008 390
89.78310 -100.35161 171.69125 316
80.66737 -107.10087 171.79111 312
70.31573 -114.76517 171.86916 308
58.50169 -123.56301 171.93660 304
20.65422 -151.59320 166.11165 297
90.42602 -101.15702 171.67940 316
81.34185 -108.00881 171.78241 312
71.03956 -115.69951 171.82675 308
26.95325 -148.86223 163.24599 296
21.63207 -152.81973 166.11201 297
91.05430 -101.98354 171.68291 316
82.01143 -108.88593 171.74829 312
71.79410 -116.65033 171.83493 308
27.78935 -150.12772 163.18344 390
22.59509 -154.05386 166.12027 297
91.71026 -102.83732 171.66301 316
82.69158 -109.76074 171.73773 312
72.51788 -117.62392 171.86826 308
30.40253 -150.05020 163.65704 391
23.62154 -155.31578 166.11197 297
-1946.34326 -1672.81689 82.02154 320
92.36852 -103.64739 171.65457 316
83.37641 -110.62298 171.74826 312
73.24942 -118.54793 171.82814 308
33.01495 -149.91928 164.09785 392
24.59292 -156.51517 166.10614 297
-1925.95532 -1677.97144 82.59369 498
-1931.31763 -1681.99597 126.62712 488
92.99562 -104.47071 171.65720 316
84.08639 -111.53222 171.73773 312
73.97868 -119.51305 171.82138 308
35.59650 -149.80595 164.54239 394
25.57334 -157.78435 166.10497 297
93.65038 -105.30780 171.64732 316
84.81892 -112.40489 171.73424 312
74.74490 -120.45580 171.84166 308
38.10927 -149.71715 165.00592 395
26.55915 -158.97537 166.09196 297
94.33601 -106.09192 171.63791 316
85.49111 -113.25245 171.74216 312
75.44958 -121.35644 171.81651 308
40.59229 -149.64214 165.40636 396
94.96600 -106.90159 171.64864 316
86.22282 -114.09678 171.70267 312
76.24767 -122.30789 171.83600 308
42.98339 -149.57622 165.81702 397
95.67826 -107.71675 171.66507 316
86.92947 -114.95946 171.69710 312
49.17871 -146.29471 163.38509 300
45.41467 -149.48085 166.20113 398
96.35064 -108.51583 171.62024 316
87.64014 -115.81728 171.70528 312
50.03893 -147.48332 163.31166 300
46.36650 -150.54202 166.21733 301
97.02070 -109.30429 171.63803 316
88.37982 -116.68037 171.70457 312
50.80190 -148.64313 163.31912 300
47.35816 -151.63069 166.25691 301
97.69446 -110.11387 171.64558 316
89.10923 -117.54107 171.72430 312
52.34763 -149.22493 163.49509 401
48.31276 -152.71886 166.24318 301
98.37164 -110.89191 171.61522 316
89.80999 -118.36708 171.71581 312
54.58336 -149.11357 163.88054 403
49.30382 -153.76471 166.21201 301
99.08300 -111.66940 171.59789 316
90.59304 -119.21407 171.66933 312
56.82443 -149.07127 164.31096 404
50.27411 -154.81662 166.22557 301
99.79691 -112.46372 171.62061 316
91.30666 -120.05625 171.69415 312
59.00135 -148.96968 164.67256 405
51.23067 -155.91747 166.24188 301
100.48298 -113.23353 171.59575 316
92.05188 -120.90564 171.70045 312
61.18302 -148.86539 165.07880 406
52.25810 -156.96501 166.24536 301
101.20074 -114.02455 171.60745 316
68.90436 -143.66190 163.53603 304
63.27331 -148.77335 165.40637 407
53.26603 -158.01567 166.23831 301
-3049.31323 -3003.65381 70.74430 302
101.94180 -114.77147 171.57169 316
69.69436 -144.73723 163.48921 304
65.42809 -148.74110 165.81630 408
-2952.38477 -2951.40161 74.04655 326
102.63914 -115.56679 171.57915 316
70.54341 -145.78957 163.45453 304
67.45411 -148.66853 166.12262 409
-2884.07275 -2922.88110 76.15555 348
-3179.30225 -3201.12427 140.47984 432
103.37667 -116.33088 171.59016 316
71.36306 -146.78796 163.42506 304
68.96349 -149.05194 166.34094 306
-2822.24634 -2901.65283 79.14664 339
-2970.83228 -3042.38794 144.30354 349
104.08187 -117.06465 171.56618 316
72.16489 -147.81638 163.40230 304
69.89742 -149.99547 166.32219 306
-2764.47925 -2880.52246 79.97874 341
-2939.33130 -3049.37158 144.85220 430
104.83836 -117.85480 171.56679 316
73.51110 -148.42761 163.52855 412
70.87988 -150.92851 166.34679 306
-2707.10156 -2860.43579 82.07201 342
-2928.41138 -3076.44141 144.10730 430
105.57249 -118.55972 171.54831 316
75.42267 -148.33263 163.89163 413
71.83678 -151.86882 166.34357 306
-2652.01733 -2841.82690 83.41254 343
-2727.97900 -2917.76196 148.02594 354
106.29964 -119.31614 171.54662 316
77.38593 -148.25633 164.24417 414
72.83333 -152.83046 166.34351 306
-2597.49487 -2822.16431 86.07766 344
-2711.80151 -2936.30029 148.33434 444
86.45374 -140.95047 163.70320 311
79.28571 -148.21710 164.60370 415
73.80311 -153.71046 166.35147 306
-2544.49023 -2803.98291 87.71196 345
-2705.82910 -2967.50098 148.20425 475
87.27611 -141.87109 163.68297 307
81.14361 -148.10638 164.93349 417
74.82969 -154.61476 166.35446 306
-2493.43921 -2785.66528 88.60179 347
-2634.50488 -2930.22510 149.87303 443
-2631.75586 -2927.70190 283.35886 390
88.06330 -142.81189 163.60437 307
83.01814 -148.03352 165.27019 418
75.78141 -155.55875 166.37396 305
-2444.87769 -2770.27100 90.30490 407
-2687.45386 -3020.60083 147.98352 474
88.88791 -143.72855 163.57843 307
84.86491 -147.98700 165.55862 419
76.79869 -156.44731 166.34192 305
-2415.07495 -2773.03638 90.94323 377
-2677.35229 -3048.30664 147.46274 473
89.76503 -144.61353 163.53929 307
86.66162 -147.89909 165.87868 420
-2451.74072 -2846.20581 88.65485 469
-2666.64136 -3075.24951 146.92160 476
90.55905 -145.57018 163.52724 307
88.45309 -147.83250 166.19989 421
-2442.89014 -2871.74365 88.02904 468
-2595.09814 -3035.79102 216.91350 499
91.42068 -146.44403 163.48108 307
89.98572 -148.04823 166.44931 310
-2433.62329 -2897.06006 87.73378 468
92.27174 -147.37717 163.48814 307
90.93652 -148.84018 166.41685 310
-2424.66797 -2923.12573 87.29854 466
93.69118 -147.66177 163.68478 423
91.87952 -149.67210 166.45381 310
-2415.11304 -2949.74097 86.37891 465
95.37766 -147.56732 163.95276 424
92.83644 -150.43765 166.45563 310
-2406.11060 -2975.64771 86.62565 464
97.10181 -147.48151 164.30525 415
93.82417 -151.22722 166.44954 310
-2393.97925 -2998.55615 86.41181 369
98.87045 -147.33369 164.60620 416
94.81459 -152.03206 166.42633 310
-2352.42798 -2989.14307 86.65745 427
100.61774 -147.13777 164.96759 417
95.79837 -152.82480 166.43355 310
-2319.77759 -2987.32104 87.94564 428
102.33749 -146.96889 165.30290 418
96.72807 -153.57742 166.45221 310
-2288.80591 -2987.94116 88.67461 351
104.00616 -146.83803 165.61484 419
97.75298 -154.35881 166.47496 310
105.71444 -146.61490 165.90205 420
98.72044 -155.13916 166.44003 310
107.37820 -146.47394 166.22218 421
99.71736 -155.92365 166.46243 310
108.84929 -146.54733 166.47105 314
109.74973 -147.27284 166.46555 314
110.68303 -147.94482 166.47392 314
111.65406 -148.66612 166.44617 314
112.56439 -149.34256 166.45294 314
114.81339 -148.33372 167.00902 429
116.24841 -148.36299 167.25125 439
117.58952 -148.47614 167.43346 316
116.92116 -149.32317 170.36092 285
118.50002 -149.14127 167.43584 316
118.30221 -149.46268 170.53606 312
120.01498 -149.04463 167.71178 490
119.19492 -150.16928 170.49809 312
120.90178 -149.74561 167.65570 490
121.36084 -151.10805 167.41995 316
124.27334 -148.86028 168.38051 489
-91.22096 -1074.89624 87.57317 454
-92.73707 -1080.14307 105.68092 398
-83.48961 -1073.37903 87.96693 488
-84.47387 -1076.73157 106.07610 488
-85.58974 -1080.24878 124.18008 454
-86.69410 -1084.37927 142.39742 399
-76.45603 -1074.57385 87.98995 499
-77.62182 -1077.52917 106.40904 499
-78.24908 -1080.54272 124.51164 498
-79.64252 -1085.12073 142.55176 494
-80.00209 -1086.60156 161.12527 491
-70.54837 -1078.54614 87.76064 448
-71.58065 -1081.81604 105.88979 448
-72.41728 -1084.90125 124.34111 448
-73.16673 -1088.24353 142.64984 435
-74.35213 -1091.77026 160.85268 391
-65.99367 -1087.89990 86.88204 321
2257.16797 -15650.57812 -4011.68823 1000
11994.66895 -50932.71875 -1494.19543 1000
951.63208 -1939.36401 114.97552 474
961.94360 -1931.05554 115.09834 454
966.94464 -1944.06213 148.25372 494
972.45447 -1922.25977 115.43063 457
