# .PCD v.7 - Point Cloud Data file format
VERSION .7
FIELDS x y z rgb
SIZE 4 4 4 4
TYPE F F F U
COUNT 1 1 1 1
WIDTH 1379
HEIGHT 1
VIEWPOINT 4291.402344 -4100.762207 134.148392 -0.003321 -0.114946 0.007909 0.993335
POINTS 1379
DATA ascii
55.71521 -33.68869 188.75974 425
53.01010 -34.22581 191.16054 423
50.27333 -34.78456 193.64133 421
47.39734 -35.33875 196.19724 418
44.47977 -35.95088 198.78558 416
41.31902 -36.58271 201.52177 406
38.00777 -37.26253 204.28098 403
34.59296 -37.91610 207.14891 401
30.98377 -38.65883 210.13908 363
-183.17014 -81.30042 216.34047 424
82.46111 -29.24996 178.76720 459
76.02280 -30.54223 179.57307 312
65.48840 -32.71283 179.64177 434
63.02402 -33.25254 181.80481 432
60.53965 -33.74479 184.00803 429
57.95309 -34.29415 186.30098 427
55.34956 -34.82702 188.67899 425
52.60287 -35.39751 191.07176 422
49.82214 -35.94719 193.54625 420
46.96837 -36.54712 196.12364 418
43.96749 -37.16808 198.71629 408
40.77802 -37.84753 201.41040 405
37.41234 -38.51585 204.21222 403
34.00095 -39.23136 207.14040 400
30.33932 -39.97320 210.09506 363
-183.09846 -83.87036 216.32329 439
82.40059 -30.14878 178.72722 458
76.20453 -31.46342 179.56543 312
65.16606 -33.76912 179.49332 433
62.68383 -34.32682 181.66539 431
60.19563 -34.82892 183.93498 429
57.59884 -35.39125 186.18282 427
54.93026 -35.97640 188.57158 424
52.22975 -36.53162 190.97490 422
49.43810 -37.14933 193.45514 419
46.51571 -37.76464 196.02754 417
43.47256 -38.41848 198.67691 407
40.22348 -39.07626 201.37770 405
36.85085 -39.83157 204.15601 402
33.35630 -40.56358 207.08720 399
29.66428 -41.32868 210.05559 362
-183.01253 -86.44127 216.37566 438
82.35925 -31.03053 178.65776 458
76.40436 -32.30686 179.56248 312
64.81454 -34.84041 179.35869 433
62.36991 -35.41384 181.56148 430
59.83624 -35.93747 183.80325 428
57.24739 -36.53494 186.11330 426
54.55300 -37.10029 188.44008 424
51.79379 -37.73329 190.90515 421
49.00476 -38.32830 193.36043 419
46.06332 -38.99137 195.95636 409
42.90440 -39.67567 198.55925 407
39.65928 -40.40292 201.31113 404
36.26316 -41.11666 204.12741 401
32.78186 -41.90400 207.02484 399
29.00664 -42.69262 210.02443 359
-182.87450 -88.99986 216.36371 438
82.20459 -31.94446 178.55147 438
76.60999 -33.22797 179.58601 312
64.52228 -35.91984 179.24794 432
61.99498 -36.46956 181.43187 430
59.44603 -37.07756 183.65120 428
56.86067 -37.65100 186.00163 425
54.14751 -38.25152 188.33734 423
51.42370 -38.86463 190.80685 420
48.56367 -39.53626 193.30495 418
45.54057 -40.19756 195.87352 409
42.39701 -40.91885 198.47862 406
39.07907 -41.67785 201.24438 403
35.67738 -42.45584 204.07324 401
32.17260 -43.20950 206.98639 398
28.30078 -44.10860 209.99503 358
-188.28535 -92.77011 209.45302 485
-188.22852 -92.75155 216.25883 296
81.94210 -32.88179 178.41522 438
76.81399 -34.08850 179.58908 312
64.18975 -36.99867 179.11922 431
61.67445 -37.58885 181.31985 429
59.08944 -38.17688 183.54224 427
56.47321 -38.77665 185.84772 425
53.77405 -39.44025 188.22676 422
50.98263 -40.08530 190.70386 420
48.16502 -40.73355 193.21497 417
45.06188 -41.44015 195.75114 408
41.85782 -42.18889 198.43973 405
38.53109 -42.96464 201.15047 403
35.06340 -43.78232 204.01364 400
31.52505 -44.59520 206.92484 397
27.63717 -45.50027 209.99478 358
-187.81853 -95.26941 209.45261 485
-195.20581 -97.04269 216.34023 294
81.68642 -33.87232 178.31499 437
77.00169 -34.98451 179.56430 312
63.85924 -38.10732 178.97708 431
61.31640 -38.68952 181.18491 428
58.74653 -39.31775 183.43156 426
56.08008 -39.94844 185.76234 424
53.40328 -40.59658 188.12276 422
50.60823 -41.25364 190.57458 419
47.66467 -41.94249 193.10312 410
44.50114 -42.70730 195.64825 407
41.28466 -43.47315 198.34167 405
37.92495 -44.26807 201.10512 402
34.49965 -45.12771 203.91634 399
30.92423 -45.93781 206.89413 397
26.91888 -46.93068 209.94366 357
-187.32262 -97.83225 209.46002 484
81.44390 -34.79627 178.17084 437
77.21154 -35.85381 179.57387 312
63.52605 -39.18530 178.81651 430
60.95568 -39.79863 181.02998 428
58.37753 -40.43209 183.30241 426
55.72627 -41.10272 185.64395 423
53.00863 -41.75217 188.02664 421
50.19202 -42.47691 190.45555 419
47.13040 -43.20599 192.99248 409
44.00233 -43.99049 195.57446 406
40.75068 -44.79106 198.23799 404
37.39228 -45.58852 201.01067 401
33.89256 -46.45707 203.87715 399
30.28797 -47.34491 206.82361 396
26.19149 -48.36616 209.92599 357
-186.86372 -100.40138 209.49895 484
-38891.45312 -9557.43750 4822.50635 1000
81.19346 -35.78647 178.05280 436
77.41766 -36.72082 179.59470 312
63.15615 -40.32228 178.66898 429
60.63110 -40.96400 180.88599 427
58.00591 -41.58511 183.16357 425
55.32818 -42.27478 185.52576 423
52.60559 -42.96806 187.92322 420
49.73400 -43.69063 190.34911 411
46.65448 -44.48360 192.89403 408
43.45879 -45.23942 195.49873 406
40.16398 -46.10587 198.15695 403
36.77265 -46.96678 200.93117 401
33.25418 -47.80349 203.78424 398
29.60581 -48.75602 206.78156 395
25.50788 -49.79893 209.88763 356
-186.87846 -103.02438 209.47302 485
80.93785 -36.74681 177.92570 435
77.65746 -37.58882 179.58936 312
62.84679 -41.40635 178.56123 429
60.28750 -42.05491 180.75961 427
57.66700 -42.73986 183.06165 424
54.94734 -43.47025 185.36461 422
52.19727 -44.15191 187.80176 420
49.23032 -44.90992 190.27116 410
46.14871 -45.73578 192.76031 408
42.90489 -46.53666 195.37303 405
39.60533 -47.40366 198.09587 402
36.20483 -48.26530 200.84416 400
32.68043 -49.21564 203.75455 397
29.00240 -50.17589 206.75218 395
24.28423 -51.34055 209.80844 269
80.71363 -37.71885 177.76096 435
77.89911 -38.49264 179.58015 312
62.48836 -42.51067 178.41116 428
59.92785 -43.22330 180.63643 426
57.29744 -43.89334 182.93338 424
54.55385 -44.63425 185.25491 421
51.75369 -45.37929 187.66884 412
48.71982 -46.19751 190.10628 409
45.60318 -47.00756 192.68279 407
42.37220 -47.87850 195.28365 404
39.03702 -48.74176 197.96875 402
35.62810 -49.63377 200.78758 399
32.05856 -50.59506 203.66472 396
28.34117 -51.56858 206.66605 394
-188.37778 -108.70287 202.39977 483
80.44905 -38.72819 177.66008 433
78.10723 -39.34795 179.57477 312
62.17593 -43.66676 178.26437 427
59.57996 -44.37199 180.46729 425
56.91264 -45.08366 182.79298 423
54.20205 -45.84741 185.15297 421
51.28651 -46.61725 187.56467 411
48.26020 -47.46216 189.98329 409
45.09367 -48.31565 192.54021 406
41.83989 -49.16527 195.19987 404
38.49606 -50.09625 197.87895 401
35.00214 -51.03630 200.68713 398
31.41614 -52.00960 203.60738 396
27.56782 -53.04944 206.63182 382
-187.88406 -111.27778 202.42885 495
80.17393 -39.70000 177.50520 432
77.89184 -40.33093 179.45636 430
61.84114 -44.78650 178.11235 427
59.20346 -45.54114 180.33194 424
56.55357 -46.25322 182.66791 422
53.79826 -47.01363 185.03232 413
50.83480 -47.83678 187.43484 410
47.73338 -48.71922 189.88046 408
44.57288 -49.57897 192.44348 405
41.31856 -50.47816 195.09113 403
37.92204 -51.41729 197.78598 400
34.39435 -52.41908 200.60931 398
30.66542 -53.44668 203.52206 384
26.56493 -54.57480 206.56435 370
-187.26187 -113.75793 202.46925 495
79.94601 -40.71562 177.35049 431
77.60796 -41.36959 179.29730 429
61.47514 -45.93886 177.96133 426
58.84774 -46.66935 180.19899 424
56.14807 -47.45573 182.49629 422
53.34313 -48.27961 184.85294 412
50.31054 -49.12674 187.29208 410
47.22352 -49.98804 189.77116 407
44.02990 -50.92687 192.32033 405
40.72674 -51.83552 194.97447 402
37.31058 -52.81395 197.68864 400
33.66582 -53.83870 200.51714 385
29.77862 -54.98048 203.45152 383
25.49890 -56.21125 206.49277 370
79.68446 -41.71469 177.21170 431
77.34950 -42.39048 179.16232 428
68.70775 -44.91325 179.65883 308
58.49392 -47.87996 180.05823 423
55.78584 -48.63131 182.39436 421
52.89054 -49.48661 184.70209 411
49.85924 -50.38142 187.11433 409
46.72167 -51.28226 189.65509 406
43.50356 -52.20349 192.21568 404
40.19984 -53.19404 194.88013 401
36.65174 -54.24376 197.62326 387
32.85597 -55.32356 200.41872 385
28.87247 -56.46953 203.38683 371
24.38992 -57.82306 206.40634 369
79.42288 -42.71334 177.06703 430
77.08624 -43.43361 179.03430 428
68.99966 -45.80870 179.66133 308
58.12488 -49.05071 179.89629 422
55.38211 -49.88710 182.21983 413
52.40073 -50.77141 184.59477 411
49.36063 -51.67513 187.00458 408
46.23895 -52.59874 189.49704 406
42.99205 -53.58108 192.07111 403
39.50548 -54.57794 194.71593 389
35.83126 -55.68706 197.46031 386
32.00716 -56.83603 200.33005 384
27.83766 -58.10216 203.25882 370
23.28535 -59.42192 206.30338 368
79.17311 -43.73880 176.91571 429
76.81312 -44.48310 178.87973 427
69.25426 -46.74835 179.66563 308
57.77367 -50.22047 179.74893 422
54.92547 -51.10787 182.05931 412
51.96138 -52.00882 184.43571 410
48.87432 -52.96369 186.83868 407
45.68634 -53.92447 189.34537 405
42.32155 -54.92678 191.92981 391
38.76427 -56.02121 194.62964 388
35.02503 -57.15901 197.34406 386
31.17740 -58.36369 200.22710 383
26.72605 -59.68880 203.18106 370
22.12203 -61.11884 206.25304 367
78.88538 -44.76806 176.77820 429
76.52354 -45.52503 178.75130 426
69.55521 -47.67221 179.64470 308
57.38720 -51.47394 179.58157 414
54.46247 -52.38219 181.88527 411
51.49755 -53.28364 184.29373 409
48.37064 -54.25364 186.73871 407
45.06856 -55.25946 189.23779 392
41.57834 -56.35488 191.78265 390
37.98298 -57.48095 194.48506 387
34.19373 -58.68156 197.23309 385
30.17061 -59.95720 200.09888 371
25.65055 -61.32653 203.08488 369
20.97810 -62.75325 206.17494 366
78.62342 -45.81542 176.62651 428
76.24881 -46.56791 178.58441 426
69.82700 -48.61811 179.65947 308
56.96915 -52.69201 179.41554 413
54.04722 -53.63342 181.73305 411
50.98354 -54.59271 184.09590 408
47.79968 -55.59837 186.53542 394
44.39808 -56.68605 189.06860 391
40.82938 -57.82204 191.66623 389
37.17183 -58.96846 194.33078 386
33.36452 -60.19094 197.10686 384
29.09227 -61.51560 199.96005 370
24.57604 -62.98853 202.94926 368
19.82952 -64.47110 206.10381 365
78.38986 -46.84187 176.47928 427
75.97533 -47.62056 178.43852 425
70.12718 -49.50899 179.65112 308
56.54574 -53.94892 179.26022 412
53.59048 -54.88504 181.58475 410
50.41225 -55.90162 183.95491 395
47.10760 -56.98079 186.35478 393
43.65977 -58.11126 188.86139 391
40.07106 -59.28595 191.46075 388
36.39751 -60.46604 194.18600 386
32.45956 -61.72968 196.96800 372
28.04865 -63.15252 199.87061 370
23.45171 -64.65790 202.83543 367
18.60683 -66.25326 205.97697 364
78.11319 -47.92273 176.34048 427
75.69154 -48.68806 178.30836 424
70.41248 -50.47416 179.64595 308
56.10253 -55.20517 179.08960 412
53.00841 -56.19726 181.37640 397
49.78028 -57.26931 183.74008 394
46.40302 -58.40232 186.20493 392
42.90519 -59.53934 188.69499 390
39.29326 -60.73687 191.35104 387
35.54796 -61.97084 194.06406 385
31.40020 -63.34407 196.81442 371
26.96451 -64.83440 199.69803 369
22.30750 -66.35744 202.74680 366
17.43378 -68.01277 205.88666 363
77.83802 -48.96755 176.16818 426
75.43475 -49.76516 178.15167 424
70.73157 -51.39011 179.61652 308
55.60003 -56.49260 178.88493 398
52.40828 -57.56818 181.20491 396
49.11737 -58.68344 183.53271 394
45.68142 -59.81929 186.00906 391
42.20184 -61.03217 188.52792 389
38.55348 -62.23008 191.16983 386
34.73273 -63.55333 193.89352 373
30.38365 -64.97870 196.65904 370
25.85848 -66.52875 199.57124 368
21.11625 -68.13708 202.60248 365
16.17344 -69.81234 205.82240 362
77.60087 -50.03189 176.01314 425
75.15468 -50.85312 177.99986 423
71.01270 -52.29332 179.62437 308
54.97129 -57.80840 178.65671 397
51.76172 -58.91699 180.95926 395
48.43137 -60.08866 183.35594 393
44.99067 -61.24676 185.81717 390
41.46325 -62.49490 188.35500 388
37.73906 -63.76880 191.00137 385
33.73560 -65.17490 193.70961 372
29.36280 -66.64059 196.51770 369
24.73818 -68.22743 199.42717 367
19.96851 -69.90820 202.49907 364
14.92492 -71.60060 205.70938 361
77.31685 -51.11852 175.82144 424
74.90602 -51.94338 177.81860 422
71.35610 -53.20270 179.62048 308
54.34225 -59.15257 178.44868 397
51.11026 -60.32827 180.77919 394
47.75013 -61.49938 183.12871 392
44.28438 -62.73055 185.62346 389
40.67009 -63.98171 188.18634 387
36.94851 -65.27900 190.82747 385
32.73858 -66.79085 193.52910 371
28.29782 -68.32690 196.38686 368
23.61089 -69.95303 199.30826 366
18.74921 -71.70824 202.43306 363
13.15898 -73.64745 205.63531 315
77.07634 -52.17034 175.69627 424
74.62803 -53.06369 177.68170 422
71.65543 -54.10141 179.63832 308
53.70966 -60.55648 178.20786 396
50.47218 -61.70573 180.52798 393
47.07884 -62.95383 182.94051 391
43.53136 -64.19378 185.41904 389
39.91035 -65.51128 188.01965 386
35.99685 -66.91238 190.63669 373
31.68753 -68.41843 193.38834 370
27.17617 -70.07859 196.21892 368
22.52173 -71.72269 199.19894 365
17.43828 -73.54620 202.26852 332
10.03971 -76.23590 205.44405 314
76.81364 -53.25702 175.51266 423
74.32063 -54.18506 177.50912 421
71.77974 -55.09898 179.55324 419
53.11986 -61.93555 177.99971 395
49.79398 -63.14684 180.30835 393
46.37258 -64.37817 182.73077 390
42.82532 -65.70899 185.23470 388
39.17512 -67.00085 187.80750 385
35.04630 -68.52335 190.47078 372
30.67609 -70.12035 193.16380 369
26.09184 -71.80749 196.05905 367
21.33262 -73.54706 199.06226 364
15.15979 -75.81702 202.09642 331
6.76403 -78.86938 205.20258 313
76.54975 -54.37437 175.33640 422
74.04714 -55.30476 177.35406 420
71.47710 -56.26778 179.41092 418
60.98099 -60.15501 179.70097 304
49.10402 -64.57405 180.09673 392
45.68830 -65.88214 182.49091 389
42.10389 -67.19579 184.99657 387
38.30176 -68.59081 187.59966 373
34.01795 -70.16579 190.26349 371
29.63722 -71.81844 192.99605 368
24.98766 -73.55724 195.87883 366
19.34511 -75.64754 198.84447 333
12.17348 -78.34978 201.83331 315
3.38402 -81.60059 205.04718 312
76.28979 -55.49086 175.18036 422
73.77083 -56.40920 177.17255 419
71.19665 -57.41214 179.27151 417
61.35528 -61.13250 179.71178 304
48.44738 -66.02987 179.88474 391
44.95566 -67.35339 182.28157 388
41.33183 -68.74211 184.78993 386
37.30300 -70.25835 187.35793 373
33.03169 -71.85545 190.01428 370
28.56355 -73.57912 192.79330 367
23.40168 -75.54429 195.67323 334
17.13149 -77.92909 198.60280 332
8.99270 -81.02297 201.57503 313
-0.08117 -84.41357 204.78607 311
76.00040 -56.57156 174.98648 421
73.50089 -57.56679 177.03099 419
70.87375 -58.57898 179.09201 416
61.73273 -62.12516 179.68977 304
47.78696 -67.49953 179.63242 390
44.23642 -68.85143 182.09265 387
40.54547 -70.26905 184.58740 374
36.37074 -71.89778 187.14061 372
32.03257 -73.57381 189.82671 369
27.36119 -75.38849 192.63361 336
21.28365 -77.75079 195.37976 333
14.36600 -80.40181 198.26836 315
5.72301 -83.71847 201.29659 312
-3.68309 -87.36558 204.56409 310
75.75578 -57.72192 174.80435 420
73.20866 -58.70664 176.85457 418
70.43591 -59.80447 178.88126 387
62.08765 -63.09239 179.69829 304
47.09673 -68.97992 179.40239 389
43.49759 -70.39486 181.83754 387
39.59232 -71.94057 184.33966 373
35.37484 -73.59695 186.92271 371
30.95784 -75.33651 189.63544 368
25.33225 -77.55044 192.31651 334
19.09992 -79.96864 195.13066 332
11.22437 -83.09241 197.96213 314
2.29206 -86.60230 201.04996 311
75.49290 -58.83353 174.64250 419
72.87856 -59.89572 176.66660 388
69.77240 -61.13073 178.60368 386
62.45265 -64.06063 179.72348 304
46.37705 -70.50661 179.12936 388
42.80508 -71.93098 181.62262 386
38.68891 -73.56615 184.12346 372
34.41248 -75.30898 186.68059 370
29.22518 -77.36032 189.32620 336
23.23482 -79.78492 191.99808 333
16.54951 -82.46064 194.75119 315
8.00797 -85.85643 197.63736 313
-1.26172 -89.56359 200.73546 310
75.21499 -59.97763 174.44107 419
72.24682 -61.17097 176.39287 387
69.13052 -62.48697 178.38593 385
62.87825 -65.03714 179.70132 304
45.68607 -72.01208 178.90639 387
41.92735 -73.53472 181.33151 374
37.72909 -75.25813 183.87216 371
33.01245 -77.18034 186.42580 337
27.21391 -79.51694 188.95537 335
21.13104 -82.04091 191.64304 332
13.50176 -85.14538 194.41539 314
4.64699 -88.71841 197.26715 311
-12.36696 -95.69434 199.92215 265
74.71839 -61.23591 174.19725 388
71.64754 -62.52202 176.13310 386
68.49449 -63.81462 178.11111 384
63.23036 -65.97842 179.70210 304
44.96222 -73.57098 178.62704 386
40.99298 -75.19886 181.07787 373
36.74117 -76.97613 183.60982 338
31.13865 -79.32978 186.04556 336
25.17408 -81.78104 188.57814 334
18.71926 -84.47866 191.28275 315
10.27799 -87.94988 194.01038 313
0.43624 -92.01380 196.87355 284
74.12311 -62.51883 173.92433 388
71.02632 -63.82203 175.83408 385
67.85710 -65.17529 177.85265 396
63.61960 -66.96101 179.71782 304
44.17933 -75.14574 178.38666 374
40.07508 -76.88519 180.83434 372
34.89917 -79.05991 183.14905 337
29.15153 -81.52617 185.62793 335
23.08668 -84.08104 188.20258 332
15.71315 -87.17393 190.86026 314
7.00459 -90.84579 193.56926 312
-11.89921 -98.79928 195.70618 265
73.51366 -63.85900 173.63426 387
70.37820 -65.18815 175.55562 384
67.23812 -66.55871 177.58855 395
64.03468 -67.92602 179.68500 304
43.27685 -76.80373 178.11620 373
38.55936 -78.86040 180.40758 339
33.01972 -81.23055 182.77226 336
27.18412 -83.75317 185.21698 334
20.94335 -86.42835 187.82475 316
12.63713 -89.97784 190.40833 313
1.41962 -94.77753 192.90443 284
72.90546 -65.17896 173.33121 386
69.74741 -66.57114 175.25804 383
66.61454 -67.96106 177.31221 394
63.88836 -69.12437 179.54802 392
42.17274 -78.60493 177.76506 340
36.81195 -80.94039 179.94708 338
31.09540 -83.42298 182.31578 335
25.13173 -86.04369 184.79630 333
18.00038 -89.12939 187.30461 314
9.40894 -92.90012 189.92976 312
-11.29367 -101.93437 191.47861 265
72.28532 -66.51837 173.02885 385
69.10119 -67.94765 174.98488 382
65.92823 -69.35376 177.02789 393
63.22239 -70.56455 179.29872 391
52.07283 -75.52284 179.80681 300
34.97778 -83.12500 179.48402 336
29.17046 -85.64952 181.83667 334
23.02757 -88.42763 184.38283 332
14.96848 -91.98649 186.80435 313
2.47761 -97.47854 188.98743 284
71.67480 -67.89162 172.72267 384
68.45959 -69.33987 174.69769 382
65.30235 -70.76234 176.75238 392
62.53988 -71.99678 179.03883 390
52.53790 -76.55019 179.81625 300
33.08118 -85.32149 179.00365 335
27.13164 -88.00050 181.37814 333
20.23960 -91.07723 183.81056 315
10.57879 -95.44641 186.11157 285
-10.50596 -104.96564 187.24640 265
71.04594 -69.28905 172.42320 383
67.79691 -70.79866 174.37216 381
64.62560 -72.21914 176.48271 391
61.86453 -73.48958 178.74864 389
52.98448 -77.55875 179.80290 300
31.14582 -87.57424 178.50655 334
25.04482 -90.37060 180.93767 332
17.30846 -93.93728 183.26030 314
3.65248 -100.19085 185.01003 284
70.40135 -70.69549 172.11620 382
67.11636 -72.24593 174.07475 380
64.00117 -73.71247 176.20409 390
61.16261 -75.01617 178.46968 388
53.46293 -78.62859 179.78787 300
29.21297 -89.89363 178.00475 333
22.58159 -92.98394 180.36685 315
11.77219 -98.03459 182.25716 285
-27.37479 -116.24653 180.33835 343
69.98616 -72.03664 171.85634 316
66.42479 -73.71141 173.77522 379
63.30734 -75.20151 175.91277 389
60.46115 -76.55045 178.21651 387
53.91376 -79.65317 179.79471 300
27.19371 -92.27380 177.49472 332
19.39352 -95.95868 179.67473 286
4.84506 -102.86971 180.98972 283
-25.97572 -117.43346 180.48756 284
70.42744 -72.96299 171.84686 316
65.72916 -75.19221 173.42650 378
62.62385 -76.71462 175.61372 388
59.75408 -78.09063 177.92892 386
54.40561 -80.65015 179.80118 300
39.59081 -87.77296 179.92337 296
13.02559 -100.53501 178.36044 285
-18.69147 -115.83151 177.01636 345
-25.30298 -118.94428 180.46011 284
70.83796 -73.88111 171.82628 316
65.03960 -76.68555 173.10277 377
61.93010 -78.23347 175.29456 387
59.01838 -79.63064 177.62621 385
54.84378 -81.70548 179.75357 300
40.13870 -88.89065 179.88951 296
6.20211 -105.46808 177.00203 283
-14.53925 -115.58787 177.57458 347
-24.64342 -120.50784 180.45653 284
71.30886 -74.76553 171.84134 316
64.36064 -78.21753 172.79091 376
61.25003 -79.77579 175.00830 386
58.29692 -81.24255 177.32544 384
54.32597 -83.18652 179.53090 327
40.64596 -89.98650 179.87865 296
-6.83086 -113.53616 174.51422 291
-6.82797 -113.53839 178.75011 291
71.75604 -75.71881 171.84924 316
63.63689 -79.77419 172.48221 375
60.55983 -81.34362 174.69043 385
57.16367 -83.04404 176.94580 327
52.15992 -85.56957 178.95343 326
41.17031 -91.08440 179.88286 296
23.76848 -99.88319 180.02838 292
1.79606 -110.94691 180.03844 292
72.21174 -76.62852 171.82489 316
62.90081 -81.38849 172.11429 374
59.81860 -82.93870 174.37096 384
55.05258 -85.40640 176.32013 326
49.96729 -88.01049 178.33182 325
41.71660 -92.22668 179.87347 296
24.38174 -101.05514 180.00998 292
3.39667 -111.77665 180.21263 288
72.66204 -77.52183 171.84248 316
62.68651 -82.67848 171.89403 312
57.89982 -85.20299 173.74355 327
52.92361 -87.76690 175.67014 325
47.67001 -90.49393 177.71144 323
42.30144 -93.28197 179.88533 321
24.95905 -102.27545 180.03503 292
4.04028 -113.16936 180.18773 288
73.15025 -78.40975 171.84036 316
63.17459 -83.66510 171.91530 312
55.83481 -87.52988 173.02992 325
50.70040 -90.24426 174.98129 323
45.30086 -93.09264 177.05852 322
39.72725 -96.04455 179.24112 320
25.57038 -103.50235 180.02870 292
4.71313 -114.45152 180.22778 288
73.60116 -79.33597 171.84265 316
63.71535 -84.63380 171.92535 312
53.72852 -89.98607 172.35127 324
48.39418 -92.81269 174.25526 322
42.86622 -95.80299 176.33337 321
37.13029 -98.85672 178.56001 319
26.19538 -104.70007 180.03056 292
74.09848 -80.24751 171.80699 316
64.19536 -85.58891 171.91461 312
53.00636 -91.67117 172.01311 308
46.02052 -95.44653 173.55772 321
40.33550 -98.52901 175.63583 320
34.18489 -101.90541 177.86604 271
16.29981 -111.61054 178.04509 271
74.56799 -81.14803 171.80006 316
64.72703 -86.57304 171.91780 312
53.54235 -92.72336 171.99420 308
43.57846 -98.22329 172.77820 320
37.68947 -101.42542 174.90640 319
23.06237 -109.51669 175.35489 270
-53.90104 -151.87645 164.60831 373
75.05928 -82.04128 171.80760 316
65.21929 -87.52773 171.89339 312
54.08516 -93.73199 172.00728 308
41.35008 -100.84369 172.11205 304
31.22379 -106.47012 173.27708 271
10.45575 -118.11991 172.58284 270
-50.18411 -151.92451 165.17824 374
75.52849 -82.93233 171.79733 316
65.76795 -88.45113 171.87401 312
54.67104 -94.75062 171.98726 308
41.99295 -101.95186 172.09167 304
27.25907 -110.31219 172.21265 300
10.03778 -120.05331 172.37376 296
-49.02495 -153.55405 165.15097 288
76.03436 -83.83920 171.81108 316
66.31296 -89.42219 171.90822 312
55.23617 -95.77008 171.96860 308
42.55613 -103.05788 172.09801 304
27.91418 -111.49863 172.19539 300
10.74188 -121.35925 172.34210 296
-48.08864 -155.17491 165.13719 288
76.52502 -84.69408 171.79736 316
66.83790 -90.37805 171.86711 312
55.80197 -96.80730 171.99915 308
43.16867 -104.16888 172.10248 304
28.60528 -112.67301 172.20245 300
11.45525 -122.60726 172.33470 296
-47.23378 -156.81271 165.15422 286
77.05938 -85.58319 171.80508 316
67.38129 -91.32716 171.86882 312
56.36804 -97.83611 171.98807 308
43.78518 -105.24257 172.07532 304
29.27837 -113.85294 172.22972 300
12.20046 -123.90929 172.36296 296
-46.28051 -158.53250 165.18163 286
77.56762 -86.48210 171.77264 316
67.89094 -92.24510 171.88504 312
56.96439 -98.83395 171.97655 308
44.44674 -106.31952 172.07533 304
29.96258 -115.06039 172.18782 300
12.96906 -125.19213 172.37262 296
-45.24349 -160.09181 165.13232 286
78.08551 -87.36390 171.79442 316
68.44197 -93.20036 171.87958 312
57.55904 -99.82339 171.97397 308
45.05630 -107.39278 172.05334 304
30.65321 -116.18626 172.22357 300
-27.49676 -151.56483 163.55406 372
78.58468 -88.21627 171.80655 316
69.02009 -94.12003 171.84500 312
58.14897 -100.83630 171.94606 308
45.73508 -108.49519 172.04726 304
31.32807 -117.35848 172.17427 300
-24.00544 -151.45050 164.07930 374
79.13061 -89.12155 171.78845 316
69.59859 -95.05042 171.87779 312
58.73880 -101.85298 171.94449 308
46.38905 -109.59422 172.06462 304
32.04514 -118.56506 172.21112 300
-20.51262 -151.40108 164.62534 375
79.66810 -89.96069 171.75911 316
70.13943 -95.97811 171.86946 312
59.36759 -102.82433 171.97038 308
47.03961 -110.68343 172.05643 304
32.69980 -119.68578 172.14618 300
-17.12125 -151.30014 165.11925 376
80.17816 -90.83212 171.75792 316
70.75268 -96.91109 171.83577 312
59.96723 -103.82236 171.95164 308
47.66519 -111.75439 172.02943 304
33.40449 -120.86040 172.16010 300
-13.89905 -151.26543 165.67317 291
80.75826 -91.73486 171.74934 316
71.31432 -97.86463 171.87100 312
60.59549 -104.79123 171.92447 308
48.32346 -112.80788 172.05014 304
34.15029 -122.00882 172.13179 300
-12.98129 -152.70253 165.62669 291
81.27354 -92.58255 171.76653 316
71.90903 -98.78250 171.85806 312
61.23878 -105.78133 171.95053 308
48.99645 -113.88541 172.06187 304
34.90176 -123.19828 172.17677 300
-11.98912 -154.07764 165.70238 291
81.84068 -93.41399 171.74174 316
72.46777 -99.68079 171.81857 312
61.85661 -106.79131 171.90073 308
49.68979 -114.90379 172.03975 304
35.61045 -124.31551 172.14342 300
-10.95740 -155.46980 165.68140 291
82.38704 -94.28514 171.74101 316
73.05823 -100.58694 171.82005 312
62.52520 -107.74654 171.94525 308
50.38173 -115.98047 172.03377 304
-1.21579 -150.88791 163.07590 382
-10.03818 -156.89789 165.64626 290
82.94650 -95.15108 171.74829 316
73.69195 -101.49551 171.85173 312
63.13847 -108.73952 171.89325 308
51.08723 -117.00905 172.00539 304
1.77224 -150.86618 163.56439 383
-9.01742 -158.29469 165.70253 290
83.54733 -95.99126 171.75331 316
74.28539 -102.39167 171.80113 312
63.77179 -109.68847 171.89214 308
51.79830 -118.06831 171.99561 304
4.69327 -150.79938 164.09306 385
-8.04963 -159.70134 165.66061 290
84.10593 -96.85252 171.75577 316
74.90486 -103.30964 171.83507 312
64.45248 -110.66628 171.89583 308
52.47718 -119.12641 172.03003 304
7.64618 -150.74013 164.53192 386
84.68684 -97.66788 171.75609 316
75.54100 -104.19646 171.81927 312
65.10564 -111.62381 171.87852 308
53.16922 -120.15520 171.99123 304
10.47552 -150.63637 165.01866 387
85.27953 -98.49576 171.75041 316
76.14187 -105.08898 171.82375 312
65.76711 -112.58392 171.90146 308
53.87689 -121.19489 172.02222 304
13.22948 -150.58237 165.48541 388
85.88830 -99.36098 171.71402 316
76.78671 -106.00452 171.78473 312
66.44897 -113.56387 171.88458 308
54.64933 -122.20085 172.00595 304
16.01326 -150.51881 165.92589 390
86.44405 -100.16930 171.73122 316
77.38437 -106.90273 171.81044 312
67.12572 -114.52315 171.89163 308
55.37225 -123.27670 172.00282 304
17.50753 -151.36084 166.09065 295
87.04594 -100.98431 171.70534 316
78.02036 -107.77417 171.80367 312
67.82967 -115.46454 171.86435 308
23.79519 -148.53453 163.20627 296
18.46470 -152.56047 166.05925 295
87.67284 -101.81786 171.72554 316
78.67812 -108.67206 171.79099 312
68.51184 -116.38772 171.89828 308
24.54343 -149.86401 163.20177 296
19.38553 -153.73444 166.07684 295
88.25118 -102.66899 171.72911 316
79.32632 -109.53407 171.77028 312
69.18528 -117.36351 171.87843 308
26.61062 -150.17572 163.49783 391
20.38368 -154.98518 166.10765 295
88.88930 -103.45248 171.68127 316
80.01657 -110.41590 171.76949 312
69.91800 -118.28365 171.88297 308
29.13340 -150.05382 163.96338 392
21.35281 -156.19005 166.12599 297
89.51978 -104.27174 171.69962 316
80.66260 -111.28750 171.75552 312
70.59840 -119.21782 171.85675 308
31.70091 -149.97987 164.38974 394
22.30959 -157.40062 166.07779 297
90.15158 -105.08894 171.70279 316
81.30700 -112.11705 171.75499 312
71.29384 -120.13245 171.85512 308
34.14809 -149.89566 164.83870 395
23.30935 -158.61305 166.06973 297
90.77289 -105.89040 171.69160 316
81.97134 -112.99173 171.77129 312
72.05164 -121.05331 171.86700 308
36.56887 -149.77975 165.22021 396
91.40468 -106.69223 171.67732 316
82.66734 -113.86144 171.77144 312
72.75706 -122.01519 171.86316 308
39.00576 -149.69942 165.66116 397
92.03870 -107.49467 171.66498 316
83.36309 -114.69804 171.75238 312
45.69043 -145.98305 163.39917 300
41.36307 -149.62444 166.05180 398
92.65717 -108.28696 171.66032 316
84.04140 -115.55251 171.74992 312
46.47594 -147.17532 163.34093 300
42.85584 -150.22250 166.24379 302
93.31471 -109.07767 171.67682 316
84.73714 -116.39767 171.76144 312
47.25731 -148.33188 163.29044 300
43.80019 -151.31917 166.22318 302
93.96414 -109.87400 171.67201 316
85.44562 -117.25001 171.72113 312
48.19514 -149.37517 163.33649 401
44.69556 -152.37595 166.25256 301
94.62674 -110.65906 171.65620 316
86.14703 -118.07698 171.70638 312
50.39407 -149.28477 163.69240 403
45.68296 -153.43698 166.23036 301
-16653.50391 -14744.37402 2776.21631 1000
95.31783 -111.44677 171.64195 316
86.82063 -118.89516 171.71414 312
52.62080 -149.19559 164.13272 404
46.62857 -154.52415 166.24144 301
95.95224 -112.19254 171.66492 316
87.56145 -119.75182 171.72188 312
54.77138 -149.11266 164.53011 405
47.57719 -155.58478 166.20345 301
96.65900 -112.98128 171.63367 316
88.26969 -120.56008 171.70204 312
56.87781 -149.06955 164.87276 406
48.50831 -156.60127 166.25171 301
97.31995 -113.74136 171.62575 316
65.05125 -143.37413 163.51451 304
58.94082 -148.94688 165.23776 407
49.44351 -157.63948 166.21742 301
98.00399 -114.53128 171.63231 316
65.80662 -144.40221 163.50478 304
60.97651 -148.88202 165.61513 408
98.69975 -115.27425 171.60681 316
66.61017 -145.45883 163.46346 304
63.06126 -148.81892 165.96188 409
99.39292 -116.03544 171.59351 316
67.36699 -146.46684 163.45222 304
64.98814 -148.74438 166.34172 306
100.07181 -116.79156 171.60062 316
68.16444 -147.51906 163.37740 304
65.92516 -149.72079 166.32362 306
100.77399 -117.50455 171.62772 316
68.99906 -148.54108 163.34796 304
66.86423 -150.60635 166.30969 306
101.46774 -118.26404 171.60744 316
70.87483 -148.52611 163.69504 413
67.77299 -151.56209 166.34688 306
102.20584 -119.01450 171.59933 316
72.75764 -148.45804 164.03210 414
68.72289 -152.49309 166.35225 306
102.88550 -119.75038 171.56995 316
74.61176 -148.35468 164.40501 415
69.67722 -153.37968 166.32463 306
83.04974 -141.57588 163.67287 308
76.49072 -148.30804 164.75963 417
70.59929 -154.25847 166.36691 306
83.80301 -142.47221 163.63707 308
78.29420 -148.20848 165.08575 418
71.58143 -155.19792 166.36040 305
84.62721 -143.39679 163.61163 308
80.11369 -148.16235 165.37741 419
72.52668 -156.07678 166.37068 305
85.41460 -144.33667 163.58679 307
81.88062 -148.09207 165.67766 420
73.49701 -157.01692 166.37239 305
86.23338 -145.21967 163.52390 307
83.62316 -148.05096 166.02991 421
87.05874 -146.14775 163.48836 307
85.33691 -147.97795 166.31522 422
87.82821 -147.00922 163.48216 307
86.50601 -148.54147 166.43231 310
88.74204 -147.82397 163.44975 423
87.41238 -149.30400 166.38705 310
90.41684 -147.77744 163.80080 424
88.33490 -150.14058 166.42003 310
92.08295 -147.70927 164.06046 425
89.24238 -150.94757 166.40971 310
93.72298 -147.68033 164.36935 426
90.20733 -151.70253 166.42735 310
95.29706 -147.61159 164.69310 427
91.12331 -152.49155 166.40718 310
96.93743 -147.53938 164.97299 418
92.08567 -153.25269 166.41071 310
98.56833 -147.32411 165.29597 419
93.05776 -154.01810 166.42462 310
100.25076 -147.17148 165.60750 420
93.99639 -154.76608 166.45209 310
101.86646 -147.00957 165.89360 421
94.93716 -155.52567 166.46126 310
103.48573 -146.88135 166.22574 422
95.91866 -156.29158 166.43755 310
104.91476 -146.88461 166.45580 314
105.82252 -147.61322 166.46237 314
106.72064 -148.27812 166.44324 314
107.64130 -148.95029 166.43730 314
108.51756 -149.68022 166.47679 314
109.43873 -150.35951 166.48157 314
110.36311 -151.03192 166.48309 314
111.31297 -151.66838 166.48700 314
114.41241 -149.28239 167.44727 316
115.32609 -149.97729 167.46136 316
116.21709 -150.60844 167.45557 316
117.14363 -151.23393 167.45888 316
120.01050 -149.01509 168.37892 489
120.82749 -149.68933 168.34805 489
124.09630 -148.68648 169.06120 489
124.96694 -149.38890 169.03317 488
126.97652 -148.24443 169.61769 441
127.72466 -149.04263 169.51147 395
-18213.71680 -44518.25391 2553.27979 1000
-277.81964 -1938.62842 51.14960 399
-263.73843 -1934.16028 51.73090 487
-265.50235 -1940.80603 84.06049 487
-267.50812 -1947.85779 116.72322 485
-252.44427 -1939.61218 51.48485 445
-254.52480 -1947.56604 83.86028 388
-6844.77832 -42279.06641 -9062.58008 1000
229.32436 -1451.35254 72.91237 417
229.09036 -1457.11401 96.51701 353
238.00830 -1444.82117 73.81818 494
238.04298 -1448.78259 97.13413 494
238.22917 -1452.77185 120.71854 488
238.00304 -1456.44202 144.32907 492
246.73495 -1444.26111 73.68967 497
246.78143 -1448.57483 97.33745 476
247.00494 -1453.78271 120.69058 316
247.02974 -1459.68237 143.99350 371
255.96365 -1448.87244 73.36588 432
256.14987 -1457.37354 96.36439 298
724.57605 -944.28442 93.21376 404
725.70349 -946.61639 110.77251 405
729.12195 -953.03058 127.71637 260
727.67151 -936.49487 93.70069 490
728.69330 -938.10596 111.21020 456
729.50183 -939.55402 128.67783 456
730.16449 -941.04120 146.01328 457
731.01672 -942.91504 163.67067 457
732.80219 -932.15192 94.08185 499
733.50610 -933.71442 111.37886 499
734.47064 -935.05676 128.90004 499
735.25800 -936.40479 146.34653 499
735.95227 -938.07764 163.80379 499
738.77655 -942.91412 181.12711 421
739.04840 -930.11969 93.87193 484
739.93896 -931.70618 111.29408 484
741.15424 -933.68842 128.60942 446
742.42065 -936.07141 146.17674 435
744.71289 -940.09198 163.45363 318
746.83728 -930.19281 93.34058 445
748.64563 -933.78363 110.72764 388
24066.83398 -32125.96484 -9132.21875 1000
367.36157 -108.49093 167.61827 313
44825.41797 -32634.02734 -12680.95117 1000
367.98117 -107.59037 167.59732 313
368.65158 -106.63638 167.61578 315
369.29901 -105.71719 167.65900 315
369.92172 -104.80246 167.65318 315
370.52588 -103.87779 167.65117 315
371.14865 -102.93190 167.62982 315
371.78568 -102.01200 167.62938 315
372.37347 -101.07362 167.65381 315
373.01642 -100.15867 167.67847 315
373.57315 -99.20261 167.68097 315
374.18182 -98.24570 167.64204 315
374.95932 -97.43479 167.58913 437
376.34872 -96.95743 167.36938 436
377.69278 -96.47485 167.11926 436
379.07938 -95.97488 166.87111 435
387.37027 -100.91779 167.66756 309
380.53522 -95.47329 166.60133 434
387.97366 -99.87336 167.71078 309
381.91562 -94.99858 166.33998 433
388.54785 -98.87516 167.70819 309
383.39407 -94.52142 166.07733 432
389.13492 -97.77857 167.68652 309
384.84338 -94.02364 165.82921 431
389.66235 -96.72830 167.71823 309
386.27948 -93.50700 165.51103 430
390.24634 -95.70900 167.72841 309
387.77609 -92.98843 165.24896 429
390.81369 -94.63467 167.73965 311
389.26349 -92.44594 164.94528 428
391.37668 -93.57885 167.71790 311
390.54724 -91.79095 164.76672 317
391.90173 -92.49932 167.72554 311
391.12546 -90.75309 164.72606 317
392.48828 -91.43627 167.73648 311
391.65521 -89.69516 164.72304 317
393.90570 -90.87199 167.46335 425
392.25534 -88.65693 164.72316 317
395.45483 -90.33325 167.22710 424
392.77795 -87.63086 164.71513 317
397.05017 -89.75540 166.89813 423
393.36819 -86.58803 164.75294 317
398.70093 -89.20516 166.61752 422
407.58685 -93.65456 167.73219 305
393.88788 -85.52182 164.72713 317
400.32251 -88.63111 166.32321 421
408.16354 -92.45152 167.76141 305
394.44189 -84.44980 164.69717 317
401.98074 -88.08876 166.02901 420
408.63770 -91.32606 167.75272 305
394.93591 -83.39892 164.69238 317
403.65546 -87.50269 165.71071 419
409.16385 -90.12594 167.74855 305
395.50082 -82.32877 164.69923 317
405.34238 -86.91730 165.36386 418
409.68607 -88.91976 167.77469 305
395.95474 -81.26648 164.69833 317
407.03452 -86.30054 165.05098 437
410.17950 -87.74970 167.79575 305
396.49908 -80.19581 164.72772 317
408.32501 -85.50068 164.82260 312
410.68964 -86.60833 167.76674 305
373.63144 -68.77321 171.54091 316
408.86316 -84.38999 164.85503 312
411.17886 -85.42347 167.77882 305
374.05670 -67.80960 171.57251 316
409.35751 -83.22773 164.83553 312
411.68924 -84.19457 167.79976 305
374.44131 -66.89420 171.54927 316
409.90939 -82.03814 164.81921 312
413.03094 -83.37183 167.59602 434
374.83942 -65.94576 171.54442 316
410.40833 -80.90685 164.84370 312
414.51294 -82.65631 167.34554 433
375.23682 -64.98138 171.54146 316
410.88266 -79.73270 164.80962 312
416.10080 -81.86230 167.09511 432
375.62137 -64.01497 171.56216 316
411.38495 -78.57034 164.80789 312
417.67035 -81.10775 166.80960 431
375.98279 -63.06257 171.58310 316
411.90433 -77.40336 164.81064 312
419.28326 -80.35832 166.51971 430
376.38525 -62.11115 171.58154 316
412.38684 -76.20210 164.81664 312
420.86298 -79.59183 166.25406 429
430.17639 -83.23914 167.77406 301
376.72211 -61.15800 171.55257 316
412.83139 -75.07058 164.79323 312
422.48920 -78.74241 165.98012 428
430.60522 -81.91992 167.79649 301
377.07614 -60.15872 171.55734 316
413.29666 -73.90427 164.79160 312
424.11783 -77.97401 165.69696 427
431.09802 -80.61109 167.82758 301
377.43939 -59.22105 171.59770 316
413.79504 -72.72298 164.80550 312
425.77301 -77.15997 165.38197 426
431.55453 -79.28414 167.84865 301
377.78595 -58.24247 171.56004 316
388.36264 -62.08454 171.68613 312
427.45535 -76.31531 165.08121 425
431.94470 -77.95614 167.85126 301
378.12827 -57.27620 171.59088 316
388.74359 -61.08294 171.67604 312
428.72079 -75.35413 164.86877 308
432.39597 -76.67047 167.82820 301
378.47043 -56.28967 171.58978 316
389.10526 -60.02351 171.68825 312
429.21954 -74.08450 164.85973 308
432.79086 -75.32950 167.83997 301
378.81177 -55.33825 171.59895 316
389.43674 -59.00335 171.70668 312
429.67844 -72.80125 164.91498 308
433.19937 -74.01421 167.87991 301
379.14481 -54.32993 171.59550 316
389.80783 -57.91925 171.68655 312
430.10413 -71.52264 164.90399 308
434.41034 -72.94612 167.73073 421
379.42395 -53.33986 171.57944 316
390.15622 -56.91370 171.71227 312
430.58963 -70.26612 164.84749 308
436.17459 -72.09551 167.42995 420
379.75119 -52.36823 171.57938 316
390.46631 -55.85272 171.69376 312
431.01227 -68.93978 164.85986 308
438.02838 -71.24496 167.09154 419
380.06470 -51.38619 171.58678 316
390.79681 -54.81918 171.69861 312
431.45169 -67.65420 164.89804 308
439.78839 -70.32657 166.79877 433
380.35989 -50.41141 171.60318 316
391.12558 -53.76617 171.71602 312
431.82086 -66.36749 164.84889 308
441.40256 -69.30886 166.49060 432
380.67194 -49.44461 171.62189 316
391.44022 -52.70193 171.70766 312
432.23022 -65.08706 164.88399 308
443.00079 -68.35128 166.26581 431
380.95676 -48.44075 171.62471 316
391.72760 -51.65364 171.72472 312
432.60904 -63.77248 164.86531 308
444.66498 -67.35846 165.94528 430
454.71463 -70.31268 167.90955 297
381.20944 -47.47712 171.59177 316
392.04031 -50.58372 171.69885 313
404.30823 -54.15563 171.84755 309
446.34604 -66.29787 165.65170 429
455.04254 -68.85549 167.88977 297
266.98282 -14.04822 203.49876 288
392.32925 -49.54304 171.71651 313
404.64084 -53.01949 171.84479 309
448.06161 -65.32133 165.39098 428
455.40616 -67.37360 167.90665 297
267.04425 -13.76755 203.50443 314
392.64975 -48.47456 171.73401 313
404.95807 -51.87963 171.82014 309
449.78629 -64.26267 165.09917 427
455.76074 -65.91929 167.94832 297
267.12466 -13.47726 203.49855 314
392.91653 -47.40657 171.72278 313
405.23688 -50.74955 171.82986 309
450.73102 -62.99759 164.94879 303
456.14423 -64.44570 167.91280 297
267.19659 -13.18444 203.49901 314
393.17932 -46.34795 171.73631 313
405.54391 -49.58804 171.85028 309
451.11267 -61.62284 164.94084 303
456.44235 -63.04022 167.92238 297
3653.07715 -904.96454 216.90489 491
3660.99609 -906.70905 275.30469 412
267.27963 -12.90005 203.50238 314
393.47433 -45.29489 171.74396 313
405.79712 -48.47001 171.85457 309
451.45453 -60.16748 164.96059 303
456.79160 -61.56479 167.92148 297
267.35184 -12.60994 203.49969 314
393.72678 -44.20326 171.73515 313
406.10092 -47.29950 171.83629 309
451.81454 -58.75473 164.98438 303
457.07309 -60.08174 167.97412 297
267.42816 -12.32007 203.49979 314
394.00064 -43.16154 171.72615 313
405.94919 -46.35072 171.84988 309
452.17438 -57.36220 164.94910 303
458.71286 -58.90405 167.72256 422
267.49951 -12.03114 203.50635 314
394.24924 -42.11040 171.73262 313
406.64423 -45.04918 171.84366 309
452.52737 -55.92372 164.94600 303
460.53622 -57.84657 167.37436 421
267.56216 -11.74701 203.50221 314
394.48373 -41.01925 171.74271 313
406.90936 -43.90679 171.88326 309
452.89581 -54.46254 164.95128 303
462.38696 -56.69377 167.09991 453
267.62717 -11.45296 203.50003 314
394.71497 -39.93394 171.74463 313
407.19156 -42.75107 171.85214 309
453.15973 -53.04786 164.97369 303
463.76892 -55.44475 166.88280 452
267.70013 -11.15290 203.50165 314
394.96106 -38.87855 171.74126 313
407.42578 -41.58300 171.87495 309
453.52396 -51.65854 165.00398 303
465.10519 -54.18367 166.67717 451
267.75555 -10.86688 203.50525 314
395.16006 -37.81512 171.72586 313
407.65286 -40.46178 171.88693 309
421.92953 -43.45546 172.01337 305
466.46909 -52.88876 166.47449 450
267.82852 -10.57723 203.50478 314
395.40338 -36.71987 171.76717 313
407.90356 -39.29903 171.89694 309
422.16852 -42.20274 171.99797 305
467.85718 -51.58651 166.28175 450
267.88828 -10.28891 203.50026 314
395.61255 -35.64425 171.74460 313
408.13950 -38.14484 171.86290 309
422.42926 -40.98196 171.99373 305
469.28662 -50.30437 166.04108 449
267.93591 -9.98691 203.50691 314
395.81201 -34.55145 171.73918 313
408.34656 -36.99863 171.88881 309
422.65451 -39.73608 172.02441 305
470.69595 -48.98879 165.82846 448
267.99542 -9.70036 203.50890 314
396.00641 -33.47475 171.75694 313
408.54401 -35.84694 171.86943 309
422.89981 -38.49942 172.00095 305
472.06955 -47.66781 165.58107 447
482.40512 -49.60264 168.04196 293
34493.03125 -6379.32715 4810.34961 1000
268.05240 -9.40891 203.50505 314
396.19315 -32.43388 171.73862 313
408.73752 -34.65118 171.89723 309
423.10504 -37.26680 171.99567 305
473.50687 -46.27430 165.34273 446
482.69019 -47.96644 167.99919 293
268.10172 -9.11712 203.50266 314
396.39587 -31.33203 171.74397 313
408.95370 -33.50893 171.86078 309
423.33926 -35.98450 172.00601 305
474.96005 -44.93429 165.10921 445
482.85977 -46.30034 168.06989 293
268.16412 -8.82118 203.50887 314
396.59845 -30.23475 171.75639 313
409.15936 -32.34725 171.89233 309
423.54276 -34.75436 172.03529 305
475.35126 -43.38098 165.11919 300
483.06363 -44.69988 168.02757 293
268.20331 -8.53099 203.49812 314
396.72849 -29.17639 171.78195 313
409.34848 -31.20097 171.88365 309
423.76062 -33.53199 172.04858 305
475.55093 -41.84465 165.07285 300
483.29578 -43.04989 168.07451 293
58087.48047 -9298.31445 -8469.46875 1000
268.25244 -8.22984 203.50679 314
396.91333 -28.09561 171.75180 313
409.52499 -30.05370 171.87854 309
423.95789 -32.23892 172.00803 305
475.81458 -40.27245 165.08147 300
483.46838 -41.47383 168.11305 293
268.30750 -7.93031 203.49936 314
397.07114 -26.99183 171.76544 313
409.70636 -28.87449 171.90065 309
424.11630 -30.99532 172.05185 305
476.06906 -38.67901 165.12935 300
483.64746 -39.79431 168.07674 293
268.34296 -7.64042 203.50409 314
397.24576 -25.92403 171.75531 313
409.83771 -27.70223 171.86032 309
424.29709 -29.73669 172.02737 305
476.27249 -37.14489 165.12558 300
483.79782 -38.18114 168.11497 294
268.39111 -7.35134 203.49992 314
397.36761 -24.83504 171.74567 313
410.02319 -26.54258 171.86772 309
424.49289 -28.51263 172.00732 305
441.17569 -30.74424 172.17470 301
483.85553 -36.55629 168.16776 294
268.42578 -7.05172 203.50302 314
397.51941 -23.72459 171.77544 313
410.14728 -25.38957 171.90439 309
424.65701 -27.24710 172.01163 305
441.36880 -29.41814 172.18330 301
484.83252 -35.00163 168.03665 459
268.47122 -6.75471 203.50508 314
397.68317 -22.66091 171.74950 313
410.31073 -24.23500 171.90308 309
424.80261 -26.01308 172.04871 305
441.56265 -28.05568 172.18144 301
485.99939 -33.50309 167.81618 458
268.49850 -6.45833 203.50974 314
271.95050 -6.86011 203.47981 282
410.48288 -23.04157 171.86732 309
424.94821 -24.77039 172.03566 305
441.72723 -26.71427 172.22328 301
487.23575 -32.05006 167.64761 457
268.53604 -6.16123 203.50011 314
271.91010 -6.53372 203.50543 310
410.56363 -21.86028 171.86403 309
425.09778 -23.49217 172.02617 305
441.84888 -25.33166 172.19640 301
488.52081 -30.51509 167.43362 456
268.56937 -5.86130 203.50629 314
271.94418 -6.22125 203.50455 310
410.72626 -20.70520 171.90395 309
425.19940 -22.25448 172.06137 305
442.01724 -23.98475 172.22629 301
489.71857 -28.97756 167.25941 456
268.59839 -5.57481 203.50169 314
271.97290 -5.90464 203.50385 310
410.82327 -19.54132 171.89879 309
425.33984 -20.99783 172.05942 305
442.14172 -22.59127 172.21703 301
491.03320 -27.42507 167.01471 455
268.63959 -5.26721 203.50739 314
272.01166 -5.57708 203.49817 310
410.95248 -18.36703 171.91742 309
425.49777 -19.68374 172.01169 305
442.24991 -21.25360 172.21692 301
492.29919 -25.84533 166.81670 454
268.66492 -4.98101 203.50761 314
272.03400 -5.26819 203.50752 310
411.04987 -17.22689 171.87749 309
425.60132 -18.47875 172.06447 305
442.37909 -19.89248 172.17305 301
493.52457 -24.30529 166.62445 453
268.68713 -4.67937 203.50237 314
272.06747 -4.95253 203.50394 310
411.13159 -16.05185 171.91670 309
425.70886 -17.18183 172.01526 305
442.47723 -18.50795 172.21877 301
494.83286 -22.70734 166.44351 452
268.71451 -4.38653 203.50356 314
272.08997 -4.63259 203.50905 310
411.21738 -14.84878 171.91714 309
425.78503 -15.92129 172.04703 305
442.60266 -17.15833 172.22777 301
496.12793 -21.13221 166.23094 451
268.73996 -4.08626 203.51007 314
272.10590 -4.31043 203.50272 310
411.32996 -13.69904 171.90750 309
425.88071 -14.68641 172.01099 305
442.70740 -15.80396 172.17833 301
497.04495 -19.44844 166.04576 483
268.75479 -3.79284 203.49962 314
272.13965 -3.99556 203.50694 310
411.38907 -12.49007 171.89296 309
425.98273 -13.38968 172.06712 305
442.76166 -14.45523 172.19716 301
462.51904 -15.63834 172.38516 297
268.77292 -3.48448 203.50609 314
272.15811 -3.66918 203.49791 310
411.48120 -11.32483 171.89540 309
426.05078 -12.16855 172.05719 305
442.88599 -13.06210 172.17860 301
462.61069 -14.15780 172.41006 297
268.79333 -3.19455 203.50572 314
272.17456 -3.35199 203.50555 310
411.52914 -10.18361 171.87068 309
426.08426 -10.90002 172.04449 305
442.94690 -11.70619 172.21227 301
462.63022 -12.69470 172.39061 297
268.80066 -2.89825 203.49796 314
272.18417 -3.03689 203.49788 310
411.58167 -8.99297 171.89336 309
426.14310 -9.61494 172.06319 305
443.03946 -10.35774 172.20682 301
462.71527 -11.17456 172.39568 297
268.81445 -2.59089 203.50279 314
272.19592 -2.72111 203.50212 310
411.63443 -7.80851 171.90199 309
426.23132 -8.36742 172.06107 305
443.05133 -8.96694 172.22992 301
462.75803 -9.66565 172.36882 297
268.83542 -2.29580 203.50693 314
272.21579 -2.40441 203.50751 310
411.68219 -6.65435 171.88110 309
426.25745 -7.11697 172.05940 305
443.14206 -7.60139 172.23022 301
462.81540 -8.24307 172.39180 297
268.83917 -2.00336 203.50198 314
272.22504 -2.08093 203.49838 310
411.69659 -5.46011 171.91629 309
426.28418 -5.83826 172.02048 305
443.17719 -6.21984 172.23212 301
462.86896 -6.70348 172.41479 297
268.84341 -1.69807 203.50864 314
272.23196 -1.75837 203.50255 310
411.73819 -4.32311 171.87535 309
426.29688 -4.56100 172.05246 305
443.20422 -4.86672 172.20091 301
462.91315 -5.26261 172.36247 297
268.84897 -1.40485 203.50906 314
272.23990 -1.44559 203.49744 310
411.74805 -3.10080 171.91405 309
426.35724 -3.29638 172.04335 305
443.18121 -3.47483 172.23483 301
462.96832 -3.76405 172.38548 297
512.65002 -4.30625 168.29089 288
268.85733 -1.10808 203.50012 314
272.24515 -1.12136 203.49959 310
411.74115 -1.92474 171.89229 309
426.36975 -2.04453 172.06343 305
443.23981 -2.11506 172.20047 301
451.78387 -2.18286 174.45067 425
512.60571 -2.53252 168.25499 288
268.86191 -0.81056 203.49959 314
272.24680 -0.81252 203.50316 310
