# .PCD v.7 - Point Cloud Data file format
VERSION .7
FIELDS x y z rgb
SIZE 4 4 4 4
TYPE F F F U
COUNT 1 1 1 1
WIDTH 1434
HEIGHT 1
VIEWPOINT 4291.180664 -4101.747070 133.789230 -0.002813 -0.114570 0.006666 0.993389
POINTS 1434
DATA ascii
257.89426 1539.02600 215.05200 495
258.01987 1538.23535 240.17390 469
257.80698 1538.11230 265.23431 469
257.84561 1538.08228 290.34174 422
257.82675 1538.89465 315.71878 357
248.49652 1541.02380 265.47855 367
248.39040 1538.16089 290.44647 430
248.60931 1535.77197 315.75937 474
248.25592 1533.96814 341.00085 474
-1874.64087 28353.27734 -6935.26172 1000
-1409.49939 22055.34570 -1983.99500 1000
-238.71556 2042.87830 111.52835 498
-238.17068 2041.47681 146.41049 498
-238.27402 2040.41980 180.50288 481
-238.17061 2039.14087 214.42577 482
-237.78743 2038.27271 248.70648 482
-237.35556 2037.78687 283.03403 442
-237.60674 2037.27844 317.54199 442
-631.60327 2474.84399 -487.18753 1000
-26056.81055 47044.96875 180.77126 1000
-30662.56250 51519.35156 12124.87500 1000
127.43114 148.20938 169.42416 485
124.51288 148.74324 168.87077 489
120.38518 149.02560 168.19392 489
117.80577 150.84264 167.41653 316
116.89364 150.19130 167.42357 316
115.99896 149.55350 167.41142 316
212.26811 11.10611 218.87694 1000
115.08466 148.90059 167.42998 316
111.90272 151.37816 166.41711 314
110.98178 150.75143 166.37447 314
110.05987 150.03802 166.37683 314
109.13320 149.39084 166.38541 314
108.19515 148.67508 166.37859 314
107.28004 147.98912 166.39261 314
106.36312 147.32030 166.38235 314
105.49688 146.60844 166.38246 314
104.06582 146.57512 166.16588 423
96.48615 156.12253 166.35690 310
102.46705 146.72803 165.85263 422
95.54092 155.33987 166.37553 310
100.81592 146.86380 165.54218 421
94.55687 154.60623 166.39062 310
198.38998 26.53651 217.08304 1000
99.16351 147.04185 165.24498 420
93.61563 153.82959 166.36809 310
97.47949 147.21541 164.93495 419
92.65537 153.06480 166.35342 310
95.85045 147.30482 164.61276 428
91.70348 152.29903 166.35936 310
94.27692 147.38689 164.30135 427
90.76291 151.53256 166.34050 310
92.64162 147.44923 164.02962 426
89.77986 150.72554 166.35876 310
90.98788 147.50143 163.71542 425
88.84419 149.93619 166.33028 310
89.32230 147.61018 163.40390 424
87.92812 149.12032 166.32761 310
88.34700 146.78151 163.41536 307
87.00182 148.33490 166.31488 310
87.55717 145.89262 163.41345 307
85.88016 147.70158 166.26573 423
86.69897 145.00972 163.47258 307
84.14431 147.77820 165.97165 422
85.88708 144.10907 163.48087 307
82.41235 147.83296 165.68654 421
73.95120 156.92459 166.27736 305
85.13009 143.15631 163.53432 307
80.63816 147.94273 165.34309 420
72.97903 156.03418 166.26173 305
84.28504 142.23442 163.56746 307
78.82577 148.01614 165.03694 419
72.02377 155.15450 166.26109 305
83.51915 141.31310 163.58273 307
77.00644 148.08601 164.68263 417
71.09708 154.23909 166.29575 306
103.30949 119.31753 171.50703 316
75.17163 148.11514 164.33011 416
70.13506 153.33257 166.28537 306
102.56290 118.61620 171.53697 316
73.29307 148.20886 164.02216 415
69.19336 152.43256 166.25359 306
101.85128 117.87826 171.53848 316
71.44552 148.30196 163.64885 414
68.21172 151.50496 166.25175 306
101.14867 117.13313 171.56868 316
69.50948 148.37637 163.32498 413
67.28510 150.55841 166.26726 306
100.45551 116.36123 171.56335 316
68.63197 147.39923 163.29764 304
66.32176 149.62872 166.26395 306
99.73792 115.61892 171.57599 316
67.81294 146.37149 163.34540 304
65.39738 148.73148 166.25368 306
99.06285 114.84785 171.58943 316
66.99515 145.33319 163.41788 304
63.61815 148.60284 165.95222 410
98.37004 114.07957 171.55919 316
66.19171 144.27129 163.45645 304
61.55759 148.62949 165.61864 409
97.67998 113.32850 171.57932 316
89.29996 121.05104 171.62865 312
59.53619 148.71101 165.23756 408
49.84856 157.75931 166.17287 301
96.96294 112.52743 171.60237 316
88.58105 120.23322 171.62657 312
57.45106 148.79520 164.88142 407
48.83620 156.72820 166.17567 301
96.31919 111.76172 171.59592 316
87.85406 119.40652 171.65080 312
55.35443 148.88147 164.50873 406
47.89646 155.66466 166.15488 301
95.63448 110.99346 171.58467 316
87.15501 118.60168 171.68350 312
53.18078 149.00189 164.14606 405
46.96286 154.58450 166.12387 301
94.96793 110.20083 171.59792 316
86.45403 117.73788 171.68127 312
51.02191 149.09714 163.73674 404
45.97269 153.51605 166.15706 301
94.30400 109.45108 171.62964 316
85.71527 116.92711 171.67097 312
48.78060 149.15285 163.31970 402
45.02126 152.45032 166.18471 301
93.65870 108.64901 171.59584 316
85.01146 116.07969 171.69917 312
47.58785 148.35759 163.19734 300
44.06417 151.37689 166.14159 301
93.00598 107.84939 171.63138 316
84.34131 115.21693 171.69292 312
46.76696 147.16208 163.28867 300
43.14456 150.28770 166.16888 301
92.36156 107.05941 171.60489 316
83.64900 114.37627 171.69333 312
45.99550 146.00262 163.31525 300
41.99114 149.40817 166.04945 399
91.69034 106.24448 171.64291 316
82.94851 113.48450 171.68553 312
73.04819 121.72879 171.78645 308
39.65258 149.50087 165.71063 398
91.08117 105.43821 171.63449 316
82.25677 112.65556 171.72920 312
72.30396 120.81357 171.80652 308
37.24783 149.61102 165.29297 397
90.41518 104.65159 171.63811 316
81.58842 111.76744 171.72487 312
71.60609 119.89706 171.79553 308
34.79362 149.71428 164.85008 396
23.51683 158.89282 166.03162 297
89.80904 103.82616 171.66925 316
80.94105 110.90942 171.70641 312
70.87537 118.99484 171.81462 308
32.36949 149.79945 164.39017 395
22.52742 157.65132 166.01183 297
89.17417 103.01534 171.63631 316
80.27692 110.05622 171.74353 312
70.14573 118.04085 171.82690 308
29.86963 149.86057 163.94962 393
21.55618 156.46420 166.00893 297
88.52706 102.18568 171.67554 316
79.59206 109.14906 171.74568 312
69.44797 117.10121 171.81165 308
27.30864 149.98621 163.56674 392
20.56515 155.18959 166.05447 295
87.93795 101.34347 171.64497 316
78.94553 108.26542 171.75710 312
68.76041 116.12621 171.80353 308
24.73243 150.01909 163.08331 296
19.63823 154.01605 165.99997 295
87.35126 100.55534 171.64580 316
78.29526 107.41380 171.76242 312
68.03218 115.18085 171.85083 308
23.96544 148.73816 163.11386 296
18.66087 152.77696 166.00269 295
86.72826 99.71889 171.67964 316
77.63699 106.51211 171.74950 312
67.36346 114.25561 171.82184 308
55.56004 123.08318 171.90652 304
17.63421 151.61327 165.97707 295
86.13673 98.84473 171.67972 316
77.03249 105.63723 171.74179 312
66.65961 113.28316 171.81378 308
54.80362 122.06690 171.96075 304
16.67915 150.33397 165.96182 295
85.51089 98.03947 171.68324 316
76.36151 104.73978 171.73758 312
65.97505 112.32545 171.86475 308
54.11016 121.06783 171.91371 304
13.99227 150.39560 165.54933 389
84.95911 97.20327 171.67921 316
75.77117 103.84686 171.76793 312
65.33051 111.34797 171.85077 308
53.35061 119.98282 171.93767 304
11.21996 150.51376 165.07356 388
84.33479 96.32120 171.69157 316
75.14206 102.94978 171.74704 312
64.67213 110.37506 171.85468 308
52.63421 118.96243 171.94072 304
8.39606 150.51868 164.64909 387
83.76943 95.47822 171.70575 316
74.53893 102.02913 171.75284 312
64.01250 109.44710 171.88455 308
51.93705 117.88992 171.95366 304
5.47635 150.59685 164.18938 386
83.18680 94.64461 171.68710 316
73.90453 101.13255 171.79201 312
63.36804 108.45517 171.87912 308
51.24572 116.83610 171.96809 304
2.57333 150.68303 163.69563 384
-8.99016 158.73936 165.59639 290
82.65475 93.81192 171.72829 316
73.28505 100.17455 171.80208 312
62.70303 107.48619 171.87955 308
50.55247 115.77969 171.95523 304
-0.40808 150.79041 163.17036 383
-9.96535 157.35452 165.59601 290
82.07108 92.91853 171.68950 316
72.70309 99.26243 171.76588 312
62.06856 106.50534 171.87288 308
49.83865 114.74122 171.98390 304
35.70082 124.32112 172.08321 300
-10.97556 155.91864 165.61830 290
81.52757 92.06602 171.71550 316
72.07890 98.34267 171.79045 312
61.42550 105.52341 171.86053 308
49.17197 113.68330 171.97621 304
35.00277 123.17259 172.11864 300
-11.92940 154.48164 165.61353 291
80.96516 91.20691 171.71214 316
71.49928 97.45241 171.79214 312
60.77533 104.51605 171.89223 308
48.50599 112.63334 171.96962 304
34.23575 121.98497 172.11133 300
-12.92056 153.08948 165.62309 291
80.39376 90.33334 171.75020 316
70.92679 96.52267 171.79944 312
60.17033 103.50108 171.86652 308
47.79699 111.52748 171.98270 304
33.49719 120.85426 172.10182 300
-13.90952 151.68970 165.59747 291
79.87383 89.49185 171.72195 316
70.35986 95.59836 171.79723 312
59.53971 102.52158 171.89694 308
47.13383 110.46716 171.99767 304
32.78299 119.68013 172.13037 300
-16.26826 151.16524 165.30623 377
79.35252 88.58015 171.71535 316
69.77280 94.63715 171.80933 312
58.90522 101.50024 171.90552 308
46.51775 109.39104 172.01408 304
32.07689 118.49242 172.14964 300
-19.61661 151.21919 164.71581 376
78.80604 87.72350 171.74495 316
69.19908 93.69201 171.82124 312
58.33867 100.49493 171.93703 308
45.84931 108.29404 172.00117 304
31.40947 117.31128 172.15457 300
-23.06951 151.30811 164.20412 375
78.30200 86.83747 171.74512 316
68.63041 92.78318 171.80856 312
57.73137 99.49593 171.92485 308
45.21469 107.20779 172.03780 304
30.67836 116.15660 172.11465 300
-26.56854 151.40387 163.69870 373
77.76380 85.94984 171.75600 316
68.10099 91.81118 171.80911 312
57.12005 98.47591 171.92328 308
44.56023 106.10296 172.02544 304
30.02229 115.00053 172.13615 300
12.96140 125.35808 172.27353 296
-45.45918 160.82832 165.02635 286
77.25710 85.05102 171.74664 316
67.55840 90.87944 171.84085 312
56.55440 97.49172 171.94373 308
43.95453 105.05136 172.04980 304
29.30647 113.77985 172.17404 300
12.23341 124.05343 172.29346 296
-46.47668 159.23230 165.07816 286
76.71548 84.18790 171.75797 316
67.02436 89.95351 171.81744 312
55.94152 96.43891 171.92174 308
43.29694 103.92114 172.04599 304
28.62379 112.58315 172.15498 300
11.47643 122.75775 172.29593 296
-47.45032 157.52644 165.05862 286
76.22963 83.28201 171.74832 316
66.45791 88.99724 171.84003 312
55.40638 95.44510 171.92152 308
42.66031 102.85248 172.04393 304
27.98465 111.41884 172.18727 300
10.77739 121.47295 172.33774 296
-48.38066 155.87830 165.08746 288
75.74598 82.36959 171.79128 316
65.92464 88.03732 171.87277 312
54.79479 94.39786 171.94086 308
42.04441 101.71483 172.03308 304
27.32047 110.23270 172.13666 300
10.01655 120.16460 172.32570 296
-49.21492 154.21870 165.10872 288
75.24088 81.48724 171.77278 316
65.39600 87.07957 171.84415 312
54.26777 93.39114 171.94060 308
41.45779 100.60468 172.06262 304
30.92000 106.61790 173.16682 269
9.32243 118.82211 172.28381 296
-50.17596 152.53615 165.07362 288
74.76701 80.57899 171.77737 316
64.88174 86.08107 171.86209 312
53.70302 92.36610 171.94350 308
43.74406 97.93353 172.78474 318
37.79389 101.26695 174.84760 317
22.22980 109.90857 175.18980 269
-52.81463 151.82607 164.74170 374
74.23833 79.70290 171.79196 316
64.36240 85.12331 171.84404 312
53.12251 91.33852 171.94308 308
46.23695 95.12838 173.55225 320
40.43480 98.29495 175.58138 319
34.18069 101.75038 177.77338 270
15.25952 112.14910 177.81540 270
73.78436 78.78387 171.79918 316
63.88398 84.17760 171.85040 312
54.00950 89.51353 172.34412 323
48.61918 92.43745 174.27768 321
43.03576 95.48214 176.31926 320
37.22838 98.63821 178.53357 318
26.12026 104.60582 179.98633 292
73.30067 77.85455 171.78996 316
63.34743 83.17381 171.88431 312
56.21478 87.01544 173.07643 324
50.95176 89.84150 174.96165 322
45.53250 92.70358 176.99841 321
39.88060 95.74018 179.20996 319
25.53393 103.40399 179.95236 292
4.56192 114.63486 180.13271 288
72.86684 76.97055 171.79498 316
62.87070 82.23103 171.86615 312
58.29859 84.61605 173.76633 325
53.24534 87.29764 175.64937 323
47.93181 90.10105 177.67368 322
42.30727 93.06955 179.82613 296
24.88659 102.22207 179.96658 292
3.84445 113.30760 180.12289 288
72.40172 76.03987 171.82007 316
63.13985 80.85224 172.09477 373
59.99277 82.46671 174.35388 383
55.43868 84.83865 176.32993 325
50.26706 87.54625 178.35266 324
41.71795 91.96333 179.82811 296
24.29081 101.00732 179.97948 292
3.20165 111.96535 180.17963 288
71.93238 75.12067 171.80139 316
63.85603 79.25021 172.46252 374
60.72970 80.84916 174.68599 384
57.54782 82.50629 176.96005 326
52.51847 85.02419 178.95699 325
41.19693 90.82669 179.82326 296
23.68599 99.79958 179.98131 292
2.55301 110.57507 180.13904 288
71.46268 74.20947 171.82231 316
64.58624 77.65487 172.79855 375
61.45610 79.28119 174.99065 385
58.50176 80.74589 177.33109 383
54.70995 82.62370 179.54932 326
40.65981 89.70530 179.84158 296
-5.77179 113.12665 174.64871 292
-5.82572 113.15690 178.90758 292
-24.31916 122.41905 180.41882 284
71.05255 73.28284 171.80745 316
65.27885 76.11458 173.09299 376
62.16437 77.70197 175.27693 386
59.21576 79.14026 177.63345 384
54.92838 81.29617 179.72871 300
40.10028 88.60340 179.83022 296
5.66582 105.67432 176.91554 282
-14.02070 115.44746 177.62883 348
-24.98718 120.87777 180.37564 284
70.57059 72.34312 171.80527 316
65.98963 74.58550 173.44519 377
62.86868 76.12487 175.62332 387
59.98830 77.52808 177.93617 385
54.45573 80.27097 179.71471 300
39.60355 87.46441 179.88730 296
12.80849 100.55630 178.33356 283
-18.14122 115.68915 177.11000 346
-25.66242 119.37962 180.36775 284
70.13916 71.41689 171.82985 316
66.69940 73.11698 173.78069 378
63.52798 74.63805 175.87962 388
60.66821 75.96714 178.22372 386
53.97994 79.21461 179.73167 300
-158.69933 76.23691 -32.06592 331
19.42555 95.83120 179.66399 285
4.45414 103.01086 180.94507 282
-26.41695 117.85602 180.37448 284
70.69764 70.05184 172.09251 381
67.39960 71.62373 174.07573 379
64.21088 73.12605 176.20757 389
61.40074 74.45395 178.46848 387
53.49796 78.17724 179.72498 300
29.35964 89.60725 178.00557 332
22.66074 92.77314 180.36293 314
11.64124 97.95467 182.19423 284
-27.09819 116.26421 180.42238 284
71.33944 68.63654 172.42987 382
68.05875 70.17313 174.40160 380
64.86980 71.65343 176.50316 390
62.10525 72.92609 178.75771 388
53.03886 77.13144 179.74275 300
31.34765 87.26729 178.54808 333
25.17065 90.11354 180.90660 331
17.37386 93.75829 183.23784 313
3.34005 100.27361 184.96864 282
71.96668 67.22221 172.73006 383
68.74842 68.72470 174.69238 381
65.56450 70.16361 176.76817 391
62.80252 71.43221 179.05762 389
52.56012 76.13721 179.75563 300
33.31863 84.97120 179.04523 334
27.32374 87.70761 181.42572 332
20.39520 90.85940 183.86023 314
10.57323 95.32724 186.08891 284
72.60247 65.85803 173.04727 384
69.39252 67.29221 175.00998 382
66.21891 68.73012 177.04947 392
63.49848 69.95815 179.31270 390
52.10309 75.09553 179.77161 300
35.19269 82.71194 179.49498 335
29.32882 85.36469 181.89603 333
23.13098 88.16379 184.35947 331
15.05985 91.81071 186.81282 313
2.33744 97.49167 188.93607 282
73.24477 64.50090 173.33246 385
70.05768 65.91093 175.28244 382
66.84966 67.29218 177.32318 393
64.13765 68.50819 179.55692 391
42.49136 78.12995 177.78017 339
37.04178 80.48574 179.95312 336
31.33563 83.04855 182.29749 334
25.25923 85.74759 184.82141 332
18.12343 88.89365 187.32211 314
9.48390 92.77296 189.93175 311
-12.41539 102.42840 191.39557 264
73.82688 63.14366 173.62265 386
70.71781 64.52010 175.56508 383
67.49292 65.87831 177.56197 394
64.15343 67.34094 179.66260 304
43.50569 76.35191 178.09123 373
38.87556 78.36129 180.44466 338
33.29216 80.80493 182.77260 335
27.35072 83.41557 185.23976 333
21.12560 86.13150 187.85971 330
12.73717 89.79965 190.43094 312
1.34856 94.72498 192.94060 283
74.44666 61.80184 173.91734 387
71.33051 63.14450 175.85864 384
68.11299 64.52384 177.82883 395
63.72720 66.39618 179.66211 304
44.37532 74.68944 178.39355 374
40.26515 76.47466 180.81210 371
35.20637 78.62330 183.20720 336
29.42815 81.09052 185.63988 334
23.31389 83.72344 188.23000 331
15.87495 86.93670 190.84128 313
7.09660 90.65513 193.60606 311
-12.72153 99.14019 195.63148 264
75.04133 60.49479 174.23454 388
71.95341 61.79503 176.12033 385
68.77972 63.13954 178.09418 383
63.36778 65.44675 179.66371 304
45.17015 73.06332 178.66811 385
41.21995 74.76437 181.08197 372
36.98969 76.52174 183.62943 370
31.36782 78.87970 186.04486 335
25.40103 81.40617 188.58653 333
18.92975 84.13151 191.32426 315
10.44585 87.69662 194.02821 312
0.45262 91.93875 196.87534 283
75.39864 59.29934 174.43260 418
72.58369 60.43973 176.42746 386
69.46336 61.74726 178.37645 384
62.96358 64.46352 179.66498 304
45.87161 71.51913 178.88637 386
42.09093 73.07611 181.35103 373
37.95068 74.80405 183.85059 371
33.36218 76.72768 186.41544 336
27.47049 79.13560 188.96230 334
21.30523 81.73105 191.69923 331
13.63144 84.86698 194.43535 313
4.76737 88.53780 197.32112 311
-12.87801 95.85409 199.88704 264
75.67575 58.16291 174.63405 419
73.12603 59.19711 176.65884 416
70.11198 60.40157 178.64938 385
62.57824 63.45535 179.68156 304
46.60619 69.98341 179.17284 387
42.95141 71.47758 181.60640 385
38.91115 73.11018 184.10074 372
34.56778 74.85012 186.73190 369
29.54631 76.95551 189.35345 335
23.50079 79.38880 192.02109 332
16.79632 82.11361 194.81563 314
8.18251 85.64259 197.68417 312
-1.18674 89.40594 200.78964 309
75.95254 56.99294 174.78609 419
73.41994 58.03600 176.84329 417
70.76733 59.09622 178.88303 386
62.22083 62.51951 179.69080 304
47.30217 68.46460 179.39595 388
43.71285 69.88758 181.86337 386
39.84492 71.46362 184.37854 372
35.58636 73.12202 186.96501 370
31.18615 74.92300 189.60991 367
25.59017 77.16782 192.35454 333
19.33612 79.61996 195.12593 331
11.42658 82.82551 198.02556 313
2.46010 86.40202 201.09740 310
76.22691 55.84856 174.96443 420
73.68356 56.85041 176.99619 418
71.09634 57.87992 179.07219 416
61.81449 61.52522 179.65965 304
48.00345 66.95552 179.64610 389
44.43296 68.37745 182.05559 387
40.77496 69.80160 184.60413 373
36.56522 71.45322 187.15471 371
32.22086 73.16788 189.83844 368
27.65682 74.92609 192.67084 366
21.54015 77.35053 195.43900 332
14.61813 80.07325 198.30919 314
5.92683 83.46687 201.32294 312
-3.57297 87.20982 204.64720 309
76.50929 54.75077 175.14136 421
73.96831 55.71799 177.18486 419
71.37639 56.72019 179.23940 416
61.47683 60.55663 179.69823 304
48.67085 65.48306 179.87393 390
45.18716 66.80424 182.28442 387
41.51472 68.22077 184.83214 385
37.56551 69.74329 187.42616 372
33.23630 71.41620 190.04826 369
28.74057 73.18874 192.81802 367
23.72481 75.10748 195.68637 333
17.39485 77.57240 198.63884 331
9.25728 80.70235 201.62395 313
0.12127 84.21584 204.82520 310
76.75534 53.64724 175.34329 422
74.24527 54.59477 177.35921 419
71.70058 55.53951 179.38402 417
52.70703 62.75291 177.73878 393
49.35696 63.99261 180.10239 391
45.91179 65.34557 182.52060 388
42.27589 66.68424 185.01746 386
38.51324 68.09795 187.59741 373
34.23854 69.72924 190.28871 370
29.82332 71.39130 193.01570 368
25.18950 73.14569 195.89752 365
19.60968 75.24680 198.84904 332
12.48190 78.00095 201.86829 314
3.60241 81.34772 205.04489 311
77.03999 52.52771 175.51512 422
74.52325 53.43138 177.51524 420
71.97004 54.40042 179.58215 418
53.37301 61.30455 178.00696 394
50.03925 62.55841 180.34599 392
46.60749 63.85686 182.72635 389
43.06647 65.16929 185.20851 387
39.35997 66.51582 187.79417 384
35.23149 68.04101 190.44945 371
30.85491 69.67509 193.18245 369
26.31750 71.41090 196.04662 366
21.49913 73.18510 199.04425 363
15.42467 75.42465 202.12724 330
7.04743 78.53004 205.29012 312
77.28934 51.41644 175.65771 423
74.80517 52.33384 177.65492 421
71.80294 53.41579 179.61530 308
53.98961 59.91322 178.19569 395
50.69820 61.10499 180.54146 393
47.30433 62.39047 182.95863 390
43.79634 63.64692 185.44209 388
40.16031 64.97256 187.98291 385
36.25861 66.39034 190.68521 372
31.92828 67.95770 193.41229 370
27.42014 69.64628 196.22188 367
22.67534 71.37012 199.21375 364
17.69143 73.17628 202.33446 331
10.31153 75.82996 205.47708 313
77.56059 50.35872 175.84322 424
75.12280 51.22574 177.82072 422
71.49508 52.51628 179.62476 308
54.61355 58.53798 178.46507 396
51.34409 59.69616 180.78726 393
47.99516 60.91715 183.15331 391
44.50327 62.14048 185.60701 389
40.89474 63.47454 188.19020 386
37.15971 64.76762 190.83376 384
32.93216 66.32537 193.54901 370
28.49178 67.88828 196.37962 368
23.86946 69.59160 199.33165 365
18.98037 71.32276 202.44250 363
13.48826 73.29397 205.64954 330
77.82481 49.25999 175.98474 424
75.37538 50.11450 177.97057 422
71.18343 51.60846 179.62202 308
55.25352 57.18686 178.68398 397
52.01441 58.33704 180.99513 394
48.68003 59.51052 183.34837 392
45.21505 60.70866 185.84450 390
41.68298 61.93934 188.37224 387
37.94936 63.25925 191.03725 385
33.97227 64.64510 193.76091 371
29.54153 66.20455 196.51799 369
24.98563 67.79305 199.45546 366
20.14622 69.50230 202.52382 363
15.10854 71.25784 205.79053 361
78.07892 48.20958 176.16901 425
75.64440 49.01521 178.12669 423
70.86440 50.69122 179.62384 308
55.83971 55.82235 178.90338 397
52.64655 56.92603 181.18874 395
49.38039 58.05426 183.54736 393
45.95890 59.22071 186.01460 390
42.41537 60.43523 188.57349 388
38.76592 61.72403 191.16917 385
34.94536 63.02468 193.91438 372
30.63722 64.49956 196.71840 370
26.10990 66.05809 199.58867 367
21.36762 67.72444 202.69237 364
16.36520 69.43103 205.88069 362
78.34569 47.11448 176.32108 426
75.95589 47.95845 178.31134 424
70.56724 49.73006 179.59923 308
56.30038 54.53019 179.05711 411
53.29116 55.55003 181.39227 396
50.03173 56.66458 183.76068 394
46.67273 57.81479 186.21808 391
43.15199 58.97393 188.70346 389
39.56387 60.19963 191.31903 386
35.78341 61.46247 194.05585 384
31.64404 62.86076 196.84149 371
27.18405 64.35085 199.74321 368
22.50399 65.92402 202.74956 365
17.61065 67.59633 205.91962 363
78.62233 46.05062 176.49196 427
76.22306 46.84719 178.46255 424
70.27288 48.82075 179.60765 308
56.76909 53.29885 179.25584 412
53.79628 54.26611 181.58136 409
50.69148 55.28558 183.93179 395
47.37737 56.40821 186.37311 392
43.87962 57.53762 188.91606 390
40.32522 58.69667 191.50172 387
36.60832 59.93634 194.21291 385
32.70785 61.21938 197.01643 372
28.27172 62.67157 199.89728 369
23.67282 64.24174 202.85619 366
18.82255 65.83374 206.02011 364
78.88615 45.03907 176.63251 427
76.48428 45.78846 178.59509 425
69.99278 47.88071 179.61548 308
57.20868 52.04584 179.42682 412
54.22569 52.98453 181.75069 410
51.23316 53.98343 184.14496 408
48.03636 54.98777 186.57205 393
44.61997 56.10386 189.07507 391
41.09824 57.26951 191.64745 388
37.42263 58.45543 194.34622 386
33.58979 59.65238 197.13614 383
29.32569 61.03284 200.01988 370
24.82778 62.53400 203.00221 367
20.03317 64.06458 206.12434 364
79.14471 43.96788 176.76521 428
76.76775 44.72139 178.75929 426
69.68714 46.95030 179.61909 308
57.63204 50.77824 179.61615 420
54.71843 51.70642 181.89961 411
51.68492 52.66710 184.25746 409
48.59039 53.63969 186.72250 406
45.36350 54.69904 189.24754 391
41.82613 55.80203 191.83075 389
38.22244 56.91818 194.47711 386
34.41978 58.15745 197.26826 384
30.39182 59.43958 200.13237 371
25.92453 60.84822 203.06473 368
21.21654 62.30720 206.19852 365
79.39537 42.94607 176.91348 429
77.03394 43.66174 178.88229 426
69.43119 46.06150 179.60269 308
57.97885 49.60022 179.75180 421
55.16716 50.44851 182.08327 412
52.16274 51.36845 184.42938 409
49.10698 52.33253 186.85957 407
45.94842 53.33240 189.35304 404
42.61835 54.38138 191.94679 390
39.01517 55.49407 194.60168 387
35.28787 56.61738 197.39093 385
31.38365 57.80975 200.26242 382
26.99449 59.19698 203.21912 369
22.35303 60.64598 206.26454 366
79.65646 41.90326 177.08835 429
77.32173 42.61246 179.00717 427
69.13991 45.11974 179.63741 308
58.35118 48.36476 179.88979 422
55.60707 49.19331 182.23732 412
52.62182 50.12733 184.55553 410
49.56976 51.02764 186.97827 408
46.43474 51.98262 189.49017 405
43.18709 53.00603 192.06946 403
39.77093 53.99432 194.77965 388
36.07870 55.16443 197.47739 386
32.27076 56.32163 200.36229 383
28.06522 57.56601 203.31810 370
23.49963 58.94485 206.37732 367
79.91173 40.89230 177.21791 430
77.55774 41.57631 179.17589 428
68.86991 44.16616 179.62407 308
58.71507 47.19405 180.04588 422
56.01949 47.98944 182.37486 420
53.12337 48.84136 184.71297 411
50.06597 49.76738 187.13977 408
46.93801 50.65798 189.62700 406
43.74973 51.62526 192.22377 403
40.38452 52.61609 194.86580 401
36.91353 53.64893 197.60222 386
33.12307 54.79985 200.42143 384
29.18134 55.94850 203.39139 381
24.66373 57.27510 206.45021 368
80.18913 39.86993 177.36058 431
77.86485 40.55044 179.30638 428
61.71299 45.26530 177.93591 425
59.04799 46.00444 180.20467 423
56.40014 46.80135 182.50259 421
53.55586 47.62057 184.87109 411
50.57617 48.48653 187.26810 409
47.48352 49.37612 189.73799 407
44.24279 50.28525 192.32204 404
40.93663 51.25686 194.98042 402
37.53513 52.26695 197.69171 399
33.93457 53.28105 200.57217 385
30.04549 54.41856 203.48343 382
25.74125 55.64637 206.51573 369
80.42299 38.89886 177.50916 431
78.14103 39.53841 179.44188 429
62.05480 44.11422 178.09544 426
59.41720 44.82695 180.36696 424
56.76880 45.60513 182.65364 421
53.98091 46.38735 185.02765 419
51.03620 47.19544 187.38873 410
47.95234 48.08521 189.86644 407
44.81339 48.99765 192.45267 405
41.50223 49.91535 195.07382 402
38.12399 50.87851 197.78693 400
34.63548 51.85801 200.65160 397
30.88863 52.89170 203.54527 383
26.87111 54.06768 206.57283 370
80.68181 37.90289 177.62933 433
78.29520 38.53725 179.53650 312
62.35985 42.92707 178.24550 427
59.80489 43.66785 180.48550 424
57.13730 44.39020 182.80249 422
54.39854 45.18408 185.14580 420
51.54380 45.95774 187.54324 411
48.46334 46.81974 190.02710 408
45.34209 47.67661 192.54631 406
42.04978 48.58768 195.18611 403
38.69689 49.48575 197.90752 400
35.20135 50.48364 200.71428 398
31.62119 51.45603 203.63353 395
27.78423 52.54919 206.65231 381
-187.72031 112.11283 202.62480 495
80.95554 36.90292 177.78429 434
78.08372 37.68635 179.57208 312
62.73828 41.82312 178.37874 427
60.13284 42.50184 180.63005 425
57.51547 43.23500 182.89357 423
54.76830 43.96261 185.26080 421
51.97519 44.70060 187.66522 418
48.98545 45.51161 190.14867 409
45.82153 46.35804 192.65086 406
42.63227 47.24191 195.28264 404
39.28519 48.13388 197.97627 401
35.80059 49.06278 200.80606 399
32.27302 50.03673 203.67401 396
28.52524 51.06430 206.68791 393
-188.33485 109.62811 202.58202 483
81.20119 35.92564 177.89893 435
77.85990 36.79060 179.55392 312
63.04966 40.68862 178.55757 428
60.48820 41.37172 180.75589 426
57.88726 42.07299 183.06540 424
55.16891 42.76681 185.39667 421
52.41587 43.48936 187.79556 419
49.44529 44.29078 190.23425 410
46.38280 45.11385 192.76561 407
43.15891 45.96044 195.38358 405
39.83313 46.82203 198.05695 402
36.40695 47.73159 200.86658 399
32.87882 48.64262 203.74040 397
29.17458 49.60696 206.76315 394
24.59307 50.85769 209.84535 269
81.44428 34.94233 178.05017 435
77.61096 35.91364 179.54248 312
63.41031 39.55599 178.68373 429
60.84755 40.21590 180.91524 426
58.24791 40.89399 183.19325 424
55.58230 41.59671 185.49500 422
52.81845 42.28298 187.92860 420
49.93916 43.02448 190.34599 410
46.86716 43.81222 192.88304 408
43.71332 44.61652 195.47368 405
40.38939 45.48951 198.16605 403
36.98782 46.35724 200.95183 400
33.46797 47.24912 203.82753 397
29.83638 48.22125 206.79839 395
25.69810 49.23819 209.85423 355
-188.64381 104.39104 209.53468 294
81.71356 33.94034 178.17537 436
77.40606 35.02155 179.56334 312
63.74302 38.44855 178.83891 429
61.22395 39.07244 181.05145 427
58.58964 39.74680 183.29152 425
55.94930 40.42861 185.64761 423
53.21837 41.11232 188.02036 420
50.38748 41.82196 190.47688 418
47.39146 42.54655 192.97881 408
44.21901 43.36431 195.57811 406
40.97860 44.18716 198.23087 403
37.60186 45.00734 201.00620 401
34.12614 45.89585 203.88821 398
30.48517 46.80789 206.83939 395
26.43221 47.82846 209.93825 356
-186.77432 101.20206 209.58658 485
81.95418 32.97514 178.28510 437
77.17497 34.17218 179.57372 312
64.06048 37.34903 178.94862 430
61.54733 37.97632 181.16876 428
58.99482 38.61364 183.44975 426
56.31553 39.25633 185.72519 423
53.60565 39.90498 188.13202 421
50.81697 40.59470 190.58487 419
47.91310 41.33010 193.10342 409
44.76887 42.07583 195.69624 407
41.50666 42.83792 198.32973 404
38.16848 43.66278 201.07074 401
34.71206 44.52506 203.93352 399
31.15195 45.41658 206.87831 396
27.16373 46.39628 209.97157 356
-187.14470 98.59477 209.56377 484
82.21620 32.01720 178.42157 437
76.97597 33.28656 179.57307 312
64.41492 36.25642 179.09796 431
61.90688 36.87595 181.30304 428
59.33396 37.47018 183.54875 426
56.68936 38.08081 185.84517 424
54.00133 38.74950 188.25313 422
51.23562 39.37819 190.67775 419
48.35590 40.09133 193.16704 417
45.26623 40.82801 195.75537 407
42.05415 41.57523 198.39841 405
38.77606 42.33151 201.14304 402
35.33402 43.18633 204.01886 400
31.78444 44.01437 206.94537 397
27.86883 44.96378 209.98051 357
-187.65747 96.08324 209.57065 485
82.43958 31.07378 178.56241 457
76.77508 32.40784 179.56808 312
64.72184 35.15697 179.21349 431
62.23545 35.76735 181.41266 429
59.70337 36.35242 183.65616 427
57.07180 36.94939 185.98273 425
54.38906 37.55597 188.34509 422
51.62963 38.22198 190.78354 420
48.78743 38.86653 193.25969 417
45.83005 39.56618 195.86348 408
42.63839 40.30716 198.52238 405
39.33570 41.03154 201.21143 403
35.92360 41.84282 204.03897 400
32.40028 42.66882 206.98203 398
28.57216 43.53911 210.01854 358
-188.11237 93.54206 209.62418 485
-190.95180 94.18630 216.44627 295
82.47583 30.17405 178.62112 457
76.58421 31.50618 179.57146 312
65.06390 34.10255 179.36536 432
62.59713 34.66637 181.55090 430
60.07218 35.23810 183.78157 428
57.48294 35.78834 186.08101 425
54.79414 36.39122 188.45634 423
52.04937 37.04044 190.86032 420
49.22038 37.66509 193.38490 418
46.33049 38.29725 195.96611 416
43.18629 39.01730 198.59575 406
39.88613 39.76079 201.29678 404
36.53201 40.50409 204.09003 401
33.02965 41.28373 207.01839 398
29.25148 42.16206 210.06494 361
-184.05588 90.01054 216.49680 296
82.51972 29.29436 178.67307 458
76.42337 30.63812 179.58510 312
65.42491 33.03370 179.48653 433
62.95226 33.56283 181.67126 430
60.43920 34.10057 183.89342 428
57.85519 34.65062 186.18967 426
55.18162 35.24878 188.56592 424
52.44453 35.85782 190.96545 421
49.63494 36.44099 193.48050 419
46.77093 37.09842 196.01842 416
43.69489 37.77429 198.63939 407
40.45145 38.46201 201.36993 404
37.09674 39.22235 204.14711 402
33.61214 39.94970 207.06171 399
29.93533 40.75108 210.09755 361
-182.86172 87.22116 216.40553 438
82.54635 28.38399 178.71729 458
76.22992 29.75380 179.57611 312
65.73370 31.96145 179.62556 433
63.27695 32.45418 181.81155 431
60.78101 33.02021 184.01680 429
58.19374 33.56655 186.29831 427
55.56454 34.11033 188.64935 424
52.86045 34.70321 191.08136 422
50.06722 35.25854 193.52567 419
47.18326 35.86786 196.07774 417
44.25192 36.48602 198.74413 408
41.00076 37.18134 201.43430 405
37.67878 37.87267 204.21434 402
34.25100 38.60936 207.13098 400
30.59773 39.38298 210.12068 362
-182.94936 84.59352 216.39677 439
82.60835 27.50851 178.80183 458
76.03300 28.86603 179.56827 312
66.08164 30.91457 179.75360 434
63.64457 31.40210 181.93401 432
61.12936 31.92897 184.13478 429
58.57041 32.43146 186.39441 427
55.95754 32.96620 188.73952 425
53.28101 33.50706 191.16269 422
50.48726 34.10918 193.63007 420
47.66056 34.66551 196.20445 418
44.70402 35.28880 198.79652 415
41.54790 35.95017 201.48137 406
38.27368 36.58307 204.27055 403
34.84660 37.30366 207.14658 400
31.27476 38.03964 210.12141 362
-183.00549 82.09530 216.42995 424
82.65725 26.61713 178.86739 459
75.86327 27.96537 179.57877 312
66.41600 29.83880 179.84744 434
63.99354 30.33296 182.04338 432
61.51413 30.82265 184.26501 430
58.97089 31.33150 186.51801 428
56.36544 31.83013 188.83717 425
53.65526 32.36502 191.24535 423
50.90792 32.94485 193.70590 421
48.05817 33.47891 196.23700 418
45.15421 34.09096 198.89009 416
42.12584 34.67638 201.54269 406
38.86163 35.32035 204.30695 404
35.44113 36.00598 207.21696 401
31.92461 36.68167 210.18011 398
-182.99918 79.50423 216.50366 424
-190.44119 80.93626 223.26244 323
82.69110 25.72269 178.92249 459
75.69591 27.07869 179.58675 312
66.53657 28.83774 179.93747 455
64.27669 29.26842 182.15273 452
61.83001 29.75605 184.35739 431
59.32668 30.22443 186.63152 428
56.72361 30.72826 188.94545 426
54.07753 31.23522 191.35843 424
51.33357 31.75126 193.80753 421
48.51064 32.29715 196.35324 419
45.59859 32.85761 198.93912 416
42.63831 33.45928 201.60698 414
39.42682 34.03670 204.37213 404
36.06001 34.70554 207.24301 402
32.52304 35.36218 210.19070 399
-183.02956 76.92770 216.43356 424
-187.83603 77.75735 223.28941 322
82.72318 24.82454 178.97762 459
75.53309 26.18432 179.58073 312
66.60044 27.82235 180.01878 455
64.34033 28.28230 182.21902 453
62.05413 28.71032 184.43517 450
59.68947 29.12732 186.74945 429
57.13060 29.60007 189.03288 427
54.48569 30.10740 191.45837 424
51.73574 30.62785 193.87857 422
48.95543 31.15234 196.40747 419
46.04279 31.68973 199.00484 417
43.07003 32.24231 201.69119 414
39.96296 32.82089 204.43584 405
36.64571 33.42056 207.28009 402
33.13655 34.08333 210.23651 400
-183.02107 74.38675 216.40739 424
-185.28802 74.73143 223.14421 322
82.78919 23.94260 179.03271 460
75.40428 25.30404 179.58197 312
66.65311 26.86090 180.05640 455
64.39346 27.27193 182.24677 453
62.12634 27.67335 184.49631 451
59.80381 28.07396 186.75987 448
57.41673 28.50885 189.14722 446
54.85799 28.95706 191.50658 425
52.15241 29.46826 193.96257 422
49.38524 29.94756 196.46088 420
46.49199 30.46492 199.07104 417
43.56303 31.03776 201.71948 415
40.48932 31.55251 204.48236 412
37.23130 32.17472 207.33865 403
33.79286 32.79581 210.25325 400
-183.10555 71.77074 216.46123 425
-182.75714 71.68171 223.17964 323
82.82108 23.09070 179.06917 460
75.22625 24.39772 179.58131 312
66.69493 25.85666 180.08980 455
64.48392 26.24776 182.30034 453
62.18600 26.67682 184.55806 451
59.85556 27.07774 186.83113 449
57.46267 27.47680 189.17595 446
54.99819 27.92015 191.56937 444
52.50352 28.33768 194.04134 441
49.79125 28.82250 196.53911 421
46.96001 29.30679 199.13086 418
44.02798 29.79280 201.77844 416
40.96692 30.35244 204.52892 413
37.78069 30.91378 207.36812 404
34.40800 31.50654 210.27322 401
-181.84642 69.00102 223.11252 361
82.86411 22.18726 179.10944 460
68.94873 24.53938 178.03458 458
66.75681 24.91413 180.16806 456
64.54681 25.25787 182.33409 454
62.27575 25.64973 184.56342 451
59.92041 26.05965 186.86507 449
57.55352 26.44428 189.19888 447
55.10696 26.85334 191.61560 444
52.60471 27.27242 194.05780 442
50.01567 27.70230 196.58751 439
47.37634 28.12270 199.17648 437
44.48501 28.61687 201.84961 416
41.46260 29.10313 204.59378 414
38.36456 29.64706 207.38077 411
34.96646 30.21817 210.29883 402
-181.19562 66.34447 223.09349 361
82.94110 21.30614 179.16052 461
69.01467 23.57955 178.08894 458
66.83720 23.92202 180.22186 456
64.61346 24.28893 182.39003 454
62.32299 24.66011 184.64949 452
59.98566 25.03240 186.89256 449
57.62895 25.38666 189.23163 447
55.17291 25.79506 191.65508 444
52.69514 26.19745 194.12682 442
50.10296 26.62612 196.60483 439
47.47181 27.02868 199.24001 437
44.77463 27.45368 201.86673 434
41.95433 27.94436 204.60573 414
38.83740 28.43335 207.41214 411
35.58136 28.96895 210.35342 402
-180.57231 63.70665 223.06105 361
82.96919 20.45664 179.22551 461
69.05846 22.60519 178.12187 458
66.87463 22.93465 180.24501 456
64.67560 23.28552 182.42812 454
62.37289 23.65068 184.66333 452
60.08743 23.99500 186.96774 450
57.69646 24.34393 189.27901 447
55.24415 24.74823 191.67651 445
52.78126 25.13165 194.13924 442
50.21436 25.54187 196.63669 440
47.56193 25.94620 199.22850 437
44.89126 26.34634 201.92157 435
42.09206 26.79303 204.64456 432
39.23931 27.21672 207.47440 429
36.18509 27.69522 210.34959 409
-180.00500 61.13296 223.12721 361
83.02087 19.57116 179.28644 461
69.11749 21.63750 178.16226 459
66.95416 21.96223 180.30908 457
64.74380 22.28210 182.46855 454
62.43805 22.62417 184.72220 452
60.12279 22.98061 186.97977 450
57.75312 23.33598 189.34593 447
55.33528 23.69266 191.73512 445
52.85374 24.07881 194.17238 443
50.28976 24.42685 196.68964 440
47.68572 24.85030 199.25998 437
44.94757 25.24602 201.90501 435
42.20487 25.64432 204.64426 432
39.35118 26.09005 207.47166 429
36.38101 26.50994 210.36545 427
-179.42874 58.48436 223.03163 383
83.08224 18.71124 179.31796 461
69.14909 20.70643 178.22688 459
66.99886 20.99609 180.36955 457
64.80729 21.33279 182.54817 455
62.54661 21.61186 184.75528 452
60.19495 21.95455 187.04288 450
57.85154 22.28728 189.34946 448
55.40547 22.64824 191.76462 445
52.93424 23.01416 194.20308 443
50.39575 23.34058 196.69629 440
47.74597 23.71202 199.30162 438
45.08128 24.09693 201.92570 435
42.31791 24.50630 204.65634 432
39.43202 24.90609 207.49095 430
36.52597 25.32379 210.36810 427
-49542.16406 7068.22363 -607.38702 1000
-179.41444 56.04481 223.10065 383
83.13689 17.85713 179.38348 462
69.21775 19.74413 178.24419 459
67.05267 20.03813 180.39758 457
64.84503 20.33855 182.55179 455
62.61397 20.61445 184.80408 453
60.28042 20.94515 187.05943 450
57.92243 21.28772 189.42198 448
55.52126 21.59530 191.80240 446
53.01033 21.95332 194.22105 443
50.45647 22.29729 196.72026 441
47.87727 22.63396 199.30412 438
45.19050 23.02728 201.94432 435
42.40920 23.37341 204.71147 433
39.60190 23.78229 207.51749 430
36.65050 24.15965 210.40903 428
-179.44862 53.47416 223.04517 383
83.19175 16.98760 179.42793 462
69.27743 18.78745 178.29419 459
67.11509 19.06894 180.46138 457
64.91154 19.35339 182.60788 455
62.67038 19.65023 184.84042 453
60.35125 19.92233 187.11198 451
57.98888 20.24996 189.42764 448
55.60479 20.57833 191.80528 446
53.13186 20.85903 194.25368 443
50.57676 21.20046 196.77444 441
47.95404 21.55408 199.33687 438
45.29700 21.89763 202.00754 436
42.51502 22.25881 204.69016 433
39.73205 22.60897 207.49916 431
36.78620 22.98461 210.40474 428
-179.42067 50.98906 223.09590 383
83.22304 16.13277 179.46088 462
69.34729 17.84454 178.37073 460
67.19996 18.10464 180.50078 458
64.98727 18.38244 182.64197 455
62.73457 18.62525 184.87726 453
60.42109 18.93782 187.15999 451
58.10179 19.20188 189.48616 448
55.65644 19.51364 191.85928 446
53.21810 19.81263 194.28711 444
50.65422 20.11468 196.79556 441
48.07580 20.47421 199.35155 439
45.40037 20.81223 201.98268 436
42.63297 21.11648 204.74512 434
39.83205 21.48394 207.50679 431
36.93897 21.81292 210.38667 428
-179.37531 48.49402 223.07697 383
83.30623 15.27139 179.50897 462
69.41609 16.89883 178.41391 460
67.26912 17.13565 180.50557 458
65.06486 17.40910 182.70898 456
62.80721 17.63580 184.90710 453
60.50222 17.92885 187.17171 451
58.17810 18.21976 189.48743 449
55.76681 18.46771 191.87639 446
53.27256 18.76500 194.33492 444
50.77258 19.05096 196.81082 441
48.15823 19.39180 199.38353 439
45.47885 19.67422 202.04726 436
42.75532 20.02143 204.76025 434
39.97164 20.34020 207.54294 431
37.06174 20.67591 210.40421 428
-179.38321 46.01700 222.99022 383
83.25758 14.42517 179.53047 316
69.48141 15.94286 178.45642 460
67.30125 16.19675 180.56850 458
65.12357 16.43594 182.71503 456
62.89553 16.65382 184.93576 454
60.57047 16.90234 187.20837 451
58.24763 17.17726 189.55383 449
55.83268 17.44820 191.92244 447
53.38202 17.71444 194.33031 444
50.82856 17.99433 196.85608 442
48.25719 18.28772 199.40253 439
45.60735 18.58848 202.05466 437
42.90980 18.89661 204.77739 434
40.07215 19.20658 207.56081 431
37.21985 19.50335 210.42519 429
-179.32101 43.58047 222.99718 383
83.19949 13.56655 179.50719 316
69.52538 15.01175 178.46368 460
67.40333 15.21186 180.59372 458
65.17383 15.44594 182.76151 456
62.95323 15.68171 185.00706 454
60.65802 15.93269 187.26506 452
58.34167 16.17689 189.58171 449
55.94240 16.40551 191.92659 447
53.48386 16.68652 194.35982 444
50.96107 16.95984 196.85287 442
48.36049 17.21397 199.44424 440
45.73687 17.49201 202.08362 437
43.00286 17.77098 204.75287 434
40.22268 18.05683 207.55627 432
37.36669 18.34406 210.41954 429
-179.36456 41.03286 223.06480 384
83.09058 12.71726 179.50175 316
69.59721 14.04990 178.50371 461
67.43753 14.25147 180.64053 458
65.26569 14.47675 182.78883 456
63.02840 14.71671 185.02834 454
60.76375 14.91096 187.28973 452
58.38853 15.13611 189.58142 449
56.00776 15.39722 191.97403 447
53.56383 15.64246 194.37787 445
51.05577 15.87555 196.87883 442
48.47243 16.14762 199.45396 440
45.86809 16.40133 202.07411 437
43.14699 16.67021 204.78661 435
40.35784 16.91800 207.54857 432
37.49693 17.19470 210.45981 429
-179.38542 38.60852 222.98697 384
83.03609 11.88367 179.50964 316
69.67407 13.09161 178.57030 461
67.49892 13.32019 180.69768 459
65.34766 13.49390 182.85777 457
63.08876 13.70790 185.05502 454
60.83846 13.93109 187.32025 452
58.50569 14.12777 189.61432 450
56.09998 14.38504 191.98201 447
53.67286 14.56790 194.43236 445
51.16933 14.81869 196.90506 443
48.58902 15.07886 199.45143 440
45.96401 15.28695 202.11214 437
43.26342 15.56885 204.78189 435
40.50020 15.78580 207.56383 432
37.59142 16.08171 210.45090 429
-179.29083 36.11026 223.00618 384
82.95952 11.01926 179.51868 316
69.71719 12.18718 178.58441 461
67.58718 12.33870 180.71350 459
65.39761 12.56273 182.87993 457
63.16884 12.72874 185.08682 454
60.88800 12.92981 187.34477 452
58.56392 13.11924 189.67154 450
56.17023 13.32325 192.03445 448
53.76628 13.55070 194.44051 445
51.29459 13.75798 196.93854 443
48.69733 13.98407 199.50731 440
46.10888 14.22864 202.13934 438
43.39668 14.45934 204.80650 435
40.62177 14.70469 207.60324 432
37.75441 14.90888 210.44125 430
-179.36159 33.58183 223.04085 384
82.87828 10.17122 179.51801 316
69.78495 11.24950 178.61563 461
67.64581 11.38673 180.76189 459
65.49776 11.56101 182.89124 457
63.24129 11.77874 185.09543 455
60.96990 11.95475 187.38049 452
58.65596 12.12724 189.68167 450
56.30650 12.32226 192.05972 448
53.86946 12.50870 194.48695 446
51.40081 12.68373 196.98077 443
48.85340 12.90501 199.53088 441
46.21118 13.09863 202.11707 438
43.53779 13.33004 204.84937 435
40.72066 13.55010 207.62283 433
37.86489 13.77950 210.44832 430
-179.37085 31.13000 223.05336 384
82.83993 9.32839 179.51834 316
69.85871 10.29638 178.64937 461
67.73350 10.46244 180.76726 459
65.57517 10.62782 182.94305 457
63.33820 10.76020 185.16168 455
61.06841 10.96825 187.39571 453
58.74137 11.12045 189.69640 451
56.39673 11.28762 192.08617 448
53.96173 11.46992 194.50711 446
51.48722 11.65539 196.99841 443
48.95430 11.84557 199.51903 441
46.32777 12.03795 202.12697 438
43.61557 12.24354 204.84946 435
40.86265 12.44538 207.63878 433
38.02974 12.66578 210.49121 430
-179.30098 28.64928 222.99747 384
-181.74222 28.89434 269.55276 486
82.76254 8.49501 179.52933 316
69.94571 9.36754 178.71524 462
67.79189 9.50659 180.82639 460
65.64924 9.64357 182.97189 457
63.41844 9.81460 185.19240 455
61.13994 9.94401 187.43332 453
58.85008 10.13420 189.71910 451
56.47974 10.27371 192.11537 448
54.08957 10.45217 194.52573 446
51.57901 10.62321 197.02295 443
49.07064 10.79227 199.54121 441
46.42425 10.97233 202.18726 438
43.75955 11.14966 204.83684 436
40.98843 11.33846 207.63121 433
38.13691 11.53910 210.49556 430
-179.36008 26.21669 222.99095 384
-181.75189 26.40927 269.55472 486
82.73046 7.63909 179.51978 316
70.01249 8.41374 178.73778 462
67.86364 8.56961 180.84871 460
65.71339 8.71568 182.99289 458
63.51056 8.82889 185.19720 456
61.25636 8.95730 187.47475 453
58.94160 9.09753 189.76477 451
56.59842 9.27801 192.13582 449
54.17612 9.39030 194.52892 446
51.71344 9.57873 197.04118 444
49.17728 9.69668 199.58356 441
46.55753 9.86875 202.19589 439
43.88980 10.02123 204.88557 436
41.12268 10.22501 207.63406 433
38.28107 10.40424 210.49966 430
-179.27165 23.76986 222.97876 384
-181.75621 23.91124 269.42984 486
-186.76004 24.16543 276.97891 497
-186.77309 24.21942 283.83047 496
-186.74034 24.21724 290.64017 495
82.66921 6.80746 179.50494 316
70.08789 7.50396 178.77708 462
67.94282 7.62644 180.89301 460
65.78409 7.75274 183.04141 458
63.59465 7.84770 185.23547 456
61.34350 7.99865 187.49736 454
59.04493 8.10993 189.80099 451
56.69646 8.23664 192.16806 449
54.29175 8.38224 194.56320 446
51.81570 8.49552 197.02502 444
49.26988 8.65854 199.58263 441
46.66645 8.80706 202.21466 439
43.99092 8.95067 204.87900 436
41.26254 9.11368 207.62268 433
38.40879 9.24511 210.49251 431
-179.32379 21.26024 222.97153 384
-181.80986 21.38877 269.45093 486
82.64386 5.95657 179.53574 316
70.13690 6.57056 178.79228 462
68.03855 6.66749 180.88615 460
65.87623 6.76349 183.06023 458
63.69004 6.90593 185.25436 456
61.43548 7.00373 187.53174 454
59.12925 7.11520 189.83423 451
56.79810 7.24550 192.14841 449
54.37892 7.34903 194.58492 447
51.93602 7.48462 197.06067 444
49.38530 7.58444 199.61385 442
46.81543 7.69949 202.21539 439
44.15609 7.87607 204.90762 436
41.38240 7.96722 207.67012 434
38.57983 8.14035 210.51570 431
-179.31401 18.88383 222.96240 384
-181.79161 18.93876 269.46606 486
82.61253 5.10781 179.52434 316
70.24016 5.62601 178.83083 462
68.09032 5.73259 180.93953 461
65.97473 5.83263 183.08791 458
63.78313 5.90263 185.28458 456
61.51884 6.01713 187.54315 454
59.26537 6.09803 189.83540 452
56.91508 6.22422 192.18372 449
54.51733 6.30204 194.60565 447
52.05146 6.40995 197.08778 444
49.51936 6.52765 199.63475 442
46.94289 6.64936 202.20732 439
44.24718 6.76767 204.88428 436
41.51138 6.88498 207.68181 434
38.70515 6.98347 210.48288 431
-179.28041 16.34907 223.04825 384
-181.74637 16.45178 269.37738 487
82.56327 4.26594 179.53729 316
70.30148 4.70128 178.83377 463
68.20604 4.79020 180.94258 461
66.05726 4.89578 183.11301 459
63.87611 4.96252 185.33310 456
61.61477 5.03373 187.56241 454
59.33547 5.12012 189.85434 452
57.00475 5.19961 192.21968 449
54.63558 5.27940 194.60916 447
52.15167 5.37307 197.09752 444
49.65651 5.46195 199.64789 442
47.05006 5.56758 202.23515 439
44.37539 5.67681 204.90968 437
41.65737 5.76168 207.65503 434
38.80913 5.87620 210.48560 431
-179.31648 13.92828 222.93634 384
-181.77638 13.99774 269.46487 487
82.55140 3.42551 179.50653 316
70.39279 3.78569 178.88692 463
68.26960 3.85419 180.97290 461
66.16382 3.90554 183.13693 459
63.95699 3.97790 185.31784 457
61.71520 4.05025 187.59781 454
59.44064 4.13218 189.86873 452
57.12348 4.20881 192.21947 450
54.74430 4.29177 194.65424 447
52.25978 4.37122 197.12651 445
49.75046 4.42719 199.64958 442
47.16600 4.52078 202.23087 439
44.52416 4.60533 204.92900 437
41.77821 4.65832 207.67963 434
38.96507 4.76720 210.49513 431
-179.24152 11.44204 222.94612 384
-181.76662 11.51729 269.44061 487
82.52434 2.56438 179.51709 316
70.47936 2.88950 178.89789 463
68.38216 2.91627 181.01424 461
66.22562 2.97574 183.16685 459
64.08266 3.04606 185.37840 457
61.81685 3.08407 187.60728 454
59.55148 3.13054 189.90585 452
57.24113 3.18014 192.23428 450
54.83816 3.27028 194.64827 447
52.39063 3.29400 197.11768 445
49.84838 3.36366 199.66322 442
47.27600 3.43424 202.28105 440
44.61235 3.49190 204.93683 437
41.92078 3.59277 207.67397 434
39.09849 3.62593 210.50473 432
-179.31331 8.98859 222.96346 384
-181.82983 9.06420 269.34656 487
82.49673 1.71297 179.53712 316
70.54926 1.93704 178.94177 463
68.45509 1.97749 181.04027 461
66.31854 2.01592 183.18811 459
64.14291 2.06217 185.38615 457
61.94670 2.12214 187.61504 455
59.67439 2.16687 189.93414 452
57.34686 2.18356 192.27908 450
