# .PCD v.7 - Point Cloud Data file format
VERSION .7
FIELDS x y z rgb
SIZE 4 4 4 4
TYPE F F F U
COUNT 1 1 1 1
WIDTH 1414
HEIGHT 1
VIEWPOINT 6658.998535 283.774994 142.406158 -0.625630 -0.098537 -0.079652 0.769761
POINTS 1414
DATA ascii
-628.19647 972.27368 152.93701 280
90.46788 147.54471 163.50708 424
88.84000 149.34346 166.36574 309
-589.24170 916.30902 75.83241 444
-584.78479 911.53705 96.59980 450
-581.10736 907.27820 117.17370 474
-594.97150 922.81323 135.57903 353
-632.92255 965.75055 153.15729 262
89.34057 147.02763 163.37630 307
87.94245 148.52786 166.35147 309
-597.90460 914.85510 75.28427 443
-593.63513 909.80750 96.14829 449
-589.28955 905.40204 116.60625 457
-594.50531 911.24469 136.35706 377
-641.22314 963.13776 152.95338 253
88.51696 146.10934 163.45509 307
87.08780 147.72830 166.36250 309
-606.70648 913.36450 74.51243 443
-599.54279 905.21228 96.08575 473
-597.87964 903.69116 116.29517 457
-599.50146 905.28241 136.38718 477
-642.74341 953.02515 153.34053 382
87.75851 145.18387 163.46533 307
85.41562 147.70639 166.06464 422
-615.62915 912.07330 73.93188 443
-610.25623 905.83771 95.18984 443
-606.71686 902.05737 115.88210 456
-606.95496 902.55841 136.15819 465
-639.94757 938.62653 153.92688 383
-41428.66016 45394.57031 15644.53320 1000
86.96076 144.29163 163.50056 307
83.69962 147.77496 165.73048 421
-624.59253 910.40936 73.47422 443
-619.05267 904.65076 94.90038 441
-615.38367 900.47681 115.65025 455
-615.79181 900.95099 135.95731 460
-637.48639 924.51587 154.57893 385
86.19099 143.34810 163.52298 307
81.97514 147.84546 165.44598 420
74.09209 156.26950 166.28699 305
-633.64172 908.90088 72.90291 442
-628.19586 903.18201 94.28585 442
-624.48859 898.83575 115.07452 454
-624.54889 899.45447 135.59038 459
-639.78601 915.26324 154.74492 456
85.45115 142.42882 163.58397 307
80.20489 147.90924 165.11409 419
73.12318 155.36481 166.28116 305
-642.76245 907.43994 72.19110 441
-637.09338 901.55627 93.94801 441
-633.38629 897.34827 114.92698 446
-633.65869 897.56354 135.16795 459
-838.21350 1112.48792 141.01306 458
84.67456 141.51804 163.57921 307
78.44619 148.02370 164.77748 417
72.23143 154.46449 166.25424 305
-652.16223 906.07703 71.63838 440
-646.42810 900.09229 93.20031 439
-639.65240 893.42700 114.70029 457
-642.52930 895.92133 134.94701 458
-849.09509 1110.47656 140.81503 457
104.49061 119.47375 171.50027 316
76.65850 148.07471 164.47903 416
71.28165 153.54013 166.26396 305
-661.16064 904.40771 71.14438 439
-655.37976 898.54004 92.79860 439
-647.64557 890.43854 114.47383 457
-651.59595 894.47107 134.66461 457
-860.40137 1108.77209 140.27061 456
103.81143 118.77637 171.52399 316
74.79564 148.14746 164.10379 415
70.34876 152.60405 166.25937 305
-670.57147 902.75195 70.40082 438
-664.90735 896.87646 92.15356 438
-656.98901 888.75507 113.86684 376
-660.71863 892.81830 134.23380 456
-872.06885 1106.73083 140.14221 455
103.11949 118.01466 171.54327 316
72.96762 148.23369 163.78021 414
69.46142 151.72482 166.28426 305
-680.35278 901.56714 69.86237 435
-673.95758 895.30798 91.80814 438
-666.24323 887.69379 113.29617 375
-669.74078 891.00995 133.77621 455
-883.32208 1104.53796 139.64456 456
102.45071 117.29253 171.53737 316
71.09592 148.26566 163.41324 413
68.53388 150.80188 166.26071 305
-689.93872 899.94537 69.10667 432
-683.50818 893.68640 90.94123 437
-675.83868 886.07123 113.17756 454
-679.07941 889.41809 133.28700 454
-894.65033 1102.36743 139.51830 455
101.77158 116.52451 171.56348 316
69.91325 147.60864 163.31268 303
67.67673 149.84615 166.23405 305
-699.78748 898.71808 68.33419 431
-693.14349 892.22772 90.69348 436
-684.87854 884.34839 112.63280 453
-688.26904 887.60681 132.93472 454
-695.71210 894.95654 153.32483 460
-3443.35864 3576.05615 975.91815 1000
101.15027 115.76009 171.53999 316
69.13510 146.60315 163.38170 304
66.75296 148.88579 166.28264 305
-709.71362 897.41455 67.54654 430
-702.51288 890.59570 90.13589 435
-694.72119 882.76245 112.12419 386
-697.60333 885.72461 132.64595 453
-706.52362 894.23389 153.23116 337
100.44682 115.02544 171.56642 316
68.42447 145.53191 163.38501 304
65.25953 148.51759 166.08461 410
-712.08636 888.85919 89.45112 435
-704.48108 881.37372 111.59680 313
-707.08856 883.90015 132.54610 452
-912.10522 1079.23950 139.43123 474
99.79758 114.24075 171.58282 316
67.64445 144.50896 163.43423 304
63.29765 148.56136 165.72838 409
-721.96045 887.07324 88.65297 434
-714.51581 880.48480 110.97230 312
-716.62866 882.41364 132.16116 451
-914.55377 1068.34326 139.82930 397
99.16452 113.47487 171.57584 316
66.89484 143.46626 163.43661 304
61.26468 148.64801 165.33023 408
51.28277 157.97794 166.14413 301
-731.64484 885.43744 88.25721 433
-725.15045 879.21899 110.43697 312
-726.24182 880.33533 131.68034 450
-912.01129 1052.65588 140.30730 398
-963.38507 1100.58887 163.55098 451
98.48469 112.70857 171.57434 316
90.07861 120.44507 171.63385 312
59.22793 148.74283 164.97160 407
50.29535 156.96001 166.14796 301
-741.79071 883.73602 87.61311 432
-734.81140 877.58319 109.94658 434
-736.33496 878.70288 131.20525 449
-901.95923 1030.67517 141.37753 392
-975.92926 1098.58813 163.15366 450
97.88406 111.95689 171.57019 316
89.39587 119.59808 171.63077 312
57.16269 148.80490 164.61568 406
49.35413 155.88344 166.13052 301
-751.75549 882.20593 87.07938 408
-744.87622 875.90131 109.60257 433
-746.02783 876.70691 130.67059 448
-902.97321 1019.12189 142.04631 475
-988.06885 1096.42957 162.77367 449
97.23267 111.13811 171.59923 316
88.71385 118.77126 171.65424 312
55.06709 148.87927 164.22902 405
48.43522 154.82324 166.15349 301
-762.29767 880.81348 86.37168 407
-754.85870 874.08484 109.08328 432
-755.89075 874.85706 130.26070 447
-913.73694 1016.53619 141.48051 447
-1000.25726 1093.75684 162.80487 448
96.58628 110.37386 171.57872 316
88.03049 117.94203 171.66806 312
52.89317 149.01608 163.85521 404
47.56275 153.73094 166.16420 301
-773.24695 879.39093 85.64813 406
-764.85028 872.11676 108.31412 431
-766.11877 873.26367 130.15022 446
-925.86682 1014.83795 141.19635 459
-1012.79584 1091.22852 162.47046 447
95.95198 109.60350 171.61409 316
87.37118 117.10191 171.68599 312
50.74845 149.09460 163.40428 402
46.65025 152.68732 166.16145 301
-784.12732 878.09436 84.83858 405
-775.17407 870.56958 107.93119 430
-776.00293 871.08807 129.67592 445
-785.00201 879.38354 150.69585 435
-1024.46533 1088.55042 162.48355 455
95.35378 108.80896 171.58621 316
86.71565 116.24503 171.66277 312
49.20570 148.60620 163.21442 300
45.71353 151.56114 166.17427 301
-795.14996 876.71448 84.21655 405
-785.59198 868.67468 107.34673 429
-786.43073 869.31482 129.13052 444
-1027.41724 1077.24902 135.16312 464
-1035.91638 1084.82788 162.13120 466
94.74529 107.98352 171.60674 316
86.02691 115.39241 171.67574 312
-39.23217 33.42894 -12.02126 300
44.85118 150.49640 166.16632 301
-2185.48535 2050.90234 -359.24271 1000
-806.05261 875.45941 83.24415 404
-796.00354 866.93451 106.81975 428
-796.66339 867.30554 128.68498 443
-888.72412 946.01862 144.57561 367
-1047.18237 1080.85742 161.74696 469
94.09841 107.19539 171.63084 316
85.39853 114.55996 171.69009 312
47.73103 146.21808 163.28685 300
43.90702 149.43285 166.13474 301
-817.49347 874.36853 82.56763 403
-806.26971 864.88501 106.04411 427
-807.10748 865.56799 128.31743 442
-887.38165 932.97797 145.30380 497
-1057.22974 1076.33521 161.81268 468
93.51407 106.40211 171.63458 316
84.70529 113.69915 171.66484 312
74.78250 121.93423 171.76175 308
41.71629 149.42467 165.79204 398
-828.76575 873.06659 81.76283 402
-816.96423 863.06891 105.69194 426
-817.61505 863.32703 127.91243 441
-889.52643 923.21326 145.24324 409
-1064.03271 1068.58459 161.80952 485
92.91357 105.58507 171.60345 316
84.08695 112.82296 171.70432 312
74.06068 121.05445 171.76512 308
39.40904 149.50284 165.34795 397
-840.29224 871.37018 81.11829 401
-827.88849 861.21448 105.12405 425
-828.24896 861.63770 127.52013 440
-887.09760 909.96173 145.99347 410
-1069.71814 1059.77197 161.71204 484
92.28682 104.77870 171.64769 316
83.45437 111.94072 171.69841 312
73.37788 120.09371 171.75703 308
37.00805 149.59761 164.95103 396
-851.94165 870.02307 80.05791 400
-838.57098 859.31219 104.48245 425
-838.79456 859.44324 126.73148 439
-884.76764 896.85925 146.50371 411
-1074.27124 1050.44287 161.63866 389
91.68972 103.98154 171.61020 316
82.78658 111.10519 171.70940 312
72.69302 119.15959 171.78702 308
34.54438 149.69778 164.52885 395
24.36991 157.91028 166.04906 297
-863.88593 868.81067 79.52389 399
-849.99786 857.60077 104.00367 401
-849.88440 857.65802 126.44963 439
-879.36890 881.10754 147.23489 369
-1071.91980 1035.25549 162.14322 395
91.08987 103.12876 171.64514 316
82.17780 110.23774 171.72536 312
72.04438 118.26421 171.81735 308
32.05200 149.82460 164.10556 394
23.42557 156.65297 166.00896 297
-875.68274 867.23083 78.57692 398
-861.52948 856.06305 103.25928 401
-860.76935 855.52570 125.84315 438
-883.48499 873.45404 147.03566 465
-1069.28125 1020.30664 162.55763 396
90.50972 102.33938 171.63797 316
81.53672 109.32510 171.73874 312
71.35420 117.31566 171.77821 308
29.61501 149.89886 163.61357 392
22.47187 155.43188 166.01939 297
-887.47223 865.84344 77.90730 387
-872.99835 854.46576 102.54132 405
-871.85297 853.29004 125.49363 436
-877.36469 857.70874 147.86354 434
-1066.27478 1004.84833 162.99490 397
89.95724 101.52770 171.62888 316
80.92587 108.44866 171.69664 312
70.71013 116.32638 171.82768 308
27.00403 150.00584 163.18767 391
21.54696 154.22751 166.04066 297
-899.85193 864.32483 77.00391 386
-884.44073 852.69574 101.87208 404
-882.99200 851.54144 125.09776 435
-888.61694 855.60138 147.71056 433
-1062.28735 989.53748 163.21259 401
-45982.95703 35607.32422 13814.69922 1000
89.37382 100.67789 171.67015 316
80.32526 107.55377 171.71384 312
70.03501 115.40294 171.80986 308
25.94888 148.95061 163.14627 296
20.66164 152.97949 166.04242 295
-912.58826 863.21527 76.04649 385
-896.21033 850.49072 101.30154 403
-894.24506 849.15570 124.38737 434
-900.22516 853.76715 147.28336 432
-1060.27527 975.69531 163.88689 399
88.82084 99.86122 171.65715 316
79.73180 106.66079 171.72267 312
69.35323 114.41794 171.81810 308
57.55869 123.31390 171.92482 304
19.71002 151.70570 166.02654 295
-925.27612 861.65533 75.16932 389
-908.08588 848.71277 100.65841 402
-905.73413 847.11292 124.10436 433
-911.92059 851.84473 146.86586 431
-1057.45544 961.14740 163.80916 400
88.25008 98.99075 171.66539 316
79.10842 105.78274 171.74539 312
68.74313 113.51112 171.81001 308
56.80985 122.30269 171.92928 304
18.79732 150.53886 166.01114 295
-938.21564 860.10754 74.15575 388
-919.78156 846.76923 99.99335 401
-917.50885 845.08618 123.59274 432
-923.74725 849.62531 146.41797 430
-1054.75623 946.86414 164.58119 401
87.67396 98.15573 171.65834 316
78.48459 104.88889 171.76089 312
68.10199 112.54362 171.81522 308
56.14177 121.24096 171.92160 304
16.39644 150.34247 165.63393 389
-950.96643 858.77325 73.26023 387
-931.65991 844.62158 99.19025 400
-929.25964 842.82043 122.77599 431
-934.63580 846.62305 145.92751 259
-938.44995 849.62921 169.31877 305
-46033.79297 33870.62109 6808.78760 1000
87.12205 97.32305 171.67555 316
77.90974 103.98386 171.73727 312
67.44995 111.53876 171.83757 308
55.46585 120.24837 171.93759 304
13.72147 150.42886 165.20358 388
-964.87634 857.68695 72.07246 366
-944.25427 843.03137 98.20488 384
-941.20532 840.52588 122.21536 430
-944.70746 843.34918 145.58424 425
-949.81738 846.83844 169.06032 428
86.57429 96.48308 171.67728 316
77.30618 103.06046 171.76857 312
66.79056 110.60005 171.86252 308
54.76099 119.19308 171.91960 304
10.89691 150.48643 164.73975 387
-978.90417 856.57617 71.26237 358
-957.58813 841.27478 97.70775 383
-952.99231 838.30127 121.71233 429
-956.91107 840.97296 145.25467 424
-962.09882 844.53320 169.01654 427
86.00572 95.64680 171.68005 316
76.73109 102.15804 171.77754 312
66.20255 109.60294 171.84088 308
54.09032 118.13601 171.93874 304
8.07031 150.57967 164.28191 386
-993.95654 856.42102 69.90884 362
-970.84015 840.07703 96.93623 380
-965.65247 836.27557 121.37980 420
-969.54535 839.04407 144.89510 413
-974.25659 842.47058 168.57333 420
85.47590 94.79460 171.66977 316
76.14451 101.26080 171.77090 312
65.54248 108.62048 171.83521 308
53.44733 117.09901 171.97366 304
5.14615 150.64900 163.78313 384
-6.78247 158.92789 165.65742 290
-1010.92572 857.03748 68.56728 341
-984.93616 838.95831 95.69813 371
-978.74060 834.74237 120.64271 419
-982.86688 837.58447 144.17337 393
-988.75464 841.77118 168.35989 396
84.97608 93.92639 171.67651 316
75.59230 100.36225 171.78200 312
64.94313 107.64420 171.83881 308
52.74728 116.02377 171.94908 304
2.22459 150.72906 163.30214 383
-7.72683 157.51402 165.59767 290
-1030.25537 859.13794 66.67387 333
-999.97607 838.37030 94.72594 359
-993.63953 834.03076 119.89378 399
-998.22839 837.05457 143.59184 392
-1004.58307 841.49158 167.68774 389
84.41673 93.08597 171.69925 316
75.00353 99.44547 171.75307 312
64.35741 106.69788 171.83200 308
52.09013 114.96407 171.94957 304
-0.69700 150.72141 162.82541 285
-8.65931 156.07605 165.64198 291
-1050.41321 861.39294 65.14070 328
-1017.58441 839.33527 93.59555 350
-1009.54279 833.64417 118.97620 385
-1015.05487 837.66187 142.86716 378
83.89606 92.23216 171.71596 316
74.47138 98.50190 171.79434 312
63.74067 105.69045 171.88211 308
51.46983 113.90066 171.98067 304
37.21268 123.42187 172.07692 300
-9.54716 154.66132 165.62538 291
-1036.25012 840.78339 92.18076 341
-1026.27795 833.93073 117.83398 380
-1034.37183 839.49432 142.07935 360
83.38432 91.32896 171.70030 316
73.90202 97.56841 171.76633 312
63.16431 104.70074 171.88979 308
50.79686 112.79527 171.98228 304
36.52107 122.23361 172.11766 300
-10.49764 153.27507 165.60860 291
-1057.08411 843.35388 90.53819 334
-1044.74524 835.26428 116.84924 367
-1056.81494 843.08081 141.15172 328
82.84991 90.49323 171.68639 316
73.38335 96.65070 171.80856 312
62.54412 103.68568 171.89397 308
50.15338 111.72592 171.98489 304
35.86388 121.08628 172.09535 300
-11.44938 151.88438 165.59096 291
-1079.73718 846.94678 88.95055 330
-1065.21570 837.27850 115.84604 364
-1235.00415 947.93579 130.78442 496
82.36905 89.58862 171.69769 316
72.83015 95.76273 171.80013 312
61.99844 102.69543 171.85249 308
49.52955 110.68633 171.96716 304
35.13062 119.90444 172.11009 300
-13.39781 151.08269 165.39928 377
-1105.50085 852.24054 86.80672 321
-1085.65002 839.51044 114.63565 353
-1121.35645 862.18079 138.14684 259
81.84346 88.74922 171.70145 316
72.29187 94.81379 171.78197 312
61.39899 101.67523 171.85980 308
48.89757 109.58192 172.00301 304
34.44702 118.73937 172.09698 300
-16.69757 151.19525 164.84654 376
-1134.33875 858.77008 84.91174 314
-1108.70007 842.74573 113.29147 342
-1129.47192 856.06415 137.84105 259
81.37596 87.87472 171.69987 316
71.74198 93.85558 171.77849 312
60.84013 100.68131 171.90628 308
48.32088 108.51654 171.97050 304
33.78682 117.55064 172.11043 300
-20.09397 151.24255 164.33890 375
-1173.50256 871.99561 81.63908 291
-1134.29126 847.39166 111.63322 326
-1161.45532 864.29633 136.13281 294
80.85708 86.95035 171.70197 316
71.21425 92.92735 171.82579 312
60.26498 99.67516 171.87741 308
47.70837 107.44699 171.99434 304
33.12770 116.40944 172.11295 300
-23.58893 151.35562 163.75458 373
-1217.92456 887.25513 77.71042 301
-1157.72302 850.30133 110.24176 263
-1200.71997 876.88605 134.29405 292
80.36325 86.09204 171.70892 316
70.70081 91.95798 171.79759 312
59.70631 98.68051 171.87518 308
47.07832 106.29346 171.98259 304
32.48240 115.18594 172.13293 300
-27.10371 151.39386 163.19568 372
-1190.64551 858.50732 108.23543 313
-1254.13513 897.02582 131.44054 279
79.89384 85.21512 171.75085 316
70.19022 91.01174 171.82825 312
59.15107 97.64947 171.91623 308
46.50260 105.23553 172.03529 304
31.82142 113.97401 172.11162 300
14.68654 124.29855 172.24835 296
-43.80091 159.34889 165.12097 286
-1230.16650 870.59558 105.54038 306
79.41026 84.32935 171.76044 316
69.68203 90.09032 171.82108 312
58.61670 96.62594 171.91222 308
45.90425 104.13477 172.00821 304
31.22708 112.82037 172.10423 300
13.94274 123.02215 172.28513 296
-44.76608 157.73096 165.08495 286
78.95087 83.41949 171.74570 316
69.15038 89.12015 171.81720 312
58.04560 95.60425 171.90469 308
45.35030 103.01440 172.00003 304
30.54815 111.64352 172.14304 300
13.26501 121.67017 172.24854 296
-45.62054 156.03238 165.15320 286
78.49280 82.53337 171.72951 316
68.66217 88.14108 171.82608 312
57.49538 94.59320 171.91093 308
44.74662 101.89983 171.99443 304
29.94103 110.41566 172.12415 300
12.60299 120.39671 172.25659 296
-46.56572 154.36086 165.11327 286
78.03484 81.63414 171.76692 316
68.19606 87.22659 171.81477 312
56.98307 93.52934 171.93471 308
44.17871 100.83942 172.03366 304
29.31556 109.19229 172.11951 300
11.92071 119.09228 172.30226 296
-47.42697 152.75385 165.09283 286
77.56052 80.73592 171.72905 316
67.70316 86.23401 171.84364 312
56.46887 92.53188 171.91013 308
43.60761 99.70500 172.02419 304
31.98133 106.22051 172.88719 271
11.25632 117.76127 172.28696 296
-49.82986 151.88519 164.83484 374
77.13892 79.82876 171.77252 316
67.22748 85.25803 171.84612 312
55.97217 91.49529 171.91449 308
44.10773 98.01475 172.27763 320
38.13943 101.30424 174.44534 319
23.63548 109.30918 175.00810 270
-53.62673 151.79446 164.25325 373
76.66904 78.91859 171.77682 316
66.72823 84.29521 171.86578 312
55.45223 90.41520 171.91679 308
46.57542 95.24438 173.02846 321
40.74166 98.39774 175.16484 320
34.76821 101.63683 177.45946 318
16.52075 111.54483 177.66307 271
76.24445 78.00509 171.75587 316
66.24790 83.32033 171.87030 312
54.96301 89.38046 171.92244 308
48.93458 92.57727 173.78622 322
43.30536 95.62447 175.87526 321
37.47034 98.70981 178.15962 319
27.85484 103.91002 179.87071 273
7.18480 114.96635 180.11818 288
75.81659 77.07906 171.76582 316
65.78003 82.36945 171.84503 312
56.48549 87.26503 172.47908 325
51.24743 90.00256 174.46773 323
45.74585 92.93315 176.51874 322
40.16805 95.86830 178.82327 320
27.65068 102.48380 179.95770 292
6.50707 113.58374 180.13451 288
75.37139 76.18834 171.77400 316
65.32092 81.38651 171.84225 312
58.58782 84.89667 173.14345 327
53.47890 87.53805 175.12050 325
48.14466 90.27522 177.19960 323
42.69262 93.14529 179.45303 321
27.07552 101.23414 179.98526 292
5.89649 112.25755 180.14406 288
74.95579 75.25167 171.79544 316
64.89459 80.41262 171.84238 312
60.36541 82.74647 173.73802 384
55.67727 85.13586 175.78784 326
50.46488 87.79163 177.81143 325
44.04553 91.04729 179.83961 296
26.51517 100.04590 179.99030 292
5.29306 110.84824 180.12749 288
74.56330 74.32334 171.79491 316
64.43128 79.42186 171.87575 312
61.10685 81.09347 174.08276 385
57.76158 82.80309 176.38495 327
52.68960 85.33765 178.42607 326
43.56680 89.91830 179.81326 296
25.94559 98.76665 179.96666 292
2.51721 110.61560 179.81711 292
74.13415 73.39252 171.76062 316
65.11671 77.90055 172.17221 376
61.79272 79.53974 174.37766 386
58.82360 81.03122 176.76122 384
54.88784 82.94392 179.02859 326
43.09650 88.79708 179.85884 296
-6.13516 113.16943 174.15076 290
-6.14885 113.22085 178.45726 290
-22.26649 121.20673 180.36299 284
73.71915 72.49721 171.80534 316
65.82786 76.34142 172.49532 377
62.52877 77.98055 174.68964 387
59.56486 79.40139 177.06284 385
56.50388 80.91060 179.51460 383
42.59160 87.70475 179.83089 296
7.24261 104.92861 176.74420 283
-14.30622 115.48875 177.22414 346
-22.93532 119.72043 180.36081 284
73.32765 71.53790 171.80257 316
66.54995 74.80026 172.81693 378
63.21091 76.42824 174.99695 388
60.27158 77.84499 177.35446 386
57.00698 79.36790 179.69392 300
42.12207 86.55621 179.84012 296
14.15562 99.99443 178.08507 285
-18.48127 115.70680 176.62277 345
-23.65236 118.13977 180.39595 284
72.92655 70.62823 171.79654 316
67.27916 73.32619 173.14359 379
63.93283 74.89172 175.29462 389
61.03811 76.26897 177.63676 387
56.58156 78.34267 179.71088 300
41.63007 85.45436 179.81955 296
20.42678 95.43703 179.38080 314
5.94178 102.31989 180.74574 283
-24.28914 116.57524 180.42268 284
72.54373 69.67516 171.79890 316
67.92470 71.85387 173.46330 380
64.60370 73.39172 175.54042 390
61.74738 74.72794 177.92126 388
56.16038 77.31321 179.74228 300
29.94717 89.54351 177.62643 333
23.36073 92.59631 179.99005 315
12.85061 97.47823 182.02751 285
-27.20071 116.12962 180.08690 342
72.16821 68.76788 171.79114 316
68.61014 70.38595 173.72443 381
65.28270 71.91684 175.84618 391
62.45876 73.20187 178.14336 389
55.75021 76.28010 179.73555 300
31.89931 87.17220 178.08189 334
25.73908 90.00672 180.53342 332
18.02613 93.51914 182.94164 314
4.70701 99.66965 184.81392 284
72.59911 67.45464 172.02768 384
69.32646 68.91927 174.04141 381
65.95678 70.44872 176.10605 392
63.12215 71.71871 178.40733 390
55.32722 75.24977 179.70958 300
33.87524 84.88953 178.60039 335
27.84376 87.62106 180.99097 333
21.05325 90.67006 183.50569 315
11.66688 94.91263 185.86745 285
-8.28059 103.88367 187.21695 265
73.24473 66.05927 172.35663 385
69.97501 67.50834 174.33453 382
66.60513 68.99886 176.36169 380
63.84460 70.26757 178.70285 391
54.88110 74.21460 179.72780 300
35.76518 82.69943 179.03865 336
29.88719 85.29923 181.48720 334
23.68042 88.07479 184.03387 332
15.68309 91.59743 186.54192 314
3.52042 96.94016 188.78349 284
73.86558 64.71654 172.63867 386
70.65382 66.11123 174.63184 383
67.29340 67.59192 176.65956 381
64.51009 68.80330 178.92319 392
54.49930 73.16785 179.73955 300
37.64233 80.54848 179.51807 338
31.86124 83.00307 181.92763 335
25.76931 85.67702 184.47371 333
18.72560 88.73511 187.05504 315
10.09803 92.52251 189.68021 312
-9.02248 100.84526 191.45612 265
74.47467 63.38638 172.92969 387
71.29988 64.73614 174.87132 384
67.98326 66.16960 176.94453 382
65.21667 67.36745 179.19801 393
54.11352 72.13287 179.73969 300
39.45796 78.40855 179.97275 339
33.82006 80.80222 182.33922 336
27.86816 83.35962 184.84071 334
21.59366 86.03804 187.53035 331
13.33760 89.59800 190.16914 313
2.47636 94.23301 192.78156 284
75.09510 62.02708 173.21948 388
71.93900 63.37593 175.17148 385
68.71096 64.73964 177.22693 383
65.84745 65.90710 179.45284 394
44.97635 74.76951 177.83955 375
40.80802 76.49635 180.31009 372
35.68550 78.67023 182.79738 337
29.89730 81.07001 185.26285 335
23.73104 83.70963 187.88605 333
16.46185 86.79464 190.60612 315
7.67257 90.45975 193.36847 312
-9.71206 97.78928 195.73904 265
75.71555 60.72666 173.49986 388
72.60916 62.04260 175.44850 386
69.38837 63.35777 177.45728 384
66.38815 64.58354 179.65837 304
45.68427 73.16193 178.09946 386
41.69677 74.82272 180.61455 373
37.45042 76.55347 183.14035 371
31.87728 78.91800 185.64703 336
25.90041 81.37140 188.27296 334
19.47298 84.02033 191.03499 316
11.00716 87.55237 193.83391 313
1.44087 91.51410 196.73218 284
76.12992 59.50784 173.68863 419
73.22277 60.70589 175.68680 387
70.02242 61.99048 177.73450 385
66.00553 63.62321 179.63686 304
46.43705 71.59850 178.36293 387
42.64135 73.14705 180.88770 374
38.40952 74.87674 183.40007 372
33.81213 76.76296 186.02084 337
27.95327 79.13906 188.65607 335
21.69221 81.66060 191.40527 332
14.14141 84.72695 194.16759 314
5.28398 88.36456 197.16902 312
-10.20637 94.62675 199.93195 265
76.37271 58.37106 173.87202 419
73.79360 59.43124 175.95581 417
70.71149 60.63620 177.97043 386
65.64724 62.65973 179.65637 304
47.14651 70.05300 178.58559 388
43.49655 71.54028 181.10422 386
39.38876 73.15528 183.68576 372
35.05899 74.92084 186.30396 370
29.92849 76.92287 189.00656 336
23.87086 79.37072 191.69843 333
17.20741 82.02477 194.54350 315
8.62432 85.47925 197.47844 313
-0.67411 89.20732 200.63139 310
76.68172 57.22579 174.06110 420
74.06493 58.21533 176.10017 418
71.32689 59.32154 178.23436 387
65.31014 61.65977 179.66351 304
47.83126 68.55141 178.82056 389
44.22313 69.95435 181.35779 387
40.30825 71.49308 183.87854 373
36.04228 73.16772 186.55795 371
31.55340 74.90175 189.24980 368
25.99534 77.13734 191.99615 335
19.74124 79.57261 194.90894 332
11.89287 82.63859 197.84904 314
2.90228 86.17419 200.94948 311
-11.53903 91.86105 204.09486 256
76.94640 56.08979 174.21899 421
74.37772 57.07886 176.27585 419
71.73682 58.12272 178.38051 416
64.97933 60.67861 179.67686 304
48.55808 67.03325 179.05750 390
44.96802 68.41840 181.57346 387
41.26778 69.86876 184.13481 385
37.06457 71.46790 186.77991 372
32.61035 73.17113 189.50978 369
28.00926 74.97282 192.33911 367
21.90752 77.33685 195.17732 333
15.01699 79.98586 198.13379 315
6.28738 83.29990 201.19540 313
-3.12469 86.97819 204.53754 310
77.21513 54.94019 174.37843 422
74.68496 55.90641 176.45059 419
72.03809 56.92709 178.55708 417
64.68819 59.71231 179.64587 304
49.26538 65.54005 179.28970 391
45.72956 66.87823 181.78201 388
42.00845 68.25699 184.34039 386
37.99118 69.79772 186.98601 373
33.62883 71.44683 189.68578 370
29.10584 73.19596 192.51631 368
24.02551 75.08319 195.43559 334
17.69235 77.51992 198.38475 332
9.59138 80.54435 201.46193 314
0.46230 84.02882 204.80141 311
77.50513 53.84474 174.53586 422
74.95284 54.76554 176.58739 420
72.35625 55.73532 178.71216 418
64.34778 58.70448 179.64658 304
49.94809 64.04976 179.50528 392
46.42197 65.39675 181.97507 389
42.78373 66.73523 184.56314 387
38.96796 68.17633 187.19661 374
34.70404 69.72799 189.86499 371
30.20877 71.44247 192.70486 369
25.47005 73.17567 195.60681 366
19.91185 75.22803 198.65674 333
12.81956 77.87681 201.76015 315
3.99133 81.19291 204.96323 312
77.76591 52.70111 174.73248 423
75.25041 53.63729 176.78096 421
72.62141 54.59470 178.86156 419
64.05647 57.74601 179.68539 304
50.63140 62.61795 179.74608 393
47.15777 63.88252 182.19186 390
43.55282 65.18613 184.76175 388
39.79435 66.58091 187.36038 385
35.67598 68.06579 190.07967 372
31.22732 69.70766 192.87440 369
26.64104 71.35946 195.81039 367
21.81406 73.16095 198.85210 364
15.70491 75.38451 201.95699 331
7.36350 78.41317 205.17238 313
78.02994 51.63000 174.88785 424
75.52850 52.51467 176.89780 421
72.94501 53.43811 178.99512 419
63.70951 56.74398 179.66351 304
51.31178 61.16300 179.97147 393
47.85836 62.44513 182.41383 391
44.28745 63.70625 184.91702 389
40.56873 65.03818 187.57635 386
36.65024 66.39933 190.29842 373
32.31829 67.97079 193.03438 370
27.76308 69.60873 195.97548 368
22.95712 71.34703 198.98323 365
17.94567 73.10848 202.17412 363
10.58665 75.73416 205.38448 315
78.31396 50.49995 175.01674 424
75.80488 51.40842 177.07187 422
73.23917 52.28156 179.17068 420
63.42184 55.76874 179.69295 304
51.96938 59.76328 180.16440 394
48.54630 60.94637 182.58383 392
45.04704 62.18538 185.11461 389
41.36138 63.49043 187.73236 387
37.58074 64.79053 190.46707 385
33.35621 66.31130 193.25122 371
28.84365 67.86723 196.08319 369
24.09266 69.54530 199.11148 366
19.18827 71.26875 202.28323 363
13.65892 73.18145 205.54715 331
78.58203 49.44611 175.17998 425
76.11711 50.26999 177.20972 423
73.56806 51.17579 179.30093 421
55.90314 57.24785 178.01505 397
52.63387 58.37144 180.38124 395
49.25295 59.52985 182.82204 393
45.75682 60.74372 185.30038 390
42.16395 61.96473 187.93082 388
38.39808 63.24883 190.61589 385
34.35259 64.64979 193.38928 372
29.87638 66.18139 196.24263 370
25.26983 67.78101 199.25665 367
20.38648 69.46133 202.39197 364
15.31695 71.19759 205.65654 362
78.88226 48.36386 175.33015 426
76.40449 49.17176 177.36530 424
73.86137 50.05366 179.44490 421
56.53633 55.89880 178.23711 398
53.27415 56.98198 180.58049 396
49.94429 58.12580 182.99052 394
46.47051 59.24574 185.51346 391
42.88557 60.49626 188.10535 389
39.18569 61.76179 190.79329 386
35.32322 63.04466 193.54491 384
30.94025 64.49384 196.39606 371
26.39980 66.06473 199.39444 368
21.57259 67.68948 202.47455 365
16.56326 69.35382 205.72389 363
79.15128 47.28391 175.48630 426
76.69908 48.10592 177.50801 424
74.11193 48.95645 179.56262 308
56.99763 54.60845 178.41606 412
53.96810 55.59408 180.78128 397
50.61286 56.70875 183.19983 394
47.18156 57.81480 185.70679 392
43.65072 59.02593 188.27368 390
39.99957 60.22797 190.93173 387
36.15162 61.48671 193.68742 385
31.99341 62.86455 196.53236 371
27.46327 64.33975 199.50403 369
22.76188 65.92638 202.61697 366
17.80820 67.55566 205.81731 364
-53148.78906 17632.91016 214.58089 1000
79.41492 46.19846 175.65616 427
76.96873 47.01540 177.67210 425
73.86845 48.02974 179.58774 308
57.45916 53.33760 178.59682 412
54.42305 54.32081 180.93626 410
51.28736 55.29727 183.38591 395
47.88939 56.42248 185.84705 393
44.38592 57.55400 188.46176 391
40.77409 58.75247 191.08438 388
36.99032 59.91825 193.83763 386
33.04478 61.20812 196.68082 372
28.58388 62.66841 199.66324 370
23.91804 64.20230 202.70679 367
19.01541 65.73848 205.93346 364
79.68045 45.15839 175.81035 429
77.28257 45.93140 177.79529 426
73.62056 47.09178 179.57707 308
57.90307 52.05367 178.72954 413
54.91474 53.04026 181.11035 411
51.80843 53.99349 183.52997 408
48.64019 55.00750 186.03352 394
45.15341 56.08377 188.58276 391
41.52764 57.25120 191.26274 389
37.80950 58.45155 194.00648 386
33.91508 59.66548 196.83038 384
29.63986 61.02347 199.76410 371
25.01870 62.47393 202.77959 368
20.22237 64.00939 206.00157 365
79.94736 44.11002 175.94688 430
77.54755 44.85808 177.93143 426
73.33777 46.13269 179.60014 308
58.30574 50.80341 178.91838 421
55.36076 51.73423 181.28033 412
52.31367 52.66065 183.67804 409
49.16625 53.68750 186.17412 407
45.89605 54.67158 188.78238 392
42.32881 55.80091 191.41837 390
38.61841 56.91172 194.14536 387
34.77884 58.10489 196.96004 385
30.73144 59.40469 199.90799 372
26.13843 60.77484 202.90755 369
21.41706 62.24327 206.06953 366
80.22889 43.06529 176.07782 431
77.81931 43.79904 178.06586 427
73.09525 45.22891 179.57422 308
58.65960 49.59982 179.06053 422
55.81062 50.44959 181.41995 412
52.77658 51.38145 183.83340 410
49.64402 52.32097 186.35181 408
46.43875 53.33752 188.92062 405
43.04443 54.32220 191.56363 391
39.38994 55.44310 194.23181 388
35.62801 56.59711 197.09052 386
31.70387 57.81201 199.98654 383
27.27405 59.14843 202.99913 370
22.56896 60.57046 206.16287 367
80.48087 42.03624 176.22835 431
78.11680 42.74386 178.20291 428
72.85786 44.29531 179.61360 308
59.04190 48.41265 179.20590 422
56.26664 49.22520 181.56548 420
53.28275 50.10104 183.96399 411
50.15376 51.05406 186.44086 408
46.98661 51.97582 189.00198 406
43.68843 52.94400 191.64905 403
40.18265 53.95996 194.39665 389
36.47631 55.08336 197.16994 386
32.56466 56.25674 200.11810 384
28.35602 57.49197 203.10612 371
23.71114 58.89007 206.21335 368
80.75191 41.00496 176.36748 432
78.42324 41.67630 178.33801 428
72.65599 43.34248 179.58582 308
59.45121 47.18884 179.35793 423
56.64748 48.01162 181.70718 421
53.74055 48.83019 184.11899 411
50.66064 49.72441 186.59634 409
47.49761 50.63993 189.12654 407
44.20163 51.59722 191.79965 404
40.82865 52.57362 194.47372 402
37.28179 53.62574 197.32797 387
33.38385 54.73946 200.20862 385
29.38164 55.91562 203.17245 382
24.84164 57.22755 206.28725 369
81.02305 39.98932 176.48038 433
78.69061 40.66942 178.46928 429
72.41952 42.39647 179.57938 308
59.78367 45.98774 179.50436 424
57.06519 46.76605 181.85474 421
54.20217 47.57708 184.26526 412
51.15987 48.43149 186.70558 410
48.02059 49.36432 189.24911 407
44.75800 50.27804 191.89897 405
41.38792 51.23345 194.60081 402
37.89077 52.20213 197.39241 400
34.23230 53.21597 200.31154 386
30.31883 54.34717 203.26463 383
25.95123 55.59113 206.35728 370
81.28578 38.95751 176.59897 433
78.94765 39.60923 178.59695 430
72.21507 41.49607 179.59401 308
60.18960 44.83123 179.60884 424
57.45291 45.56262 181.99536 422
54.64790 46.35737 184.39668 420
51.65726 47.17842 186.88455 411
48.52410 48.03535 189.41048 408
45.27718 48.93162 191.98280 406
41.95951 49.86996 194.70769 403
38.52538 50.81055 197.50700 400
34.91115 51.80634 200.38542 398
31.17912 52.85798 203.34218 384
27.07647 53.98213 206.45741 371
-187.46800 113.29810 202.58130 495
81.57352 37.97163 176.76720 434
79.22659 38.58603 178.75249 430
71.97694 40.54111 179.61636 308
60.53831 43.61329 179.78114 425
57.84764 44.37673 182.09663 423
55.03709 45.09832 184.53223 421
52.11995 45.87959 187.01230 411
49.04248 46.72985 189.50352 409
45.83827 47.59922 192.10504 406
42.51072 48.52109 194.80106 404
39.06837 49.42011 197.56653 401
35.54947 50.37590 200.44814 399
31.86575 51.35589 203.44908 396
28.00194 52.44918 206.53979 382
-188.03543 110.74818 202.57335 495
81.82056 36.92882 176.89412 435
79.53312 37.56841 178.86024 431
71.78106 39.59224 179.60446 308
60.91261 42.45084 179.89102 426
58.22955 43.17597 182.23535 424
55.45522 43.89857 184.66281 421
52.61039 44.65966 187.12842 419
49.55171 45.48561 189.60207 410
46.33376 46.30251 192.21941 407
43.04519 47.17400 194.91324 404
39.67010 48.05150 197.68556 402
36.16256 48.99947 200.55074 399
32.51960 49.96043 203.47839 397
28.75094 50.95448 206.59303 394
23.67893 52.25251 209.70367 263
82.11042 35.97325 177.01378 435
79.82182 36.53122 178.98639 432
71.58431 38.63705 179.62692 308
61.27087 41.31207 180.03922 426
58.59441 41.98389 182.35106 424
55.83745 42.72240 184.74554 422
53.03189 43.42968 187.22295 420
50.02729 44.17653 189.76419 410
46.90646 44.98790 192.34549 408
43.63928 45.85901 194.97592 405
40.23893 46.69653 197.73653 403
36.77480 47.60645 200.60597 400
33.12234 48.51032 203.53690 397
29.37552 49.48738 206.58827 395
25.16708 50.60828 209.75099 355
82.34995 34.95694 177.12645 436
80.10311 35.51755 179.10713 432
71.40238 37.69917 179.62671 308
61.63860 40.15603 180.16739 427
58.97846 40.82374 182.46297 425
56.25082 41.48702 184.86758 423
53.41704 42.22223 187.32196 420
50.53065 42.95567 189.86273 418
47.39339 43.72496 192.44743 408
44.16618 44.54403 195.09540 406
40.78999 45.38785 197.82144 403
37.37150 46.22128 200.69330 401
33.74596 47.14188 203.63063 398
30.02940 48.06868 206.67078 395
25.87764 49.12210 209.84103 356
-186.83841 102.38819 209.56847 485
82.64571 33.97915 177.27187 437
80.35730 34.51655 179.21414 433
64.60263 38.37936 178.00011 430
62.00456 38.98870 180.28683 428
59.35146 39.65508 182.60211 426
56.61293 40.30508 185.00349 423
53.83575 41.00070 187.45938 421
50.95001 41.67693 189.95779 418
47.91185 42.46354 192.51643 409
44.72256 43.21158 195.16962 407
41.37971 44.03633 197.93001 404
37.92844 44.87328 200.75479 401
34.37657 45.74953 203.64914 399
30.73187 46.65550 206.69836 396
26.66813 47.62188 209.84909 356
-186.90704 99.72707 209.62527 484
-99.41603 23.61197 -27.38237 437
80.63754 33.53514 179.35149 433
64.96366 37.24710 178.17297 431
62.35742 37.86814 180.39566 428
59.72509 38.49998 182.75243 426
57.03267 39.13580 185.12198 424
54.23496 39.78223 187.55005 422
51.40129 40.48809 190.07051 419
48.44115 41.19148 192.62047 410
45.23690 41.93141 195.24748 407
41.93357 42.70831 197.98265 405
38.55492 43.55244 200.82916 402
35.00430 44.35189 203.75243 400
31.33373 45.25557 206.73134 397
27.34185 46.16414 209.85536 357
-187.46667 97.17564 209.58188 485
83.17573 32.04882 177.49095 438
80.93004 32.52995 179.45790 434
65.28288 36.14571 178.28580 431
62.72945 36.75311 180.52208 429
60.11768 37.33006 182.87085 427
57.40419 37.98823 185.20627 425
54.63596 38.60533 187.66547 422
51.83371 39.28815 190.14479 420
48.88647 39.94763 192.70251 417
45.79662 40.67357 195.33762 408
42.51739 41.39018 198.09290 405
39.11149 42.17524 200.85831 403
35.63860 43.00367 203.77104 400
31.96981 43.85020 206.81116 398
28.05089 44.75708 209.89775 358
-187.94452 94.61839 209.61006 485
-194.14000 96.05636 216.58647 295
83.37725 31.05607 177.59396 457
81.00526 31.59883 179.52925 312
65.62326 35.03277 178.42134 432
63.10740 35.61900 180.64066 430
60.49490 36.23079 182.95000 428
57.81189 36.79816 185.34607 425
55.05179 37.43864 187.74902 423
52.25581 38.05376 190.22452 420
49.31987 38.69411 192.80363 418
46.31966 39.40833 195.43698 409
43.07049 40.10782 198.17639 406
39.71182 40.86608 200.92575 404
36.21945 41.67536 203.85347 401
32.61175 42.46376 206.85147 398
28.79107 43.33329 209.92235 361
-188.39940 92.14401 209.57658 485
-187.17693 91.81155 216.49673 296
83.41317 30.14105 177.63745 458
80.83615 30.69487 179.51534 312
65.99741 33.94952 178.52353 433
63.42930 34.50809 180.76208 430
60.87476 35.06819 183.07211 428
58.19544 35.67839 185.45705 426
55.46655 36.25238 187.84590 424
52.64133 36.84916 190.34488 421
49.80078 37.47746 192.91125 419
46.81281 38.12223 195.52625 416
43.64090 38.81699 198.23367 407
40.29062 39.55939 201.02634 404
36.85564 40.30422 203.89606 402
33.26009 41.11804 206.87997 399
29.51024 41.89613 209.94858 361
-6562.04199 1479.82593 102.92053 497
-182.81706 88.26648 216.50320 438
83.48988 29.24367 177.70317 458
80.71460 29.84231 179.53683 312
66.31779 32.89094 178.66611 433
63.79410 33.40993 180.91022 431
61.24419 33.95240 183.18846 429
58.56123 34.52613 185.54387 426
55.85617 35.09723 187.95721 424
53.05949 35.66675 190.43146 422
50.21309 36.29514 192.99921 419
47.23623 36.90822 195.61806 417
44.17626 37.54256 198.32634 408
40.86689 38.24873 201.05775 405
37.46003 38.97635 203.95770 402
33.91090 39.73606 206.94672 400
30.16231 40.52270 210.02884 362
-182.88710 85.62681 216.47057 439
83.53419 28.33435 177.78029 458
80.57393 28.94981 179.51355 312
66.68104 31.78661 178.78802 434
64.17687 32.30305 181.00787 432
61.57420 32.82913 183.28969 429
58.96276 33.35701 185.62358 427
56.28925 33.93005 188.03522 425
53.49294 34.47150 190.50163 422
50.65490 35.06634 193.06483 420
47.72157 35.66745 195.66235 417
44.69659 36.29551 198.36586 415
41.44212 36.99376 201.12491 406
38.04516 37.65643 203.99744 403
34.48662 38.38371 206.96078 400
30.83548 39.16139 210.03748 398
-182.95973 83.08112 216.57011 424
83.59985 27.40209 177.79991 459
80.41153 28.04715 179.53960 312
67.00375 30.70967 178.88420 434
64.53844 31.19714 181.11061 432
61.96048 31.71461 183.40155 430
59.34104 32.25069 185.72701 428
56.68679 32.76949 188.14612 425
53.88557 33.33512 190.62236 423
51.08439 33.88976 193.15096 421
48.17017 34.44637 195.77449 418
45.14360 35.07077 198.42361 416
41.99328 35.69259 201.22810 406
38.64515 36.34653 204.03760 404
35.12532 37.08394 207.01703 401
31.51604 37.78135 210.08772 398
-182.91534 80.43407 216.52382 424
-192.53458 82.34505 223.51146 295
83.63280 26.49247 177.86534 459
80.30467 27.15000 179.53125 312
67.36599 29.64597 179.00670 435
64.88938 30.11798 181.23650 433
62.33703 30.61723 183.50667 431
59.75002 31.14071 185.82690 428
57.05023 31.61793 188.21965 426
54.32313 32.17084 190.69110 424
51.49663 32.70947 193.21490 421
48.62389 33.24570 195.83759 419
45.64785 33.84256 198.53194 416
42.57209 34.40327 201.29701 414
39.18647 35.04317 204.11171 404
35.72013 35.74669 207.03983 402
32.15790 36.45812 210.06677 399
-182.97751 77.84795 216.56166 424
-189.22868 79.05845 223.42514 322
83.66676 25.60207 177.90698 459
80.16992 26.26218 179.54582 312
67.44243 28.61458 179.06746 455
65.14268 29.06392 181.32683 453
62.68212 29.52272 183.63184 431
60.11818 29.99918 185.94482 429
57.47858 30.49590 188.34926 427
54.75527 31.02250 190.80307 424
51.95105 31.51888 193.31575 422
49.04374 32.04011 195.92036 419
46.07947 32.62617 198.58008 417
43.00848 33.16331 201.33826 414
39.77432 33.80067 204.16809 405
36.33397 34.43114 207.07449 402
32.76118 35.06630 210.11708 400
-182.99596 75.22881 216.49277 424
-186.63574 75.98518 223.34689 322
83.74538 24.71184 177.97295 460
80.03174 25.38922 179.54143 312
67.48154 27.63800 179.10696 455
65.19384 28.03240 181.37259 453
62.85197 28.48228 183.66382 451
60.43895 28.89801 186.04593 448
57.85367 29.37182 188.43442 427
55.14599 29.83852 190.89682 425
52.36010 30.33285 193.36629 422
49.49726 30.85415 195.99664 420
46.52523 31.39342 198.64220 417
43.52495 31.95568 201.38446 415
40.36829 32.51430 204.22627 406
36.94035 33.10720 207.10692 403
33.38599 33.74630 210.12340 400
-183.05261 72.71548 216.57512 425
-184.16794 72.87266 223.36215 323
83.81541 23.80173 178.03444 460
79.92410 24.48437 179.52391 312
67.57854 26.63610 179.17790 455
65.27399 27.01541 181.43002 453
62.90773 27.44510 183.71617 451
60.52654 27.84669 186.06235 449
58.04660 28.26738 188.48178 446
55.54886 28.68506 190.96030 444
52.79930 29.17359 193.44135 423
49.92015 29.68166 196.04546 421
47.00666 30.18656 198.70129 418
44.00061 30.71631 201.44183 416
40.85931 31.23393 204.26530 413
37.52731 31.82431 207.16446 404
34.01477 32.46943 210.15747 401
-6003.18457 1079.82837 112.27654 478
-183.05489 70.05746 216.49933 425
-182.44019 70.02811 223.29286 361
83.87245 22.90241 178.07298 460
79.81732 23.56937 179.54601 312
67.63110 25.63048 179.22537 456
65.32407 25.98419 181.45644 454
62.98025 26.41004 183.77533 451
60.59413 26.80475 186.12779 449
58.13325 27.22080 188.53407 447
55.61854 27.60560 190.97992 444
53.05291 28.03664 193.51007 442
50.36420 28.49376 196.10576 421
47.43799 29.00752 198.73906 419
44.46349 29.51839 201.46873 416
41.33483 30.01648 204.31421 414
38.10179 30.56776 207.20361 404
34.64833 31.12916 210.19989 402
-181.71100 67.30274 223.27914 361
83.91185 22.00112 178.09726 461
79.71805 22.68226 179.53128 312
67.70769 24.60618 179.26756 456
65.41219 24.97367 181.48801 454
63.06263 25.38215 183.82977 452
60.64717 25.76884 186.13483 449
58.21780 26.13605 188.58299 447
55.69765 26.56743 191.01349 444
53.16465 26.97631 193.55707 442
50.49369 27.39833 196.12830 439
47.81348 27.82754 198.78743 437
44.94812 28.30572 201.56209 417
41.85112 28.76659 204.31627 414
38.69012 29.31212 207.24124 411
35.23260 29.81559 210.20563 402
-181.11415 64.68038 223.23744 361
83.95682 21.10469 178.14218 461
79.60838 21.81037 179.55016 312
67.73705 23.64187 179.32150 456
65.47425 23.97904 181.53651 454
63.14389 24.36091 183.82573 452
60.73914 24.72846 186.21014 450
58.29887 25.09136 188.59523 447
55.80363 25.49618 191.04192 445
53.26117 25.85420 193.60500 442
50.60661 26.28220 196.15382 440
47.90414 26.67371 198.83308 437
45.13023 27.13148 201.57536 435
42.26039 27.54481 204.37975 432
39.17510 28.02980 207.25813 412
35.85642 28.55069 210.22812 403
-180.52582 62.04028 223.20332 361
84.00468 20.22451 178.19881 461
79.51248 20.90207 179.53572 312
67.81004 22.60379 179.34949 457
65.53800 22.96632 181.61234 454
63.20385 23.31066 183.87669 452
60.81136 23.67030 186.21729 450
58.36933 24.03364 188.65207 447
55.88561 24.41122 191.11069 445
53.32947 24.75836 193.58859 443
50.69441 25.14690 196.17754 440
47.99996 25.54837 198.83163 437
45.21795 25.95862 201.56879 435
42.38865 26.41509 204.41228 432
39.41679 26.85471 207.30020 429
36.39422 27.26840 210.28442 427
-179.86421 59.36781 223.18091 361
84.07653 19.33123 178.22482 461
79.39888 19.98676 179.53069 312
67.87468 21.62567 179.40495 457
65.59667 21.95910 181.60970 455
63.28004 22.26525 183.93954 452
60.93016 22.62386 186.24191 450
58.45493 22.95413 188.64000 448
55.99229 23.31948 191.13472 445
53.42216 23.66903 193.65590 443
50.77640 24.05606 196.24309 440
48.08797 24.46175 198.89641 438
45.32207 24.83210 201.59535 435
42.49096 25.27431 204.38939 432
39.53395 25.68357 207.31267 430
36.50993 26.08756 210.29799 427
-179.72127 56.79653 223.28502 383
84.13435 18.45406 178.27371 462
79.31477 19.10326 179.55888 312
67.96342 20.66066 179.41324 457
65.68047 20.95399 181.65500 455
63.37250 21.29317 183.95601 453
60.99987 21.61740 186.29526 450
58.57637 21.94049 188.71178 448
56.05967 22.23667 191.13225 446
53.49670 22.61667 193.68459 443
50.88512 22.96339 196.22395 441
48.19875 23.33996 198.89603 438
45.41084 23.71425 201.64311 435
42.58292 24.09111 204.40941 433
39.64859 24.49904 207.29382 430
36.68730 24.87540 210.27853 428
-179.61597 54.29867 223.16792 383
84.22310 17.55706 178.29807 462
79.26611 18.18776 179.54790 312
68.03806 19.67337 179.44609 457
65.77409 19.96132 181.71335 455
63.45724 20.27602 184.01509 453
61.05091 20.56303 186.32410 451
58.63448 20.88382 188.72609 448
56.14420 21.17862 191.15572 446
53.60339 21.54104 193.70380 443
50.98412 21.88402 196.28455 441
48.28933 22.23023 198.93254 438
45.55523 22.58187 201.64604 436
42.70684 22.95070 204.41843 433
39.79823 23.30708 207.31839 431
36.82086 23.71206 210.32204 428
-179.60609 51.72196 223.20526 383
84.26444 16.65861 178.32707 462
79.16872 17.32403 179.53641 312
68.11705 18.68368 179.52669 458
65.82410 18.95567 181.73006 455
63.51321 19.25421 184.04420 453
61.16565 19.53842 186.36061 451
58.74086 19.81735 188.77196 448
56.26580 20.11336 191.21239 446
53.70715 20.44311 193.71634 444
51.06772 20.76304 196.29126 441
48.38479 21.11054 198.95735 439
45.64915 21.41504 201.63568 436
42.85314 21.76417 204.46884 434
39.90976 22.15831 207.34813 431
36.94495 22.50844 210.30023 428
-179.69257 49.23360 223.17191 383
84.33515 15.79897 178.37862 462
79.08469 16.39876 179.55637 312
68.15912 17.67030 179.55754 458
65.91306 17.95914 181.76216 456
63.61464 18.23811 184.07739 453
61.23301 18.49025 186.39665 451
58.81383 18.79187 188.79373 449
56.36029 19.05876 191.21811 446
53.78921 19.38524 193.73219 444
51.18187 19.68263 196.32144 441
48.52521 20.00824 198.94540 439
45.75301 20.30713 201.67030 436
42.95903 20.62975 204.45319 434
40.05194 20.99396 207.35365 431
37.09578 21.29852 210.29478 428
-179.64563 46.72726 223.17505 383
84.41344 14.90664 178.40169 463
79.03857 15.48487 179.54170 312
68.23901 16.69646 179.58092 458
65.98930 16.97099 181.82890 456
63.66713 17.19177 184.08121 454
61.32127 17.48052 186.40439 451
58.91304 17.74253 188.80113 449
56.42106 18.00182 191.26779 447
53.91118 18.28410 193.75821 444
51.27678 18.57911 196.32222 442
48.61462 18.89770 198.99352 439
45.90932 19.17348 201.67455 437
43.06886 19.49696 204.47444 434
40.19139 19.82000 207.35008 431
37.25290 20.13882 210.31897 429
-179.65237 44.21406 223.18187 383
84.46994 14.04490 178.46573 463
78.96540 14.57907 179.52914 312
68.31757 15.72576 179.62798 458
66.08250 15.96877 181.81966 456
63.77965 16.18504 184.12576 454
61.39795 16.43056 186.45462 452
59.01337 16.67914 188.82411 449
56.52278 16.96655 191.27115 447
53.98619 17.22271 193.78412 444
51.39158 17.49764 196.35559 442
48.74263 17.78643 199.01285 440
45.99500 18.04034 201.70714 437
43.22154 18.37075 204.49481 434
40.35015 18.67131 207.38037 432
37.35468 18.97758 210.35561 429
-179.62723 41.67341 223.23077 384
84.53436 13.14663 178.48497 463
78.93044 13.69656 179.53091 312
68.38087 14.74711 179.65843 458
66.13136 14.94627 181.86292 456
63.85354 15.16955 184.17059 454
61.47905 15.39220 186.46526 452
59.07300 15.64614 188.87709 449
56.62355 15.92048 191.31049 447
54.06620 16.13327 193.82225 445
51.47625 16.38400 196.39732 442
48.86068 16.64364 199.03790 440
46.15836 16.93282 201.71223 437
43.32827 17.21852 204.50818 435
40.46046 17.47338 207.38278 432
37.50574 17.78326 210.32372 429
-179.63387 39.15466 223.24451 384
84.60730 12.28575 178.50986 463
78.88880 12.79251 179.56227 312
68.47243 13.73844 179.65654 459
66.22851 13.94454 181.90410 457
63.91845 14.15286 184.15894 454
61.55581 14.40681 186.48764 452
59.16474 14.59980 188.88708 450
56.69552 14.82274 191.31563 447
54.19895 15.08533 193.82007 445
51.62288 15.31693 196.40349 443
48.95874 15.53660 199.04094 440
46.27783 15.82852 201.76601 437
43.49368 16.07322 204.54399 435
40.62534 16.34452 207.39539 432
37.62217 16.61494 210.34880 429
