# .PCD v.7 - Point Cloud Data file format
VERSION .7
FIELDS x y z rgb
SIZE 4 4 4 4
TYPE F F F U
COUNT 1 1 1 1
WIDTH 1381
HEIGHT 1
VIEWPOINT 4289.595703 -4105.478027 133.824783 -0.000306 -0.114359 -0.000057 0.993439
POINTS 1381
DATA ascii
49.52485 -36.77370 193.51123 419
46.64841 -37.39419 196.05089 417
43.58522 -38.05962 198.71472 407
40.37222 -38.74637 201.38832 405
37.01476 -39.41485 204.22816 402
33.54926 -40.13904 207.13164 399
29.79640 -40.95234 210.10786 362
-182.91382 -86.06306 216.50952 439
82.42951 -30.71846 178.66391 458
76.41266 -32.01671 179.58315 312
64.96392 -34.52605 179.39995 432
62.44967 -35.05239 181.60020 430
59.95815 -35.62095 183.84506 428
57.35874 -36.15359 186.14911 426
54.66813 -36.76266 188.48218 423
51.95318 -37.37456 190.93857 421
49.12507 -37.95802 193.39915 419
46.19788 -38.60107 196.00838 416
43.03571 -39.31168 198.60587 407
39.77397 -40.02394 201.33287 404
36.41442 -40.73565 204.15163 401
32.91151 -41.50536 207.06569 399
29.10513 -42.30789 210.06190 359
-182.77234 -88.60898 216.54572 438
82.29605 -31.63201 178.56351 438
76.59303 -32.88660 179.59981 312
64.59331 -35.61248 179.26120 432
62.12091 -36.13554 181.46902 430
59.55809 -36.73411 183.68941 427
56.95898 -37.32386 186.00552 425
54.29738 -37.92828 188.41174 423
51.54302 -38.53091 190.83139 420
48.67762 -39.16406 193.31996 418
45.70252 -39.81664 195.91174 408
42.49925 -40.57048 198.54254 406
39.21793 -41.31209 201.24736 403
35.83421 -42.04401 204.12454 401
32.31430 -42.84596 207.03667 398
28.41419 -43.72997 210.05176 358
-188.24681 -92.40434 209.71323 485
-188.26630 -92.39539 216.54800 296
82.04034 -32.55187 178.44702 438
76.81337 -33.79024 179.58040 312
64.27692 -36.69707 179.12024 431
61.79953 -37.27205 181.31819 429
59.21999 -37.85503 183.58862 427
56.57788 -38.47060 185.92967 424
53.87135 -39.08234 188.26166 422
51.09360 -39.69201 190.74867 420
48.25454 -40.37748 193.21898 417
45.16151 -41.10025 195.82794 408
41.95351 -41.84998 198.45743 405
38.63128 -42.59553 201.19484 403
35.23370 -43.37037 204.05138 400
31.65948 -44.23060 206.97464 397
27.72695 -45.12723 210.01283 358
-187.74471 -95.00034 209.68381 485
-195.13316 -96.60603 216.54526 294
81.78784 -33.52658 178.32620 437
76.98249 -34.67388 179.59802 312
63.93127 -37.77612 179.02095 431
61.43810 -38.35704 181.20135 428
58.87085 -38.99262 183.47208 426
56.21716 -39.60640 185.78952 424
53.47741 -40.23053 188.15660 421
50.70843 -40.89326 190.63504 419
47.78972 -41.57971 193.12820 410
44.65084 -42.36538 195.71162 407
41.42105 -43.12999 198.35715 404
38.07267 -43.90298 201.12502 402
34.62648 -44.70473 203.96271 399
31.04235 -45.57851 206.95728 397
27.02065 -46.51808 210.00143 357
-187.37346 -97.52174 209.71410 485
81.54731 -34.47903 178.18619 437
77.18096 -35.55613 179.59087 312
63.62647 -38.86745 178.86972 430
61.05639 -39.49209 181.07065 428
58.50671 -40.13457 183.33012 425
55.81363 -40.77102 185.68883 423
53.09546 -41.43844 188.09131 421
50.27736 -42.09347 190.52708 418
47.25586 -42.84689 193.05914 409
44.09465 -43.63927 195.62065 406
40.88593 -44.42834 198.30307 404
37.50366 -45.23248 201.08360 401
33.99175 -46.10641 203.94974 399
30.40952 -46.95463 206.87244 396
26.29722 -47.93629 209.94078 356
-186.86243 -99.97360 209.67400 484
81.28245 -35.45190 178.08847 436
77.40595 -36.41319 179.59315 312
63.28688 -39.95628 178.71342 429
60.74268 -40.62178 180.93159 427
58.10730 -41.28372 183.23450 425
55.43470 -41.91502 185.54196 422
52.68547 -42.63570 187.97554 420
49.85072 -43.34781 190.42973 411
46.75455 -44.11228 192.91454 408
43.56880 -44.88160 195.51991 406
40.30064 -45.72892 198.22375 403
36.90107 -46.59027 200.98506 400
33.36657 -47.42875 203.87729 398
29.73994 -48.36149 206.85535 395
25.26425 -49.46447 209.93018 269
-186.74625 -102.63152 209.63655 485
81.03320 -36.42450 177.94334 435
77.59728 -37.30259 179.57991 312
62.92811 -41.08776 178.59303 429
60.38886 -41.74916 180.80255 426
57.76552 -42.42614 183.10080 424
55.04247 -43.08966 185.41722 422
52.27686 -43.84184 187.82341 419
49.32674 -44.55864 190.28648 410
46.25462 -45.37399 192.84335 407
43.04982 -46.21254 195.41992 405
39.72397 -47.06303 198.12469 402
36.33072 -47.92809 200.91960 400
32.75438 -48.84443 203.81770 397
29.12579 -49.75136 206.77902 394
-188.38516 -105.77469 202.73512 484
80.79118 -37.42320 177.80215 435
77.83996 -38.17280 179.57666 312
62.57666 -42.20464 178.45801 428
60.01308 -42.87513 180.66463 426
57.35909 -43.55988 182.94531 423
54.63965 -44.31193 185.30798 421
51.86212 -45.04947 187.71408 412
48.84228 -45.82715 190.16685 409
45.70501 -46.66699 192.72311 407
42.49158 -47.50662 195.36485 404
39.15196 -48.37605 198.06264 402
35.72108 -49.29084 200.83885 399
32.15026 -50.20346 203.76538 396
28.44481 -51.20783 206.74696 394
-188.41850 -108.36035 202.71838 483
80.53497 -38.37101 177.66583 432
78.04163 -39.07574 179.57631 312
62.23389 -43.32767 178.31850 427
59.65557 -44.05230 180.52528 425
57.00883 -44.76561 182.84593 423
54.29357 -45.47746 185.20760 420
51.39568 -46.28697 187.60696 411
48.35038 -47.08413 190.06221 409
45.19482 -47.91584 192.62076 406
41.93307 -48.81827 195.22855 403
38.61550 -49.72859 197.93933 401
35.10643 -50.67034 200.76735 398
31.50296 -51.64364 203.68358 396
27.72365 -52.67804 206.70535 382
-188.07295 -111.00159 202.65363 495
80.25145 -39.37271 177.56529 432
77.94909 -40.00801 179.49858 430
61.89168 -44.47831 178.14177 427
59.28991 -45.20246 180.41681 424
56.62596 -45.90947 182.69319 422
53.89615 -46.69920 185.09116 420
50.92871 -47.50594 187.47319 410
47.85878 -48.35663 189.92691 408
44.66728 -49.25242 192.51021 405
41.38227 -50.12247 195.12386 403
38.02375 -51.09649 197.87370 400
34.53324 -52.06743 200.71994 398
30.79809 -53.07887 203.59351 384
26.74214 -54.21309 206.63559 370
-187.39186 -113.47941 202.67033 495
80.00613 -40.37270 177.39030 431
77.68389 -41.03623 179.33611 429
61.55709 -45.62739 178.00073 426
58.94291 -46.35581 180.26503 424
56.23293 -47.13618 182.59064 421
53.43206 -47.92013 184.92955 412
50.42114 -48.79430 187.32721 410
47.34334 -49.65329 189.82561 407
44.13375 -50.57043 192.39899 405
40.84832 -51.48190 195.05487 402
37.42071 -52.44712 197.79031 399
33.81440 -53.49503 200.59924 385
29.92510 -54.55188 203.51852 383
25.69958 -55.79264 206.58739 369
79.75085 -41.37521 177.27034 430
77.44058 -42.07912 179.21365 428
68.56927 -44.64594 179.64490 308
58.56617 -47.52898 180.13177 423
55.86075 -48.34213 182.41705 421
52.95622 -49.16275 184.80550 411
49.92644 -50.03269 187.22299 409
46.83376 -50.93968 189.70450 406
43.58855 -51.89127 192.25980 404
40.28346 -52.84971 194.92842 401
36.75342 -53.85395 197.68501 387
32.99141 -54.95148 200.48849 385
29.04201 -56.09875 203.44479 382
24.59727 -57.40473 206.49844 369
79.47492 -42.41022 177.10654 430
77.13965 -43.08526 179.07396 428
68.84884 -45.57040 179.64523 308
58.19389 -48.72012 179.97165 422
55.45021 -49.52213 182.28163 413
52.49467 -50.40827 184.62694 410
49.45708 -51.30608 187.04958 408
46.30930 -52.24410 189.54913 406
43.04482 -53.22617 192.16716 403
39.64303 -54.20710 194.81082 389
35.98771 -55.32881 197.57344 386
32.17592 -56.46011 200.39757 384
27.98758 -57.65661 203.35167 370
23.41744 -59.02716 206.43118 368
79.22244 -43.42242 176.98082 429
76.86157 -44.12319 178.91982 427
69.11091 -46.51638 179.65166 308
57.83690 -49.91573 179.83632 422
55.02420 -50.80206 182.14555 412
52.03077 -51.66977 184.49988 410
48.96926 -52.61861 186.93353 407
45.79855 -53.58452 189.43880 405
42.45340 -54.60836 192.05244 390
38.86484 -55.69870 194.68066 388
35.13524 -56.80629 197.42841 385
31.29780 -57.99186 200.32100 383
26.93293 -59.28538 203.28862 369
22.33335 -60.67520 206.33090 367
78.99195 -44.47768 176.82016 428
76.61591 -45.17443 178.80725 426
69.37111 -47.45078 179.65927 308
57.49352 -51.10855 179.65819 414
54.57866 -52.05371 181.97740 411
51.57335 -52.97641 184.33199 409
48.47140 -53.94471 186.78415 407
45.23323 -54.94439 189.31456 392
41.71547 -56.01065 191.87141 390
38.10021 -57.11018 194.54500 387
34.31159 -58.32205 197.33409 385
30.32656 -59.54876 200.22147 371
25.83329 -60.94461 203.13371 369
21.15523 -62.37018 206.26030 366
78.69127 -45.47881 176.66965 428
76.34985 -46.23826 178.64592 426
69.68029 -48.34285 179.62334 308
57.05129 -52.34799 179.50192 413
54.11754 -53.27208 181.83788 411
51.08019 -54.23923 184.19528 408
47.93465 -55.27252 186.63504 394
44.50452 -56.32972 189.12805 391
40.94322 -57.43456 191.70956 389
37.28365 -58.60470 194.43977 386
33.52986 -59.80480 197.19926 384
29.28089 -61.18941 200.06853 370
24.70629 -62.62580 203.05914 368
19.97928 -64.09775 206.20299 365
78.43497 -46.55873 176.52719 427
76.05567 -47.33300 178.51775 425
69.92648 -49.30519 179.63153 308
56.59371 -53.58558 179.31516 412
53.64761 -54.57033 181.65871 410
50.54307 -55.54570 184.05641 395
47.20684 -56.62171 186.45377 393
43.78226 -57.75384 188.97714 390
40.18285 -58.94103 191.55403 388
36.52478 -60.09822 194.29256 385
32.58419 -61.38675 197.08034 372
28.17532 -62.80782 199.97713 369
23.62422 -64.26338 202.98073 367
18.75562 -65.81782 206.09357 364
78.20576 -47.57356 176.37607 426
75.76505 -48.38053 178.36789 424
70.22412 -50.19570 179.64969 308
56.14686 -54.84398 179.16205 411
53.17121 -55.87017 181.47580 397
49.88973 -56.93623 183.83664 394
46.51939 -58.03581 186.28883 392
43.05614 -59.17781 188.82884 389
39.43380 -60.36903 191.42348 387
35.69874 -61.60821 194.13370 384
31.56469 -63.00550 196.93445 371
27.08773 -64.45396 199.82144 368
22.46435 -66.00455 202.85536 366
17.58557 -67.61591 206.02773 363
77.90596 -48.65083 176.22223 426
75.51000 -49.44868 178.22682 424
70.51360 -51.13060 179.65186 308
55.67805 -56.14174 178.98770 398
52.51120 -57.24321 181.29688 396
49.20406 -58.30629 183.66856 393
45.80544 -59.48369 186.09662 391
42.27875 -60.67965 188.62239 389
38.62857 -61.90356 191.25565 386
34.86231 -63.16080 193.97992 373
30.56109 -64.64274 196.79341 370
25.99163 -66.14312 199.67990 368
21.28489 -67.76949 202.74681 365
16.32456 -69.43162 205.92648 362
77.65636 -49.71144 176.06215 425
75.22296 -50.56574 178.03683 423
70.82973 -52.07325 179.65443 308
55.09398 -57.48325 178.74640 397
51.85341 -58.57404 181.08279 395
48.56611 -59.71970 183.44824 393
45.10111 -60.89645 185.90262 390
41.57608 -62.14163 188.45953 388
37.88731 -63.41600 191.12163 385
33.88889 -64.78571 193.84251 372
29.48406 -66.28587 196.65540 369
24.90730 -67.89307 199.57095 367
20.09590 -69.50655 202.62144 364
15.06480 -71.24050 205.85072 361
77.39719 -50.79994 175.90764 424
74.93227 -51.66043 177.91476 422
71.13786 -52.96421 179.63548 308
54.45579 -58.83816 178.51689 396
51.19820 -59.97460 180.84256 394
47.84115 -61.18161 183.23410 392
44.39096 -62.39368 185.73380 389
40.78219 -63.62035 188.28481 387
37.09383 -64.94352 190.92363 384
32.83927 -66.40372 193.63785 371
28.43486 -67.95890 196.49117 368
23.76042 -69.59063 199.43474 366
18.89731 -71.32159 202.54614 363
13.51988 -73.23043 205.72945 331
77.12852 -51.86079 175.73967 424
74.68124 -52.74163 177.74338 421
71.44903 -53.88555 179.63704 308
53.83094 -60.21049 178.31517 396
50.54121 -61.40870 180.62532 393
47.17091 -62.58512 183.01805 391
43.65452 -63.86235 185.55130 388
40.02257 -65.13371 188.08611 386
36.12146 -66.54334 190.74307 373
31.83247 -68.10668 193.49849 370
27.30408 -69.71517 196.30493 367
22.60417 -71.34972 199.29350 365
17.70997 -73.12823 202.41418 362
10.46845 -75.72867 205.57881 314
76.85399 -52.98172 175.59715 423
74.40005 -53.86676 177.58972 421
71.76124 -54.81201 179.61911 308
53.18509 -61.60075 178.05878 395
49.88226 -62.78573 180.42648 392
46.47973 -64.05997 182.83112 390
42.91370 -65.35579 185.34261 388
39.22750 -66.68415 187.94194 385
35.17842 -68.17086 190.58971 372
30.76912 -69.79823 193.32561 369
26.23260 -71.40715 196.14560 366
21.45390 -73.15450 199.13728 364
15.50525 -75.32990 202.22763 331
7.24099 -78.36063 205.40826 313
76.61029 -54.07407 175.39941 422
74.10046 -54.99492 177.43593 420
71.53161 -55.93045 179.49139 418
52.57215 -63.02401 177.84906 394
49.21603 -64.23286 180.21329 391
45.75484 -65.50689 182.63448 389
42.19406 -66.87165 185.13057 387
38.41879 -68.26358 187.70850 373
34.13646 -69.85439 190.34767 371
29.71788 -71.46566 193.12807 368
25.12006 -73.21986 196.01373 366
19.66684 -75.22130 198.94963 333
12.61932 -77.86850 201.98637 314
3.81853 -81.13049 205.18829 312
76.30911 -55.16002 175.24762 421
73.82484 -56.12271 177.24573 419
71.25506 -57.08774 179.34518 417
61.02173 -60.96582 179.73906 304
48.55320 -65.70882 179.95407 391
45.03709 -67.00590 182.40353 388
41.42970 -68.41783 184.93866 386
37.43630 -69.88905 187.51431 372
33.15310 -71.55350 190.14107 370
28.68381 -73.24235 192.91814 367
23.70091 -75.12180 195.80963 334
17.42528 -77.49809 198.73767 332
9.40399 -80.52035 201.74905 313
0.36855 -83.94792 204.96532 311
76.07539 -56.27471 175.06181 421
73.54362 -57.25684 177.09177 419
70.94000 -58.27232 179.17584 416
61.38477 -61.95649 179.71735 304
47.85817 -67.19183 179.72891 390
44.34406 -68.55914 182.17923 387
40.64827 -69.93616 184.73190 374
36.45050 -71.56435 187.29498 371
32.13267 -73.22055 189.94217 369
27.58892 -74.98543 192.75529 366
21.57706 -77.28165 195.53728 333
14.76540 -79.93635 198.44275 315
6.14278 -83.29948 201.45369 312
-3.24886 -86.88345 204.75510 310
75.80063 -57.43256 174.87729 420
73.26454 -58.41661 176.92184 418
70.52840 -59.45530 178.95828 386
61.74413 -62.91105 179.71368 304
47.17826 -68.63778 179.50639 389
43.59282 -70.06653 181.95081 386
39.73536 -71.59120 184.48297 373
35.47931 -73.23004 187.04848 370
31.10531 -74.97996 189.73238 368
25.57406 -77.11793 192.46207 334
19.39209 -79.57933 195.28409 332
11.62314 -82.62472 198.15804 314
2.69360 -86.12912 201.22066 311
-13.62068 -92.50748 204.16516 255
75.52331 -58.54728 174.70126 419
72.93903 -59.56223 176.73703 417
69.87344 -60.80347 178.73143 386
62.10722 -63.90042 179.68640 304
46.47687 -70.18140 179.24272 388
42.83120 -71.61174 181.72980 386
38.78389 -73.26402 184.23474 372
34.51189 -74.94488 186.84633 370
29.47503 -76.98734 189.47589 336
23.52535 -79.33894 192.14684 333
16.90134 -82.00048 194.95490 315
8.40874 -85.37306 197.80571 312
-0.86340 -89.09237 200.93538 310
75.26736 -59.69209 174.51909 419
72.39194 -60.87525 176.50171 387
69.25520 -62.15665 178.45665 385
62.51682 -64.89458 179.71185 304
45.72798 -71.71127 179.04343 387
42.02255 -73.24001 181.50311 374
37.85247 -74.91897 183.97882 371
33.25120 -76.78403 186.57089 337
27.47944 -79.16138 189.08937 335
21.35403 -81.60911 191.79353 332
13.85090 -84.67451 194.53674 314
5.04985 -88.27400 197.49648 311
-10.35224 -94.54612 200.20903 265
74.82541 -60.92118 174.31770 388
71.76669 -62.18594 176.21561 386
68.58351 -63.50121 178.21584 384
62.87275 -65.86567 179.71172 304
45.06417 -73.27203 178.77635 386
41.06002 -74.87621 181.19884 373
36.84641 -76.61012 183.71825 370
31.38970 -78.94242 186.18117 336
25.43189 -81.36166 188.76447 333
19.05542 -84.02993 191.43581 315
10.64559 -87.48685 194.20056 313
1.26657 -91.35672 197.08228 284
74.24034 -62.22671 174.01581 387
71.13634 -63.49749 175.94856 385
67.97992 -64.84489 177.94229 396
63.28699 -66.84982 179.69342 304
44.27162 -74.85168 178.52779 374
40.16861 -76.57561 180.93298 372
35.11329 -78.66128 183.31171 337
29.41939 -81.09381 185.77371 335
23.34904 -83.64061 188.36382 332
16.06048 -86.70181 191.05222 314
7.37215 -90.37365 193.79153 312
-9.95330 -97.67738 196.04314 265
73.59690 -63.53949 173.75140 386
70.46619 -64.86049 175.66544 384
67.32119 -66.24728 177.67363 395
63.68183 -67.79012 179.68416 304
43.38634 -76.48584 178.24666 373
38.80863 -78.47594 180.57721 338
33.26762 -80.83704 182.93408 336
27.40561 -83.34624 185.40343 334
21.19201 -85.99648 187.98558 331
12.90630 -89.52360 190.58627 313
2.27034 -94.16436 193.16879 284
72.98983 -64.88538 173.44626 386
69.82712 -66.22105 175.36861 383
66.71184 -67.64056 177.45027 394
63.99916 -68.76316 179.67001 392
42.39545 -78.22816 177.88344 340
36.98184 -80.55332 180.10143 337
31.32081 -83.02232 182.46535 335
25.32734 -85.65327 184.94968 333
18.30339 -88.75591 187.51823 314
9.71297 -92.44244 190.12167 312
-9.52495 -100.85996 191.81177 265
72.41261 -66.19805 173.17143 385
69.19998 -67.65445 175.09410 382
66.06817 -69.03051 177.17268 393
63.33722 -70.24375 179.40068 391
51.55445 -75.45705 179.81789 300
35.17032 -82.70998 179.65640 336
29.36960 -85.29182 182.05023 334
23.18434 -88.02600 184.52353 331
15.25716 -91.53867 186.96135 313
3.21810 -96.85384 189.20068 283
71.75089 -67.56617 172.83781 384
68.52414 -69.05376 174.79378 381
65.38376 -70.46118 176.88408 392
62.64755 -71.69356 179.16257 390
52.03514 -76.49882 179.77879 300
33.27811 -84.95628 179.16258 335
27.30929 -87.64051 181.57990 333
20.53742 -90.65527 184.00859 315
11.30840 -94.85974 186.36313 285
-8.92955 -103.96873 187.61317 265
71.11463 -68.96619 172.55377 383
67.84409 -70.48831 174.48865 380
64.74311 -71.92664 176.59325 391
61.95686 -73.15966 178.91721 389
52.48814 -77.55354 179.77592 300
31.35025 -87.18219 178.70117 334
25.29026 -89.99421 181.10098 332
17.55699 -93.55232 183.42650 313
4.31880 -99.60686 185.23624 283
70.49792 -70.35949 172.24567 382
67.16901 -71.94965 174.17969 379
64.06963 -73.39402 176.33357 390
61.26043 -74.66523 178.61101 388
52.93174 -78.54487 179.80196 300
29.38378 -89.51798 178.20686 333
22.81259 -92.60777 180.56274 315
12.40487 -97.41307 182.49413 285
-28.03935 -116.26865 180.46568 343
69.85440 -71.81075 171.90897 381
66.50629 -73.40070 173.89034 379
63.41900 -74.84216 176.02861 389
60.57276 -76.19032 178.36371 387
53.37683 -79.58640 179.76607 300
27.34047 -91.95530 177.65677 332
19.91732 -95.47134 179.93414 314
5.50909 -102.23424 181.27399 283
-27.35237 -117.79964 180.48422 284
-7254.57227 -3538.04102 353.22632 1000
70.09566 -72.82684 171.85657 316
65.82993 -74.87067 173.56958 378
62.73523 -76.36034 175.75632 388
59.82931 -77.75862 178.06709 386
53.87547 -80.61822 179.76460 300
38.94125 -87.81977 179.93459 296
13.60152 -99.95551 178.69278 284
-19.32168 -115.82501 177.10780 345
-26.63564 -119.30844 180.48239 284
70.52655 -73.74879 171.87204 316
65.08834 -76.40325 173.27718 377
62.02269 -77.89632 175.42351 387
59.08607 -79.33218 177.76605 385
54.33109 -81.68685 179.80226 300
39.45331 -88.93430 179.89227 296
6.78621 -104.89867 177.30006 283
-15.19192 -115.60796 177.64067 347
-25.98580 -120.86983 180.49174 284
70.94658 -74.69666 171.82539 316
64.42574 -77.91393 172.92799 376
61.31141 -79.46315 175.12804 386
58.39100 -80.90052 177.45721 384
54.65994 -82.78786 179.73303 327
39.97739 -90.02811 179.92264 296
-8.17865 -113.91517 174.44991 291
-8.23800 -113.96236 178.68933 291
71.38355 -75.62717 171.82146 316
63.66470 -79.46729 172.60886 375
60.61942 -81.06326 174.80806 385
57.41555 -82.61254 177.11098 327
52.47264 -85.13028 179.14355 326
40.51485 -91.15684 179.88611 296
0.47741 -111.30556 175.87418 292
0.42908 -111.31205 180.00674 292
71.85257 -76.52721 171.86185 316
62.94914 -81.05444 172.24866 374
59.86985 -82.62345 174.49911 384
55.32761 -84.94416 176.52676 326
50.27491 -87.56075 178.52512 325
41.06093 -92.26569 179.87041 296
23.51862 -101.27081 180.01685 292
2.29297 -112.05150 180.21674 288
72.29639 -77.44605 171.84865 316
62.26562 -82.64686 171.92543 312
58.19958 -84.76799 173.94315 326
53.16584 -87.39195 175.87238 324
47.93277 -90.10291 177.91365 323
41.56027 -93.41628 179.87582 296
24.11447 -102.43301 180.06331 292
2.94412 -113.43578 180.18591 288
72.73806 -78.38317 171.83365 316
62.78204 -83.64303 171.90907 312
56.13685 -87.11269 173.23540 325
50.95926 -89.86086 175.16031 323
45.58766 -92.66678 177.26045 322
40.02398 -95.60368 179.43167 320
24.73003 -103.69656 180.02661 292
3.62383 -114.77634 180.19373 288
73.23660 -79.24987 171.84308 316
63.23424 -84.61188 171.92397 312
53.98730 -89.56917 172.54602 324
48.65660 -92.38548 174.47934 322
43.14865 -95.35105 176.57373 321
37.42319 -98.42624 178.76341 319
25.30652 -104.89874 179.99687 292
73.69723 -80.20271 171.82176 316
63.76303 -85.58594 171.88745 312
52.49424 -91.67455 172.00313 308
46.29629 -95.03455 173.79059 321
40.61916 -98.11733 175.84981 320
34.69571 -101.37439 178.12672 318
17.56367 -110.65166 178.46545 271
74.17035 -81.07143 171.79773 316
64.25819 -86.55672 171.89926 312
53.03394 -92.73769 172.00276 308
43.80824 -97.79128 173.00314 319
37.96264 -100.99532 175.10463 318
24.23376 -108.57062 175.79884 270
-54.35224 -151.89349 164.82852 373
74.64558 -82.01194 171.83661 316
64.79768 -87.48359 171.88203 312
53.58202 -93.76194 171.98398 308
41.27339 -100.63977 172.25989 318
32.36478 -105.58437 173.70042 271
11.62534 -117.19321 173.04872 270
-51.38046 -152.37549 165.14297 287
75.12545 -82.87217 171.79080 316
65.27608 -88.47615 171.90637 312
54.10519 -94.81306 171.99954 308
41.31630 -102.05003 172.12032 304
26.48972 -110.49445 172.21588 300
9.13138 -120.29391 172.37604 296
-50.55091 -154.12210 165.12868 288
75.64008 -83.77889 171.79189 316
65.83675 -89.40753 171.86940 312
54.67244 -95.85578 171.98186 308
41.94304 -103.15277 172.11110 304
27.15697 -111.65547 172.23326 300
9.80760 -121.64076 172.35365 296
-49.67604 -155.78938 165.15370 288
76.10991 -84.68600 171.80652 316
66.32777 -90.41024 171.87143 312
55.22572 -96.85304 171.97639 308
42.55278 -104.25311 172.09579 304
27.78847 -112.85962 172.20702 300
10.52773 -122.91447 172.37492 296
-48.70510 -157.52130 165.15886 288
76.64468 -85.57884 171.79175 316
66.87101 -91.36691 171.87457 312
55.83947 -97.87995 171.95381 308
43.15023 -105.39767 172.08131 304
28.49179 -114.06146 172.23608 300
11.27803 -124.25246 172.33279 296
-47.80048 -159.20392 165.11575 288
77.12152 -86.46288 171.78320 316
67.44273 -92.29777 171.87369 312
56.41460 -98.92982 171.94965 308
43.75758 -106.45444 172.07436 304
29.15034 -115.27713 172.23015 300
12.00818 -125.53121 172.35287 296
-46.84255 -160.82779 165.13455 286
77.64075 -87.38020 171.80525 316
67.95531 -93.25471 171.84805 312
56.96277 -99.94016 171.96304 308
44.40029 -107.59406 172.06973 304
29.80981 -116.43188 172.18141 300
-27.88826 -151.56427 163.72606 372
78.16902 -88.24427 171.79616 316
68.50500 -94.20073 171.86900 312
57.59741 -100.92817 171.98325 308
45.05235 -108.65201 172.06468 304
30.49095 -117.63357 172.17616 300
-24.43062 -151.50975 164.22595 374
78.67540 -89.10504 171.79231 316
69.06298 -95.13872 171.84370 312
58.20152 -101.96410 171.93814 308
45.65346 -109.75909 172.05716 304
31.19085 -118.78596 172.18500 300
-20.92479 -151.37610 164.80977 375
79.23816 -90.00861 171.77188 316
69.66088 -96.04902 171.85689 312
58.75439 -102.94215 171.96913 308
46.33394 -110.81516 172.04010 304
31.91367 -119.98122 172.19112 300
-17.57865 -151.32315 165.33125 376
79.74516 -90.88185 171.76033 316
70.24043 -97.01518 171.85976 312
59.38486 -103.92511 171.96962 308
46.95741 -111.93365 172.06935 304
32.58810 -121.12311 172.17261 300
-15.17253 -151.88095 165.65605 291
80.27488 -91.76083 171.78311 316
70.77974 -97.92118 171.83221 312
60.00558 -104.93299 171.96249 308
47.63113 -113.01414 172.07253 304
33.33208 -122.34188 172.17487 300
-14.22614 -153.24040 165.65947 291
80.85812 -92.61705 171.76807 316
71.38779 -98.86634 171.84299 312
60.62434 -105.95187 171.92021 308
48.33563 -114.09797 172.05975 304
34.05360 -123.45655 172.16522 300
-13.23745 -154.65610 165.65154 291
81.36891 -93.46831 171.78300 316
71.95184 -99.80448 171.86682 312
61.25534 -106.95203 171.91138 308
48.99716 -115.15263 172.05443 304
-4.25040 -150.72514 162.81392 285
-12.29463 -156.06622 165.67326 290
81.95537 -94.34635 171.73849 316
72.55724 -100.69757 171.81827 312
61.87821 -107.91915 171.90666 308
49.69677 -116.19839 172.03735 304
-1.60975 -150.92473 163.27776 382
-11.37012 -157.49767 165.65475 290
82.51772 -95.20470 171.74150 316
73.13410 -101.61496 171.84494 312
62.54034 -108.88835 171.91809 308
50.38330 -117.26576 172.01816 304
1.39953 -150.86710 163.77135 383
-10.37062 -158.95821 165.66356 290
83.08514 -96.05715 171.73199 316
73.73469 -102.55531 171.80292 312
63.16087 -109.90189 171.91183 308
51.05637 -118.32726 172.01942 304
4.35562 -150.75824 164.23619 385
83.66764 -96.92570 171.74707 316
74.39038 -103.45628 171.80046 312
63.80928 -110.85567 171.91487 308
51.72294 -119.40120 172.01486 304
7.27070 -150.73094 164.76015 386
84.24080 -97.73033 171.74471 316
74.97544 -104.35918 171.80029 312
64.50785 -111.85889 171.90660 308
52.48022 -120.45376 171.98418 304
10.11500 -150.66985 165.18347 387
84.81148 -98.59812 171.72121 316
75.59423 -105.23307 171.79465 312
65.17602 -112.82388 171.92548 308
53.17226 -121.47921 171.98494 304
12.88081 -150.56909 165.65770 388
85.37088 -99.44803 171.74332 316
76.22195 -106.14870 171.83125 312
65.81844 -113.75751 171.88782 308
53.87954 -122.49338 171.98361 304
15.43983 -150.69937 166.06900 295
85.96712 -100.30002 171.72055 316
76.87479 -107.04832 171.82660 312
66.49421 -114.72020 171.91306 308
54.59819 -123.56611 171.98888 304
16.37473 -151.94943 166.04214 295
86.56458 -101.11865 171.70552 316
77.47752 -107.94093 171.81863 312
67.16931 -115.69021 171.90677 308
22.77577 -149.07832 163.19804 296
17.38002 -153.14470 166.09886 295
87.19368 -101.92152 171.73810 316
78.15631 -108.84104 171.79901 312
67.88078 -116.64973 171.85843 308
23.67982 -150.30644 163.15994 390
18.32420 -154.33165 166.10144 295
87.80781 -102.74874 171.73454 316
78.78087 -109.70168 171.79874 312
68.55293 -117.58180 171.86931 308
26.25522 -150.18935 163.67468 391
19.32609 -155.56229 166.08020 295
88.39142 -103.57430 171.68895 316
79.44011 -110.61840 171.78239 312
69.23785 -118.55302 171.85532 308
28.87837 -150.10570 164.12991 393
20.28564 -156.79955 166.06575 295
89.00137 -104.40456 171.71445 316
80.08668 -111.49079 171.76613 312
69.96562 -119.49652 171.88490 308
31.35642 -149.96741 164.54001 394
21.23168 -158.01155 166.06454 297
89.66489 -105.23331 171.68599 316
80.77197 -112.32172 171.76505 312
70.67522 -120.42784 171.85837 308
33.83144 -149.92477 164.96019 395
22.20532 -159.25594 166.11440 297
90.28152 -106.06345 171.70171 316
81.40364 -113.22104 171.77335 312
71.37493 -121.34187 171.86101 308
36.30235 -149.81741 165.37393 396
90.91954 -106.85877 171.66615 316
82.12421 -114.08267 171.76767 312
72.12456 -122.29790 171.83887 308
38.67965 -149.72704 165.81160 397
91.56018 -107.66396 171.68283 316
82.76986 -114.94557 171.73851 312
44.81827 -146.50072 163.33589 300
40.97775 -149.64427 166.23149 301
92.17507 -108.45048 171.65897 316
83.45067 -115.82320 171.72786 312
45.60891 -147.64520 163.32376 300
41.96585 -150.75577 166.21382 301
92.82675 -109.28251 171.66499 316
84.16816 -116.67216 171.75529 312
46.40563 -148.88045 163.30252 300
42.88666 -151.81778 166.21411 301
93.48137 -110.07748 171.67442 316
84.83437 -117.48475 171.72812 312
47.90552 -149.40564 163.45474 402
43.83951 -152.93248 166.21410 301
94.13184 -110.84972 171.66919 316
85.53677 -118.37254 171.70685 312
50.16052 -149.31816 163.87759 403
44.77262 -154.02890 166.18919 301
94.79315 -111.63403 171.66628 316
86.23277 -119.21407 171.70288 312
52.35233 -149.18201 164.27072 404
45.67867 -155.05348 166.22658 301
95.47720 -112.43577 171.63297 316
86.96597 -120.02679 171.71118 312
54.47791 -149.14247 164.65974 405
46.63327 -156.17770 166.19373 301
96.12874 -113.18033 171.62683 316
87.67682 -120.86362 171.72383 312
56.59726 -149.03726 165.04018 406
47.56876 -157.20906 166.22003 301
96.82961 -113.96941 171.64195 316
64.25719 -143.80592 163.52818 304
58.66758 -148.96701 165.38994 407
48.55458 -158.25922 166.19656 301
97.48605 -114.76096 171.60924 316
65.06754 -144.85739 163.48221 304
60.76858 -148.87402 165.76466 408
98.18766 -115.51601 171.63852 316
65.85925 -145.92606 163.46983 304
62.77354 -148.81068 166.15062 410
-11615.44336 -11136.78613 -2190.10254 1000
98.84224 -116.25654 171.63034 316
66.66089 -147.00574 163.39055 304
64.20219 -149.24794 166.29362 305
99.53470 -117.03645 171.61728 316
67.43711 -148.03731 163.40338 304
65.11675 -150.22849 166.30626 305
100.26027 -117.76881 171.61816 316
68.72551 -148.60617 163.51057 412
66.09028 -151.15582 166.35088 305
100.95685 -118.56113 171.61618 316
70.64140 -148.50621 163.84776 413
66.98627 -152.10558 166.35249 305
101.65499 -119.28414 171.60260 316
72.51897 -148.43083 164.21062 414
67.94899 -153.00185 166.30641 305
102.37806 -120.04545 171.59363 316
74.38072 -148.38356 164.57669 416
68.92931 -153.96007 166.31929 305
82.34779 -142.03238 163.63737 307
76.24446 -148.33311 164.89787 417
69.83087 -154.86082 166.34973 305
83.17729 -142.98549 163.60912 307
78.07355 -148.22034 165.24197 418
70.78026 -155.79147 166.32962 305
83.97176 -143.88217 163.58929 307
79.85925 -148.14938 165.53496 419
71.75022 -156.71159 166.34648 305
84.74634 -144.81146 163.56694 307
81.65913 -148.08432 165.84476 420
85.57413 -145.70160 163.51718 307
83.37524 -148.04857 166.18787 421
86.37386 -146.65147 163.46880 307
84.90613 -148.22174 166.40974 309
87.18018 -147.54767 163.47292 307
85.84941 -149.03140 166.42770 309
88.56303 -147.82570 163.61925 423
86.73353 -149.83879 166.39246 310
90.22031 -147.78722 163.93732 424
87.65858 -150.64433 166.44221 310
91.84738 -147.73044 164.26361 425
88.61844 -151.46970 166.44002 310
93.49107 -147.63654 164.53885 426
89.53414 -152.25822 166.44780 310
95.12375 -147.61322 164.86102 427
90.46320 -153.01801 166.40582 310
96.69842 -147.52164 165.16022 418
91.43462 -153.79375 166.43193 310
98.39148 -147.34746 165.44780 419
92.37595 -154.59645 166.43677 310
100.05983 -147.20465 165.78937 420
93.32881 -155.33556 166.41928 310
101.67905 -147.02168 166.08768 421
94.32862 -156.12131 166.42860 310
103.28548 -146.88133 166.37192 422
104.35244 -147.36685 166.45815 314
105.22600 -148.11143 166.43285 314
106.16175 -148.81734 166.48694 314
107.03127 -149.47205 166.48183 314
107.96854 -150.19450 166.45424 314
108.87943 -150.84579 166.46617 314
109.84009 -151.56305 166.46951 314
110.72613 -152.24663 166.47777 314
111.64786 -152.89110 166.46370 314
114.79130 -150.47148 167.44870 316
115.70669 -151.16064 167.45137 316
119.56581 -149.43823 168.45248 274
120.73016 -149.61719 168.56924 489
124.02938 -148.64433 169.25836 489
125.47473 -148.37265 169.54529 440
126.81853 -148.21858 169.76038 441
127.71562 -148.84016 169.74455 395
-8470.09961 -20629.25195 2057.28418 1000
-263.58124 -1933.86292 86.08833 451
-266.22968 -1943.57544 118.74503 313
-250.66856 -1932.48462 86.67809 499
-251.97495 -1936.51672 118.92624 499
-252.91753 -1940.00586 151.40916 498
-240.76512 -1942.02454 85.99509 397
-4198.41309 -42242.97656 3706.75220 1000
229.31252 -1458.29480 97.11765 359
238.00314 -1448.34631 98.22514 470
238.09621 -1451.99451 121.65194 469
238.05240 -1456.06628 145.28220 490
238.30247 -1459.36438 169.06015 493
246.83078 -1446.69519 98.37688 496
246.83414 -1450.86340 121.60823 495
247.10780 -1456.01392 145.29691 465
247.04265 -1462.35779 169.00954 364
255.75128 -1449.65271 97.88297 427
255.94496 -1457.02551 121.38463 364
10815.61035 -56893.15234 -1672.23474 1000
1119.13538 -4378.38086 -149.43291 1000
6482.89941 -26366.65625 2440.90894 1000
731.87250 -943.63934 111.09507 327
733.47107 -933.52063 111.66248 452
734.77405 -935.73248 129.03851 452
736.24792 -938.18195 146.55777 396
737.98419 -941.41962 163.87756 328
737.80743 -927.90619 112.07331 487
739.01318 -929.71594 129.41867 487
740.03351 -931.58405 146.63199 487
741.07513 -933.68445 164.20560 487
742.29327 -935.52515 181.59229 485
744.07080 -938.86713 198.93784 419
743.56555 -924.45685 112.18974 487
744.75525 -926.45496 129.22429 487
745.84851 -928.58807 146.65460 486
747.15796 -930.87048 164.19112 479
748.03412 -932.65485 181.47491 486
750.60730 -936.81067 199.07127 312
750.42389 -923.76715 111.65914 450
751.88348 -926.04980 129.14224 450
753.64160 -928.91986 146.41801 395
756.22449 -933.84332 163.74959 336
760.44696 -926.55206 111.55177 325
367.78979 -108.47605 167.63516 313
368.39566 -107.53607 167.60912 313
369.02521 -106.64879 167.64749 315
369.68854 -105.70414 167.61125 315
370.32428 -104.79920 167.62605 315
370.95682 -103.86713 167.62442 315
371.55594 -102.92936 167.63084 315
372.17130 -101.96654 167.63225 315
372.75998 -101.02398 167.65742 315
373.36844 -100.11021 167.63336 315
373.95721 -99.15819 167.67099 315
374.55835 -98.18732 167.67693 315
375.26157 -97.30060 167.64069 437
376.61584 -96.81994 167.39485 436
377.99222 -96.35493 167.11911 436
379.38141 -95.87758 166.88547 435
387.75024 -100.86557 167.66750 309
380.82343 -95.36499 166.62459 434
388.35403 -99.81649 167.68883 309
382.23108 -94.88118 166.33705 433
388.90189 -98.81123 167.72160 309
383.68225 -94.40621 166.10524 432
389.51151 -97.75114 167.69427 309
385.12128 -93.91132 165.80502 431
390.04016 -96.66950 167.72124 309
386.58740 -93.37202 165.57039 430
390.59842 -95.60638 167.73871 309
388.10510 -92.85727 165.25366 429
391.14682 -94.58141 167.73135 311
389.59708 -92.36205 164.96068 428
391.73212 -93.49162 167.70932 311
390.86911 -91.69352 164.74487 317
392.26025 -92.43311 167.73289 311
391.41177 -90.64441 164.75447 317
392.81281 -91.38620 167.74706 311
391.98950 -89.58672 164.73753 317
394.22998 -90.74100 167.48608 425
392.53970 -88.58678 164.72995 317
395.80505 -90.21154 167.21582 424
393.10812 -87.49144 164.76018 317
397.39783 -89.66365 166.90402 423
393.65927 -86.43128 164.74881 317
398.99368 -89.09663 166.63612 422
407.96759 -93.52740 167.73009 305
394.18231 -85.41281 164.74596 317
400.59964 -88.51559 166.33148 421
408.52362 -92.38739 167.77795 305
394.72614 -84.31582 164.70168 317
402.27560 -87.97449 166.00783 420
409.00742 -91.18022 167.77670 305
395.25082 -83.25267 164.71791 317
403.94370 -87.40514 165.68459 419
409.54739 -90.00360 167.75912 305
395.78122 -82.22039 164.73055 317
405.62790 -86.77899 165.38805 418
410.00958 -88.87375 167.77977 305
396.26672 -81.10893 164.72623 317
407.30746 -86.18389 165.04237 437
410.56592 -87.66940 167.80202 305
396.77826 -80.02793 164.72783 317
408.65454 -85.37574 164.81810 312
411.00317 -86.50072 167.80360 305
373.92685 -68.63460 171.56075 316
409.16608 -84.27061 164.84026 312
411.53159 -85.30518 167.79721 305
374.32098 -67.66460 171.54997 316
409.66788 -83.06148 164.80530 312
411.98355 -84.07815 167.82614 305
374.70306 -66.71217 171.55531 316
410.18719 -81.92749 164.81821 312
413.27692 -83.26424 167.59096 434
375.08170 -65.78320 171.56807 316
410.68680 -80.74029 164.79510 312
414.83392 -82.48279 167.38353 433
375.46408 -64.81936 171.56660 316
411.19916 -79.58802 164.81367 312
416.38715 -81.77441 167.06645 432
375.87662 -63.83818 171.58507 316
411.66510 -78.41873 164.83614 312
417.94363 -80.97192 166.80771 431
376.25452 -62.92336 171.57030 316
412.17966 -77.28647 164.82423 312
419.50650 -80.22919 166.54535 430
376.59027 -61.95580 171.55121 316
412.64996 -76.06481 164.80844 312
421.16986 -79.43913 166.24193 429
430.47400 -83.07610 167.79018 301
376.94473 -60.95456 171.56654 316
413.12061 -74.90761 164.82132 312
422.79022 -78.61075 165.97334 428
430.94379 -81.76989 167.81464 301
377.32327 -60.00014 171.57176 316
413.58151 -73.73556 164.80707 312
424.42249 -77.83788 165.68480 427
431.37164 -80.49216 167.80345 301
377.66882 -59.06419 171.58096 316
414.02820 -72.52437 164.78712 312
426.09692 -77.00453 165.37868 426
431.80801 -79.14194 167.84265 301
378.02597 -58.05740 171.57074 316
388.59888 -61.94154 171.69930 312
427.78238 -76.19319 165.07372 425
432.24487 -77.84079 167.83574 301
378.32968 -57.08167 171.59819 316
388.96439 -60.89886 171.67375 312
428.96182 -75.21363 164.87720 308
432.67920 -76.52956 167.85837 301
378.65341 -56.13707 171.60664 316
389.32727 -59.83565 171.68535 312
429.42422 -73.94495 164.85994 308
433.09607 -75.21350 167.88062 301
379.01340 -55.15666 171.61398 316
389.66568 -58.80637 171.71506 312
429.88696 -72.63845 164.89725 308
433.49341 -73.86193 167.84555 301
379.33749 -54.15673 171.57808 316
389.99152 -57.76045 171.67560 312
430.36536 -71.37689 164.88177 308
434.66888 -72.84933 167.67775 421
379.65247 -53.20036 171.61740 316
390.33734 -56.72332 171.72647 312
430.81140 -70.07434 164.85529 308
436.50348 -71.97372 167.41464 420
379.96771 -52.21785 171.62285 316
390.69272 -55.67782 171.68912 312
431.23572 -68.80341 164.87221 308
438.28415 -71.07496 167.05185 419
380.24969 -51.21149 171.58640 316
391.01593 -54.63075 171.71919 312
431.67996 -67.52475 164.85309 308
440.04144 -70.14558 166.77338 433
380.56360 -50.22783 171.60126 316
391.33191 -53.56828 171.68706 312
432.06238 -66.20527 164.86136 308
441.67279 -69.19096 166.52089 432
380.82135 -49.23729 171.61113 316
391.63177 -52.50433 171.70834 312
432.46359 -64.89570 164.86259 308
443.27527 -68.16700 166.22337 431
381.10419 -48.25192 171.59061 316
391.91373 -51.47248 171.70499 312
432.86380 -63.61283 164.88094 308
444.97986 -67.17627 165.92860 430
454.93747 -70.15826 167.88094 297
381.38571 -47.26028 171.62930 316
392.23529 -50.41248 171.70128 312
404.52533 -53.96734 171.82092 309
446.65662 -66.16616 165.68776 429
455.29044 -68.71247 167.92473 297
267.12427 -13.84947 203.50046 288
392.52490 -49.36710 171.73643 312
404.80994 -52.84407 171.86255 309
448.32681 -65.17739 165.39401 428
455.67236 -67.24950 167.90294 297
267.20020 -13.55523 203.50816 314
392.81601 -48.32058 171.71678 312
405.10898 -51.70741 171.85567 309
450.04367 -64.15710 165.09901 427
455.99963 -65.79004 167.94415 297
267.28867 -13.27731 203.51022 314
393.10486 -47.24578 171.73926 313
405.42633 -50.55453 171.83511 309
450.92957 -62.84079 164.95598 303
456.31464 -64.27672 167.92422 297
267.35959 -12.98814 203.50482 314
393.34689 -46.17030 171.70703 313
405.70651 -49.44624 171.85532 309
451.30917 -61.42727 164.97906 303
456.63239 -62.83492 167.96162 297
267.42975 -12.69648 203.50299 314
393.62448 -45.08227 171.73381 313
405.97415 -48.29687 171.87506 309
451.68484 -60.03912 164.99429 303
456.99762 -61.39778 167.93750 297
3654.77856 -882.12598 216.81459 498
3659.99512 -883.57489 274.78058 497
267.51517 -12.40574 203.50005 314
393.85614 -44.04060 171.75310 313
406.27643 -47.12103 171.84126 309
451.97672 -58.56111 164.95572 303
457.28003 -59.91990 167.98509 297
267.58466 -12.11890 203.49852 314
394.13348 -42.96586 171.72673 313
406.54242 -46.02366 171.85402 309
452.36792 -57.19841 164.94623 303
458.98816 -58.74472 167.66147 422
267.65274 -11.82884 203.50426 314
394.36542 -41.88537 171.74966 313
406.80551 -44.83101 171.88197 309
452.72086 -55.76711 164.97925 303
460.83566 -57.63785 167.40602 421
267.71732 -11.54014 203.49919 314
394.62866 -40.82172 171.76414 313
407.08237 -43.71144 171.87920 309
453.01889 -54.31651 164.98451 303
462.58423 -56.48493 167.11491 453
267.78445 -11.25314 203.50769 314
394.86154 -39.75945 171.76535 313
407.31848 -42.53845 171.88177 309
453.36453 -52.89575 164.98207 303
463.90179 -55.23124 166.88364 452
267.84766 -10.96083 203.50964 314
395.08356 -38.69157 171.72934 313
407.58548 -41.39867 171.86385 309
453.68170 -51.42648 164.98941 304
465.30826 -53.95678 166.65013 451
267.91116 -10.66889 203.50691 314
395.31219 -37.62719 171.76675 313
407.79907 -40.24452 171.87407 309
422.10294 -43.30311 172.01514 305
466.67816 -52.73081 166.43817 450
267.97678 -10.37903 203.49855 314
395.54004 -36.53571 171.75781 313
408.03238 -39.12350 171.85136 309
422.34802 -42.05740 172.01274 305
468.06436 -51.44073 166.25629 450
268.02631 -10.08082 203.50270 314
395.75513 -35.48792 171.73882 313
408.25607 -37.94688 171.87587 309
422.57309 -40.79913 172.00491 305
469.44345 -50.14266 166.04259 449
268.08444 -9.79470 203.49806 314
395.95523 -34.36480 171.74615 313
408.49097 -36.77280 171.85942 309
422.83151 -39.55004 172.00076 305
470.84064 -48.82346 165.83261 448
268.14368 -9.49667 203.50674 314
396.15207 -33.31409 171.73608 313
408.69479 -35.61892 171.89314 309
423.00702 -38.29597 172.04425 305
472.26971 -47.50373 165.59995 447
482.59470 -49.36095 167.99696 293
268.19061 -9.20500 203.50899 314
396.33954 -32.23823 171.73294 313
408.89694 -34.50005 171.89667 309
423.25867 -37.06655 172.01793 305
473.66971 -46.14031 165.32607 446
482.73831 -47.78835 168.00842 293
268.24878 -8.91006 203.50757 314
396.52441 -31.13156 171.75658 313
409.04736 -33.30515 171.87236 309
423.48553 -35.82544 172.00885 305
475.11719 -44.76493 165.09909 445
483.00681 -46.10531 168.01669 293
268.29382 -8.62174 203.50896 314
396.70407 -30.08490 171.74626 313
409.23822 -32.18980 171.85394 309
423.63657 -34.55799 172.02531 305
475.40125 -43.23673 165.13403 300
483.16541 -44.47068 168.03938 293
268.34738 -8.31862 203.50580 314
396.87018 -28.99579 171.75815 313
409.43588 -31.02780 171.90958 309
423.84100 -33.34459 172.05048 305
475.67990 -41.67332 165.13078 300
483.38330 -42.84661 168.08574 293
268.38837 -8.02423 203.50844 314
396.99478 -27.89528 171.76872 313
409.63101 -29.82059 171.86835 309
424.05847 -32.04992 172.02284 305
475.91959 -40.11504 165.14626 300
483.50052 -41.24838 168.09796 293
268.43246 -7.73419 203.50865 314
397.17065 -26.79795 171.74153 313
409.78027 -28.70717 171.87231 309
424.23965 -30.83263 172.05449 305
476.15802 -38.52442 165.14824 300
483.66605 -39.63244 168.10815 293
268.47638 -7.44607 203.50557 314
397.31799 -25.71375 171.75073 313
409.94482 -27.53383 171.88467 309
424.37106 -29.55413 172.03386 305
476.32333 -36.95393 165.09944 300
483.84726 -37.96510 168.09592 294
268.51849 -7.14928 203.49973 314
397.45740 -24.66039 171.76286 313
410.11810 -26.37466 171.90982 309
424.54312 -28.32821 172.05286 305
441.26379 -30.59904 172.18634 301
483.95917 -36.35987 168.11256 294
268.55957 -6.84385 203.49913 314
397.61349 -23.53318 171.79018 313
410.22842 -25.18126 171.87337 309
424.74475 -27.03461 172.00449 305
441.43350 -29.25575 172.22314 301
484.97351 -34.82564 168.02850 459
268.59497 -6.54842 203.50606 314
397.71442 -22.48856 171.76572 313
410.38641 -24.02246 171.91180 309
424.88306 -25.83055 172.02995 305
441.61099 -27.87407 172.20992 301
486.15485 -33.34894 167.82016 458
268.62701 -6.26368 203.50069 314
397.87170 -21.36235 171.77759 313
410.50977 -22.83607 171.91203 309
425.03149 -24.53883 172.05177 305
441.78223 -26.51769 172.19598 301
487.36826 -31.82152 167.64665 457
268.66040 -5.95744 203.49727 314
272.04965 -6.33153 203.49777 282
410.63193 -21.67007 171.91341 309
425.16858 -23.31167 172.03326 305
441.94330 -25.14643 172.21938 301
488.61481 -30.35789 167.42014 456
268.69980 -5.67286 203.50121 314
272.06461 -6.02493 203.49901 310
410.78055 -20.49812 171.89125 309
425.28546 -22.01790 172.05545 305
442.05408 -23.75896 172.21492 301
489.88058 -28.82565 167.19319 456
268.73108 -5.36966 203.49744 314
272.09460 -5.70109 203.50858 310
410.88409 -19.37861 171.89613 309
425.42639 -20.75963 172.02420 305
442.17993 -22.43576 172.16997 301
491.12030 -27.22938 167.05643 455
268.75543 -5.07723 203.49911 314
272.12466 -5.39081 203.50536 310
410.98605 -18.16329 171.87297 309
425.52118 -19.53449 172.05666 305
442.28082 -21.06057 172.21298 301
492.39200 -25.68376 166.82637 454
268.78702 -4.77578 203.50836 314
272.16013 -5.07545 203.50935 310
411.08728 -16.99276 171.87866 309
425.63788 -18.26068 172.06560 305
442.39850 -19.68013 172.17485 301
493.71219 -24.08100 166.63995 453
268.80682 -4.48422 203.50433 314
272.18829 -4.74461 203.49733 310
411.20703 -15.85041 171.87608 309
425.72827 -16.98095 172.03041 305
442.51959 -18.34392 172.20020 301
494.99850 -22.50507 166.38492 452
268.83154 -4.18322 203.50447 314
272.20447 -4.43763 203.50304 310
411.26093 -14.66935 171.92253 309
425.79193 -15.75340 172.01984 305
442.61554 -16.99836 172.20445 301
496.23590 -20.89142 166.22954 451
268.84885 -3.88660 203.50638 314
272.23230 -4.11677 203.49948 310
411.35577 -13.49515 171.87247 309
425.88611 -14.48077 172.04872 305
442.71762 -15.61240 172.19145 301
462.43768 -16.92221 172.36038 297
268.86386 -3.59213 203.50433 314
272.24713 -3.80193 203.49928 310
411.41434 -12.32778 171.92245 309
426.00937 -13.21173 172.03604 305
442.80927 -14.23792 172.23311 301
462.47336 -15.44197 172.36086 297
268.88550 -3.28971 203.50748 314
272.26678 -3.48515 203.50829 310
411.47882 -11.16530 171.89053 309
426.07483 -11.95867 172.03342 305
442.86261 -12.89000 172.20241 301
462.59253 -13.98492 172.42560 297
268.89697 -2.99379 203.50331 314
272.28232 -3.15773 203.50975 310
411.55600 -9.96546 171.87871 309
426.12012 -10.70969 172.05417 305
442.95123 -11.49228 172.20288 301
462.62460 -12.51107 172.38388 297
268.91928 -2.69566 203.50182 314
272.30762 -2.84493 203.50316 310
411.59048 -8.81924 171.90497 309
426.16702 -9.43874 172.04855 305
443.00262 -10.14241 172.22041 301
462.71552 -11.01749 172.36243 297
268.93115 -2.39726 203.50101 314
272.32056 -2.52809 203.50508 310
411.67288 -7.61782 171.87444 309
426.24634 -8.18134 172.01755 305
443.08997 -8.81992 172.18399 301
462.79480 -9.50428 172.41992 297
268.93842 -2.10768 203.49774 314
272.32138 -2.20457 203.50935 310
411.69867 -6.47431 171.88271 309
426.28522 -6.90119 172.01808 305
443.12891 -7.41536 172.20213 301
462.83160 -8.03238 172.37239 297
268.94254 -1.80728 203.50203 314
272.33685 -1.89430 203.50418 310
411.73914 -5.28249 171.89890 309
426.28406 -5.67197 172.02872 305
443.13724 -6.07855 172.23009 301
462.85269 -6.53454 172.36862 297
268.95050 -1.51319 203.50908 314
272.33633 -1.57665 203.50912 310
411.73715 -4.13887 171.90457 309
426.29089 -4.36805 172.05307 305
443.17572 -4.68636 172.21861 301
462.85895 -5.07020 172.38312 297
268.95099 -1.21277 203.49792 314
272.33966 -1.24592 203.50656 310
411.76810 -2.92375 171.88029 309
426.33887 -3.12620 172.04808 305
443.18042 -3.31299 172.22205 301
462.92822 -3.54518 172.42735 297
512.52435 -4.12570 168.32655 288
268.96384 -0.90962 203.49962 314
272.34421 -0.93839 203.50975 310
411.78995 -1.75318 171.90498 309
426.35403 -1.84509 172.01263 305
443.20221 -1.98388 172.22057 301
451.91956 -2.02360 174.38965 425
512.54993 -2.33384 168.31357 288
268.96332 -0.61495 203.50583 314
272.34653 -0.61593 203.51067 310
411.78827 -0.59170 171.91158 309
426.36594 -0.57433 172.04051 305
443.19003 -0.58003 172.19002 301
462.93314 -0.59150 172.42163 297
512.48596 -0.58999 168.31422 288
268.96048 -0.31610 203.49840 314
272.35236 -0.30129 203.49928 310
411.75952 0.59077 171.88460 309
426.37381 0.65165 172.03656 305
443.18863 0.77132 172.18246 301
452.24615 0.83358 174.32487 425
512.47400 1.21396 168.32796 288
268.95633 -0.01939 203.50275 314
272.34576 0.01746 203.49919 310
411.73196 1.74419 171.88635 309
426.34705 1.90969 172.05110 305
443.19485 2.15032 172.19708 301
452.12851 2.24939 174.34436 422
512.50745 2.97734 168.27185 288
268.94736 0.28099 203.49986 314
272.33356 0.34553 203.50871 310
411.72604 2.91505 171.87369 309
426.31033 3.18183 172.05119 305
443.17581 3.53255 172.19002 301
462.90393 3.85277 172.38571 297
268.94409 0.57121 203.50238 314
272.33069 0.65260 203.49934 310
411.71899 4.09880 171.88675 309
426.29001 4.47646 172.03352 305
443.14621 4.84724 172.21883 301
462.83759 5.37953 172.37193 297
268.93802 0.87411 203.50879 314
272.32840 0.97132 203.50014 310
411.66248 5.25814 171.87305 309
426.28177 5.74180 172.01198 305
443.08386 6.24399 172.20869 301
462.78525 6.83759 172.42143 297
268.92978 1.16687 203.50357 314
272.30792 1.29875 203.50743 310
411.66373 6.46077 171.87708 309
