# .PCD v.7 - Point Cloud Data file format
VERSION .7
FIELDS x y z rgb
SIZE 4 4 4 4
TYPE F F F U
COUNT 1 1 1 1
WIDTH 1380
HEIGHT 1
VIEWPOINT 4290.831055 -4103.334961 133.513641 -0.002113 -0.114436 0.003894 0.993421
POINTS 1380
DATA ascii
-3.13883 -86.70409 204.85934 309
75.78136 -57.31643 174.95609 420
73.22738 -58.30548 177.00177 418
70.56499 -59.35844 179.04065 386
61.44819 -62.90920 179.72458 304
47.14362 -68.52158 179.57759 389
43.60911 -69.91525 182.06136 386
39.71965 -71.43324 184.57939 373
35.50732 -73.08635 187.11855 370
31.10151 -74.83014 189.82332 368
25.65619 -76.98082 192.55940 334
19.46127 -79.39973 195.36162 332
11.73155 -82.44571 198.25638 313
2.80363 -85.92386 201.30133 311
-12.70881 -92.02052 204.32196 255
75.50698 -58.41982 174.76411 419
72.94778 -59.45670 176.80676 417
69.92270 -60.67155 178.79001 385
61.83923 -63.88597 179.71762 304
46.46223 -70.05087 179.35864 388
42.86623 -71.47648 181.78235 385
38.77769 -73.09103 184.33696 372
34.50504 -74.84970 186.92802 369
29.54978 -76.77431 189.57509 336
23.59163 -79.17286 192.23880 333
17.03155 -81.77909 195.02756 315
8.48636 -85.19096 197.88022 312
-0.74280 -88.88529 201.03065 310
75.20120 -59.60354 174.60188 419
72.38903 -60.76144 176.57727 387
69.25957 -62.02457 178.55400 385
62.19274 -64.89941 179.71812 304
45.72670 -71.58009 179.09830 387
41.99774 -73.09940 181.53918 374
37.81864 -74.79902 184.08516 371
33.31762 -76.61931 186.64058 337
27.56422 -79.00239 189.20139 334
21.42824 -81.48903 191.92175 332
13.93857 -84.51346 194.65306 314
5.15195 -88.08986 197.55992 311
-9.49140 -94.07040 200.35057 265
74.82099 -60.81013 174.38197 388
71.74184 -62.07113 176.28064 386
68.58292 -63.36256 178.29225 397
62.57860 -65.85736 179.71660 304
45.04911 -73.12849 178.84377 386
41.11267 -74.75700 181.28551 373
36.85633 -76.51133 183.81171 370
31.40656 -78.73387 186.29234 336
25.51913 -81.18577 188.84348 333
19.16714 -83.82175 191.53513 315
10.76257 -87.28354 194.23747 313
1.62519 -91.09109 197.17967 284
74.22090 -62.10711 174.09988 387
71.11758 -63.38332 175.99748 385
67.96055 -64.75182 178.04176 396
62.99463 -66.81878 179.69177 304
44.28410 -74.73466 178.57608 374
40.15919 -76.46777 181.02435 372
35.21229 -78.53194 183.42390 337
29.46674 -80.94104 185.90472 335
23.40529 -83.49875 188.46454 332
16.13024 -86.56503 191.13116 314
7.45226 -90.19408 193.83922 311
-9.19398 -97.23394 196.22285 265
73.61471 -63.42761 173.81769 386
70.49710 -64.77132 175.71872 384
67.34963 -66.11546 177.78447 395
63.40003 -67.81987 179.70007 304
43.36996 -76.39259 178.28935 373
38.85796 -78.29589 180.65245 338
33.30694 -80.66708 183.01579 336
27.44886 -83.20084 185.48967 334
21.26946 -85.85146 188.08098 331
13.03332 -89.34731 190.66777 313
2.55685 -93.90160 193.28696 284
73.00237 -64.77654 173.52817 385
69.85966 -66.11858 175.45564 383
66.70727 -67.50515 177.50427 394
63.77647 -68.79184 179.68742 304
42.43993 -78.11101 178.01620 340
37.05845 -80.44461 180.19870 337
31.38587 -82.90887 182.57793 335
25.36640 -85.53633 185.04526 332
18.37914 -88.56449 187.62462 314
9.77214 -92.31396 190.21889 312
-8.83135 -100.40169 191.97594 265
72.38597 -66.10567 173.22253 385
69.19500 -67.52785 175.16464 382
66.05943 -68.91720 177.23358 393
63.35061 -70.10429 179.48950 391
51.25203 -75.48832 179.82686 300
35.22863 -82.56838 179.77574 336
29.39640 -85.16547 182.10693 334
23.26870 -87.89950 184.65245 331
15.30302 -91.40850 187.09047 313
3.50169 -96.61572 189.32837 283
71.77016 -67.45700 172.91118 384
68.50697 -68.92406 174.88524 381
65.38612 -70.35007 176.93857 392
62.65124 -71.55627 179.21931 390
51.67610 -76.51244 179.78397 300
33.34043 -84.80362 179.28372 335
27.38127 -87.49771 181.68166 333
20.62179 -90.50439 184.09004 314
11.55058 -94.61890 186.47873 285
-8.29833 -103.51394 187.80710 265
71.14260 -68.86828 172.61818 383
67.83614 -70.38454 174.58315 380
64.72529 -71.78494 176.70416 391
61.95766 -73.07609 178.98341 389
52.17289 -77.57895 179.81190 300
31.37702 -87.07212 178.78609 334
25.33108 -89.88387 181.20547 332
17.64126 -93.36081 183.54765 313
4.54750 -99.32527 185.40224 283
70.49525 -70.29419 172.29675 382
67.16321 -71.81701 174.25912 379
64.09425 -73.27643 176.41757 390
61.25785 -74.56123 178.67476 388
52.61134 -78.60843 179.76686 300
29.39516 -89.39852 178.28517 333
22.87606 -92.42586 180.67299 315
12.64571 -97.19669 182.65266 284
-28.68897 -116.43210 180.44489 284
69.87210 -71.70642 171.96489 381
66.51022 -73.28593 173.96880 378
63.40289 -74.73454 176.09912 389
60.57849 -76.08098 178.41815 387
53.07763 -79.66463 179.77370 300
27.36100 -91.78162 177.74762 332
19.97483 -95.33097 180.02200 314
5.68076 -102.03316 181.43127 283
-28.00575 -117.95808 180.49292 284
69.85024 -72.85190 171.83337 316
65.80539 -74.78798 173.66414 378
62.71353 -76.27934 175.80722 388
59.85643 -77.63862 178.15529 386
53.53094 -80.68824 179.77640 300
25.20903 -94.32357 177.21484 315
13.83812 -99.74316 178.80818 284
-19.60558 -115.84768 177.14951 345
-27.28165 -119.49648 180.43405 284
70.27962 -73.78241 171.84247 316
65.10839 -76.30107 173.31427 377
62.03169 -77.82590 175.52475 387
59.12122 -79.22587 177.83116 385
54.00469 -81.70617 179.76767 300
39.10861 -88.98666 179.88768 296
6.92918 -104.70800 177.39844 283
-15.43101 -115.60966 177.71793 347
-26.60963 -121.09243 180.45720 284
70.74920 -74.69878 171.83720 316
64.41839 -77.83088 172.97267 376
61.29793 -79.35921 175.20847 386
58.39929 -80.79156 177.57471 384
54.47358 -82.73642 179.79469 300
39.60005 -90.10981 179.92751 296
-8.75473 -114.08803 174.38237 291
-8.86499 -114.13069 178.68468 291
71.16795 -75.62445 171.85524 316
63.70235 -79.39072 172.64781 375
60.62329 -80.92023 174.89664 385
57.52097 -82.47799 177.23653 327
52.57159 -84.99409 179.24908 326
40.13741 -91.24596 179.92284 296
-0.06488 -111.47185 175.86258 292
-0.14137 -111.50479 180.01550 292
71.62543 -76.53870 171.84354 316
62.93349 -80.99181 172.29565 374
59.88616 -82.55726 174.58955 384
55.42659 -84.82158 176.61423 325
50.33757 -87.40076 178.64407 324
40.66324 -92.34089 179.86885 296
23.09139 -101.33260 180.05667 292
1.81642 -112.21214 180.20937 288
72.08410 -77.44547 171.85193 316
62.22994 -82.58535 171.96349 373
58.27748 -84.61859 174.02550 326
53.24914 -87.22047 175.95256 324
48.06311 -89.95789 177.98482 323
41.22982 -93.44790 179.90422 296
23.69981 -102.56212 180.01349 292
2.43478 -113.61465 180.20009 288
72.55642 -78.36909 171.83202 316
62.53662 -83.65520 171.92564 312
56.16572 -86.99143 173.35791 325
51.02595 -89.71262 175.27014 323
45.64014 -92.52149 177.31987 322
40.11083 -95.43440 179.55338 320
24.26959 -103.79459 180.02922 292
3.14483 -114.96601 180.21988 288
73.03055 -79.31384 171.85168 316
63.01713 -84.61902 171.93649 312
54.04530 -89.41203 172.64146 324
48.74620 -92.26883 174.56160 322
43.18961 -95.20945 176.66299 321
37.49325 -98.28312 178.88866 319
24.90737 -105.01149 180.05214 292
73.47096 -80.19183 171.80864 316
63.53750 -85.59299 171.88486 312
52.22744 -91.73883 172.00496 308
46.32730 -94.90309 173.86844 321
40.68220 -98.01080 175.96548 320
34.74073 -101.21326 178.17514 318
17.96615 -110.31449 178.59184 271
73.95119 -81.10694 171.82182 316
64.02712 -86.55981 171.91475 312
52.76268 -92.81316 171.98366 308
43.87245 -97.66666 173.08411 319
38.01488 -100.86877 175.20416 318
24.58919 -108.26879 175.95880 270
-54.56522 -151.88501 164.87163 373
74.44931 -81.99625 171.83913 316
64.55353 -87.54046 171.88432 312
53.30859 -93.80285 172.02159 308
41.35507 -100.51386 172.32237 318
32.73577 -105.30976 173.85397 270
11.97047 -116.88470 173.21861 270
-52.02350 -152.63896 165.17966 288
74.92847 -82.92960 171.79974 316
65.07449 -88.51530 171.90384 312
53.83716 -94.87881 171.99092 308
41.03909 -102.15543 172.11636 304
26.11875 -110.53484 172.22270 300
8.67585 -120.46245 172.39578 296
-51.16048 -154.40848 165.11957 288
75.42940 -83.82278 171.80440 316
65.61219 -89.47506 171.89275 312
54.43128 -95.89418 171.99478 308
41.61817 -103.22878 172.10539 304
26.77094 -111.74327 172.23828 300
9.43327 -121.76768 172.39935 296
-50.27388 -156.11336 165.12372 288
75.92191 -84.70869 171.80093 316
66.12154 -90.44269 171.90958 312
54.96613 -96.90541 172.00752 308
42.21265 -104.35704 172.07664 304
27.48199 -112.98608 172.19766 300
10.15155 -123.08334 172.35077 296
-49.35811 -157.74155 165.12199 288
76.44437 -85.59335 171.78842 316
66.66124 -91.37161 171.87155 312
55.57592 -97.97099 171.95595 308
42.84996 -105.44964 172.08041 304
28.11469 -114.14783 172.19733 300
10.86965 -124.40601 172.36594 296
-48.47474 -159.50354 165.08186 288
76.94202 -86.52000 171.77890 316
67.20291 -92.33075 171.88652 312
56.17611 -98.98907 171.98085 308
43.49412 -106.53642 172.09628 304
28.81670 -115.34702 172.23338 300
-31.65727 -151.65686 163.23329 371
77.44308 -87.40822 171.80200 316
67.73811 -93.27209 171.87108 312
56.76516 -99.98359 171.98607 308
44.11464 -107.65025 172.10054 304
29.51306 -116.57615 172.19202 300
-28.08648 -151.54462 163.78685 372
77.98978 -88.27833 171.78896 316
68.29607 -94.21738 171.88008 312
57.32225 -101.00158 171.93719 308
44.74060 -108.78355 172.05632 304
30.14168 -117.74196 172.18338 300
-24.53282 -151.48955 164.30083 374
78.50103 -89.17593 171.78564 316
68.88824 -95.18084 171.88025 312
57.95736 -102.02898 171.96089 308
45.41204 -109.82480 172.03807 304
30.86967 -118.91702 172.17210 300
-21.11506 -151.39114 164.87372 375
79.02994 -90.04803 171.76300 316
69.45319 -96.13985 171.86391 312
58.55390 -102.99822 171.93752 308
46.05084 -110.95927 172.06998 304
31.59323 -120.13307 172.20532 300
-17.67671 -151.34219 165.43134 376
79.55647 -90.88892 171.76854 316
70.00127 -97.05516 171.86781 312
59.16773 -104.00320 171.95950 308
46.69411 -111.99848 172.06584 304
32.28307 -121.24837 172.15041 300
-15.74510 -152.13797 165.64041 291
80.09766 -91.78946 171.79340 316
70.57523 -97.97186 171.84209 312
59.76176 -105.01237 171.92726 308
47.37787 -113.08434 172.06349 304
32.99775 -122.41650 172.14815 300
-14.72993 -153.50917 165.64941 291
80.65536 -92.63680 171.76784 316
71.17158 -98.91547 171.84200 312
60.41825 -105.99774 171.95750 308
48.05725 -114.17119 172.02277 304
33.69259 -123.60506 172.14069 300
-13.73252 -154.92038 165.68132 291
81.19268 -93.51823 171.75999 316
71.77126 -99.86080 171.84245 312
61.03593 -107.01670 171.96173 308
48.70434 -115.22391 172.06287 304
-4.77733 -151.02582 162.81580 381
-12.79876 -156.40317 165.66820 290
81.76976 -94.36684 171.74306 316
72.37526 -100.73859 171.81842 312
61.65126 -108.01460 171.90511 308
49.37328 -116.31435 172.01451 304
-1.68595 -150.96512 163.31372 382
-11.87324 -157.80167 165.63057 290
82.35181 -95.25858 171.77849 316
72.95552 -101.69425 171.81201 312
62.31027 -108.99318 171.94307 308
50.09452 -117.37003 172.03795 304
1.30927 -150.85001 163.78259 383
-10.90762 -159.23233 165.65994 290
82.92352 -96.10152 171.76207 316
73.56203 -102.60889 171.81564 312
62.96278 -109.97323 171.94110 308
50.80652 -118.43701 172.03639 304
4.25058 -150.78871 164.30510 385
83.48654 -96.93472 171.72498 316
74.16590 -103.51350 171.81976 312
63.60117 -110.93834 171.88931 308
51.47303 -119.45826 172.02563 304
7.19520 -150.68695 164.77849 386
84.04456 -97.79242 171.75687 316
74.79504 -104.41318 171.79607 312
64.23935 -111.94356 171.88890 308
52.18869 -120.52270 172.01633 304
10.04279 -150.68636 165.24420 387
84.63533 -98.66871 171.75584 316
75.42787 -105.31561 171.83302 312
64.92556 -112.88160 171.91254 308
52.89345 -121.58526 172.01404 304
12.83087 -150.60181 165.70332 388
85.24766 -99.46960 171.75136 316
76.03118 -106.21797 171.83374 312
65.59484 -113.86969 171.88916 308
53.66166 -122.60084 171.98082 304
15.00916 -150.91489 166.01703 295
85.83584 -100.32302 171.70340 316
76.65974 -107.11018 171.78368 312
66.27119 -114.84598 171.90952 308
54.37510 -123.65609 171.98088 304
15.99610 -152.10291 166.01358 295
86.42273 -101.17334 171.71739 316
77.32416 -108.01820 171.79820 312
66.96135 -115.77750 171.90331 308
22.43303 -149.23045 163.22566 296
16.97182 -153.39606 166.08841 295
87.05297 -101.98349 171.70746 316
77.97112 -108.88181 171.79056 312
67.65795 -116.73616 171.88998 308
23.60538 -150.26430 163.22865 390
17.90743 -154.59033 166.03079 295
87.64874 -102.81223 171.72891 316
78.62536 -109.80711 171.79692 312
68.36351 -117.71527 171.87688 308
26.20973 -150.18843 163.68323 391
18.92267 -155.83278 166.06837 295
88.23152 -103.64481 171.70311 316
79.28705 -110.64540 171.78471 312
69.07777 -118.62045 171.86963 308
28.76247 -150.09813 164.14407 393
19.92288 -157.01181 166.06451 295
88.87404 -104.46213 171.68823 316
79.91854 -111.52393 171.76118 312
69.76844 -119.55914 171.86098 308
31.30150 -150.00641 164.57825 394
20.91255 -158.20053 166.10251 297
89.51222 -105.30273 171.67514 316
80.56695 -112.41146 171.75575 312
70.45766 -120.53366 171.87674 308
33.76622 -149.89349 165.01263 395
90.15088 -106.12212 171.66852 316
81.27689 -113.27731 171.74606 312
71.20879 -121.42899 171.83632 308
36.22831 -149.80609 165.46777 396
90.77209 -106.91650 171.69331 316
81.95272 -114.13605 171.74176 312
71.94156 -122.36697 171.87190 308
38.64388 -149.75185 165.89117 397
91.39122 -107.71540 171.70135 316
82.61976 -115.01282 171.75330 312
44.58838 -146.62280 163.34595 300
40.71548 -149.82925 166.18478 301
92.06318 -108.51747 171.66281 316
83.31786 -115.86392 171.76488 312
45.33928 -147.83928 163.33275 300
41.65379 -150.90305 166.23230 301
92.67909 -109.34102 171.67090 316
83.99712 -116.75428 171.74841 312
46.09524 -149.03909 163.24323 300
42.59155 -152.00668 166.23151 301
93.35458 -110.12086 171.65538 316
84.71308 -117.59651 171.72604 312
47.87489 -149.40785 163.55736 402
43.51173 -153.08942 166.22195 301
93.98710 -110.92022 171.66531 316
85.41023 -118.40607 171.72832 312
50.07317 -149.30486 163.94469 403
44.47176 -154.19135 166.22891 301
94.67469 -111.67797 171.65991 316
86.11253 -119.29236 171.70999 312
52.23666 -149.20352 164.33798 404
45.41915 -155.26633 166.20592 301
95.35962 -112.48759 171.64259 316
86.83127 -120.10635 171.74258 312
54.38678 -149.15547 164.71420 405
46.37772 -156.31013 166.21370 301
96.01603 -113.24457 171.65469 316
87.52005 -120.92435 171.69350 312
56.55161 -149.05931 165.09294 406
47.31933 -157.41460 166.25089 301
96.68821 -114.05717 171.64719 316
64.07882 -143.99280 163.50784 304
58.66398 -148.95767 165.44841 407
97.37746 -114.81258 171.61659 316
64.83100 -145.04674 163.44595 304
60.66724 -148.92197 165.85524 408
98.07498 -115.55502 171.61974 316
65.66222 -146.09636 163.42152 303
62.72074 -148.80945 166.20961 410
98.74375 -116.33865 171.62358 316
66.43569 -147.15462 163.42932 303
63.99377 -149.42241 166.32457 305
99.44184 -117.08662 171.59856 316
67.25932 -148.14980 163.35341 303
64.92769 -150.35382 166.30576 305
100.17436 -117.83730 171.59450 316
68.69251 -148.57103 163.57887 412
65.91624 -151.28175 166.30867 305
100.83923 -118.61039 171.62096 316
70.59035 -148.50841 163.92857 413
66.83592 -152.22107 166.32347 305
101.58954 -119.33569 171.58662 316
72.50397 -148.48100 164.24841 414
67.80341 -153.17470 166.34830 305
102.30603 -120.10234 171.57979 315
74.33475 -148.39702 164.61577 416
68.75681 -154.05521 166.32037 305
82.23914 -142.15108 163.63683 307
76.22494 -148.33440 164.93549 417
69.66721 -155.01106 166.35768 305
83.03861 -143.06233 163.61911 307
78.02375 -148.21820 165.28389 418
70.64468 -155.89684 166.30869 305
83.78706 -143.98224 163.56738 307
79.83968 -148.16783 165.61662 419
71.61511 -156.80740 166.30916 305
84.62705 -144.94536 163.56096 307
81.61518 -148.10988 165.92897 420
85.42722 -145.80511 163.53680 307
83.38734 -148.01855 166.22546 421
86.25461 -146.73915 163.47124 307
84.80659 -148.31845 166.39780 309
87.06229 -147.61777 163.42191 307
85.72051 -149.13214 166.42767 309
88.48789 -147.85025 163.65692 423
86.62334 -149.96742 166.38368 309
90.19213 -147.79262 163.95340 424
87.55097 -150.77850 166.39102 309
91.83048 -147.73151 164.30193 425
88.50006 -151.58447 166.41965 309
93.48118 -147.66760 164.59163 426
89.41466 -152.35872 166.40639 309
95.07730 -147.58163 164.87236 427
90.38961 -153.14316 166.43732 309
96.69619 -147.51286 165.17703 418
91.32608 -153.95287 166.42670 309
98.36356 -147.38078 165.50215 419
92.28492 -154.67780 166.45366 309
100.02845 -147.19450 165.82176 420
93.23676 -155.47118 166.44333 309
101.64087 -147.02132 166.13376 421
94.21037 -156.23174 166.42348 309
103.26090 -146.90738 166.42387 422
104.24156 -147.47258 166.48393 314
105.15900 -148.18970 166.44011 314
106.09668 -148.86873 166.44194 314
107.00458 -149.56670 166.43732 314
107.89719 -150.26128 166.47035 314
108.81406 -150.96210 166.47290 314
109.76518 -151.61658 166.47577 314
110.66013 -152.28859 166.48390 314
111.60555 -152.95021 166.46173 314
114.70650 -150.54965 167.48085 316
115.65110 -151.21945 167.47379 316
119.56778 -149.43219 168.47609 274
120.77308 -149.60953 168.58160 489
124.00838 -148.64708 169.29349 489
-41.28169 -64.34866 -20.42693 440
126.83965 -148.24379 169.78313 441
127.73499 -148.86191 169.77301 395
-14314.45898 -24258.80664 -3016.52759 1000
-9770.35547 -17638.22266 2562.85278 1000
-14611.38965 -27750.03711 5433.80518 1000
-9614.60645 -31735.63281 -8663.65527 1000
-263.36606 -1932.10254 54.18420 487
-264.58572 -1937.92651 86.82595 452
-266.53116 -1945.63171 119.37223 469
-251.34019 -1934.32141 54.54091 485
-252.96393 -1940.11951 86.89923 484
-254.48239 -1946.60571 119.48202 421
-242.62927 -1950.24036 53.53747 322
-2108.16406 -13929.86816 2555.96851 1000
-2644.76782 -33289.41406 2972.52905 1000
-4322.67334 -61640.90625 -7890.39453 1000
229.33032 -1454.58289 73.90796 357
237.97772 -1445.31787 74.73640 469
238.16527 -1449.29236 98.24476 469
238.22775 -1453.24353 121.77056 431
237.99324 -1456.69604 145.48798 466
247.02026 -1443.76001 74.65328 497
247.08272 -1447.90735 98.32477 496
247.05389 -1452.52893 121.79083 495
247.00198 -1457.54089 145.37027 429
255.94208 -1446.92139 74.49638 429
256.12320 -1453.08472 97.72241 367
985.18225 -17781.91211 1097.75012 1000
18113.93945 -57705.30078 14314.62793 1000
729.07477 -952.85791 92.25056 257
728.26001 -937.56616 93.76221 455
729.29681 -939.72266 111.17984 402
730.79565 -942.37024 128.69670 402
732.40143 -931.26123 94.34814 489
733.21899 -932.91235 111.73039 489
734.00873 -934.42761 128.94307 489
735.22723 -936.44055 146.37914 464
735.88403 -937.47833 163.79604 455
736.69385 -939.61749 181.35278 402
737.78357 -927.67871 94.15452 499
738.37091 -928.98657 111.59821 499
739.16815 -930.45251 129.00081 499
740.11652 -932.16632 146.40546 499
740.77972 -933.28650 163.94431 485
741.74335 -934.95654 181.38957 482
744.12634 -925.74390 94.17951 485
744.98932 -927.36169 111.56511 448
746.18011 -929.47821 128.76732 448
747.98615 -932.53442 146.28804 397
749.36621 -935.12439 163.53389 322
752.22711 -926.85083 93.65586 391
754.13892 -930.21344 110.86257 390
1875.82251 -1595.30139 370.07938 1000
25024.95508 -20869.46875 -2404.27905 1000
368.02118 -108.60884 167.63516 313
368.66599 -107.67156 167.64731 313
43599.11328 -31340.70312 2899.24829 1000
369.27621 -106.77316 167.61398 313
369.92471 -105.85699 167.63008 315
370.56116 -104.92633 167.61400 315
371.18668 -103.98221 167.64325 315
371.78635 -103.04825 167.62038 315
372.36514 -102.07288 167.67140 315
373.00714 -101.12564 167.65800 315
373.59781 -100.18762 167.65176 315
374.16595 -99.25902 167.67719 315
374.79398 -98.30380 167.64255 315
375.34232 -97.31493 167.65877 315
376.69019 -96.84709 167.43918 437
378.02896 -96.36488 167.18851 436
11332.40527 -6756.19287 -2804.04565 1000
379.45853 -95.86024 166.92831 435
388.03830 -101.00166 167.66631 309
380.84113 -95.36384 166.65367 434
388.61264 -99.92060 167.68855 309
382.28528 -94.86945 166.39313 433
389.15814 -98.88245 167.70850 309
383.71860 -94.38987 166.16454 432
389.74231 -97.80350 167.69397 309
385.17691 -93.88759 165.88847 431
390.26212 -96.77229 167.71475 309
386.63446 -93.39505 165.61075 430
390.82849 -95.68616 167.74112 309
388.11511 -92.87331 165.33472 429
391.35022 -94.63174 167.73477 311
389.66473 -92.35266 165.04962 428
391.91354 -93.57118 167.72954 311
391.06845 -91.74745 164.73680 317
392.49023 -92.52025 167.74460 311
391.64291 -90.71918 164.75652 317
393.01233 -91.43839 167.73752 311
392.19431 -89.68013 164.74989 317
394.26852 -90.73982 167.55756 426
392.74039 -88.59938 164.76572 317
395.81845 -90.20941 167.24670 425
393.29001 -87.57598 164.74759 317
397.41348 -89.64182 166.95139 424
393.79816 -86.49467 164.74068 316
399.05801 -89.07896 166.64980 422
408.20969 -93.64938 167.76517 305
394.36008 -85.44598 164.74599 316
400.65277 -88.51215 166.38121 421
408.74164 -92.45149 167.73962 305
394.87280 -84.38286 164.70813 316
402.30063 -87.96574 166.07019 420
409.24826 -91.25919 167.75722 305
395.42789 -83.32998 164.71400 316
404.01031 -87.33938 165.71794 419
409.73700 -90.11551 167.76648 305
395.93704 -82.23347 164.69513 316
405.70520 -86.75616 165.38216 418
410.22928 -88.89099 167.75995 305
396.43195 -81.13840 164.73598 316
407.31506 -86.14606 165.12024 437
410.77054 -87.74292 167.81441 305
396.89911 -80.07690 164.72687 316
408.77301 -85.43111 164.84206 436
411.23801 -86.53876 167.78368 305
373.99515 -68.63334 171.55017 316
409.35211 -84.26216 164.82222 312
411.71152 -85.34476 167.83456 305
374.43295 -67.69587 171.57420 316
409.84937 -83.12117 164.85005 312
412.16675 -84.16387 167.80963 305
374.78342 -66.72517 171.54234 316
410.34351 -81.98290 164.84781 312
413.30112 -83.20417 167.65904 434
375.18665 -65.75158 171.56818 316
410.87509 -80.79094 164.80280 312
414.84796 -82.50060 167.41600 433
375.56369 -64.80836 171.57527 316
411.36710 -79.63918 164.81099 312
416.42993 -81.70289 167.15373 432
375.95523 -63.86742 171.56744 316
411.81461 -78.46886 164.83363 312
417.96506 -80.98529 166.84702 431
376.33398 -62.88263 171.58429 316
412.33264 -77.29441 164.79959 312
419.59372 -80.17919 166.56212 430
376.67020 -61.93980 171.59276 316
412.77274 -76.09646 164.79660 312
421.18179 -79.40281 166.27785 429
430.71432 -83.11166 167.78853 301
377.04684 -60.94108 171.56499 316
413.26776 -74.89928 164.79326 312
422.81503 -78.61063 166.03342 428
431.15887 -81.82136 167.82361 301
377.40082 -59.99387 171.56322 316
413.69867 -73.74281 164.78708 312
424.46118 -77.78717 165.73514 427
431.56396 -80.53508 167.80859 301
377.73584 -59.00958 171.56319 316
414.15927 -72.57011 164.80174 312
426.08429 -76.98406 165.43092 426
431.99268 -79.19688 167.82771 301
378.07883 -58.03353 171.57849 316
388.70892 -61.91735 171.68854 312
427.80051 -76.21261 165.12321 425
432.44894 -77.88789 167.82045 301
378.39008 -57.07764 171.60550 316
389.07495 -60.85852 171.69003 312
429.14365 -75.19839 164.87335 308
432.83191 -76.54306 167.82059 301
378.75296 -56.11544 171.58427 316
389.39645 -59.83811 171.70865 312
429.61508 -73.91700 164.88031 308
433.28241 -75.25616 167.83159 301
379.07239 -55.10352 171.58813 316
389.77023 -58.81422 171.72104 312
430.02322 -72.67002 164.89926 308
433.63458 -73.87336 167.85045 301
379.38943 -54.13179 171.59320 316
390.08371 -57.73090 171.68393 312
430.52008 -71.35850 164.88953 308
434.76419 -72.78415 167.72942 421
379.67233 -53.16381 171.59756 316
390.43692 -56.72019 171.72920 312
430.92737 -70.07812 164.85094 308
436.50552 -71.90792 167.44119 420
379.97623 -52.15946 171.60748 316
390.71838 -55.63609 171.69116 312
431.37155 -68.82922 164.89186 308
438.32523 -71.05602 167.09160 419
380.27988 -51.19969 171.59244 316
391.08313 -54.58607 171.73380 312
431.77502 -67.51856 164.87955 308
440.03702 -70.13676 166.79607 433
380.56100 -50.21740 171.61502 316
391.35818 -53.53917 171.73643 312
432.19418 -66.20267 164.86476 308
441.64966 -69.14675 166.54004 432
380.89508 -49.23590 171.62369 316
391.65555 -52.51041 171.71158 312
432.55862 -64.86900 164.89873 308
443.29047 -68.14093 166.26695 431
381.14493 -48.24628 171.61449 316
391.99579 -51.44962 171.69920 312
432.96094 -63.56895 164.90184 308
444.97363 -67.15083 166.00220 430
455.14117 -70.19195 167.87131 297
28959.52148 -8523.14355 -261.47928 1000
266.94339 -14.01433 203.50214 314
392.26828 -50.35849 171.73984 312
404.57971 -53.94372 171.86153 308
446.69849 -66.13268 165.69093 429
455.49954 -68.70078 167.90555 297
267.03360 -13.72064 203.51039 314
392.55579 -49.31652 171.72658 312
404.86765 -52.81338 171.84981 308
448.37527 -65.16217 165.42009 428
455.79407 -67.24197 167.89642 297
267.10306 -13.44508 203.50700 314
392.85828 -48.25076 171.73906 312
405.17059 -51.65966 171.84074 308
450.05768 -64.10825 165.11958 427
456.12631 -65.76885 167.88715 297
267.18274 -13.15939 203.50909 314
393.13586 -47.17643 171.72684 312
405.49539 -50.51321 171.83383 308
451.04550 -62.86756 164.98659 303
456.48080 -64.27532 167.91940 297
267.26700 -12.86970 203.50722 314
393.38583 -46.11336 171.71024 312
405.78177 -49.40802 171.87717 308
451.37146 -61.43900 164.98969 303
456.76712 -62.84233 167.93404 297
3653.55054 -904.70520 217.98592 460
3664.28784 -907.54083 276.49707 263
267.33401 -12.57228 203.50975 314
393.65961 -45.06286 171.73888 312
406.02338 -48.25518 171.87372 308
451.75098 -59.96893 164.99486 303
457.10339 -61.40123 167.97421 297
3663.33447 -885.24774 217.40434 380
267.41470 -12.28855 203.50778 314
393.88254 -44.00541 171.70929 312
406.32986 -47.10535 171.87321 308
452.09015 -58.57886 164.96269 303
457.37784 -59.93280 167.95569 297
267.48087 -12.00726 203.49763 314
394.16089 -42.92508 171.72389 312
406.55820 -45.95999 171.85515 308
452.45746 -57.14650 164.95506 303
459.02762 -58.77407 167.71819 422
267.54465 -11.71216 203.50674 314
394.39523 -41.86653 171.72632 312
406.81415 -44.79926 171.84225 308
452.77808 -55.73445 164.95586 303
460.85147 -57.62970 167.38113 421
267.62161 -11.42616 203.50737 314
394.62451 -40.80519 171.73798 312
407.11459 -43.67281 171.87805 309
453.10287 -54.32110 164.94704 303
462.62537 -56.49391 167.09023 453
267.62717 -11.45296 203.50003 314
394.84659 -39.74353 171.76395 312
407.35458 -42.51662 171.85008 309
453.42697 -52.88448 164.99527 303
463.93069 -55.26590 166.93796 452
267.74973 -10.84730 203.50838 314
395.08063 -38.66715 171.73465 312
407.55112 -41.37333 171.84718 309
453.70627 -51.40358 164.94626 303
465.30042 -53.92690 166.66415 451
267.80817 -10.55779 203.50056 314
395.31253 -37.59149 171.76730 312
407.79724 -40.19633 171.86458 309
422.09686 -43.26498 172.00252 305
466.69559 -52.69454 166.46193 450
267.86862 -10.26081 203.50929 314
395.50781 -36.51357 171.76361 312
408.05789 -39.04583 171.88524 309
422.37027 -42.02126 172.01979 305
468.05466 -51.39154 166.24257 450
267.92673 -9.97813 203.49841 314
395.70386 -35.41330 171.77510 312
408.25879 -37.89352 171.88795 309
422.59329 -40.75119 172.00032 305
469.49738 -50.11749 166.02271 449
267.98453 -9.68160 203.50046 314
395.92709 -34.34798 171.74147 312
408.48550 -36.72714 171.90015 309
422.83731 -39.51588 172.01331 305
470.90482 -48.73577 165.84650 448
268.03613 -9.38920 203.50407 314
396.13281 -33.27171 171.73466 313
408.68915 -35.62004 171.85609 309
423.05853 -38.25652 172.02985 305
472.27008 -47.43240 165.55182 447
482.59393 -49.32468 168.00223 293
268.09213 -9.09294 203.50151 314
396.29584 -32.19052 171.73306 313
408.86685 -34.43372 171.89371 309
423.27835 -37.02188 172.03214 305
473.76758 -46.07566 165.36017 446
482.87155 -47.72468 168.00977 293
268.13416 -8.81213 203.50099 314
396.47192 -31.11820 171.73930 313
409.05264 -33.27349 171.89796 309
423.43799 -35.78083 171.99367 305
475.17514 -44.72889 165.11786 445
483.01889 -46.14059 168.02663 293
268.18808 -8.51718 203.50568 314
396.64240 -30.02227 171.77007 313
409.26572 -32.13855 171.87361 309
423.64645 -34.53970 172.01413 305
475.47513 -43.21190 165.12526 300
483.22342 -44.47223 168.03630 293
268.23700 -8.22578 203.50371 314
396.82504 -28.95532 171.73854 313
409.41302 -30.95077 171.87659 309
423.85684 -33.28844 172.02754 305
475.69525 -41.65313 165.12102 300
483.41229 -42.82052 168.04422 293
268.28574 -7.92313 203.50499 314
396.98624 -27.87034 171.75099 313
409.61960 -29.77812 171.87657 309
424.04660 -32.04285 172.04895 305
475.92545 -40.05846 165.07782 300
483.56461 -41.26114 168.06950 293
268.32462 -7.63745 203.50690 314
397.13635 -26.76924 171.77028 313
409.76257 -28.64398 171.87852 309
424.22333 -30.75748 172.01781 305
476.13052 -38.49251 165.08948 300
483.73141 -39.61986 168.08174 293
268.36728 -7.34624 203.49870 314
397.27893 -25.68179 171.75758 313
409.89502 -27.48145 171.86835 309
424.39703 -29.52690 172.00688 305
441.11642 -31.86919 172.16766 301
483.83865 -37.93486 168.09103 294
268.40866 -7.04784 203.50760 314
397.40417 -24.59924 171.75114 313
410.04321 -26.32928 171.87238 309
424.50964 -28.27894 172.01299 305
441.24094 -30.54491 172.16821 301
483.94763 -36.34859 168.15564 294
268.45468 -6.75570 203.50375 314
397.54721 -23.48099 171.74094 313
410.22476 -25.12208 171.91273 309
424.66101 -27.01628 172.05115 305
441.45593 -29.19661 172.19234 301
485.01700 -34.79948 167.95636 459
268.48862 -6.45282 203.50734 314
271.92407 -6.88878 203.48929 282
410.36652 -23.99031 171.90820 309
424.85397 -25.75006 172.02806 305
441.61264 -27.80899 172.20532 301
486.19568 -33.31101 167.83455 458
268.52164 -6.15783 203.50478 314
271.87814 -6.56184 203.50052 310
410.49664 -22.78675 171.91547 309
424.95166 -24.52887 172.03294 305
441.73727 -26.44950 172.20947 301
487.43082 -31.78428 167.63226 457
268.54852 -5.87032 203.50560 314
271.91086 -6.24364 203.49947 310
410.58215 -21.64662 171.88544 309
425.11661 -23.26923 172.05447 305
441.87177 -25.09746 172.18042 301
488.63577 -30.33422 167.44023 457
268.59146 -5.57490 203.50439 314
271.94852 -5.91975 203.49881 310
410.70160 -20.49901 171.91118 309
425.22272 -21.96471 172.01498 305
441.99777 -23.72672 172.21077 301
489.94537 -28.76474 167.19926 456
268.61429 -5.27982 203.50981 314
271.98212 -5.60796 203.50739 310
410.82309 -19.30937 171.90083 309
425.34528 -20.74128 172.01137 305
442.16147 -22.41730 172.21648 301
491.19553 -27.19015 167.03899 455
268.63803 -4.98290 203.50465 314
272.01129 -5.29116 203.50114 310
410.91513 -18.13258 171.87292 309
425.46674 -19.46486 172.04724 305
442.26364 -20.99799 172.20007 301
492.42944 -25.69154 166.83469 454
268.66476 -4.68604 203.50661 314
272.04288 -4.98210 203.50221 310
411.05417 -16.97503 171.91046 309
425.56427 -18.24706 172.00813 305
442.39270 -19.66456 172.19911 301
493.68320 -24.05765 166.58354 453
268.69318 -4.38810 203.50584 314
272.06171 -4.66548 203.50101 310
411.10172 -15.82290 171.90967 309
425.65643 -16.94463 172.02312 305
442.46915 -18.27626 172.21017 301
495.00809 -22.51462 166.41080 452
268.70920 -4.09177 203.50208 314
272.08743 -4.35262 203.50368 310
411.18768 -14.60209 171.88741 309
425.77573 -15.70544 172.00893 305
442.58551 -16.93890 172.19630 301
496.28790 -20.91777 166.17494 451
268.73596 -3.80492 203.50748 314
272.11792 -4.03435 203.50139 310
411.28644 -13.46640 171.91080 309
425.82651 -14.44164 172.04407 305
442.61749 -15.55158 172.19699 301
462.32440 -16.90967 172.37592 297
268.75507 -3.50826 203.50212 314
272.13657 -3.71441 203.49728 310
411.33850 -12.28871 171.89851 309
425.92612 -13.20394 172.03023 305
442.72180 -14.17895 172.18309 301
462.42163 -15.45112 172.37569 297
268.76666 -3.20836 203.49727 314
272.14648 -3.39935 203.49997 310
411.39545 -11.13419 171.90329 309
425.95145 -11.94029 172.06261 305
442.81006 -12.86473 172.20992 301
462.49463 -13.93733 172.39204 297
268.79062 -2.91593 203.49783 314
272.16266 -3.08200 203.50310 310
411.46552 -9.91815 171.91789 309
426.00333 -10.65610 172.03064 305
442.86151 -11.50170 172.23364 301
462.55807 -12.44795 172.36909 297
268.79788 -2.61547 203.50111 314
272.18289 -2.75716 203.49989 310
411.50131 -8.74948 171.91124 309
426.09097 -9.38092 172.01466 305
442.94601 -10.10052 172.20741 301
462.61801 -10.93556 172.38416 297
268.80682 -2.32620 203.50154 314
272.19183 -2.44972 203.49818 310
411.56250 -7.60021 171.91034 309
426.11652 -8.15862 172.01282 305
442.97702 -8.77741 172.22861 301
462.65298 -9.47064 172.36342 297
268.82693 -2.02313 203.50314 314
272.20721 -2.13337 203.50055 310
411.61169 -6.44411 171.91539 309
426.13535 -6.88489 172.02237 305
443.00949 -7.40972 172.18349 301
462.73035 -7.96459 172.36032 297
268.83368 -1.73034 203.49770 314
272.20328 -1.81588 203.50629 310
411.59161 -5.24409 171.91649 309
426.20883 -5.59230 172.06496 305
443.06409 -6.04053 172.20811 301
462.71591 -6.48152 172.36722 297
268.83447 -1.42713 203.50334 314
272.21576 -1.49351 203.50406 310
411.62265 -4.09536 171.89149 309
426.20166 -4.37251 172.02377 305
443.03897 -4.66120 172.18298 301
462.76599 -5.03100 172.38594 297
268.83334 -1.13393 203.50246 314
272.21637 -1.17112 203.50563 310
411.64059 -2.88609 171.91316 309
426.23322 -3.09709 172.04375 305
443.09689 -3.27505 172.18675 301
462.80444 -3.55133 172.42064 297
512.41241 -4.14100 168.32433 288
268.84796 -0.83824 203.51028 314
272.22852 -0.85865 203.50401 310
411.63150 -1.73444 171.87714 309
426.22415 -1.80476 172.05891 305
443.10220 -1.90626 172.19965 301
451.98929 -1.98361 174.36775 425
512.33777 -2.31789 168.32257 288
268.84732 -0.54233 203.50349 314
272.22110 -0.54441 203.50897 310
411.68024 -0.57527 171.90276 309
426.20386 -0.56524 172.06284 305
443.06970 -0.54601 172.20117 301
462.78339 -0.58054 172.36526 297
512.31494 -0.53731 168.31415 288
268.84583 -0.24399 203.49797 314
272.22330 -0.22242 203.50380 310
411.65305 0.60338 171.87192 309
426.21265 0.68937 172.06647 305
443.06204 0.79789 172.22417 301
452.21143 0.83777 174.29118 425
512.32239 1.27475 168.33904 288
268.83414 0.04503 203.50536 314
272.22403 0.08676 203.51076 310
411.65283 1.80025 171.87212 309
426.18237 1.94483 172.00810 305
443.07025 2.14948 172.20050 301
452.16006 2.30813 174.32721 422
512.40533 2.98953 168.30830 288
268.83789 0.34057 203.50241 314
272.21982 0.40888 203.51051 310
411.60657 2.96294 171.90666 309
426.19339 3.24590 172.05951 305
443.00537 3.55723 172.21466 301
462.76175 3.88737 172.41057 297
268.82785 0.64245 203.50006 314
272.21347 0.72750 203.49930 310
411.56641 4.14624 171.89468 309
426.16681 4.49985 172.05934 305
442.99374 4.88545 172.18944 301
462.66611 5.42117 172.40620 297
268.82150 0.93391 203.50084 314
272.19437 1.04836 203.50607 310
411.57938 5.32083 171.87927 309
426.14664 5.72151 172.03127 305
442.95340 6.25643 172.19446 301
462.63937 6.88892 172.36183 297
268.81271 1.24098 203.50626 314
272.18903 1.36184 203.50748 310
411.50812 6.48294 171.90596 309
426.09485 6.98661 172.03387 305
442.90289 7.63820 172.17915 301
462.57205 8.33176 172.40096 297
268.80011 1.53028 203.49858 314
272.16708 1.67692 203.49786 310
411.44257 7.64526 171.91783 309
426.05042 8.25551 172.02701 305
442.86246 8.99534 172.17870 301
462.57437 9.83430 172.41035 297
268.77789 1.82428 203.50021 314
272.15222 1.99266 203.50966 310
411.40692 8.80002 171.90422 309
425.99176 9.52584 172.03413 305
442.78079 10.39102 172.19218 301
462.44827 11.31437 172.39493 297
268.76254 2.12065 203.50262 314
272.13611 2.31341 203.50220 310
411.32611 9.98339 171.87547 309
425.91290 10.81381 172.02301 305
442.72513 11.73013 172.18430 301
462.38455 12.84459 172.39198 297
268.74973 2.41844 203.50969 314
272.12430 2.63047 203.50493 310
411.30914 11.15800 171.88049 309
425.83344 12.06644 172.01396 305
442.64114 13.08070 172.22330 301
462.31989 14.32207 172.37289 297
268.73434 2.71249 203.50067 314
272.10455 2.94788 203.49843 310
411.20941 12.30913 171.87575 309
425.72110 13.33550 172.03107 305
442.53818 14.43411 172.21735 301
462.19543 15.78746 172.35863 297
41.62645 3.06356 -11.18529 314
272.07968 3.25598 203.49911 310
411.12003 13.51811 171.87088 309
425.66293 14.56695 172.01772 305
442.45724 15.83247 172.21161 301
496.65414 19.84361 166.11906 452
268.69205 3.30112 203.50768 314
272.05014 3.57197 203.50911 310
411.04276 14.69034 171.87253 309
425.53625 15.81520 172.00594 305
442.37796 17.18158 172.17427 301
495.34616 21.41786 166.26727 452
4950.27148 377.47787 293.96338 380
268.66382 3.60351 203.51019 314
272.03528 3.88599 203.50566 310
410.95547 15.82345 171.89169 309
425.44733 17.10601 172.01581 305
442.24686 18.56308 172.16873 301
494.06839 22.96185 166.53247 453
4923.11182 405.19388 293.43509 465
268.63980 3.90049 203.50089 314
272.00287 4.20910 203.50412 310
410.81467 16.98970 171.87192 309
425.32617 18.35398 172.04945 305
442.11395 19.87533 172.19746 301
492.74210 24.56957 166.69460 454
4904.98438 432.05862 293.47809 466
268.61093 4.19260 203.50536 314
271.96423 4.52349 203.50874 310
410.75531 18.18747 171.86461 309
425.23862 19.62988 172.00185 305
442.02280 21.27186 172.16403 301
491.49573 26.09909 166.94437 455
4889.33252 459.67661 292.88660 483
268.57605 4.48494 203.50771 314
271.94153 4.84302 203.50346 310
410.59076 19.34345 171.85715 309
425.11273 20.87960 172.00883 305
441.88623 22.58360 172.15514 301
490.27936 27.66628 167.12027 456
4876.71143 487.71283 292.83957 484
268.55069 4.78614 203.50542 314
271.90396 5.15569 203.50885 310
410.50500 20.50237 171.88435 309
425.00156 22.10733 172.01686 305
441.72510 23.99441 172.15701 301
488.99298 29.22874 167.29988 457
4866.02783 515.11859 293.23419 491
268.51639 5.08275 203.49776 314
271.86465 5.46363 203.49872 310
410.36905 21.65401 171.89310 309
424.86063 23.37746 172.03641 305
441.54880 25.29909 172.19179 301
487.72540 30.72357 167.45523 457
4857.85742 542.95282 292.01898 491
268.47095 5.37326 203.50241 314
271.83044 5.78382 203.49931 310
410.21085 22.84267 171.89227 309
424.66467 24.63558 172.00604 305
441.44061 26.67112 172.14894 301
486.57114 32.24688 167.69191 458
4850.45312 571.15375 292.45343 491
268.44162 5.66220 203.49892 314
271.78757 6.10476 203.50592 310
410.07080 24.00661 171.86070 309
424.56085 25.88627 171.99051 305
441.25345 28.06611 172.18391 301
485.33310 33.72559 167.82762 459
4844.20703 598.55463 292.74689 463
268.39734 5.95226 203.50075 314
271.74097 6.41173 203.50545 310
409.96072 25.18437 171.85681 309
424.36749 27.12972 172.03725 305
441.03885 29.41306 172.19597 301
484.14297 35.24050 168.01825 460
4838.17676 627.49896 292.44257 462
268.35886 6.25592 203.50476 314
271.70062 6.72761 203.50348 310
409.78601 26.34746 171.87831 309
424.18140 28.36264 171.98338 305
440.90094 30.78071 172.17271 301
483.50192 36.82629 168.07745 294
4833.91846 655.93488 292.41287 463
268.31161 6.53868 203.49828 314
271.66238 7.04721 203.49831 310
409.63672 27.49730 171.87871 309
424.00916 29.64363 172.00395 305
475.88623 37.35156 165.08911 300
483.34811 38.42050 168.07669 293
4829.84473 683.95490 292.13394 463
268.27078 6.83868 203.49753 314
271.69684 7.37016 203.48427 282
409.44650 28.64464 171.86577 309
423.86792 30.87279 171.98486 305
475.66913 38.88520 165.07568 300
483.21954 40.05521 168.10533 293
4826.40234 712.54309 292.19894 463
268.22678 7.13693 203.50789 314
396.68301 27.80297 171.74358 313
409.27966 29.83096 171.84242 309
423.65472 32.14398 171.98386 305
475.39041 40.45440 165.07681 300
483.03204 41.69456 168.08591 293
4823.07520 740.70880 291.88370 462
268.18094 7.42896 203.50285 314
396.50360 28.84785 171.76509 313
409.07541 30.98981 171.85225 309
423.44876 33.34758 172.00052 305
475.14771 42.01984 165.09521 300
482.86795 43.33840 168.05104 293
4821.87646 769.44629 292.70566 462
4944.51123 790.45343 451.93677 391
268.12515 7.72131 203.50067 314
396.33560 29.94362 171.71584 313
408.87384 32.14452 171.83525 309
423.23233 34.63226 172.02916 305
474.92288 43.59459 165.09937 300
482.67255 44.94044 168.02095 293
4819.71484 797.68066 292.83936 461
4932.20654 817.77759 451.44107 420
268.07614 8.01199 203.50285 314
396.17291 31.02405 171.75854 313
408.70334 33.28181 171.86902 309
423.02051 35.89140 171.97263 305
474.13959 45.07544 165.17589 446
482.40848 46.57950 168.04680 293
4818.38574 826.33984 292.99670 461
4929.54883 846.90302 451.35757 349
268.02039 8.29511 203.50133 314
395.97211 32.11850 171.71336 313
408.49609 34.45802 171.87480 309
422.84811 37.12214 172.01564 305
472.69489 46.36454 165.40680 447
482.25174 48.14879 168.01639 293
4815.97900 855.27759 291.79190 461
267.96005 8.59413 203.50256 314
395.74286 33.18874 171.72609 313
408.27933 35.57824 171.88297 309
422.61462 38.33494 172.00359 305
471.29572 47.74331 165.66241 448
4814.57520 884.40472 292.29196 461
267.90979 8.88386 203.49777 314
395.54828 34.23125 171.71429 313
408.07159 36.74363 171.85870 309
422.38190 39.55920 171.97726 305
469.88309 49.06146 165.86217 449
4811.90918 913.28082 292.18179 461
267.85300 9.17337 203.50447 314
395.36227 35.34171 171.75305 313
407.85904 37.86635 171.85852 309
422.14120 40.82789 171.99339 305
468.48721 50.37722 166.07236 450
4809.76611 942.78546 292.11148 461
267.79474 9.45500 203.50732 314
395.15594 36.39778 171.71803 313
407.58386 39.07031 171.84215 309
421.86517 42.06021 171.97586 305
467.09094 51.67436 166.31232 451
4808.47900 971.32196 292.86877 460
4968.28760 1004.82440 454.66641 255
4990.47705 1009.48645 535.87854 342
267.72290 9.74529 203.50952 314
394.91574 37.48714 171.73894 313
407.36774 40.20166 171.87013 309
421.59479 43.31590 172.01010 305
465.75681 52.94023 166.53665 451
4806.16748 1000.50800 292.02817 460
267.66461 10.04550 203.50742 314
394.67880 38.56787 171.71904 313
407.11545 41.35471 171.81673 309
453.09863 51.66710 164.94092 303
464.35620 54.19787 166.70648 452
4804.63232 1029.37708 293.22217 460
267.59677 10.32399 203.50613 314
394.46158 39.62202 171.74391 313
406.88443 42.46229 171.85577 309
452.76083 53.11979 164.93431 303
463.00336 55.43551 166.91557 453
4802.02979 1057.86841 292.42682 460
267.53394 10.61277 203.49838 314
394.21603 40.66874 171.71071 313
406.60284 43.62093 171.81767 309
452.48077 54.49637 164.93947 303
461.45242 56.63033 167.18327 421
4800.82520 1087.97266 292.86606 460
267.45587 10.90556 203.50771 314
393.95804 41.76796 171.70949 313
406.34708 44.77383 171.82515 309
452.11298 55.94611 164.95270 303
459.58609 57.79300 167.49234 422
4798.66260 1117.10095 292.54901 459
267.39139 11.18831 203.50430 314
393.69730 42.80635 171.72038 313
406.04776 45.90921 171.81999 309
451.74295 57.36213 164.91885 303
457.78729 58.90059 167.78125 423
4796.84912 1146.39343 292.71918 459
267.31625 11.48257 203.50116 314
393.46231 43.87134 171.69836 313
405.76938 47.06478 171.82619 309
451.41177 58.76454 164.93022 303
456.62598 60.11828 167.95529 298
4795.54883 1175.85376 292.45435 459
267.23911 11.76682 203.50792 314
393.19775 44.94147 171.70584 313
405.49893 48.17785 171.85249 309
451.02362 60.15882 164.94177 303
456.34561 61.55959 167.90962 298
4793.30029 1205.41492 292.46814 459
267.17068 12.05662 203.49886 314
392.90787 46.00291 171.68723 313
405.19183 49.33698 171.83568 309
450.65604 61.59193 164.91524 303
456.00665 63.05219 167.91479 297
4796.72412 1235.53015 293.00159 363
267.08310 12.34429 203.50104 314
392.62546 47.04158 171.71175 313
404.94150 50.48673 171.83380 309
450.26364 63.04242 164.97125 303
455.68945 64.51959 167.86343 297
267.01334 12.61919 203.50563 314
392.32629 48.14109 171.69122 313
404.61438 51.57715 171.78928 309
448.92358 64.16716 165.15950 428
455.35016 65.96223 167.85558 297
266.92999 12.91130 203.50259 314
392.02393 49.17876 171.70587 313
404.29483 52.75682 171.82767 309
447.21631 65.16780 165.46909 429
454.99173 67.44382 167.85512 297
266.84143 13.19669 203.50499 314
391.72897 50.24420 171.68692 313
403.95737 53.87995 171.78786 309
445.52777 66.21924 165.73215 430
454.59177 68.85877 167.85660 297
266.75797 13.47156 203.50665 314
391.42563 51.30309 171.67648 313
432.19629 63.65168 164.84195 308
443.89655 67.19657 166.02249 431
454.23734 70.34338 167.82158 297
266.66638 13.76080 203.50876 314
391.14218 52.31478 171.70035 313
431.85361 64.92450 164.81691 308
442.26236 68.19135 166.25681 432
266.57861 14.04325 203.49948 314
390.82730 53.37445 171.68890 313
431.44308 66.26853 164.85439 308
440.60648 69.17912 166.54265 433
266.49899 14.33137 203.49789 314
390.50064 54.42594 171.65550 313
430.98932 67.52911 164.84978 308
438.98917 70.09847 166.81448 419
266.42441 14.61333 203.49596 288
390.15533 55.45779 171.65993 313
430.56506 68.85632 164.86504 308
437.14963 71.03470 167.14632 420
379.15469 52.93563 171.54950 316
389.81830 56.50979 171.64748 313
430.15521 70.09662 164.83858 308
435.40216 71.89262 167.44333 421
378.82846 53.91958 171.54375 316
389.46716 57.55632 171.69128 312
429.69693 71.39785 164.86784 308
433.58868 72.74262 167.76649 422
378.51978 54.88605 171.56740 316
389.16519 58.58176 171.67447 312
429.24039 72.69833 164.83569 308
432.82043 73.93468 167.82933 301
378.19455 55.86200 171.54222 316
388.79529 59.62499 171.64343 312
428.77460 73.97265 164.85277 308
432.39133 75.22567 167.84241 301
377.82037 56.80051 171.57594 316
388.40695 60.67252 171.64920 312
428.26053 75.24597 164.84401 308
431.98352 76.54696 167.80031 301
377.52032 57.76806 171.56857 316
388.04935 61.73796 171.63571 312
426.77658 76.06832 165.14220 426
431.54080 77.87431 167.83116 301
377.14316 58.77259 171.53523 316
413.35004 72.44617 164.73944 312
425.06610 76.92229 165.41864 427
431.07135 79.19923 167.80345 301
376.79718 59.71603 171.52617 316
412.88519 73.66998 164.76181 312
423.44894 77.71973 165.73776 428
430.64215 80.49411 167.79488 301
376.45584 60.68181 171.56459 316
412.44385 74.80485 164.76527 312
421.81943 78.51073 165.98381 429
430.20886 81.76275 167.76624 301
376.09195 61.62048 171.52249 316
411.98734 75.96448 164.76631 312
420.17426 79.26328 166.25684 430
429.73874 83.06482 167.78587 301
375.68893 62.60798 171.54631 316
411.50433 77.16678 164.80537 312
418.61749 80.08763 166.52235 431
375.31680 63.54977 171.50717 316
410.96976 78.34726 164.76086 312
417.04895 80.86073 166.83107 432
374.95160 64.48450 171.50987 316
410.51526 79.46772 164.77692 312
415.46918 81.58782 167.11607 433
374.53137 65.46703 171.51326 316
409.95947 80.66715 164.77130 312
413.94388 82.32829 167.35623 434
374.15265 66.42860 171.51189 316
409.50363 81.79626 164.77342 312
412.44061 83.09776 167.62157 435
373.75488 67.37377 171.51767 316
408.95050 82.98299 164.77266 312
411.24115 83.97469 167.75336 305
373.36795 68.27871 171.52342 316
408.40939 84.13032 164.79976 312
410.79587 85.15135 167.78142 305
396.10291 79.84210 164.64954 317
407.91437 85.23249 164.77631 312
410.31241 86.33166 167.72653 305
395.58737 80.91923 164.68118 317
406.41980 85.94794 165.04448 418
409.75482 87.51267 167.72147 305
395.08551 82.02174 164.67488 317
404.68466 86.56798 165.37132 419
409.25418 88.69733 167.75745 305
394.56522 83.07736 164.65604 317
403.05624 87.14444 165.67780 420
408.74982 89.87389 167.70744 305
394.02982 84.12189 164.69130 317
401.36523 87.68777 166.01399 422
408.23920 91.07854 167.71303 305
393.47620 85.16417 164.66890 317
399.74841 88.27365 166.33151 423
407.75003 92.23649 167.72194 305
392.97620 86.24096 164.70888 317
398.11282 88.81612 166.58643 424
407.18735 93.42277 167.70735 305
392.42538 87.28884 164.70399 317
396.53601 89.40451 166.91496 425
391.81918 88.29361 164.68965 317
394.93149 89.91898 167.16786 426
391.29626 89.36697 164.68944 317
393.37692 90.48547 167.49889 427
390.70816 90.42513 164.71109 317
392.09073 91.13496 167.69005 311
390.12927 91.41364 164.71124 317
391.53003 92.20095 167.69156 311
