# .PCD v.7 - Point Cloud Data file format
VERSION .7
FIELDS x y z rgb
SIZE 4 4 4 4
TYPE F F F U
COUNT 1 1 1 1
WIDTH 1408
HEIGHT 1
VIEWPOINT 4288.807129 -4103.435547 134.075989 0.002406 -0.111758 0.004132 0.993724
POINTS 1408
DATA ascii
487.82077 30.74126 167.74588 457
4869.96094 544.88751 295.16068 430
269.20166 5.39447 203.50851 314
398.56000 21.38166 171.78548 312
411.31085 22.93197 171.89085 309
425.88635 24.70774 172.01421 305
442.71808 26.83504 172.20206 301
486.57428 32.18848 167.96518 458
4858.56152 572.42432 294.40955 493
269.16104 5.69333 203.49788 314
398.40375 22.42840 171.77284 312
411.16052 24.12694 171.90788 309
425.67972 26.00690 172.03145 305
442.54904 28.18487 172.19508 301
485.38486 33.76283 168.11844 294
4849.40234 599.72113 294.38602 494
269.12338 5.99153 203.49869 314
398.24783 23.55120 171.76543 312
410.97766 25.27183 171.85767 309
425.53934 27.25525 172.04820 305
442.38693 29.55938 172.21028 301
485.27136 35.35734 168.08823 294
4841.08545 627.08759 294.67987 497
269.07178 6.28379 203.50592 314
398.10434 24.62571 171.75107 312
410.80301 26.43045 171.89160 309
425.35379 28.48197 172.03163 305
477.45764 35.91754 165.08342 300
485.09793 36.99870 168.12987 293
4834.60303 655.31030 294.49573 497
269.03027 6.58512 203.49962 314
397.96902 25.73676 171.73387 312
410.63205 27.60813 171.89394 309
425.18817 29.75270 172.02763 305
477.27744 37.48405 165.10260 300
484.98758 38.62963 168.12408 293
4827.61084 683.75781 294.54337 497
4934.59082 699.58929 373.71631 250
268.97998 6.88963 203.50943 314
397.81375 26.82952 171.74297 312
410.48975 28.76585 171.88278 309
425.00323 31.02940 172.01624 305
477.03311 39.04243 165.06918 300
484.81854 40.25678 168.10056 293
4821.60059 711.39941 293.73276 496
268.92502 7.18589 203.49849 314
397.64005 27.90382 171.76225 312
410.29745 29.96646 171.88823 309
424.77231 32.29869 172.02115 305
476.77707 40.62632 165.06122 300
484.65286 41.91399 168.06725 293
4817.59619 739.35284 294.17517 496
268.86942 7.47733 203.50339 314
397.45160 29.00720 171.73840 312
410.09930 31.12016 171.90146 309
424.60638 33.55417 172.02531 305
476.56729 42.20514 165.09212 300
484.42719 43.52470 168.05533 293
4813.41309 767.92706 293.86151 495
268.81918 7.77704 203.50258 314
397.29169 30.05659 171.76981 312
409.89743 32.26519 171.88025 309
424.37079 34.80153 172.03928 305
475.66516 43.68105 165.19962 445
484.25220 45.13876 167.99722 293
4811.16211 796.71057 294.77243 495
268.75998 8.06658 203.50285 314
397.06891 31.16585 171.73627 312
409.73398 33.43171 171.88818 309
424.17123 36.05567 172.02185 305
474.21234 45.01275 165.47124 446
484.04160 46.80194 168.00270 293
4808.83740 824.78412 294.11496 494
4946.98242 849.76270 375.86948 350
4924.31592 845.46082 453.48425 495
268.70807 8.37208 203.50136 314
396.89777 32.22392 171.72220 312
409.51660 34.57349 171.85016 309
423.93188 37.28820 172.00905 305
472.71915 46.37202 165.70020 447
4806.36035 853.22461 294.42221 494
4934.37256 878.17255 453.31482 285
268.63748 8.66167 203.50893 314
396.70630 33.31732 171.74557 312
409.29221 35.77811 171.84222 308
423.70648 38.51373 172.01984 305
471.33536 47.68862 165.89482 448
4804.52539 882.22406 294.13324 494
268.58453 8.95554 203.50920 314
396.46863 34.39681 171.73907 312
409.04532 36.90753 171.86232 308
423.47720 39.77930 171.99460 305
469.93127 49.01973 166.11795 449
4802.25586 910.83099 294.48187 494
268.51804 9.24600 203.50552 314
396.26300 35.49277 171.71577 312
408.84271 38.08131 171.86507 308
423.25049 41.04939 172.02644 305
468.50266 50.33809 166.34035 450
4800.09229 940.45245 294.60406 494
4849.85938 950.57123 372.60666 372
268.44989 9.54418 203.50516 314
396.01712 36.58458 171.73090 312
408.60806 39.23232 171.83919 308
422.96182 42.26545 171.98624 305
467.14838 51.63796 166.57376 451
4798.42188 969.29675 294.86267 493
268.38150 9.83966 203.50735 314
395.83240 37.63561 171.76064 312
408.32587 40.37835 171.88164 308
454.58453 50.48994 164.93536 303
465.72925 52.90886 166.79730 451
4796.76270 998.48840 294.70438 493
268.31329 10.12984 203.50108 314
395.57956 38.73006 171.73048 312
408.12650 41.52945 171.86917 308
454.29678 51.90667 164.92453 303
464.37311 54.18627 166.97691 452
4794.34814 1026.40442 294.88464 493
4878.74951 1046.16858 452.20175 490
268.23795 10.42913 203.50385 314
395.35422 39.79250 171.74083 312
407.85892 42.71214 171.84943 308
453.96997 53.31141 164.93877 303
463.04138 55.44309 167.21458 453
4792.87158 1056.35876 294.47708 493
268.16925 10.71362 203.50516 314
395.08347 40.89050 171.71594 312
407.59781 43.85612 171.85579 308
453.61209 54.75321 164.97949 303
461.46729 56.62118 167.40669 421
4789.98145 1085.76892 294.60977 493
268.09338 11.00518 203.50481 314
394.83920 41.92426 171.74666 312
407.33905 44.97577 171.82104 308
453.28531 56.19900 164.93919 303
459.62555 57.73838 167.77003 422
4788.35596 1113.99683 295.55783 492
268.02005 11.29300 203.50745 314
394.55991 43.02981 171.70474 312
407.01852 46.12389 171.85582 308
452.93488 57.63865 164.97707 303
458.28455 58.94282 167.96848 297
4786.91846 1142.99341 295.70102 492
267.93610 11.59485 203.50169 314
394.33264 44.07882 171.72169 312
406.72601 47.29678 171.82936 308
452.53262 59.03736 164.93114 303
457.93478 60.43685 167.91298 297
4784.25293 1173.22339 294.70761 492
267.86270 11.88546 203.50786 314
394.06033 45.15367 171.72327 312
406.44653 48.42469 171.83804 308
452.14142 60.45094 164.93649 303
457.64539 61.89696 167.92885 297
4781.63037 1201.81641 295.36954 491
267.77802 12.17286 203.50513 314
393.73743 46.21209 171.73416 312
406.15900 49.54380 171.83690 308
451.76434 61.88317 164.95911 303
457.31046 63.38977 167.87180 297
4779.58936 1231.16394 295.62607 491
267.70242 12.46369 203.50851 314
393.49249 47.27261 171.69046 312
405.85376 50.72886 171.84166 308
450.68103 63.14438 165.11163 427
456.99310 64.85831 167.89473 297
4778.64990 1261.65881 295.19992 491
267.61383 12.74939 203.50439 314
393.17566 48.31524 171.71814 312
405.57196 51.84219 171.82065 308
448.99298 64.12016 165.40788 428
456.61053 66.34586 167.86450 297
12922.20508 3599.45386 -2181.91797 1000
4785.01807 1293.15833 295.80777 466
267.52325 13.03480 203.50713 314
392.89545 49.42190 171.70738 312
405.22711 52.99810 171.83774 308
447.25995 65.18398 165.67369 429
456.22925 67.74940 167.89304 297
4791.94678 1325.74792 295.59375 465
267.43671 13.32015 203.49843 314
392.56500 50.44579 171.70566 312
433.58862 62.60493 164.84662 308
445.57272 66.15121 165.96382 430
455.88129 69.22138 167.85121 297
267.34323 13.60771 203.50931 314
392.29459 51.50444 171.70863 312
433.20044 63.91139 164.84016 308
443.92834 67.20145 166.25552 431
267.35196 13.93035 203.47134 288
391.95975 52.54340 171.71606 312
432.82230 65.25672 164.86537 308
442.27957 68.20629 166.55255 432
380.81412 50.21900 171.57057 316
391.65570 53.61289 171.67403 312
432.42123 66.53326 164.86707 308
440.62900 69.14204 166.79861 433
380.50555 51.16029 171.59207 316
391.30548 54.69859 171.66545 312
432.00687 67.84321 164.84099 308
438.99866 70.11475 167.03900 419
380.20877 52.17548 171.56564 316
390.94965 55.71880 171.68909 312
431.52814 69.12233 164.81784 308
437.21982 70.99349 167.40173 420
379.87476 53.15121 171.56737 316
390.65387 56.78462 171.65778 312
431.09879 70.38338 164.87212 308
435.38394 71.86214 167.70195 421
379.55099 54.12337 171.55647 316
390.29480 57.82552 171.67630 312
430.61688 71.71389 164.86395 308
434.28333 72.94897 167.82043 301
379.22296 55.09947 171.59076 316
389.94299 58.84396 171.68669 312
430.15851 72.99361 164.84830 308
433.87558 74.25807 167.86014 301
378.90701 56.09362 171.58020 316
389.58347 59.87927 171.67755 312
429.68518 74.23965 164.85857 308
433.45889 75.60314 167.81807 301
378.53262 57.05744 171.54704 316
389.21722 60.95327 171.66069 312
428.43036 75.26387 165.03433 425
432.98044 76.89494 167.83626 301
378.17868 58.04628 171.53505 316
414.62289 71.59207 164.75029 312
426.77341 76.08450 165.35362 426
432.54547 78.26235 167.77486 301
377.84427 58.97586 171.55199 316
414.19632 72.75153 164.77345 312
425.10211 76.87074 165.66054 427
432.08701 79.56038 167.79631 301
12903.28125 4803.36182 -2247.92310 1000
377.48926 59.94906 171.53979 316
413.73874 73.93136 164.79877 312
423.46509 77.72388 165.90742 428
431.67450 80.88142 167.75868 301
377.10501 60.92802 171.56619 316
413.26025 75.14206 164.80746 312
421.81607 78.49537 166.22150 429
431.21671 82.15874 167.78055 301
376.75037 61.89630 171.53087 316
412.73792 76.28043 164.80534 312
420.22849 79.29749 166.50050 430
376.37473 62.86647 171.51653 316
412.24368 77.44547 164.77931 312
418.65747 80.08648 166.75975 431
375.99597 63.78857 171.55730 316
411.79092 78.61122 164.79156 312
417.08093 80.81664 167.03084 432
375.57306 64.75360 171.52844 316
411.25626 79.80186 164.76686 312
415.47601 81.57096 167.28874 433
375.17548 65.73236 171.55038 316
410.73145 80.95840 164.76918 312
413.94318 82.36039 167.56137 434
374.78372 66.67353 171.50085 316
410.24506 82.14824 164.78047 312
412.56998 83.14082 167.76213 305
374.40509 67.61786 171.50548 316
409.71039 83.30008 164.78140 312
412.08469 84.32147 167.74249 305
397.27496 79.07343 164.69180 316
409.15582 84.45070 164.76515 312
411.58487 85.52115 167.73523 305
396.74585 80.11967 164.70180 316
407.96252 85.24009 164.95924 437
411.09277 86.74507 167.73241 305
396.24188 81.23582 164.69568 316
406.40634 85.97971 165.23642 418
410.59833 87.89618 167.76794 305
395.74902 82.27642 164.68274 317
404.70856 86.51555 165.57050 419
410.09998 89.06931 167.74924 305
395.18604 83.34237 164.67488 317
403.01834 87.09302 165.89139 421
409.55176 90.24642 167.70123 305
394.64249 84.42356 164.69493 317
401.39224 87.67831 166.17645 422
409.07047 91.45186 167.72441 305
394.10919 85.45377 164.70461 317
399.73837 88.25123 166.52550 423
408.52960 92.60103 167.71217 305
393.57266 86.53638 164.68747 317
398.11804 88.83247 166.83206 424
393.01520 87.55200 164.72495 317
396.54526 89.37957 167.12297 425
392.44577 88.64835 164.72966 317
394.94504 89.92722 167.35570 426
391.88937 89.69020 164.71622 317
393.39349 90.44842 167.64265 427
391.29514 90.69556 164.71938 317
392.72702 91.49106 167.69916 311
390.30676 91.52280 164.81953 428
392.15787 92.51547 167.67249 311
388.80658 92.04648 165.12718 429
391.62531 93.57619 167.67973 311
3777.92212 1957.43359 284.01300 492
387.34402 92.56704 165.41809 430
391.01044 94.65607 167.68895 309
385.84216 93.08089 165.67049 431
390.46179 95.68521 167.67439 309
384.41919 93.58535 165.92856 432
389.88568 96.73418 167.65839 309
382.95999 94.08910 166.19063 433
389.33075 97.83968 167.65298 309
381.54645 94.58053 166.46614 434
388.75305 98.83539 167.61961 309
380.11844 95.08226 166.72418 435
388.19699 99.92801 167.61504 309
378.73340 95.54856 166.96129 436
387.57330 100.94745 167.60112 309
377.34552 96.04313 167.25092 437
375.96579 96.51221 167.45430 438
374.91064 97.21112 167.61755 315
374.32010 98.13587 167.59612 315
373.71530 99.09356 167.61615 315
373.12775 100.04521 167.60503 315
372.49014 100.98668 167.59550 315
371.86447 101.89308 167.58641 315
371.26053 102.84506 167.58885 315
370.64600 103.79002 167.58276 315
369.99521 104.69444 167.60909 315
369.33362 105.62180 167.58437 315
368.69415 106.53739 167.57729 313
368.05643 107.43047 167.57867 313
367.42715 108.38085 167.58362 313
4684.57812 4745.31055 323.62628 471
4660.56104 4778.84766 322.82089 458
4639.25488 4814.93994 323.55164 446
4617.53662 4851.11475 323.43329 445
4596.80762 4888.75098 324.53308 393
4579.29883 4929.53027 324.86838 396
4564.03076 4974.37354 325.19693 423
4552.72217 5021.82178 325.44708 413
4547.26221 5078.75391 325.79025 390
4545.24512 5139.78320 327.24335 389
4544.74561 5203.10596 327.66144 405
4542.41699 5266.80078 327.32468 404
4542.59473 5331.40723 329.00916 403
4537.44580 5394.68262 329.15363 384
33808.01172 46468.44531 -14144.50488 1000
34771.09766 47801.61719 -3648.25977 1000
3204.96411 4976.94434 311.39813 497
768.43909 1040.59595 120.82925 448
768.42255 1040.44873 139.95251 393
768.55212 1040.94446 159.43787 393
769.05005 1041.53918 178.59723 323
762.10297 1043.73486 120.64285 451
761.59467 1042.76257 140.24045 487
760.97614 1041.80762 159.48416 487
760.68030 1041.25354 178.80232 487
760.20093 1040.41406 198.08957 499
759.99774 1039.99402 217.20433 499
759.58466 1039.28174 236.42662 499
759.21851 1038.86060 255.61525 486
759.26312 1038.29077 274.74310 486
759.04395 1038.05701 294.03766 486
758.70721 1037.68481 313.19379 450
758.57599 1037.69226 332.49304 449
758.92194 1037.80383 351.79895 354
755.05298 1046.09680 255.77563 328
754.01965 1043.93567 274.95325 397
753.13422 1042.84924 294.14151 398
752.54163 1041.52515 313.04123 452
752.30133 1040.71423 332.34097 452
751.88037 1040.10034 351.54654 401
3105.94336 5914.30566 326.04755 279
3047.86426 5887.83252 325.50189 417
3001.09448 5881.87646 324.52856 378
2957.19727 5880.97168 325.18719 341
2990.75244 6050.88184 328.48151 498
2952.14648 6065.24023 328.14563 498
2825.64111 5880.32178 323.29895 449
2828.55225 5886.22363 429.33444 430
2777.30371 5869.10303 322.44373 450
2776.64087 5866.40332 428.03073 482
2733.80835 5868.64453 322.13101 482
2734.16943 5868.59277 427.59930 482
2689.55347 5863.98975 322.46039 483
2689.05176 5861.84180 425.87006 454
2648.68799 5866.38379 322.96555 483
2647.31299 5862.34229 426.11832 453
2596.56177 5841.41602 219.20325 378
2607.44946 5867.50000 321.85638 484
2605.28784 5864.64209 426.33087 414
2554.36865 5840.98047 218.64085 378
2567.84302 5873.73584 321.74896 485
2564.34277 5866.91748 424.98099 414
2514.10229 5840.01074 217.45152 379
2527.17065 5875.61475 322.41608 485
2524.40454 5869.02148 425.10092 414
2471.96338 5839.87305 218.19812 385
2486.50562 5877.34521 321.20538 486
2483.90771 5870.16797 424.15298 415
2430.96216 5838.86523 218.26511 385
2483.27612 5979.00928 323.06308 330
2466.45190 5932.64990 426.43268 319
1419.24475 3227.38672 161.56268 258
1395.62219 3162.73828 217.92409 308
2487.03857 6102.83154 325.31439 329
2463.61035 6037.56006 428.70358 297
1362.28040 3131.90259 162.56032 302
1353.94141 3109.36230 217.82547 321
2411.02783 6009.31055 532.10181 489
1340.03784 3129.46606 163.40424 302
1328.81689 3099.92310 217.40880 361
1317.61670 3127.75439 163.52405 302
1315.24805 3122.68311 217.29263 381
1304.67090 3152.40601 162.69792 383
1301.48535 3145.72925 217.18555 398
1292.21606 3181.39062 162.28799 382
1288.68347 3170.24414 217.17055 407
2200.38379 5876.86279 319.54971 477
1280.01477 3210.33276 162.14566 372
1275.97083 3196.93164 217.73039 400
2161.36304 5878.72607 319.06592 477
1268.30066 3241.62207 161.99286 360
1263.32446 3223.66626 217.74146 409
1258.81665 3278.71924 161.32016 352
1251.14050 3254.39819 217.09555 395
2101.00171 5941.85303 319.74615 454
1249.20312 3319.09082 160.49927 348
1239.78772 3290.31909 217.03032 371
2046.91748 5896.02979 318.12180 291
1241.78027 3367.54517 159.36844 309
1230.31006 3332.56641 217.69958 368
2031.57068 5972.95508 320.29312 307
1244.68689 3454.73364 158.16216 297
1223.72095 3382.65137 217.23817 342
1248.53174 3549.73022 156.49995 305
1228.17493 3476.82617 217.31331 303
1253.02783 3648.48462 155.07309 303
1235.51501 3584.14355 217.21782 301
1260.55334 3761.90063 153.45955 297
1242.54944 3695.07642 217.56322 300
10274.42969 54009.67188 -14498.44824 1000
2662.94897 17213.40625 -636.29822 1000
248.72153 1545.60583 115.13670 496
248.73421 1544.61475 140.69009 497
248.55385 1544.27795 166.06767 497
248.37411 1543.52478 191.34814 495
248.60371 1543.14270 216.89418 495
248.37610 1542.70996 242.13470 469
248.62164 1542.35852 267.28241 469
248.28253 1542.12415 292.47263 469
248.44394 1542.16101 317.82642 421
238.77484 1545.08557 292.45505 368
239.02171 1543.08582 318.10980 368
-2982.89795 25933.60938 214.35814 1000
-252.05568 2043.77869 113.62479 460
-252.23672 2044.33398 147.86133 409
-252.19925 2044.25000 182.36998 409
-252.69827 2044.42603 216.64778 409
-252.67856 2044.81702 250.66737 409
-252.68730 2045.15247 285.08441 341
-252.99948 2046.19312 319.33066 341
127.35407 148.14684 169.56430 485
126.13116 148.02098 169.41711 441
124.44471 148.69493 169.03030 489
120.34108 148.95526 168.38605 489
117.40895 151.25284 167.43571 316
116.53370 150.60889 167.44765 316
115.62382 149.97322 167.43732 316
114.67632 149.26920 167.44838 316
111.49698 151.79874 166.40274 314
110.59203 151.11572 166.38797 314
109.63225 150.45842 166.38876 314
108.70994 149.79416 166.41183 314
107.80840 149.07558 166.38890 314
106.87656 148.39742 166.38269 314
105.97737 147.70255 166.40817 314
105.09800 147.00771 166.37552 314
103.96675 146.58612 166.27742 423
102.34059 146.72621 165.99451 422
95.10703 155.80807 166.37695 310
100.71191 146.88208 165.69200 421
94.15532 155.04405 166.36189 310
99.08080 147.08501 165.35307 420
93.15004 154.23721 166.37906 310
97.42677 147.22000 165.03316 419
92.19252 153.47694 166.36392 310
95.77755 147.32318 164.75360 428
91.24101 152.72922 166.34523 310
94.16755 147.38295 164.47523 427
90.30843 151.89612 166.32707 310
92.54601 147.48520 164.13780 426
89.35904 151.10847 166.34306 310
-528.55432 867.20325 503.48691 1000
90.85999 147.49803 163.87354 425
88.44827 150.35239 166.35443 310
89.20406 147.56131 163.52281 424
87.51580 149.52310 166.37364 310
87.95798 147.18524 163.36707 307
86.55990 148.73592 166.31462 310
87.12318 146.28212 163.44804 307
85.66428 147.88576 166.34793 310
86.30579 145.34967 163.44562 307
84.06813 147.80165 166.08243 422
85.46452 144.48372 163.47437 307
82.33635 147.82431 165.78023 421
84.65659 143.52002 163.54138 307
80.58194 147.92958 165.49512 420
72.57813 156.44923 166.28647 305
83.89137 142.60591 163.54810 307
78.75210 148.00522 165.17262 419
71.61133 155.56570 166.26578 305
83.09347 141.71744 163.58607 307
76.97234 148.07603 164.83388 417
70.62960 154.64165 166.27481 305
102.95226 119.61413 171.53981 316
75.10480 148.11877 164.49115 416
69.66882 153.70378 166.27568 306
102.24194 118.87437 171.55904 316
73.25465 148.21144 164.13763 415
68.72008 152.81041 166.26060 306
101.49126 118.15913 171.54021 316
71.36481 148.28296 163.78889 414
67.77523 151.88786 166.24780 306
100.78244 117.39184 171.54576 316
69.46812 148.33740 163.45261 413
66.80559 150.96988 166.23834 306
100.09563 116.62555 171.53490 316
68.17261 147.77167 163.31569 304
65.89886 150.00777 166.26183 306
99.38094 115.88560 171.54535 316
67.36469 146.77501 163.32396 304
64.97586 149.09128 166.25743 305
98.69339 115.09824 171.59042 316
66.60698 145.67761 163.39470 304
63.54990 148.57999 166.07030 410
98.01370 114.35860 171.56668 316
65.81248 144.66905 163.42004 304
61.55233 148.66740 165.72229 409
97.32999 113.59966 171.57466 316
64.99638 143.61972 163.47076 304
59.48957 148.75880 165.33897 408
49.33096 158.16666 166.17963 301
96.65564 112.79565 171.56389 316
88.22846 120.51205 171.63239 312
57.37622 148.83882 165.00604 407
48.41229 157.05704 166.16370 301
95.97973 112.05611 171.59814 316
87.54063 119.71100 171.65991 312
55.29010 148.90395 164.60526 406
47.42125 156.05649 166.14830 301
-40072.99609 36511.33594 5560.34375 1000
95.30739 111.27522 171.60167 316
86.78406 118.86974 171.68001 312
53.17729 148.95584 164.23328 405
46.46709 154.95129 166.12741 301
94.62050 110.48868 171.61769 316
86.11099 118.03883 171.69212 312
50.99960 149.04108 163.83037 404
45.55685 153.86931 166.12643 301
93.98970 109.69626 171.58626 316
85.36231 117.16626 171.69075 312
48.76025 149.18472 163.44298 402
44.58862 152.82712 166.17612 301
93.30715 108.88822 171.61977 316
84.66573 116.34505 171.69199 312
47.11954 148.75662 163.22997 300
43.67258 151.73080 166.18335 301
92.66138 108.10530 171.60233 316
83.98771 115.49947 171.69420 312
46.35987 147.54750 163.23051 300
42.69692 150.66808 166.15724 301
92.02071 107.28306 171.63014 316
83.29294 114.65437 171.70062 312
45.56368 146.34540 163.28528 300
41.75216 149.58737 166.16475 301
91.36265 106.47397 171.61288 316
82.63394 113.74723 171.72121 312
72.67179 122.05793 171.77475 308
39.61740 149.49100 165.79054 398
90.72799 105.68313 171.63271 316
81.94524 112.90295 171.72044 312
71.93676 121.08975 171.78188 308
37.19212 149.60049 165.36310 397
90.11565 104.86884 171.66193 316
81.25168 112.06149 171.73608 312
71.23624 120.16517 171.82509 308
34.79623 149.68079 164.99040 396
89.48576 104.04562 171.64203 316
80.61306 111.16373 171.74579 312
70.49895 119.22569 171.79376 308
32.33646 149.77014 164.53856 395
22.04678 158.04871 165.99715 297
88.86387 103.24699 171.63596 316
79.93430 110.31604 171.73163 312
69.80375 118.30512 171.78926 308
29.82322 149.86812 164.06189 393
21.06942 156.78259 165.99988 297
88.24223 102.39819 171.63950 316
79.28155 109.39050 171.75278 312
69.09978 117.38905 171.81087 308
27.28542 150.01402 163.68102 392
20.10757 155.60634 166.02669 295
87.64816 101.57832 171.65096 316
78.64652 108.52712 171.73415 312
68.37251 116.39326 171.82915 308
24.68720 150.10301 163.22626 391
19.15949 154.39323 166.04391 295
87.04891 100.77985 171.68138 316
77.99200 107.64181 171.72458 312
67.68528 115.44614 171.81017 308
23.50183 149.06622 163.14963 296
18.17707 153.15852 165.98677 295
86.43507 99.95032 171.68996 316
77.31789 106.78152 171.74289 312
67.01430 114.53879 171.82475 308
55.16164 123.40253 171.94745 304
17.16090 151.92696 165.97296 295
85.80554 99.10566 171.68413 316
76.68478 105.86214 171.76060 312
66.31625 113.54481 171.85866 308
54.42097 122.34782 171.95215 304
16.21022 150.72783 165.99498 295
85.22128 98.26495 171.66104 316
76.08629 104.98178 171.77869 312
65.63567 112.59384 171.85741 308
53.71463 121.31200 171.94666 304
13.99026 150.42041 165.68584 389
84.64901 97.38698 171.68852 316
75.45798 104.07584 171.74478 312
64.96066 111.60849 171.87526 308
52.98964 120.25406 171.94388 304
11.23028 150.49921 165.23134 388
84.05962 96.58714 171.68279 316
74.80096 103.16492 171.78310 312
64.30678 110.65932 171.85846 308
52.29089 119.22103 171.97916 304
8.38443 150.54883 164.72688 387
83.48327 95.70755 171.70018 316
74.20924 102.24099 171.76804 312
63.68301 109.67567 171.88112 308
51.57833 118.16477 171.93208 304
5.50167 150.61940 164.23361 386
82.94288 94.87547 171.68924 316
73.58624 101.33474 171.76659 312
62.98851 108.71719 171.87880 308
50.88371 117.10831 171.97401 304
2.56200 150.70699 163.80647 384
-9.54961 159.15692 165.62546 290
82.37038 94.01836 171.69595 316
73.01340 100.42300 171.77916 312
62.38577 107.71551 171.86436 308
50.21689 116.08231 171.94676 304
-0.38083 150.76811 163.25642 383
-10.54151 157.69022 165.58640 290
81.78646 93.16382 171.70450 316
72.40604 99.52612 171.79347 312
61.72995 106.74940 171.89027 308
49.48238 114.98365 171.96495 304
-3.42276 150.82770 162.74561 382
-11.43786 156.26833 165.58934 290
81.26143 92.27567 171.70351 316
71.81419 98.59187 171.81456 312
61.10667 105.75278 171.88403 308
48.84547 113.94578 171.98160 304
34.58344 123.40966 172.10077 300
-12.43843 154.86401 165.54820 291
80.67139 91.40815 171.73848 316
71.23971 97.68151 171.80814 312
60.47509 104.72990 171.90227 308
48.16449 112.86926 171.99370 304
33.89428 122.25808 172.08656 300
-13.39466 153.49779 165.60262 291
80.12182 90.53195 171.73749 316
70.64744 96.74706 171.79910 312
59.83198 103.75224 171.91612 308
47.46006 111.81248 171.97549 304
33.15702 121.13114 172.09390 300
-14.40296 152.04286 165.59531 291
79.62562 89.67397 171.72200 316
70.07460 95.78124 171.78975 312
59.20510 102.76154 171.87376 308
46.81353 110.71643 172.00700 304
32.44015 119.94723 172.09015 300
-16.18545 151.18649 165.40027 377
79.08133 88.80205 171.76172 316
69.47350 94.85779 171.81812 312
58.63186 101.75386 171.89732 308
46.13407 109.60859 171.98009 304
31.70026 118.79651 172.15007 300
-19.53493 151.20581 164.87175 376
78.56282 87.93610 171.74455 316
68.91061 93.91777 171.84238 312
58.03547 100.73012 171.92249 308
45.53575 108.56467 172.02847 304
31.01647 117.61231 172.14458 300
-22.96607 151.35951 164.31210 375
78.01443 87.05914 171.74538 316
68.36104 93.00830 171.83362 312
57.42689 99.72386 171.90990 308
44.84747 107.46639 172.01555 304
30.36638 116.42192 172.11220 300
-26.42440 151.41304 163.75200 373
77.51864 86.15285 171.73737 316
67.79932 92.03612 171.83661 312
56.82564 98.70239 171.94371 308
44.22868 106.36316 172.00325 304
29.64254 115.21082 172.13235 300
-30.03685 151.48245 163.17052 372
76.96420 85.26196 171.77359 316
67.24842 91.07290 171.85873 312
56.22815 97.70665 171.94005 308
43.62040 105.25837 172.04274 304
28.94883 114.01727 172.15140 300
11.82341 124.29128 172.30382 296
-46.94858 159.60278 165.09615 286
76.46800 84.36858 171.75204 316
66.73157 90.15038 171.82379 312
55.66584 96.70255 171.90640 308
42.99034 104.18097 172.01248 304
28.29675 112.87907 172.14511 300
11.06877 123.00935 172.33040 296
-47.95166 157.91708 165.02689 288
75.97517 83.49315 171.76991 316
66.19709 89.21081 171.83005 312
55.08996 95.66206 171.95227 308
42.39185 103.07352 172.06888 304
27.61050 111.68459 172.16495 300
10.35811 121.72849 172.30844 296
-48.80659 156.17999 165.11223 288
75.45613 82.61379 171.78891 316
65.67146 88.23299 171.84741 312
54.51062 94.61981 171.93217 308
41.76395 101.95180 172.02635 304
26.97985 110.46551 172.14705 300
9.67362 120.39851 172.31514 296
-49.72007 154.51772 165.10773 288
75.00024 81.69302 171.76668 316
65.11602 87.28191 171.87254 312
53.94567 93.59267 171.96992 308
41.14412 100.85825 172.06955 304
30.02951 107.17811 173.04521 269
8.95381 119.09587 172.31868 296
-50.63960 152.79907 165.10916 288
74.51178 80.81403 171.76019 316
64.63699 86.30954 171.86662 312
53.40866 92.56747 171.96313 308
43.48214 98.10426 172.76074 318
37.50843 101.42467 174.90425 317
21.30151 110.47552 175.03734 269
-52.76645 151.86028 164.87820 374
74.00643 79.90649 171.76038 316
64.11492 85.34418 171.87634 312
52.85379 91.55676 171.96696 308
45.96671 95.31115 173.52672 320
40.19949 98.52724 175.64371 319
33.32183 102.31298 177.68539 270
14.40635 112.67843 177.70660 270
73.54180 78.98209 171.80643 316
63.58314 84.36674 171.85588 312
53.75804 89.69856 172.34746 323
48.37959 92.63138 174.27425 321
42.78218 95.67741 176.33020 320
36.93215 98.85352 178.56525 318
25.73989 104.89147 179.97031 292
73.09144 78.05943 171.79916 316
63.08592 83.41025 171.87221 312
55.97371 87.21096 173.09253 324
50.73587 90.01732 175.00031 322
45.27213 92.95241 177.06966 321
39.60047 95.96649 179.26076 319
25.14359 103.68457 179.95976 292
4.09596 114.93063 180.13419 288
72.62545 77.14596 171.80957 316
62.59334 82.43196 171.85672 312
58.06339 84.83571 173.78113 325
52.99752 87.50229 175.69185 323
47.66949 90.26814 177.72458 322
41.94382 93.27684 179.84978 296
24.52643 102.49712 179.99867 292
3.43338 113.56316 180.15479 288
72.16680 76.25899 171.79384 316
62.99434 80.99250 172.14926 373
59.90679 82.59361 174.40132 383
55.20031 85.02004 176.36877 325
50.04021 87.71190 178.34712 324
41.37212 92.17274 179.82491 296
23.92816 101.24315 180.01154 292
2.77564 112.22286 180.18602 288
71.69459 75.32806 171.79942 316
63.74660 79.38293 172.46297 374
60.61511 80.98059 174.68803 384
57.28646 82.67229 176.97121 326
52.28173 85.26561 178.99867 325
40.84370 91.07317 179.82510 296
23.32761 100.04900 180.02275 292
2.15382 110.88184 180.17754 288
71.25733 74.40260 171.80064 316
64.42960 77.81853 172.80577 375
61.34327 79.39490 175.03474 385
58.34812 80.86385 177.38272 383
54.46637 82.84584 179.59531 326
40.34823 89.97422 179.86420 296
-5.43183 112.99487 174.76738 292
-5.47057 113.01115 179.00349 292
-24.73113 122.72851 180.39130 284
70.78536 73.49740 171.78979 316
65.18636 76.28830 173.13013 376
62.03879 77.82581 175.31082 386
59.10822 79.27637 177.64896 384
54.64820 81.48016 179.73972 300
39.80741 88.83272 179.88199 296
5.06507 106.04957 176.83762 282
-13.85427 115.46850 177.77193 348
-25.42034 121.16006 180.42276 284
70.34779 72.55781 171.81119 316
65.87397 74.76813 173.47870 377
62.73952 76.30300 175.65038 387
59.84079 77.69115 177.98065 385
54.13787 80.47038 179.74333 300
39.26518 87.72360 179.83719 296
12.17703 100.93413 178.26440 283
-17.96877 115.63285 177.16626 346
-26.18033 119.62556 180.42642 284
69.91330 71.62737 171.83536 316
66.53716 73.22901 173.78815 378
63.42577 74.75687 175.91237 388
60.58000 76.11629 178.22603 386
53.69117 79.45981 179.74132 300
26.99938 92.26839 177.49850 331
18.83216 96.17802 179.62184 285
3.81820 103.42433 180.88100 282
-26.87020 118.08515 180.40147 284
70.55726 70.19241 172.15666 381
67.24680 71.76697 174.13000 379
64.09406 73.24793 176.25244 389
61.27297 74.58627 178.50624 387
53.20169 78.39743 179.75752 300
29.05825 89.79335 178.01476 332
22.34652 92.98013 180.38348 314
11.00310 98.35921 182.14085 284
-27.49535 116.54242 180.43211 284
71.19788 68.75824 172.47366 382
67.93257 70.32329 174.40875 380
64.78220 71.75670 176.53285 390
61.98872 73.07327 178.80997 388
52.75492 77.36610 179.73743 300
31.07166 87.45633 178.55251 333
24.93070 90.30097 180.93294 331
17.04316 93.98212 183.26210 313
2.67549 100.70318 184.92348 282
71.86826 67.36518 172.78853 383
68.60807 68.88154 174.71724 381
65.43313 70.29379 176.80836 391
62.66742 71.59287 179.07753 389
52.29877 76.31505 179.76003 300
33.04889 85.13413 179.01138 334
27.04195 87.90505 181.40494 332
20.03581 91.08171 183.83330 314
9.88339 95.76296 186.06157 284
72.46397 65.99559 173.06821 384
69.26596 67.42704 175.01260 382
66.07451 68.87728 177.10040 392
63.34414 70.09851 179.34435 390
51.82217 75.28741 179.76604 300
34.96898 82.88232 179.51624 335
29.07226 85.53002 181.89397 333
22.86006 88.36049 184.40601 331
14.70482 92.05306 186.83051 313
1.65840 97.93210 188.93356 282
73.08216 64.63099 173.35612 385
69.92854 66.06109 175.33327 382
66.72846 67.46677 177.35849 393
64.05659 68.66561 179.59348 391
42.23516 78.32939 177.74849 339
36.82297 80.70610 180.02234 336
31.06871 83.22800 182.34059 334
25.01399 85.92700 184.83908 332
17.78296 89.14160 187.33784 314
8.92813 93.08128 189.90688 284
-13.98961 103.22694 191.28442 264
73.69635 63.29783 173.67531 386
70.53513 64.66637 175.61082 383
67.39754 66.06196 177.61017 394
63.89406 67.57822 179.67751 304
43.35509 76.50386 178.11804 373
38.63031 78.56457 180.46863 338
33.06815 80.98868 182.81119 335
27.12357 83.58253 185.23145 333
20.74607 86.36086 187.84746 315
12.36036 89.99687 190.42494 312
0.63403 95.11257 192.92081 283
74.29956 61.94350 173.95940 387
71.17508 63.28387 175.89871 384
67.99500 64.64365 177.86041 395
63.49539 66.60396 179.68779 304
44.23994 74.87569 178.40376 374
40.10065 76.62373 180.86115 371
34.94585 78.85001 183.19948 336
29.15407 81.29166 185.66318 334
23.00155 83.97079 188.27307 331
15.51004 87.15666 190.87549 313
6.74027 90.92688 193.64032 311
-14.31682 99.98849 195.59631 264
74.90338 60.64305 174.23491 388
71.83664 61.94670 176.16240 385
68.65311 63.31263 178.12610 383
63.07948 65.61353 179.69183 304
45.00364 73.26270 178.67776 385
41.06519 74.94907 181.14348 372
36.82009 76.70143 183.60835 337
31.15253 79.08356 186.08051 335
25.14765 81.59587 188.62341 333
18.60319 84.40565 191.32454 315
10.08845 87.99518 194.02675 312
-0.26715 92.30406 196.88788 283
75.33423 59.41567 174.45705 418
72.43369 60.62705 176.41402 386
69.30645 61.94282 178.41463 384
62.69903 64.65296 179.68309 304
45.72733 71.69094 178.93704 386
41.95908 73.24522 181.39667 373
37.79895 74.96532 183.90996 371
33.07066 76.94971 186.46373 336
27.25361 79.35903 188.98608 334
21.02604 81.93237 191.69958 331
13.30426 85.14896 194.43831 313
4.38751 88.80225 197.33698 311
-14.52954 96.62091 199.85078 264
75.59962 58.30200 174.64281 419
73.03786 59.33574 176.67456 416
69.95014 60.57940 178.66307 385
62.31102 63.68727 179.66408 304
46.47655 70.13641 179.17789 387
42.83842 71.62717 181.65060 385
38.74574 73.31277 184.17140 372
34.42460 75.05736 186.74858 369
29.26450 77.17217 189.33426 335
23.20891 79.61622 192.05093 332
16.41808 82.40166 194.82816 314
7.78528 85.90100 197.72560 312
-1.51024 89.65399 200.84178 309
75.85569 57.15778 174.82147 419
73.31161 58.15227 176.87489 417
70.59298 59.26556 178.94096 386
61.97441 62.69274 179.67300 304
47.16189 68.64092 179.41179 388
43.57044 70.03667 181.85992 386
39.68570 71.63203 184.39757 372
35.40610 73.32544 186.96353 370
31.02432 75.11188 189.68407 367
25.35813 77.36062 192.32620 333
19.07503 79.84632 195.18735 331
11.11504 83.02680 198.05981 313
2.06724 86.66583 201.10326 310
76.15019 55.99695 174.99271 420
73.61739 57.02893 177.04573 418
71.01349 58.04769 179.12448 416
61.57237 61.72445 179.69484 304
47.86583 67.10317 179.65112 389
44.32774 68.49138 182.09036 387
40.62481 69.99101 184.62842 373
36.41513 71.59708 187.18620 371
32.04629 73.30774 189.88228 368
27.39255 75.18100 192.65828 335
21.30419 77.57019 195.46318 332
14.27738 80.30721 198.34114 314
5.49324 83.76424 201.39178 312
-3.96514 87.44273 204.66745 309
76.38793 54.90980 175.17371 421
73.87924 55.88628 177.22356 419
71.30605 56.87812 179.26707 416
61.23008 60.72451 179.70395 304
48.52455 65.64072 179.91411 390
45.00970 66.99648 182.32750 387
41.38519 68.37165 184.85495 385
37.37669 69.93890 187.41556 372
33.06230 71.60812 190.09161 369
28.59539 73.35279 192.88969 367
23.45275 75.29910 195.73634 333
17.10992 77.78397 198.64162 331
8.88723 80.96526 201.64401 313
-0.28599 84.49651 204.86247 310
76.66885 53.76879 175.33920 422
74.18607 54.74150 177.35744 419
71.58234 55.71299 179.43643 417
52.58359 62.91168 177.79227 393
49.23604 64.15230 180.12695 391
45.73640 65.51003 182.56261 388
42.18263 66.84032 185.05611 386
38.36259 68.31420 187.64017 373
34.07280 69.91140 190.31082 370
29.62985 71.58280 193.06827 368
24.98677 73.34780 195.96577 365
19.32932 75.50397 198.91216 332
12.08643 78.20303 201.93207 314
3.23635 81.56326 205.11797 311
76.94926 52.66642 175.53058 422
74.45101 53.61268 177.52914 420
71.89104 54.54433 179.58398 418
53.24284 61.50157 178.00682 394
49.91299 62.73033 180.36722 392
46.44056 63.99016 182.76512 389
42.92119 65.35339 185.27640 387
39.23007 66.67359 187.84784 384
35.08683 68.23862 190.47520 371
30.71676 69.88144 193.23703 369
26.11725 71.56167 196.12416 366
21.31742 73.36484 199.08131 363
15.13878 75.66424 202.16852 330
6.66976 78.77854 205.31056 312
77.21676 51.60109 175.69884 423
74.72201 52.46929 177.69710 421
71.59219 53.62235 179.58516 308
53.87295 60.11187 178.25110 395
50.57461 61.28024 180.55858 393
47.18768 62.55396 182.98421 390
43.64124 63.81414 185.46809 388
39.98621 65.17296 188.03682 385
36.06718 66.60449 190.69838 372
31.76004 68.17168 193.40721 370
27.22766 69.78281 196.27164 367
22.51802 71.53918 199.23363 364
17.45269 73.37321 202.37938 331
9.92207 76.09894 205.51428 313
77.46029 50.49196 175.86201 424
75.01074 51.37061 177.85777 422
71.29211 52.70583 179.59596 308
54.48766 58.71809 178.48853 396
51.23949 59.89198 180.79228 393
47.85391 61.06720 183.18080 391
44.35919 62.35975 185.65605 389
40.73985 63.62556 188.24002 386
37.05387 64.96487 190.86006 384
32.76047 66.49003 193.61357 370
28.29724 68.05565 196.39880 368
23.64659 69.74613 199.40439 365
18.76373 71.46403 202.47859 363
13.09632 73.52010 205.71895 315
77.73183 49.40510 176.03592 424
75.30752 50.25862 178.01407 422
70.97190 51.76941 179.61888 308
55.12695 57.35133 178.68942 397
51.89350 58.46768 180.98807 394
48.53283 59.68050 183.39151 392
45.12411 60.88434 185.84587 390
41.53212 62.09899 188.38364 387
37.81996 63.39524 191.03955 385
33.80517 64.83179 193.77748 371
29.38448 66.35322 196.57175 369
24.78317 67.97444 199.49736 366
20.01810 69.67424 202.56622 363
14.97975 71.45747 205.84119 361
78.01295 48.33301 176.18883 425
75.57657 49.18238 178.14769 423
70.67664 50.87867 179.59042 308
55.72189 55.99918 178.94266 397
52.50453 57.08300 181.22911 395
49.24167 58.23404 183.58917 393
45.79905 59.39546 186.02798 390
42.28834 60.63420 188.60510 388
38.61564 61.89625 191.22563 385
34.79615 63.21306 193.92525 372
30.42505 64.69305 196.72845 370
25.90504 66.27343 199.63130 367
21.15864 67.90186 202.69008 364
16.22048 69.62473 205.89937 362
78.24049 47.26672 176.33258 426
75.86267 48.08507 178.31313 424
70.37372 49.96793 179.60139 308
56.20905 54.73364 179.12666 411
53.17039 55.73334 181.40309 396
49.88307 56.82959 183.78903 394
46.52444 57.99515 186.22459 391
43.02668 59.14235 188.78011 389
39.39384 60.40832 191.36803 386
35.62620 61.66294 194.11533 384
31.47542 63.06809 196.85689 371
27.04141 64.53207 199.77473 368
22.35217 66.14452 202.80280 365
17.41565 67.80737 205.99706 363
78.51595 46.25000 176.49451 427
76.10922 47.02323 178.46715 424
70.06647 49.01485 179.63795 308
56.65219 53.43940 179.27815 412
53.66943 54.44944 181.58879 409
50.57293 55.43921 183.96144 395
47.20771 56.57327 186.39281 392
43.75565 57.72737 188.94666 390
40.18670 58.90730 191.55920 387
36.46151 60.10433 194.22221 385
32.51052 61.44231 197.04880 372
28.11071 62.91137 199.90834 369
23.49867 64.41576 202.94720 366
18.63375 66.01147 206.04739 364
78.78182 45.17276 176.63776 427
76.39952 45.94793 178.60391 425
69.79887 48.10258 179.60043 308
57.08624 52.21674 179.46526 412
54.13224 53.16558 181.77751 410
51.12464 54.14589 184.14357 408
47.90802 55.18367 186.60413 393
44.46607 56.26766 189.11258 391
40.95189 57.41677 191.70132 388
37.27579 58.58988 194.38817 386
33.46833 59.86964 197.16692 383
29.19431 61.24919 200.05247 370
24.64028 62.70923 203.03719 367
19.85507 64.25172 206.15387 364
79.02498 44.15070 176.80769 428
76.68829 44.90005 178.76122 426
69.47540 47.16777 179.61191 308
57.48570 50.95571 179.61954 413
54.59585 51.90384 181.94597 411
51.56578 52.85188 184.31647 409
48.50390 53.84846 186.74792 406
45.19983 54.84476 189.25461 391
41.72455 55.97340 191.83394 389
38.04834 57.14565 194.50760 386
34.29778 58.34195 197.30838 384
30.24169 59.61163 200.16286 371
25.75514 61.03978 203.11378 368
21.03738 62.52597 206.22112 365
79.31445 43.11074 176.95493 429
76.92142 43.83279 178.91570 426
69.21652 46.24958 179.64464 308
57.89680 49.77649 179.79440 421
55.05364 50.64127 182.09952 412
52.06665 51.55283 184.47702 409
48.96370 52.50774 186.86934 407
45.80153 53.50933 189.40880 404
42.44545 54.54122 191.96681 390
38.85772 55.64582 194.67686 387
35.10503 56.80861 197.40773 385
31.21835 58.01559 200.28181 382
26.80064 59.38544 203.24857 369
22.20703 60.82651 206.33965 366
79.55628 42.08581 177.09621 429
77.21526 42.79898 179.04214 427
68.95257 45.29057 179.62061 308
58.25020 48.57423 179.92079 422
55.47942 49.40989 182.24332 412
52.49663 50.28759 184.61192 410
49.45234 51.23633 187.01273 408
46.31419 52.19176 189.52902 405
43.06973 53.14478 192.09932 403
39.60936 54.19863 194.77693 388
35.91991 55.29650 197.51181 386
32.10937 56.50496 200.36172 383
27.91863 57.76123 203.32762 370
23.31818 59.13689 206.40729 367
79.81404 41.09054 177.24863 430
77.48319 41.78441 179.18738 428
68.67210 44.38377 179.63069 308
58.63322 47.37841 180.06042 422
55.89685 48.17367 182.40157 420
53.00458 49.05062 184.76332 411
49.96470 49.90482 187.15344 408
46.85622 50.86776 189.67262 406
43.62943 51.79234 192.26262 403
40.27335 52.79934 194.90515 401
36.74953 53.85914 197.64404 386
32.93021 54.99903 200.48883 384
28.99313 56.14793 203.45349 371
24.45271 57.50142 206.44409 368
80.06163 40.05317 177.37056 431
77.74556 40.74728 179.31273 428
61.60707 45.39991 177.96953 425
58.96034 46.18355 180.22101 423
56.27604 46.96235 182.52853 421
53.47219 47.77987 184.87125 411
50.42246 48.67078 187.28952 409
47.36494 49.52906 189.81340 407
44.15458 50.45608 192.33650 404
40.81208 51.43010 194.98360 402
37.42813 52.40477 197.77313 399
33.78467 53.49055 200.58426 385
29.86481 54.63324 203.48999 382
25.57843 55.85228 206.52657 369
80.35605 39.05273 177.51276 431
-45.45647 12.87895 -11.83961 429
61.96398 44.28821 178.12967 426
59.31154 45.02178 180.34851 424
56.63914 45.74686 182.67928 421
53.91774 46.55853 185.03810 419
50.92904 47.39109 187.45946 410
47.86634 48.25162 189.92241 407
44.65187 49.15854 192.45518 405
41.38062 50.07467 195.09129 402
37.99414 51.06720 197.83566 400
34.50533 52.04792 200.67912 397
30.76218 53.09412 203.58286 383
26.69019 54.24087 206.61201 370
80.60677 38.07766 177.65999 433
78.13236 38.75703 179.54572 312
62.29382 43.13353 178.27696 427
59.67291 43.83849 180.48816 424
57.03658 44.56941 182.80432 422
54.30629 45.35138 185.15298 420
51.39696 46.15479 187.54941 411
48.33315 46.97498 190.01714 408
45.19914 47.83697 192.60072 406
41.96486 48.77314 195.19963 403
38.55530 49.65924 197.93065 400
35.06955 50.66370 200.75693 398
31.49069 51.66312 203.64876 395
27.63419 52.72888 206.69580 381
-187.67152 112.33327 202.67578 495
80.85314 37.06078 177.78784 434
77.91270 37.88479 179.54205 312
62.62062 41.97191 178.39594 427
60.06744 42.68122 180.64928 425
57.39384 43.38545 182.93088 423
54.65871 44.13781 185.30486 421
51.86565 44.87534 187.68855 411
48.83813 45.70617 190.13773 409
45.73943 46.56605 192.69075 406
42.48748 47.44278 195.28929 404
39.17298 48.34903 198.04645 401
35.69312 49.28708 200.83804 399
32.13465 50.21740 203.71558 396
28.38864 51.22620 206.73312 393
-188.35883 109.84309 202.62796 495
81.11472 36.08570 177.93559 435
77.67496 37.00198 179.54433 312
62.95690 40.84502 178.56204 428
60.38404 41.53524 180.79727 426
57.77729 42.24186 183.07605 424
55.07113 42.94304 185.41476 421
52.27201 43.65705 187.82056 419
49.32865 44.45108 190.27628 410
46.24229 45.26754 192.78697 407
43.05340 46.12150 195.39005 405
39.72124 47.00588 198.12439 402
36.28792 47.89587 200.88603 399
32.74529 48.85110 203.81599 397
29.04064 49.78011 206.76143 394
-188.36395 107.13047 202.60672 483
81.35348 35.10448 178.04639 435
77.45023 36.10725 179.53697 312
63.31712 39.74213 178.69975 429
60.76202 40.42612 180.90495 426
58.13593 41.09017 183.20151 424
55.47548 41.77007 185.52663 422
52.70354 42.47041 187.90868 420
49.83784 43.19180 190.37105 410
46.73442 44.01155 192.89713 408
43.54956 44.79817 195.50298 405
40.27041 45.68944 198.17227 403
36.87365 46.53419 200.98163 400
33.35741 47.43621 203.87854 397
29.71345 48.38526 206.83015 395
25.17482 49.55590 209.90997 269
-189.17877 104.68396 209.54034 294
81.62534 34.14567 178.17628 436
77.25050 35.24263 179.57114 312
63.64012 38.64180 178.82559 429
61.10258 39.29552 181.07568 427
58.51344 39.92760 183.30464 425
55.84884 40.58316 185.67343 423
53.10485 41.27410 188.05386 420
50.29729 41.96922 190.51096 418
47.24166 42.72284 193.01637 408
44.12099 43.54623 195.58525 406
40.81775 44.35754 198.29185 403
37.45899 45.20013 201.05261 401
33.95296 46.05708 203.89445 398
30.37412 46.98678 206.89690 395
26.24876 48.01787 209.92795 356
-186.80064 101.31955 209.65675 485
81.85332 33.17697 178.31438 437
77.02576 34.35170 179.57198 312
63.99396 37.51809 178.98097 430
61.46751 38.13666 181.17047 428
58.87275 38.80242 183.46176 426
56.23631 39.45509 185.78831 423
53.50494 40.11404 188.15414 421
50.68407 40.78745 190.58461 419
47.77642 41.50546 193.12453 409
44.62774 42.23660 195.69981 407
41.39631 43.05904 198.34212 404
38.02741 43.85786 201.10800 401
34.56532 44.69897 203.99731 399
31.00024 45.56224 206.90450 396
26.95983 46.58430 209.99376 356
-187.07568 98.74267 209.60686 484
82.09245 32.21510 178.42760 437
76.82175 33.48946 179.54938 312
64.30484 36.44321 179.09496 431
61.81192 37.04397 181.33861 428
59.22864 37.65884 183.55507 426
56.60915 38.27941 185.90930 424
53.88864 38.91732 188.27924 422
51.09072 39.60295 190.72733 419
48.27161 40.28008 193.20404 417
45.13794 40.97927 195.76608 407
41.93787 41.73219 198.42355 405
38.62868 42.52444 201.16550 402
35.17363 43.36376 204.03424 400
31.61162 44.18225 206.98601 397
27.65388 45.15630 210.03091 357
-187.58295 96.28671 209.63033 485
82.35579 31.28133 178.55952 438
76.61961 32.58293 179.55084 312
64.65990 35.35236 179.23129 431
62.16302 35.91399 181.45174 429
59.60716 36.53286 183.68909 427
56.96980 37.13906 185.98456 425
54.28539 37.75539 188.35257 422
51.51007 38.39794 190.80904 420
48.68530 39.03126 193.31578 417
45.69784 39.72921 195.90375 408
42.51985 40.48955 198.52466 405
39.18200 41.25308 201.23613 403
35.78724 42.01348 204.08211 400
32.27284 42.84201 207.03635 398
28.36197 43.74750 210.03517 358
-188.05106 93.76384 209.63565 485
-191.50833 94.49100 216.44099 295
82.42711 30.36196 178.64076 457
76.42590 31.69219 179.56850 312
64.97744 34.29077 179.36011 432
62.48387 34.82309 181.54807 430
59.98392 35.41071 183.82137 428
57.35731 36.00444 186.11797 425
54.67218 36.60023 188.45782 423
51.91919 37.19489 190.91524 420
49.10771 37.83776 193.42455 418
46.18506 38.48600 195.97037 416
43.02571 39.22632 198.59186 406
39.73980 39.94961 201.34840 404
36.39522 40.71695 204.15208 401
32.87362 41.50301 207.07039 398
29.06109 42.31778 210.09448 358
-188.45483 91.20188 209.57883 435
-184.65007 90.34855 216.46306 296
82.47874 29.45871 178.69257 458
76.27545 30.81825 179.57745 312
65.29559 33.23319 179.49928 433
62.84565 33.75600 181.69128 430
60.32477 34.30880 183.92780 428
57.75407 34.88015 186.22415 426
55.07019 35.46163 188.60023 424
52.36285 36.04345 190.99893 421
49.53404 36.65476 193.51074 419
46.64561 37.27380 196.07581 416
43.59809 37.94016 198.66177 407
40.32087 38.67094 201.40474 404
36.97007 39.39846 204.17935 402
33.50456 40.13559 207.09846 399
29.75094 40.96850 210.11523 361
-182.82487 87.32829 216.43289 438
82.51916 28.57156 178.75917 458
76.06275 29.92096 179.56085 312
65.62785 32.15701 179.65311 433
63.18623 32.64528 181.79048 431
60.69488 33.18497 184.05812 429
58.09989 33.73429 186.34242 427
55.48640 34.31328 188.66800 424
52.73562 34.85122 191.06905 422
49.96889 35.44888 193.55685 419
47.06694 36.08471 196.14595 417
44.09859 36.69337 198.74524 408
40.89853 37.36102 201.45903 405
37.57156 38.08247 204.26392 402
34.11268 38.80332 207.12752 400
30.44849 39.57287 210.12708 362
-182.94269 84.75381 216.50456 439
82.54464 27.68266 178.81364 458
75.92331 29.04943 179.56224 312
65.95347 31.08477 179.75298 434
63.53530 31.58338 181.92557 432
61.05276 32.11209 184.14685 429
58.48234 32.63852 186.44115 427
55.84423 33.18150 188.76041 425
53.14245 33.70693 191.20705 422
50.40549 34.28793 193.64964 420
47.50551 34.85028 196.21545 418
44.56482 35.47824 198.81369 415
41.44482 36.10963 201.51198 406
38.12359 36.82048 204.30276 403
34.68398 37.48003 207.19963 400
31.09852 38.24350 210.19434 362
-183.05013 82.25475 216.43924 424
82.58622 26.78535 178.87869 459
75.73632 28.17461 179.57466 312
66.27370 30.05590 179.86584 434
63.87787 30.53406 182.04990 432
61.37759 31.01429 184.27272 430
58.86430 31.49828 186.52625 428
56.24334 32.05956 188.90224 425
53.54090 32.59100 191.29118 423
50.80469 33.12222 193.75752 421
47.95533 33.66393 196.28537 418
45.04780 34.28311 198.89981 416
42.00694 34.84943 201.57138 406
38.73127 35.54886 204.35109 404
35.29772 36.17772 207.22519 401
31.76784 36.91818 210.23135 363
-183.02345 79.57973 216.52484 424
-190.70967 81.14252 223.39351 323
82.64432 25.92690 178.91724 459
75.56750 27.26201 179.58301 312
66.49886 29.01920 179.98920 455
64.23650 29.46501 182.15216 433
61.76360 29.91335 184.36703 431
59.21133 30.40190 186.64694 428
56.61851 30.89896 188.96649 426
53.97692 31.41319 191.35027 424
51.21993 31.94670 193.82027 421
48.40809 32.49766 196.34921 419
