# .PCD v.7 - Point Cloud Data file format
VERSION .7
FIELDS x y z rgb
SIZE 4 4 4 4
TYPE F F F U
COUNT 1 1 1 1
WIDTH 1375
HEIGHT 1
VIEWPOINT 4289.105469 -4105.288574 134.476486 0.000375 -0.114457 0.000697 0.993428
POINTS 1375
DATA ascii
90.97250 -106.86225 171.69823 316
82.17469 -114.07677 171.75566 312
72.20535 -122.31577 171.85468 308
38.80713 -149.73711 165.82660 397
91.61339 -107.70940 171.65718 316
82.84989 -114.96435 171.76770 312
45.01363 -146.47214 163.37527 300
41.15542 -149.61150 166.23759 301
92.27360 -108.48351 171.69713 316
83.54981 -115.83884 171.72917 312
45.78536 -147.61710 163.33531 300
42.06914 -150.68610 166.20844 301
92.89413 -109.30313 171.66635 316
84.24630 -116.68364 171.74113 312
46.53302 -148.81532 163.30269 300
43.02836 -151.79395 166.21481 301
93.54921 -110.07388 171.65839 316
84.95278 -117.53949 171.71895 312
48.05996 -149.38603 163.44611 402
43.94606 -152.86757 166.19095 301
94.21701 -110.87392 171.66859 316
85.66096 -118.37880 171.73758 312
50.22889 -149.31506 163.90002 403
44.87811 -153.96913 166.23828 301
94.84727 -111.66229 171.63165 316
86.33860 -119.20741 171.70093 312
52.41192 -149.19576 164.25082 404
45.82523 -155.04750 166.22581 301
95.51010 -112.46053 171.63583 316
87.05127 -120.04085 171.70129 312
54.56115 -149.09850 164.66728 405
46.80899 -156.06953 166.24823 301
96.18948 -113.20981 171.65736 316
87.77537 -120.89713 171.69150 312
56.67304 -149.04362 165.05347 406
47.76055 -157.18463 166.20740 301
96.88770 -113.99336 171.63756 316
64.39761 -143.79491 163.49889 304
58.79027 -148.94324 165.41243 407
-54.61672 -50.14474 -16.01736 301
97.54890 -114.77562 171.61415 316
65.18790 -144.85596 163.45831 304
60.86040 -148.90738 165.78864 408
98.22254 -115.54874 171.61423 316
65.97520 -145.90715 163.46829 304
62.88755 -148.79343 166.11218 410
98.95144 -116.29343 171.60370 316
66.73393 -146.94058 163.39871 304
64.34431 -149.23285 166.29642 306
99.62296 -117.04388 171.63515 316
67.54084 -147.96300 163.40613 304
65.24218 -150.16118 166.30473 306
100.30202 -117.79161 171.58855 316
68.80364 -148.59694 163.50475 412
66.22208 -151.14493 166.33191 306
101.04352 -118.56052 171.60004 316
70.71881 -148.51172 163.84340 413
67.10553 -152.03496 166.34512 306
101.75896 -119.32829 171.61330 316
72.62274 -148.45444 164.18758 414
68.09279 -152.97411 166.31886 306
102.45745 -120.04696 171.61429 316
74.48623 -148.40555 164.52051 416
69.05663 -153.89497 166.32533 306
82.48137 -141.99956 163.62822 307
76.30476 -148.30086 164.87947 417
69.97437 -154.81662 166.35059 305
83.25732 -142.93994 163.58984 307
78.15926 -148.23468 165.23148 418
70.91586 -155.73033 166.31448 305
84.04385 -143.84578 163.54889 307
79.93173 -148.19327 165.56555 419
71.85441 -156.64751 166.30869 305
84.85717 -144.78961 163.54938 307
81.75052 -148.09117 165.86755 420
85.66838 -145.68573 163.53889 307
83.48532 -148.03734 166.19026 421
86.47250 -146.60747 163.50697 307
84.97470 -148.17291 166.41112 310
87.26378 -147.53577 163.47232 307
85.91792 -149.04282 166.38661 310
88.62000 -147.84674 163.61197 423
86.85439 -149.84976 166.43886 310
90.28581 -147.80669 163.91837 424
87.76461 -150.64304 166.43109 310
91.94392 -147.71800 164.24515 425
88.69313 -151.40749 166.41147 310
93.54598 -147.67868 164.52017 426
89.65988 -152.20700 166.44446 310
95.19431 -147.57494 164.84923 427
90.59096 -152.99754 166.41551 310
96.79951 -147.50839 165.14651 418
91.50266 -153.81964 166.41032 310
98.46181 -147.34396 165.46446 419
92.45657 -154.55103 166.43803 310
100.07896 -147.20898 165.74547 420
93.44045 -155.32324 166.43770 310
101.71025 -147.05869 166.08047 421
94.39258 -156.11630 166.44063 310
103.34808 -146.85333 166.35765 422
104.39091 -147.37857 166.47746 314
105.31984 -148.08510 166.45432 314
106.23722 -148.77644 166.43695 314
107.09980 -149.49452 166.43286 314
108.01704 -150.16774 166.46201 314
108.98055 -150.84935 166.46199 314
109.86179 -151.56952 166.47438 314
110.79212 -152.24080 166.47159 314
111.74818 -152.87810 166.46439 314
114.85723 -150.49303 167.49251 316
115.75628 -151.14436 167.45819 316
119.84093 -149.08328 168.51831 274
120.77658 -149.64728 168.54601 489
124.06669 -148.67455 169.26221 489
125.52219 -148.35338 169.52876 440
126.86839 -148.22418 169.75771 441
127.71970 -148.88817 169.71542 395
-21487.15820 -55295.11719 -9594.04395 1000
-264.48273 -1937.12122 85.62431 395
-250.46130 -1932.26843 86.39550 499
-251.63182 -1936.46301 118.65225 499
-252.27701 -1939.25989 151.08499 484
-239.37598 -1938.53516 85.76784 452
-241.30502 -1946.57446 118.20321 328
238.15495 -1449.31580 97.80819 470
238.41470 -1453.01306 121.29498 470
238.43886 -1457.58032 145.00989 433
238.29291 -1460.40137 168.81134 435
247.17723 -1446.27246 97.95689 495
246.90327 -1450.84937 121.40366 495
247.35214 -1455.32629 145.24036 495
247.14296 -1460.51294 168.74803 425
255.84215 -1448.31616 97.72343 471
256.22333 -1454.68494 121.24097 425
265.31686 -1459.50037 96.89278 288
13051.99805 -52580.22656 13772.52441 1000
9687.83887 -19398.00000 -5566.99268 1000
30604.70508 -61295.64844 -8790.33008 1000
734.06104 -934.51550 111.71281 451
735.61383 -937.14581 129.09390 395
737.28046 -940.41333 146.39749 396
740.36212 -945.98273 163.66180 316
738.12146 -928.26440 111.90288 487
739.35504 -930.60199 129.36308 487
740.64600 -932.61346 146.67192 486
741.91870 -934.90778 164.05113 484
743.07379 -937.02264 181.68321 460
745.33728 -940.82013 199.12636 349
743.66064 -924.50360 112.07993 499
744.78735 -926.68781 129.43173 499
745.91193 -928.84650 146.89525 487
747.36053 -931.07532 164.24142 479
748.51031 -933.25378 181.62035 486
750.47925 -937.00409 199.21849 410
750.16418 -922.82599 112.08039 487
751.65240 -925.47223 129.11679 451
753.34485 -928.37640 146.44202 450
755.21600 -931.81189 163.84027 337
759.30481 -924.46576 110.71722 395
762.82648 -930.31891 127.75380 325
366.85376 -109.21795 167.63321 313
367.49268 -108.31953 167.61667 313
368.13177 -107.39180 167.64444 313
368.75253 -106.47951 167.60963 315
369.37131 -105.56626 167.65033 315
370.00928 -104.64178 167.64290 315
370.65179 -103.70446 167.64249 315
371.27737 -102.80350 167.65305 315
371.86508 -101.85854 167.62511 315
372.47815 -100.91826 167.62408 315
373.08658 -99.95274 167.67648 315
373.70901 -99.00265 167.67262 315
374.28223 -98.07455 167.64716 315
375.19989 -97.34309 167.57921 437
376.55521 -96.84283 167.33018 436
377.93085 -96.38589 167.06410 435
386.88889 -101.79620 167.69337 309
379.34039 -95.89845 166.78848 435
387.44772 -100.73319 167.70537 309
49945.79297 -29778.47656 4954.14551 1000
380.77133 -95.38548 166.54614 434
388.05600 -99.70249 167.69604 309
382.18015 -94.92904 166.29625 433
388.59634 -98.65806 167.71558 309
383.62268 -94.41188 166.03192 432
389.19031 -97.62682 167.70955 309
385.09363 -93.90122 165.77335 431
389.76495 -96.55061 167.71379 309
386.57159 -93.41020 165.48978 430
390.30655 -95.47491 167.74989 309
388.03265 -92.90694 165.17807 429
390.86035 -94.45856 167.71379 311
389.50931 -92.35714 164.92654 428
391.45065 -93.37306 167.74695 311
390.59174 -91.59045 164.72772 317
391.99677 -92.31669 167.72302 311
391.16556 -90.54672 164.72322 317
392.61209 -91.30242 167.69708 426
391.72534 -89.53255 164.73544 317
394.17587 -90.79209 167.42247 425
392.28366 -88.49702 164.75362 317
395.73660 -90.24757 167.16728 424
392.85913 -87.43999 164.71577 317
397.32458 -89.69464 166.87489 423
239.56062 -10.36515 214.75500 1000
393.42261 -86.41213 164.71402 317
398.92343 -89.14182 166.55209 422
407.63266 -93.47169 167.76720 305
393.93073 -85.33173 164.73643 317
400.58612 -88.57457 166.26129 421
408.20117 -92.25534 167.73346 305
394.49118 -84.27798 164.71890 317
402.21149 -87.97783 165.91885 420
408.71536 -91.12630 167.78445 305
394.99686 -83.20503 164.69110 317
403.89392 -87.38552 165.61911 419
409.25122 -89.92474 167.74954 305
395.53339 -82.12949 164.69191 317
405.59259 -86.83739 165.31027 418
409.72104 -88.75993 167.80907 305
396.03635 -81.07122 164.68904 317
407.23254 -86.20354 164.98120 437
410.21829 -87.59095 167.79822 305
396.51657 -79.97373 164.72917 317
408.33942 -85.30533 164.84549 312
410.71500 -86.37595 167.80081 305
373.70343 -68.61269 171.53590 316
408.89124 -84.16123 164.84485 312
411.19400 -85.22652 167.82643 305
374.13452 -67.63745 171.57141 316
409.39517 -83.04897 164.84293 312
411.71564 -84.03400 167.83925 435
374.49622 -66.68096 171.56293 316
409.92188 -81.89112 164.82141 312
413.25873 -83.25504 167.54866 434
374.89594 -65.75028 171.55760 316
410.43143 -80.73323 164.79523 312
414.75336 -82.55427 167.31020 433
375.29636 -64.77903 171.56282 316
410.92447 -79.52351 164.84645 312
416.29880 -81.78535 167.03580 432
375.67538 -63.84248 171.54100 316
411.45444 -78.35374 164.81430 312
417.87524 -81.00526 166.77446 431
376.06073 -62.88484 171.56013 316
411.94214 -77.22256 164.79698 312
419.45584 -80.24375 166.46727 430
376.41486 -61.94027 171.57942 316
412.38535 -76.04491 164.81918 312
421.11227 -79.44569 166.20277 429
430.16718 -82.99741 167.82820 301
376.78839 -60.97994 171.58978 316
412.87292 -74.88287 164.82222 312
422.71524 -78.63567 165.94205 428
430.64319 -81.72536 167.81573 301
377.12271 -59.99860 171.56732 316
413.30832 -73.71367 164.82561 312
424.37076 -77.87412 165.60915 427
431.09326 -80.43156 167.79916 301
377.50601 -59.04752 171.57994 316
413.81772 -72.51609 164.79308 312
426.04047 -77.06818 165.32814 426
431.52597 -79.10536 167.86276 301
377.81769 -58.06950 171.57315 316
388.41434 -61.90164 171.70529 313
427.66757 -76.24212 165.04611 425
431.94272 -77.75255 167.83327 301
378.16397 -57.11240 171.59033 316
388.80371 -60.89264 171.70027 313
428.73669 -75.16381 164.89502 308
432.37946 -76.43356 167.88538 301
378.49008 -56.13831 171.57573 316
389.14041 -59.83464 171.68430 313
429.17773 -73.87929 164.85561 308
432.76547 -75.14830 167.89357 301
378.85049 -55.15785 171.58636 316
389.50558 -58.80166 171.70079 313
429.68878 -72.58717 164.85783 308
433.18350 -73.80685 167.84346 301
379.13919 -54.19259 171.58295 316
389.83838 -57.76004 171.71715 313
430.12891 -71.32920 164.88341 308
434.66013 -72.84501 167.62143 421
379.48468 -53.19558 171.59508 316
390.18039 -56.70811 171.70479 313
430.57275 -70.07619 164.90564 308
436.39664 -71.97811 167.33563 420
379.77625 -52.20571 171.58591 316
390.49744 -55.67039 171.70552 313
430.98499 -68.77806 164.88046 308
438.23679 -71.09524 167.03290 419
380.08551 -51.24704 171.61208 316
390.80167 -54.61709 171.72112 313
431.39984 -67.46756 164.88646 308
439.96643 -70.17100 166.73587 433
380.38617 -50.23925 171.61877 316
391.13947 -53.59363 171.71494 313
431.84528 -66.14552 164.87733 308
441.60648 -69.22486 166.47137 432
380.66907 -49.27642 171.62196 316
391.46390 -52.53498 171.69873 313
432.20056 -64.89160 164.89571 308
443.20706 -68.20646 166.17900 431
380.95032 -48.30109 171.61385 316
391.77847 -51.49378 171.71979 313
432.59015 -63.54493 164.89110 308
444.91919 -67.24054 165.91315 430
454.66263 -70.10487 167.89839 297
381.26364 -47.27218 171.61560 317
392.04303 -50.43037 171.73636 313
404.32614 -53.94868 171.84122 309
446.60251 -66.23708 165.63622 429
455.01904 -68.66367 167.89197 297
267.09827 -13.92326 203.49309 288
392.33929 -49.36121 171.73520 313
404.65436 -52.85282 171.86823 309
448.27353 -65.17921 165.32857 428
455.35083 -67.16728 167.87265 297
267.15869 -13.63494 203.50194 314
392.63278 -48.30694 171.72131 313
404.91806 -51.72374 171.86037 309
449.99036 -64.18275 165.04613 427
455.71347 -65.76137 167.94508 297
267.23465 -13.35142 203.49870 314
392.90976 -47.22948 171.70071 313
405.21948 -50.59459 171.84555 309
450.69174 -62.84905 164.95262 303
456.04156 -64.29581 167.95795 298
267.31943 -13.06089 203.50064 314
393.20499 -46.19993 171.72610 313
405.51346 -49.44852 171.86624 309
451.07910 -61.39761 164.99623 303
456.36096 -62.82145 167.96436 298
267.39655 -12.77388 203.50940 314
393.48074 -45.13993 171.72070 313
405.81564 -48.30397 171.83109 309
451.38144 -59.96695 164.94672 303
456.70059 -61.34610 167.98714 298
3655.63574 -881.92346 215.58749 490
3661.66748 -883.42255 274.06137 458
267.46942 -12.48687 203.50883 314
393.74982 -44.07806 171.71385 313
406.11996 -47.17458 171.87782 309
451.78146 -58.55090 164.97861 303
457.10126 -59.93038 167.96347 423
267.53561 -12.19974 203.49748 314
393.99139 -42.97786 171.74451 313
406.40079 -46.02329 171.83026 309
452.10345 -57.16698 164.98694 303
458.93588 -58.82345 167.61894 422
7811.12012 -1849.77783 -296.49622 1000
267.60724 -11.90303 203.50073 314
394.23318 -41.90668 171.76108 313
406.62161 -44.84733 171.88026 309
452.49127 -55.75406 164.97456 303
460.79410 -57.71602 167.34750 421
267.68085 -11.61730 203.50633 314
394.48734 -40.85170 171.76154 313
406.88196 -43.69419 171.88036 309
452.76956 -54.27866 165.00217 303
462.54874 -56.57154 167.07802 453
267.73727 -11.32434 203.49892 314
394.74188 -39.78202 171.74443 313
407.14529 -42.58408 171.83719 309
453.10037 -52.90231 164.97403 303
463.85477 -55.28009 166.83269 452
267.80988 -11.03034 203.49907 314
394.93729 -38.72211 171.73148 313
407.39844 -41.44346 171.86694 309
453.47861 -51.47341 164.94724 304
465.22470 -53.99773 166.61835 451
267.86835 -10.74686 203.49779 314
395.16879 -37.62821 171.73094 313
407.66580 -40.27595 171.86858 309
421.90652 -43.26933 172.00476 305
466.60938 -52.73803 166.43292 450
267.92740 -10.45652 203.50967 314
395.39554 -36.56547 171.74539 313
407.85248 -39.13928 171.89432 309
422.16739 -42.05642 171.98213 305
468.00629 -51.43030 166.20834 449
267.99493 -10.16083 203.50978 314
395.58655 -35.49606 171.72763 313
408.09003 -37.96266 171.88414 309
422.40070 -40.79415 172.02043 305
469.38495 -50.12179 165.98944 449
268.05548 -9.87288 203.50514 314
395.79034 -34.40378 171.72568 313
408.34247 -36.81918 171.85509 309
422.64691 -39.59095 172.03981 305
470.79169 -48.79998 165.76775 448
268.10168 -9.57984 203.50885 314
395.98019 -33.35712 171.76871 313
408.54590 -35.65501 171.87653 309
422.84927 -38.33451 171.98692 305
472.19632 -47.46767 165.57051 447
482.26410 -49.36816 167.99057 293
268.15860 -9.28144 203.49974 314
396.19098 -32.24473 171.75842 313
408.75836 -34.53643 171.89879 309
423.08411 -37.07791 172.00391 305
473.68896 -46.12741 165.32823 446
482.53290 -47.77054 167.99968 293
268.21030 -8.99064 203.50441 314
396.37466 -31.17994 171.76126 313
408.91226 -33.34641 171.87527 309
423.27548 -35.83268 172.01198 305
474.96924 -44.76717 165.09003 300
482.74298 -46.12704 168.07585 293
268.26038 -8.69738 203.50493 314
396.55093 -30.10836 171.74016 313
409.14978 -32.18825 171.88091 309
423.49539 -34.60606 171.99451 305
475.21991 -43.21958 165.12953 300
482.91611 -44.50285 168.09352 293
268.31348 -8.40199 203.50423 314
396.76178 -29.02818 171.76697 313
409.31970 -31.03779 171.88904 309
423.70917 -33.34460 172.01416 305
475.44693 -41.61921 165.11786 300
483.08859 -42.86184 168.06970 293
268.35669 -8.10343 203.50853 314
396.92239 -27.91009 171.77380 313
409.48364 -29.85116 171.90297 309
423.92361 -32.09873 172.01982 305
475.67609 -40.08691 165.13133 300
483.28308 -41.22600 168.09650 293
268.40518 -7.81890 203.49899 314
397.07431 -26.87378 171.78531 313
409.64941 -28.72578 171.85835 309
424.07254 -30.83641 171.99529 305
475.90610 -38.51419 165.09332 300
483.45111 -39.67214 168.12918 293
268.44318 -7.51433 203.50812 314
397.19653 -25.77544 171.76071 313
409.83810 -27.56579 171.88423 309
424.27246 -29.57639 172.02577 305
440.92969 -31.93728 172.16565 301
483.59235 -38.02150 168.10724 294
268.48456 -7.23147 203.50632 314
397.39166 -24.67120 171.75352 313
409.99280 -26.36369 171.91325 309
424.40356 -28.34169 172.05397 305
441.13666 -30.60219 172.20740 301
483.71686 -36.35971 168.12384 294
268.53372 -6.92867 203.49802 314
397.50412 -23.61082 171.76932 313
410.15833 -25.21960 171.88901 309
424.58905 -27.06922 172.05220 305
441.27829 -29.22399 172.16150 301
484.91702 -34.88179 167.93211 459
268.57318 -6.63278 203.50630 314
397.63257 -22.48136 171.77924 313
410.31012 -24.05279 171.88341 309
424.72128 -25.83186 172.01268 305
441.49655 -27.87833 172.18967 301
486.12564 -33.41959 167.74281 458
268.60001 -6.33794 203.49966 314
397.77176 -21.39444 171.76482 313
410.43237 -22.92083 171.87596 309
424.88895 -24.58443 172.05635 305
441.63629 -26.54835 172.18761 301
487.41495 -31.85751 167.60815 457
268.63269 -6.04904 203.50380 314
272.01471 -6.41998 203.49309 282
410.53113 -21.75365 171.89134 309
425.02817 -23.31689 172.04570 305
441.77664 -25.19707 172.17041 301
488.60544 -30.39683 167.42432 456
268.66879 -5.74566 203.50073 314
272.03741 -6.09503 203.50616 310
410.65247 -20.53856 171.89612 309
425.14188 -22.06217 172.01401 305
441.89658 -23.79601 172.20967 301
489.87216 -28.83498 167.21478 456
268.69595 -5.44983 203.50363 314
272.06567 -5.77463 203.50142 310
410.80399 -19.38396 171.87579 309
425.31970 -20.83556 172.04774 305
442.05115 -22.46464 172.19434 301
491.14023 -27.29619 167.00798 455
268.72729 -5.14946 203.50687 314
272.10681 -5.46104 203.50697 310
410.89484 -18.20595 171.86681 309
425.38943 -19.54435 172.01346 305
442.16174 -21.07466 172.21272 301
492.37952 -25.68740 166.79886 454
268.75772 -4.85643 203.50148 314
272.13632 -5.14888 203.50023 310
410.98825 -17.06866 171.91464 309
425.53168 -18.29812 172.02350 305
442.28125 -19.73092 172.21983 301
493.68839 -24.16719 166.58116 453
268.78641 -4.55931 203.50990 314
272.15573 -4.83335 203.50288 310
411.12036 -15.86853 171.90912 309
425.59485 -17.03154 172.05043 305
442.42148 -18.35195 172.18869 301
494.96100 -22.55174 166.41432 452
268.79987 -4.26126 203.50191 314
272.17737 -4.51871 203.50761 310
411.20334 -14.74205 171.90727 309
425.70169 -15.81198 172.04903 305
442.51474 -17.01414 172.22404 301
496.28445 -20.98034 166.13417 451
268.82840 -3.96871 203.50409 314
272.20190 -4.19703 203.50548 310
411.27823 -13.55311 171.89864 309
425.78229 -14.50833 172.02159 305
442.58875 -15.66187 172.16896 301
462.25299 -16.97642 172.39371 297
268.85013 -3.67231 203.49768 314
272.22043 -3.87826 203.50589 310
411.33472 -12.37337 171.90976 309
425.86691 -13.27165 172.01953 305
442.72214 -14.28612 172.19492 301
462.33704 -15.46345 172.41991 297
268.86514 -3.37280 203.49803 314
272.24167 -3.56391 203.50694 310
411.42847 -11.19153 171.91977 309
425.95181 -12.03115 172.02322 305
442.80936 -12.90188 172.19168 301
462.47055 -13.97759 172.36026 297
268.88702 -3.07891 203.50011 314
272.26581 -3.24346 203.50334 310
411.45096 -10.03016 171.92130 309
426.01071 -10.71566 172.04443 305
442.83267 -11.55651 172.19934 301
462.49945 -12.55470 172.40643 297
268.88968 -2.77754 203.50798 314
272.27460 -2.91770 203.50162 310
411.50922 -8.85876 171.91550 309
426.07367 -9.47864 172.02762 305
442.90695 -10.21902 172.21890 301
462.60648 -11.04101 172.37898 297
268.90750 -2.47387 203.49901 314
272.29453 -2.60292 203.49968 310
411.57858 -7.66339 171.91525 309
426.15302 -8.21539 172.05728 305
442.99802 -8.84811 172.18166 301
462.62866 -9.58536 172.42221 297
268.91846 -2.17642 203.50414 314
272.29922 -2.29137 203.50499 310
411.63239 -6.48792 171.89999 309
426.20959 -6.96717 172.01294 305
443.02725 -7.44516 172.19897 301
462.73288 -8.04348 172.39561 297
268.92526 -1.88064 203.50111 314
272.30911 -1.96902 203.50053 310
411.63766 -5.35361 171.90518 309
426.23474 -5.71043 172.06781 305
443.07983 -6.09642 172.17328 301
462.72501 -6.59377 172.37581 297
268.92807 -1.58523 203.50201 314
272.32104 -1.65142 203.49870 310
411.67804 -4.17041 171.90305 309
426.22919 -4.40719 172.04951 305
443.07672 -4.71079 172.21776 301
462.78448 -5.06446 172.36116 297
268.94000 -1.28594 203.50897 314
272.33127 -1.32871 203.50165 310
411.68042 -2.97581 171.88609 309
426.24927 -3.17025 172.03999 305
443.13684 -3.33995 172.23180 301
462.83597 -3.60046 172.40219 297
512.38843 -4.17608 168.30829 288
268.94183 -0.99031 203.50066 314
272.32565 -1.01744 203.50587 310
411.72995 -1.79521 171.87364 309
426.27682 -1.87897 172.02666 305
443.13855 -1.97266 172.17563 301
451.86594 -2.03302 174.40851 425
512.36194 -2.42920 168.27670 288
268.93753 -0.68982 203.50101 314
272.32831 -0.69420 203.51050 310
411.72745 -0.62217 171.92020 309
426.27933 -0.66887 172.04985 305
443.13040 -0.63467 172.22885 301
462.86487 -0.59796 172.41438 297
512.36102 -0.60520 168.30539 288
268.93762 -0.39004 203.50983 314
272.33575 -0.36657 203.50627 310
411.69489 0.55031 171.92294 309
426.30304 0.62319 172.05179 305
443.11862 0.72392 172.22768 301
452.26025 0.79678 174.33678 425
512.35608 1.18371 168.32539 288
268.94525 -0.10202 203.50713 314
272.32437 -0.05332 203.50308 310
411.72955 1.68243 171.88614 309
426.29495 1.91119 172.06238 305
443.14481 2.08822 172.18127 301
452.07855 2.18470 174.32878 422
512.45190 2.93368 168.27197 288
268.93640 0.20199 203.50461 314
272.31570 0.27063 203.49800 310
411.69583 2.90067 171.88120 309
426.28873 3.16050 172.01512 305
443.12848 3.45140 172.18681 301
462.84573 3.85381 172.38286 297
268.92801 0.49672 203.50813 314
272.31778 0.58074 203.50012 310
411.68149 4.05494 171.87610 309
426.24744 4.38326 172.02412 305
443.10745 4.79733 172.17305 301
462.77554 5.31178 172.37125 297
268.92136 0.80023 203.50526 314
272.31012 0.89927 203.51068 310
411.62000 5.20471 171.87854 309
426.18970 5.65209 172.04492 305
443.08023 6.21374 172.19038 301
462.77716 6.81482 172.38824 297
268.91446 1.09299 203.50114 314
272.29904 1.21930 203.51048 310
411.61646 6.39979 171.88338 309
426.16626 6.94553 172.02182 305
443.03799 7.56290 172.19037 301
462.72458 8.32209 172.35822 297
268.89929 1.39410 203.50632 314
272.27899 1.53410 203.50598 310
411.56442 7.56642 171.87337 309
426.15259 8.21859 172.05984 305
442.98743 8.94147 172.17029 301
462.67386 9.80039 172.36644 297
268.88953 1.68729 203.49959 314
272.27344 1.85985 203.50922 310
411.51013 8.71579 171.89262 309
426.08005 9.46044 172.02818 305
442.89404 10.29015 172.17671 301
462.56223 11.23375 172.40964 297
268.86777 1.98480 203.50313 314
272.24899 2.16898 203.50850 310
411.47629 9.89535 171.88589 309
426.04352 10.73799 172.02768 305
442.84897 11.64009 172.17673 301
462.49960 12.77633 172.35995 297
268.85745 2.28049 203.49812 314
272.23560 2.48757 203.50357 310
411.42090 11.06003 171.90356 309
425.94412 11.97774 172.01262 305
442.76590 13.04645 172.21974 301
462.45441 14.26315 172.36156 297
268.84409 2.57827 203.50708 314
272.22214 2.81467 203.50708 310
411.32544 12.24432 171.87706 309
425.86285 13.23585 172.05925 305
442.66287 14.36057 172.17767 301
462.37903 15.73580 172.38580 297
268.82245 2.88421 203.50568 314
272.19858 3.13005 203.49895 310
411.27505 13.41821 171.89940 309
425.81174 14.50710 172.05003 305
442.60571 15.71929 172.20757 301
496.65527 19.77036 166.08000 452
268.78976 3.17331 203.50356 314
272.17755 3.44975 203.50925 310
411.16394 14.59919 171.86864 309
425.70227 15.75214 172.03227 305
442.47507 17.08506 172.17117 301
495.38049 21.33225 166.34326 452
268.77417 3.47087 203.50137 314
272.14105 3.76989 203.50700 310
411.05417 15.74837 171.90346 309
425.57556 17.05223 172.00970 305
442.38596 18.47080 172.19110 301
494.11075 22.98039 166.49609 453
4937.71973 406.03955 293.47232 463
268.74860 3.77027 203.51031 314
272.12238 4.07652 203.50119 310
410.96509 16.94010 171.89821 309
425.52002 18.28475 172.00926 305
442.26355 19.81834 172.21068 301
492.84592 24.53512 166.71664 454
4918.91553 434.71036 293.71732 464
268.71231 4.05946 203.50809 314
272.08972 4.39608 203.50168 310
410.87576 18.11066 171.87712 309
425.38608 19.54675 172.00433 305
442.14005 21.21142 172.17624 301
491.55728 26.04400 166.97691 455
4901.07568 461.49615 292.86850 469
268.68686 4.36687 203.49774 314
272.05405 4.71080 203.49701 310
410.77020 19.30090 171.90968 309
425.27179 20.77862 172.05261 305
442.03427 22.53481 172.18929 301
490.30624 27.66011 167.10196 456
4888.18457 488.81155 293.28763 483
268.65283 4.65760 203.50006 314
272.01953 5.03405 203.51009 310
410.63251 20.43766 171.86607 309
425.12735 22.06749 172.04610 305
441.90500 23.90041 172.18884 301
489.07098 29.18475 167.30080 457
4877.39404 516.29901 293.37515 456
268.62717 4.95569 203.49979 314
271.98593 5.34723 203.50958 310
410.53659 21.64078 171.89803 309
425.02667 23.29420 172.03683 305
441.73431 25.27386 172.16211 301
487.80405 30.65629 167.55290 457
4868.32080 544.69183 293.65973 459
268.58575 5.25165 203.50014 314
271.94928 5.66634 203.49706 310
410.39902 22.75548 171.87007 309
424.86212 24.57668 172.03041 305
441.57663 26.61857 172.15314 301
486.54755 32.21220 167.72305 458
4860.74658 572.54089 293.19186 458
268.54700 5.54006 203.50572 314
271.90930 5.97932 203.49734 310
410.23193 23.94702 171.90172 309
424.72968 25.82333 172.01059 305
441.42072 28.00312 172.20491 301
485.35556 33.73492 167.86375 459
4854.53223 601.37952 293.51468 460
268.50620 5.84001 203.50909 314
271.86581 6.30121 203.50276 310
410.07547 25.13196 171.88925 309
424.55499 27.07110 172.02553 305
441.28149 29.36318 172.18547 301
484.17087 35.21621 168.11131 460
4848.51611 628.60236 292.62653 460
268.47504 6.13345 203.50449 314
271.82666 6.61927 203.49733 310
409.93057 26.27908 171.88666 309
424.36462 28.32384 171.99687 305
441.12030 30.72708 172.16652 301
483.78720 36.80349 168.10410 294
4844.46533 657.31726 292.30310 382
268.42596 6.42821 203.50636 314
271.83575 6.93628 203.48956 282
409.80899 27.42200 171.86877 309
424.24390 29.57477 172.01852 305
476.10818 37.26820 165.05659 300
483.63776 38.42399 168.11308 293
4840.45410 685.28156 293.01205 382
268.38046 6.72593 203.50079 314
397.03204 26.66838 171.72992 313
409.63791 28.59032 171.87805 309
424.03040 30.82316 172.01704 305
475.88385 38.84772 165.07088 300
483.46863 40.03223 168.08623 293
4837.36475 713.83502 292.57272 381
268.34286 7.01802 203.50676 314
396.85324 27.72999 171.73944 313
409.46930 29.77737 171.89058 309
423.86679 32.09208 172.01373 305
475.65576 40.41831 165.08583 300
483.32367 41.68264 168.06326 293
4836.00537 743.51141 292.94061 381
268.28510 7.30650 203.50322 314
396.69843 28.83250 171.75084 313
409.26352 30.90769 171.87450 309
423.65619 33.35819 172.03259 305
475.39017 41.97288 165.05077 300
483.14581 43.28760 168.02469 293
4834.76074 772.29602 292.93015 380
268.23828 7.60893 203.50708 314
396.52716 29.90457 171.73083 313
409.07104 32.06446 171.87613 309
423.46161 34.55995 172.01160 305
475.16086 43.54771 165.08217 300
482.95084 44.93724 168.00290 293
4832.59326 800.84912 293.43683 380
4958.59229 822.82843 374.66519 395
268.18860 7.89657 203.49913 314
396.31512 30.99779 171.73441 313
408.88721 33.22980 171.84943 309
423.27832 35.85192 172.02460 305
474.21149 44.99422 165.20096 446
482.76907 46.52695 168.04039 293
4829.42920 829.37042 292.70624 437
4943.67090 849.75507 373.62939 498
268.13388 8.19303 203.51001 314
396.14343 32.05019 171.73959 313
408.69370 34.37543 171.88582 309
423.03256 37.10609 172.00450 305
472.73410 46.37103 165.46797 447
482.53159 48.17675 167.97430 293
4827.76465 858.27570 293.75073 380
268.08682 8.48807 203.49966 314
395.95682 33.16324 171.71727 313
408.47998 35.53041 171.87688 309
422.81778 38.29657 172.01724 305
471.37640 47.66679 165.68663 448
4825.94336 887.81171 293.15967 380
268.02798 8.77304 203.50471 314
395.73111 34.23653 171.73141 313
408.26465 36.71635 171.87979 309
422.57248 39.53796 171.99292 305
469.91153 48.97120 165.90468 449
4823.87500 916.69470 293.28693 380
267.96460 9.07584 203.50221 314
395.52515 35.28917 171.75627 313
408.04575 37.88142 171.82965 309
422.33755 40.81996 172.00984 305
468.53558 50.32250 166.11812 450
4822.89502 944.57367 293.28711 380
267.90152 9.36065 203.50348 314
395.30969 36.38440 171.70448 313
407.82312 39.00971 171.85538 309
422.11316 42.05203 171.98961 305
467.15457 51.60583 166.35052 451
4820.27344 974.04755 293.14282 380
267.84247 9.65763 203.50699 314
395.11163 37.46020 171.74066 313
407.58896 40.19631 171.83620 309
421.83087 43.27379 171.96344 305
465.78403 52.85358 166.54402 451
4817.68018 1002.72827 293.08051 380
4880.67334 1016.08667 372.90594 497
4895.93994 1019.79846 452.23038 496
267.77908 9.94412 203.50252 314
394.86240 38.54337 171.70927 313
407.34677 41.32963 171.84628 309
453.36789 51.67624 164.95349 303
464.44876 54.12474 166.77788 452
4815.76025 1031.97498 293.24484 380
267.70901 10.22997 203.50826 314
394.61542 39.57823 171.73779 313
407.06989 42.44525 171.81897 309
453.01932 53.10852 164.96043 303
463.07062 55.39483 166.94688 453
4814.31250 1061.22290 293.83304 380
267.64371 10.52144 203.50027 314
394.40353 40.63711 171.74350 313
406.81583 43.60398 171.82492 309
452.69601 54.50348 164.95230 303
461.49640 56.60073 167.24008 421
4811.53027 1091.06653 293.77472 379
267.57980 10.80858 203.50487 314
394.15927 41.73579 171.70798 313
406.55090 44.75964 171.83946 309
452.39935 55.95284 164.97464 303
459.69553 57.72168 167.55180 422
4810.01465 1120.21155 294.23386 379
267.50241 11.09724 203.50072 314
393.87811 42.78603 171.70049 313
406.27872 45.88049 171.84654 309
452.07120 57.37433 164.96732 303
457.81317 58.79577 167.84789 423
4808.40918 1148.99280 294.62241 379
267.43622 11.39245 203.50841 314
393.66260 43.86076 171.68797 313
406.02692 47.07141 171.80664 309
451.66620 58.79308 164.94182 303
456.98242 60.18585 167.91164 297
4806.08105 1179.24414 293.71255 379
267.35257 11.68325 203.50285 314
393.37796 44.91867 171.73254 312
405.76416 48.17508 171.81165 309
451.28934 60.25039 164.90712 303
456.64075 61.62867 167.94629 297
4804.13086 1207.77441 293.86108 379
267.28568 11.96709 203.50420 314
393.09113 45.99185 171.69838 312
405.46301 49.32569 171.82681 309
450.92395 61.61062 164.94965 303
456.32486 63.07388 167.93213 297
4802.41113 1237.78784 293.76794 379
267.20227 12.25144 203.49954 314
392.84216 47.07139 171.70073 312
405.16174 50.47527 171.79662 309
450.57025 63.04912 164.96774 303
455.99567 64.56700 167.89748 297
267.11935 12.54488 203.50168 314
392.56210 48.09872 171.71365 312
404.85144 51.60275 171.80080 309
449.02423 64.10252 165.19438 428
455.64569 65.99505 167.84692 297
267.04724 12.83491 203.50719 314
392.23810 49.19766 171.70644 312
404.51962 52.72263 171.83884 309
447.27109 65.16893 165.48022 429
455.30524 67.46246 167.89020 297
266.95804 13.11443 203.50066 314
391.96912 50.23365 171.70573 312
404.23218 53.86940 171.78542 309
445.64267 66.15121 165.78116 430
454.93625 68.91923 167.84213 297
266.63507 13.37389 203.50740 314
391.65936 51.28156 171.69490 312
432.46552 63.67733 164.85802 308
443.97070 67.17184 166.07680 431
454.61646 70.37329 167.84413 297
266.79239 13.68909 203.50061 314
391.34265 52.33750 171.66769 312
432.13141 64.96712 164.83661 308
442.32227 68.16528 166.33966 432
266.70227 13.96811 203.50418 314
391.01718 53.39157 171.68062 312
431.72733 66.31335 164.82420 308
440.70978 69.15916 166.61398 433
266.60968 14.25014 203.50270 314
390.69315 54.44213 171.65811 312
431.26337 67.57005 164.83405 308
439.05188 70.10661 166.85944 419
266.55774 14.54446 203.49034 288
390.38071 55.51426 171.65215 312
430.88535 68.86137 164.82141 308
437.20840 70.96824 167.22495 420
379.35767 52.91589 171.57951 316
390.05243 56.53388 171.68698 312
430.44492 70.13026 164.84645 308
435.46924 71.86482 167.48833 421
379.05215 53.92929 171.57570 316
389.71878 57.57272 171.68687 312
429.98865 71.46193 164.86627 308
433.65994 72.72410 167.81465 422
378.72720 54.87362 171.57971 316
389.35309 58.61993 171.68579 312
429.51541 72.71146 164.84163 308
433.09924 73.98442 167.84300 301
378.38025 55.83804 171.54794 316
389.03305 59.64233 171.65286 312
429.05096 74.00552 164.87770 308
432.71042 75.28421 167.82251 301
378.04883 56.84440 171.55692 316
388.65253 60.68814 171.64961 312
428.49942 75.23288 164.84546 425
432.27936 76.60726 167.79971 301
377.72223 57.78957 171.53995 316
388.30145 61.71418 171.66891 312
426.78683 76.07774 165.16228 426
431.84109 77.94707 167.83102 301
377.37054 58.77892 171.54901 316
413.63629 72.50802 164.74385 312
425.14212 76.89837 165.49930 427
431.41599 79.24850 167.80733 301
377.00055 59.71597 171.54672 316
413.18311 73.71474 164.78113 312
423.47342 77.66812 165.77649 428
430.95987 80.56029 167.78433 301
376.65045 60.68858 171.52216 316
412.69119 74.86909 164.75192 312
421.89221 78.48538 166.03693 429
430.49728 81.84805 167.79955 301
376.27002 61.66891 171.55515 316
412.19205 76.02408 164.79391 312
420.28430 79.27979 166.34958 430
430.06412 83.16653 167.73175 301
375.88297 62.61802 171.51892 316
411.72311 77.23750 164.78627 312
418.63644 80.06784 166.60187 431
25101.08789 10131.64941 1537.44312 1000
375.50568 63.55627 171.55406 316
411.25827 78.38231 164.75591 312
417.07242 80.83292 166.89684 432
375.13138 64.51680 171.51907 316
410.77084 79.53610 164.78766 312
415.55942 81.57462 167.15117 433
374.76248 65.51262 171.51630 316
410.25092 80.73991 164.81151 312
414.02435 82.32601 167.39209 434
374.37042 66.45920 171.53613 316
409.74255 81.87733 164.80873 312
412.47357 83.06190 167.63857 435
373.97241 67.38940 171.52216 316
409.19574 83.03925 164.76057 312
411.54184 84.08602 167.76874 305
373.53592 68.33098 171.51421 316
408.70877 84.20415 164.81818 312
411.05496 85.24160 167.79062 305
396.34506 79.91567 164.69505 316
407.96719 85.24248 164.87007 437
410.55426 86.41897 167.74959 305
395.84460 80.97477 164.67119 316
406.46048 85.92568 165.12167 418
410.04684 87.61989 167.72241 305
395.32526 82.05112 164.68927 317
404.78268 86.54902 165.41515 419
409.57532 88.79412 167.71310 305
394.81030 83.12338 164.70819 317
403.08484 87.10665 165.74030 421
409.06152 90.00277 167.72404 305
394.27139 84.16821 164.68820 317
401.42471 87.68842 166.08893 422
408.52258 91.17570 167.70805 305
393.72382 85.22458 164.70930 317
399.80518 88.25636 166.34302 423
407.98914 92.35421 167.68398 305
393.20135 86.29545 164.66986 317
398.16467 88.78983 166.67879 424
407.48810 93.52274 167.69658 305
392.64108 87.34634 164.67586 317
396.59268 89.38873 166.94681 425
392.07523 88.40183 164.72075 317
395.01154 89.93872 167.23700 426
391.51086 89.44022 164.71822 317
393.46210 90.47532 167.54375 427
390.93884 90.48693 164.72791 317
392.33868 91.19894 167.72354 311
390.36218 91.53696 164.73537 317
391.74924 92.27420 167.69293 311
3789.55933 1936.19812 217.20403 466
388.85178 92.02895 165.01276 429
391.22952 93.32371 167.69003 311
387.36386 92.57061 165.25836 430
390.61926 94.38849 167.65628 311
385.90253 93.04586 165.57632 431
390.06500 95.45498 167.64967 309
384.42178 93.56910 165.80930 432
389.49420 96.48772 167.66624 309
382.97882 94.09683 166.12453 433
388.94427 97.56934 167.65424 309
381.58243 94.58896 166.36206 434
388.36292 98.60037 167.64153 309
380.16684 95.05374 166.60204 435
387.80170 99.63399 167.66284 309
16140.98438 9545.06934 -2847.26733 1000
378.74265 95.54865 166.88235 436
387.22836 100.67931 167.62247 309
377.37543 96.02614 167.11188 437
375.99933 96.51010 167.35291 438
374.65738 96.97876 167.60913 439
374.03671 97.93896 167.62021 315
373.44800 98.84550 167.60373 315
372.81509 99.83379 167.59196 315
372.23486 100.75977 167.59627 315
371.59467 101.69202 167.60170 315
370.99115 102.60992 167.57228 315
370.36414 103.55558 167.57318 315
369.75232 104.45687 167.56966 315
369.07004 105.40313 167.59132 315
368.45294 106.31413 167.58752 315
367.79102 107.22285 167.55501 313
367.18423 108.18470 167.56931 313
4780.47705 4971.14453 327.69424 416
4726.04102 4971.20605 326.93088 416
4671.05566 4971.24512 326.43207 417
4615.36230 4969.94824 326.21674 418
4588.53027 5001.49023 324.55615 450
3562.65869 3874.64648 216.03203 456
4582.50537 5056.67725 325.11853 419
2187.12744 2366.21680 -448.03680 1000
17369.35742 25327.67969 5267.06396 1000
3234.43359 4959.77246 216.75128 490
12245.36719 20631.86719 -565.20593 1000
768.01025 1039.89270 120.50888 498
767.60321 1039.55457 139.73128 498
767.32355 1039.11169 159.10640 499
767.26764 1038.88586 178.31248 486
767.20526 1038.50525 197.62187 486
767.13275 1038.59937 216.76347 450
767.22662 1038.53711 236.24432 450
767.40741 1038.61877 255.50497 394
767.75745 1039.19495 274.78961 394
762.45068 1044.89746 178.19859 397
761.54590 1043.41455 197.62842 397
761.18958 1042.39661 216.94269 452
760.75421 1041.46924 235.98193 453
760.14734 1040.51709 255.28392 488
759.87177 1039.94580 274.42523 488
759.48975 1039.19836 293.59766 499
759.48932 1038.87549 313.03970 499
759.27063 1038.44507 332.05258 499
3096.50146 5899.03857 220.22304 295
3037.13135 5869.29883 219.63837 372
2984.85083 5852.15918 219.75891 443
2936.28418 5841.02930 219.26773 449
2890.70093 5835.01855 220.20935 499
2843.20459 5826.71631 219.37839 465
2799.33838 5825.25635 219.28812 469
2814.86328 5858.19238 324.79364 481
2754.18018 5818.15820 219.51865 473
2771.91113 5860.08936 324.98309 481
2820.73584 5969.80176 433.31848 481
2711.44873 5816.02588 218.71455 477
2730.41406 5860.55273 323.52780 482
2668.27637 5816.70215 220.15494 481
2685.49463 5857.55859 323.41104 482
2627.92065 5818.56104 219.58054 481
2644.08594 5857.77881 323.63715 483
2586.98096 5818.88916 219.01241 482
2604.86133 5865.64844 322.99225 484
2544.87744 5820.37061 218.89532 461
2562.76123 5865.90283 322.24277 484
2505.61108 5821.90430 219.33441 461
2522.47559 5867.31396 322.27768 485
2576.68970 6006.18750 431.58841 494
2464.98560 5824.81445 220.02240 462
2511.69312 5947.10791 322.98276 333
2514.39844 5954.78760 428.93073 450
1412.02722 3151.06055 162.87900 284
1475.82800 3318.96875 217.61026 360
2514.52026 6067.53613 326.50543 332
2470.68896 5947.78320 427.68594 475
1361.59460 3072.63354 164.60416 317
1448.92139 3308.36621 218.32423 468
2440.76807 5979.00586 428.82098 311
1337.65698 3067.01221 164.83748 436
1426.39062 3310.58911 217.99605 468
1324.65564 3090.22119 164.40758 435
1404.65051 3313.10815 218.27603 469
1311.75037 3114.65454 164.22083 430
1381.88928 3315.00928 218.17261 469
1299.95605 3141.09546 163.66342 420
1359.67627 3316.43335 217.69093 469
1287.77454 3169.93872 162.83313 414
1338.45776 3319.17090 218.51796 470
1276.05420 3199.35132 163.05013 413
1316.28992 3320.77905 217.66209 470
1263.71631 3229.13403 162.52707 350
1294.62061 3322.97852 217.61958 470
1253.57288 3265.79614 162.23029 342
1272.18237 3324.68359 217.65840 471
1244.90125 3306.90186 160.98318 342
1254.60327 3339.78711 218.15651 460
1237.64526 3358.25928 160.86729 326
1243.94116 3377.73242 217.94620 343
2034.15698 5988.88477 322.75281 284
1240.93372 3446.38574 159.31989 291
1250.16516 3557.12817 157.32901 295
1260.77490 3677.80322 155.54121 294
3697.84082 14674.08301 -2519.95093 1000
3082.05811 29175.01367 5565.26514 1000
257.92621 1544.91333 90.41284 494
257.74380 1544.21960 115.73262 494
258.02521 1544.29504 141.08606 468
257.73956 1544.31201 166.45529 421
258.03052 1544.52295 191.83850 421
257.79825 1545.48975 217.21080 356
248.27095 1546.42297 166.34711 368
248.48372 1544.44397 191.75612 430
248.20926 1542.94067 217.21629 430
248.30270 1541.42126 242.33189 475
248.25021 1540.47168 267.72714 497
248.20825 1539.72400 292.61896 497
248.04855 1538.76416 317.88400 495
-10366.25293 65642.82812 10108.29102 1000
-240.83293 2049.32715 79.30351 341
-240.62082 2048.18945 114.13831 341
-240.24364 2046.80737 148.65285 408
-239.61937 2045.72913 182.91165 409
-239.80420 2044.84497 217.35991 460
-239.19028 2043.98438 251.66304 460
-239.38562 2043.42712 286.07928 460
-7271.34570 20134.31250 2695.70605 1000
127.36157 148.15219 169.49202 485
124.48486 148.68903 168.94780 489
120.33719 148.99013 168.27689 489
117.56865 151.10497 167.41235 316
116.66971 150.41624 167.41815 316
-7375.38428 11064.23438 2210.93604 1000
115.74143 149.78587 167.44002 316
114.86035 149.13788 167.42642 316
111.65621 151.64484 166.41017 314
110.73859 150.99387 166.37029 314
109.76497 150.33429 166.39767 314
108.84136 149.64745 166.40651 314
107.91719 148.96001 166.40179 314
107.02279 148.25475 166.39563 314
106.10545 147.57767 166.39540 314
105.21198 146.88039 166.38348 314
103.93703 146.58072 166.23309 423
102.33987 146.70190 165.93839 422
95.17505 155.68510 166.39670 309
100.72389 146.86932 165.66666 421
94.20757 154.95053 166.39244 309
99.09460 147.05316 165.33916 420
93.22009 154.19464 166.34723 309
97.43127 147.19580 165.02567 419
92.30381 153.37494 166.38014 309
95.80459 147.31125 164.71863 428
91.31863 152.59979 166.35533 309
94.16760 147.38142 164.42747 427
90.38913 151.83157 166.38164 309
92.54874 147.45795 164.11432 426
89.43515 151.03288 166.32729 309
90.88784 147.51784 163.79652 425
88.48475 150.28255 166.35510 309
89.24475 147.56226 163.49590 424
87.55145 149.48230 166.32841 309
87.98523 147.11562 163.38643 307
86.64082 148.65277 166.33745 309
87.17033 146.20338 163.43425 307
85.71590 147.86168 166.31000 309
86.33076 145.33118 163.42583 307
84.11891 147.79779 166.09036 422
85.53630 144.42152 163.50882 307
82.32485 147.86853 165.78790 421
84.69944 143.51776 163.49031 307
80.58231 147.89763 165.43611 420
72.53976 156.44260 166.25598 305
83.89047 142.61853 163.52348 307
78.76788 147.96841 165.14235 419
71.59821 155.55849 166.29356 305
83.09317 141.66696 163.55667 307
76.94202 148.08784 164.79080 417
70.64869 154.58768 166.25005 305
103.00147 119.55533 171.51942 316
75.10284 148.10477 164.48431 416
69.69733 153.70442 166.27078 305
102.28678 118.84863 171.53021 316
73.26783 148.21437 164.13792 415
68.73199 152.81355 166.25009 305
101.55286 118.09500 171.56134 316
71.36053 148.28223 163.80229 414
67.76096 151.86771 166.28664 305
100.82849 117.34264 171.56985 316
69.41785 148.36072 163.44608 413
66.79076 150.95158 166.23367 305
100.15353 116.62167 171.57010 316
68.17941 147.77357 163.28380 303
65.88658 150.02432 166.23817 305
99.42491 115.82533 171.56348 316
67.34256 146.77486 163.31523 303
64.92645 149.07581 166.22198 305
98.72171 115.07918 171.55167 316
66.55533 145.70976 163.36079 304
63.53895 148.59703 166.10031 410
98.05023 114.32889 171.58456 316
65.75401 144.69081 163.41414 304
61.52396 148.67873 165.72816 409
97.34972 113.58329 171.55861 316
64.96079 143.61676 163.44203 304
59.46148 148.72655 165.34752 408
96.64094 112.81564 171.60420 316
88.20708 120.50100 171.64687 312
57.40811 148.84921 165.00470 407
48.29139 157.17128 166.17819 301
95.98751 112.03252 171.58612 316
87.51604 119.72069 171.68080 312
55.26963 148.92323 164.65628 406
47.30582 156.07837 166.17056 301
95.31198 111.25222 171.58157 316
86.76327 118.84422 171.65277 312
53.11788 148.96819 164.26318 405
46.36689 155.00058 166.12070 301
94.65105 110.43703 171.58318 316
86.08769 118.05354 171.65244 312
50.95095 149.08368 163.84467 404
45.42745 153.97293 166.12939 301
93.97537 109.69140 171.61450 316
85.36664 117.18988 171.68774 312
48.71503 149.16577 163.44690 402
44.43781 152.90572 166.14914 301
93.28644 108.88232 171.59531 316
84.66389 116.36205 171.70305 312
46.99872 148.79904 163.17522 300
43.53922 151.79196 166.13623 301
92.66795 108.08579 171.64188 316
83.92937 115.48822 171.67899 312
46.20668 147.62025 163.26236 300
42.59824 150.75131 166.14742 301
92.00552 107.31290 171.61945 316
83.23521 114.65800 171.69685 312
45.43409 146.46484 163.29575 300
41.65724 149.65359 166.12660 301
91.36401 106.51507 171.63750 316
82.55407 113.80811 171.70123 312
72.60478 122.06338 171.78221 308
39.53720 149.52994 165.82968 398
90.70243 105.71045 171.61511 316
81.89845 112.93688 171.72539 312
71.85529 121.12592 171.77707 308
37.18683 149.59335 165.39465 397
90.06136 104.89527 171.62558 316
81.18332 112.07489 171.72583 312
71.15250 120.22279 171.80525 308
34.75788 149.72943 164.97632 396
89.41845 104.06482 171.65392 316
80.54104 111.20462 171.72003 312
70.39368 119.30880 171.82538 308
32.29703 149.76587 164.58969 395
21.87436 158.14702 166.01515 297
88.81700 103.23580 171.63028 316
79.84419 110.30862 171.71358 312
69.67445 118.36633 171.79460 308
29.75171 149.89052 164.10670 393
20.86421 156.92949 166.01793 297
88.17413 102.42944 171.66493 316
79.21636 109.45773 171.71608 312
68.96311 117.38762 171.83775 308
27.22331 150.01959 163.65610 392
19.88072 155.70580 166.01202 295
87.58710 101.63708 171.64658 316
78.56079 108.56209 171.75093 312
68.26994 116.45303 171.84923 308
24.66329 150.05275 163.25591 391
18.85087 154.51595 166.01802 295
86.95611 100.76428 171.68141 316
77.88285 107.68105 171.75934 312
67.59291 115.50980 171.84212 308
23.33869 149.21242 163.14211 296
17.86688 153.32607 166.00171 295
86.35762 99.94872 171.65828 316
77.22653 106.80923 171.77017 312
66.91099 114.56367 171.82431 308
55.02483 123.47251 171.93881 304
16.93678 152.06723 165.96107 295
85.73593 99.13639 171.65784 316
76.58128 105.91564 171.75772 312
66.21268 113.60551 171.86813 308
54.31672 122.44793 171.95674 304
15.97315 150.89459 165.96643 295
85.16081 98.30730 171.67424 316
75.96815 105.03756 171.76698 312
65.49850 112.63099 171.83994 308
53.54135 121.39616 171.93132 304
13.91575 150.38577 165.70593 389
84.55901 97.42484 171.67387 316
75.34509 104.13654 171.75827 312
64.84224 111.68370 171.84200 308
52.82973 120.37067 171.93600 304
11.12428 150.47929 165.28571 388
83.97266 96.62356 171.70355 316
74.69328 103.18795 171.79076 312
64.15207 110.72571 171.86372 308
52.11580 119.29948 171.95346 304
8.34752 150.53212 164.82030 387
83.36265 95.73243 171.68105 316
74.09090 102.31092 171.77620 312
63.51788 109.74230 171.86823 308
51.38674 118.26519 171.97847 304
5.42800 150.61050 164.30659 386
82.78753 94.91969 171.69485 316
73.48144 101.40827 171.76091 312
62.85137 108.75379 171.88354 308
50.69352 117.21223 171.98534 304
2.54635 150.72816 163.81715 384
-9.89359 159.36775 165.55392 290
82.22703 94.06018 171.72195 316
72.85783 100.47315 171.77643 312
62.19085 107.76529 171.86423 308
49.97334 116.13762 171.94725 304
-0.48221 150.78613 163.34012 383
-10.88613 157.93973 165.59599 290
81.64929 93.18126 171.72272 316
72.24498 99.57620 171.81140 312
61.55758 106.79072 171.88321 308
49.30925 115.10128 172.00587 304
-3.50693 150.85655 162.85541 382
-11.84198 156.46852 165.57454 290
81.09120 92.32592 171.71751 316
71.67048 98.64626 171.79996 312
60.94226 105.82969 171.90517 308
48.59628 114.02428 171.98045 304
34.37222 123.54195 172.07877 300
-12.80949 155.07800 165.56650 291
80.55027 91.44963 171.73842 316
71.05636 97.73920 171.80058 312
60.28122 104.84734 171.87625 308
47.92233 112.98901 171.98987 304
33.59609 122.43103 172.10838 300
-13.78959 153.66423 165.56224 291
-22981.08594 15291.46973 2956.69971 1000
80.01828 90.58382 171.73135 316
70.47556 96.78577 171.83150 312
59.65507 103.84872 171.87473 308
47.25491 111.88580 172.02542 304
32.86189 121.25822 172.11546 300
-14.83325 152.24472 165.58968 291
79.44160 89.73882 171.74928 316
69.88756 95.86581 171.81262 312
59.00906 102.81354 171.91214 308
46.60883 110.83089 172.03224 304
32.19315 120.04343 172.14273 300
-16.25858 151.15921 165.43202 377
78.89725 88.85608 171.73341 316
69.33586 94.92447 171.83058 312
58.44119 101.84252 171.88763 308
45.94356 109.75298 172.00902 304
31.45701 118.88234 172.10954 300
-19.65029 151.27823 164.89026 376
78.39593 87.96339 171.72804 316
68.73531 93.99109 171.82272 312
57.82255 100.80892 171.93736 308
45.24833 108.63824 171.99655 304
30.75992 117.75566 172.12895 300
-23.09322 151.34843 164.38837 375
77.86266 87.11780 171.76988 316
68.15904 93.03693 171.82137 312
57.19563 99.82615 171.92500 308
