# .PCD v.7 - Point Cloud Data file format
VERSION .7
FIELDS x y z rgb
SIZE 4 4 4 4
TYPE F F F U
COUNT 1 1 1 1
WIDTH 1378
HEIGHT 1
VIEWPOINT 4288.887207 -4102.459961 134.611572 0.005281 -0.114034 -0.003628 0.993456
POINTS 1378
DATA ascii
45.86785 -32.09588 199.10994 417
42.88684 -32.62122 201.76268 415
39.74559 -33.18160 204.51215 405
36.42910 -33.79797 207.37544 403
32.96552 -34.40683 210.33051 400
-183.03020 -73.21117 216.55664 425
-184.34723 -73.51338 223.22884 323
82.52895 -26.36483 178.99847 459
75.23580 -27.72250 179.57832 312
66.38656 -29.37663 180.04330 455
64.09724 -29.77938 182.25267 433
61.59586 -30.26166 184.46790 431
59.10887 -30.70277 186.72876 429
56.48267 -31.18996 189.03967 427
53.82853 -31.70743 191.45685 424
51.12543 -32.20972 193.88107 422
48.30733 -32.72117 196.41670 419
45.37855 -33.25292 199.01735 417
42.40383 -33.81457 201.72850 414
39.16814 -34.45036 204.49916 405
35.79830 -35.05410 207.36165 402
32.32952 -35.70615 210.31842 364
-182.96355 -75.73567 216.46326 424
-186.89458 -76.49821 223.33134 322
82.51233 -27.22654 178.96846 459
75.36052 -28.59870 179.57130 312
66.14968 -30.39326 179.94171 435
63.72447 -30.84627 182.12044 433
61.26012 -31.34266 184.34506 431
58.70414 -31.81743 186.62668 428
56.10433 -32.31910 188.94334 426
53.44194 -32.85175 191.35939 424
50.69854 -33.36600 193.82637 421
47.85375 -33.92782 196.34467 419
44.93409 -34.45586 198.95876 416
41.89371 -35.07268 201.67876 407
38.59829 -35.69550 204.43726 404
35.22021 -36.36606 207.31305 401
31.68307 -37.00681 210.24617 364
-183.02779 -78.30947 216.50883 424
-189.46068 -79.58945 223.32433 322
82.46120 -28.14805 178.90845 459
75.55681 -29.50006 179.57047 312
65.81263 -31.44928 179.83478 434
63.40718 -31.91039 182.00809 432
60.90653 -32.41737 184.25272 430
58.36784 -32.93805 186.53247 428
55.71533 -33.42978 188.86040 425
53.02875 -33.96636 191.26785 423
50.27178 -34.51215 193.73759 421
47.40503 -35.11316 196.29201 418
44.47065 -35.66500 198.90277 416
41.36871 -36.27951 201.61786 406
38.06543 -36.93610 204.38820 403
34.64248 -37.62736 207.24898 401
31.00051 -38.34118 210.21532 363
-182.98480 -80.86718 216.52185 424
82.42108 -29.00551 178.82663 458
75.71333 -30.38414 179.57298 312
65.49722 -32.48348 179.69115 434
63.07141 -33.00185 181.90916 432
60.53735 -33.49614 184.10703 429
57.97853 -34.04665 186.39557 427
55.34195 -34.57092 188.76962 425
52.65332 -35.14520 191.18741 422
49.85307 -35.69355 193.63672 420
47.01118 -36.29627 196.22162 417
43.99177 -36.91603 198.83197 408
40.78906 -37.57767 201.53908 405
37.44431 -38.23621 204.31148 403
34.03207 -38.93787 207.22055 400
30.34707 -39.73296 210.23456 363
-182.92584 -83.50010 216.57016 439
82.36018 -29.90022 178.77499 458
75.90334 -31.30068 179.57689 312
65.15334 -33.53127 179.56763 433
62.70604 -34.05680 181.78864 431
60.17401 -34.58416 184.02385 429
57.62517 -35.14816 186.30997 426
54.95452 -35.70873 188.65413 424
52.22353 -36.29542 191.06406 422
49.43473 -36.89192 193.57390 419
46.53595 -37.49634 196.14624 417
43.47559 -38.12563 198.77020 407
40.25375 -38.84186 201.46471 405
36.89731 -39.51902 204.25221 402
33.43308 -40.25440 207.17735 399
29.65380 -41.04510 210.18147 359
-182.83386 -86.08381 216.48799 439
82.33657 -30.78540 178.72331 458
76.09451 -32.17464 179.58253 312
64.82188 -34.61905 179.45474 433
62.35544 -35.14970 181.63348 430
59.83384 -35.72478 183.90742 428
57.25392 -36.27333 186.21118 426
54.54951 -36.83990 188.55855 423
51.80869 -37.44315 190.97868 421
49.00714 -38.08620 193.48175 419
46.11812 -38.70535 196.02725 409
42.91573 -39.37791 198.68875 407
39.65687 -40.12211 201.41452 404
36.29670 -40.85807 204.23595 401
32.78011 -41.58854 207.12329 399
28.96444 -42.46308 210.15892 359
-182.72360 -88.56406 216.52975 438
82.21475 -31.72899 178.62971 438
76.25869 -33.05201 179.59113 312
64.49829 -35.71028 179.30893 432
62.01583 -36.26594 181.52643 430
59.48555 -36.83191 183.76538 427
56.87630 -37.38501 186.08632 425
54.19014 -38.03086 188.43642 423
51.43368 -38.61187 190.89481 420
48.58596 -39.26744 193.37999 418
45.60518 -39.95816 195.95146 409
42.39254 -40.64333 198.61060 406
39.09283 -41.36970 201.33896 403
35.68052 -42.13296 204.18379 401
32.19266 -42.94882 207.09676 398
28.23722 -43.80461 210.14369 358
-188.30847 -92.41480 209.61412 485
-188.29245 -92.46770 216.57660 296
81.96264 -32.68192 178.52487 438
76.43654 -33.92536 179.58467 312
64.15415 -36.77542 179.17804 431
61.67806 -37.35439 181.39041 429
59.11606 -37.94013 183.67632 427
56.47643 -38.55112 185.95119 425
53.78078 -39.16341 188.33502 422
51.02368 -39.81096 190.80426 420
48.14074 -40.48900 193.28595 417
45.07714 -41.18112 195.85262 408
41.84726 -41.91161 198.50403 405
38.52473 -42.70475 201.25282 403
35.09360 -43.47478 204.10002 400
31.53866 -44.29239 207.02611 397
27.57187 -45.24524 210.06438 358
-187.76982 -94.97684 209.72620 485
-195.13052 -96.69931 216.52126 294
81.67989 -33.61268 178.39301 437
76.64396 -34.80503 179.57037 312
63.84368 -37.84832 179.05760 431
61.34299 -38.46751 181.27330 428
58.75130 -39.05669 183.52568 426
56.12009 -39.70755 185.85649 424
53.38040 -40.35324 188.24286 422
50.57321 -41.02042 190.71191 419
47.63501 -41.69515 193.21648 410
44.54579 -42.43028 195.75716 407
41.27805 -43.18879 198.43005 405
37.93901 -44.00274 201.20810 402
34.50126 -44.81635 204.04950 399
30.90451 -45.70269 206.99965 397
26.87865 -46.61610 210.04274 357
-187.34070 -97.45146 209.66438 485
81.43475 -34.58108 178.28571 437
76.83889 -35.70281 179.57599 312
63.50296 -38.96984 178.91415 430
60.99349 -39.59130 181.12633 428
58.36617 -40.19573 183.39949 426
55.73804 -40.87531 185.75630 423
53.00135 -41.54207 188.11163 421
50.18400 -42.19257 190.59320 418
47.16959 -42.96273 193.11768 409
44.01725 -43.73487 195.69460 406
40.72688 -44.50791 198.35770 404
37.38266 -45.35514 201.12985 401
33.91459 -46.20090 203.96831 399
30.30276 -47.06126 206.96989 396
25.68950 -48.17907 210.00922 269
-186.93109 -100.00133 209.68404 484
81.17468 -35.56617 178.13635 436
77.06983 -36.60078 179.55908 312
63.14354 -40.04937 178.80237 429
60.62624 -40.69496 181.02617 427
58.03313 -41.36034 183.29408 425
55.31623 -42.01900 185.63011 423
52.56805 -42.70941 188.00352 420
49.70931 -43.45339 190.45705 411
46.62734 -44.20937 192.98183 408
43.45785 -45.00979 195.61714 406
40.19506 -45.82299 198.27370 403
36.78347 -46.69334 201.05002 401
33.26430 -47.53806 203.92000 398
29.63043 -48.48449 206.90758 395
-188.76698 -103.16668 202.66141 483
-186.80832 -102.69349 209.62698 485
80.91761 -36.53619 178.02728 435
77.25599 -37.48087 179.56755 312
62.81756 -41.16795 178.65547 429
60.24965 -41.85756 180.86623 426
57.63397 -42.49961 183.14018 424
54.95626 -43.22235 185.51823 422
52.16551 -43.91275 187.92177 420
49.20274 -44.67502 190.38162 410
46.13001 -45.49078 192.89075 408
42.93010 -46.30864 195.50534 405
39.63225 -47.15667 198.17612 402
36.20566 -48.03148 200.98232 400
32.67892 -48.95300 203.86412 397
28.96420 -49.87447 206.84938 394
-188.41766 -105.72227 202.76537 484
80.68314 -37.49216 177.86044 435
77.47726 -38.32621 179.56934 312
62.50249 -42.30159 178.53137 428
59.92733 -42.97209 180.75197 426
57.24892 -43.66497 183.05186 424
54.55178 -44.37479 185.35835 421
51.77869 -45.14328 187.78790 412
48.74385 -45.91731 190.26346 409
45.60643 -46.73798 192.79147 407
42.38340 -47.58069 195.40675 404
39.02819 -48.45446 198.09378 402
35.62036 -49.35794 200.92470 399
32.01705 -50.32335 203.81967 396
28.31369 -51.28617 206.83549 394
-188.40773 -108.43493 202.64418 483
80.42822 -38.50754 177.72841 432
77.70005 -39.24126 179.57169 312
62.15640 -43.43744 178.37857 427
59.56952 -44.11454 180.61281 425
56.91821 -44.82410 182.91039 423
54.18114 -45.60153 185.25615 421
51.29335 -46.34818 187.66328 411
48.24150 -47.17955 190.15332 409
45.09011 -48.05097 192.68137 406
41.84686 -48.89435 195.31625 404
38.46322 -49.83928 198.00443 401
35.00581 -50.74976 200.81842 398
31.37884 -51.75054 203.75618 396
27.55834 -52.76901 206.76286 382
-188.06387 -110.98166 202.73517 495
80.16327 -39.47688 177.61401 432
77.87036 -40.11502 179.54535 430
61.81241 -44.55044 178.22917 427
59.19062 -45.27990 180.47841 424
56.50615 -46.03821 182.75047 422
53.78968 -46.78109 185.14972 420
50.79661 -47.61754 187.53259 410
47.74020 -48.44944 190.02103 408
44.54982 -49.35148 192.54245 405
41.27686 -50.22673 195.20975 403
37.88363 -51.16280 197.91040 400
34.38676 -52.14509 200.75940 398
30.66895 -53.19592 203.69691 384
26.64562 -54.28846 206.67203 370
-187.36121 -113.53867 202.70444 495
79.90160 -40.49691 177.47958 431
77.57186 -41.15609 179.42265 429
61.47057 -45.70122 178.06380 426
58.81866 -46.43013 180.30315 424
56.15385 -47.21164 182.63843 421
53.32058 -48.01551 184.98235 412
50.33166 -48.87164 187.38362 410
47.22394 -49.75339 189.88681 407
44.05639 -50.63365 192.42873 405
40.74291 -51.60089 195.11493 402
37.33697 -52.54496 197.83995 400
33.71037 -53.59223 200.69566 385
29.82071 -54.67323 203.59917 383
25.51077 -55.86473 206.61717 369
79.64359 -41.50941 177.33545 431
77.30355 -42.18249 179.29945 428
61.13304 -46.85159 177.90462 425
58.46483 -47.63982 180.16122 423
55.76567 -48.41750 182.47922 421
52.87572 -49.23395 184.82484 411
49.84057 -50.10968 187.27571 409
46.72562 -51.04690 189.76454 406
43.50290 -51.94599 192.34467 404
40.15865 -52.91982 195.00032 401
36.63192 -53.97561 197.75250 387
32.84943 -55.02556 200.56493 385
28.93834 -56.20934 203.49335 371
24.40808 -57.52298 206.57501 369
79.40501 -42.50602 177.20187 430
77.06604 -43.18517 179.15927 428
68.51926 -45.75276 179.67131 308
58.09457 -48.79279 180.03177 422
55.34510 -49.62524 182.35927 413
52.37439 -50.49155 184.70076 411
49.34657 -51.42160 187.14064 408
46.18426 -52.33738 189.64577 406
42.95811 -53.30743 192.24034 403
39.52239 -54.30462 194.87250 389
35.86538 -55.42789 197.60747 386
32.01001 -56.52867 200.47038 384
27.85026 -57.80655 203.43480 370
23.28247 -59.11852 206.47646 368
79.14583 -43.54414 177.03741 429
76.77261 -44.23427 179.01112 427
68.78634 -46.67403 179.63635 308
57.76457 -50.01982 179.88364 422
54.88050 -50.87358 182.20177 412
51.91151 -51.76617 184.57455 410
48.86277 -52.70766 186.97563 407
45.66025 -53.66469 189.52380 405
42.33255 -54.69735 192.10638 391
38.77979 -55.77654 194.74855 388
35.02384 -56.91396 197.52223 385
31.15173 -58.06122 200.38722 383
26.77954 -59.41734 203.33783 370
22.16273 -60.81535 206.41272 367
78.85030 -44.57493 176.89525 429
76.49449 -45.27740 178.85381 426
69.02333 -47.60812 179.62512 308
57.34718 -51.22654 179.71275 414
54.43339 -52.13177 182.02296 411
51.45102 -53.02850 184.41002 409
48.34156 -54.01877 186.85422 407
45.11557 -55.01010 189.35320 392
41.61116 -56.11567 191.95552 390
37.99930 -57.23396 194.59386 387
34.21897 -58.40979 197.36638 385
30.19896 -59.67487 200.24371 371
25.69220 -61.04223 203.22302 369
21.01460 -62.46675 206.31860 366
78.61044 -45.59050 176.75252 428
76.21123 -46.33626 178.69994 426
69.33947 -48.52786 179.63475 308
56.93243 -52.44826 179.57895 413
54.00932 -53.40745 181.87126 411
50.99873 -54.32889 184.23630 408
47.81379 -55.37227 186.71863 394
44.38656 -56.43008 189.17996 391
40.81937 -57.52888 191.77489 389
37.18814 -58.70716 194.49210 386
33.39445 -59.88678 197.29048 384
29.09396 -61.24931 200.14473 370
24.56195 -62.69268 203.13541 368
19.84056 -64.22466 206.24541 365
78.33547 -46.62517 176.60725 427
75.94181 -47.39246 178.56302 425
69.58939 -49.43872 179.66501 308
56.50845 -53.68529 179.41116 412
53.55597 -54.65837 181.69279 410
50.41549 -55.68274 184.10802 395
47.10246 -56.75856 186.50786 393
43.64141 -57.85527 189.01051 390
40.10043 -59.03532 191.65138 388
36.39008 -60.21761 194.31168 385
32.45402 -61.47791 197.14444 372
28.06295 -62.89417 200.01665 369
23.47248 -64.39471 203.01974 367
18.67257 -65.93960 206.13882 364
78.06950 -47.69761 176.45343 426
75.66830 -48.48038 178.42642 424
69.91468 -50.40747 179.62587 308
56.06661 -54.94788 179.22650 412
53.04456 -55.97735 181.52055 397
49.78896 -57.02826 183.91527 394
46.42125 -58.12580 186.33557 392
42.91201 -59.29197 188.84071 390
39.31806 -60.50815 191.49416 387
35.57499 -61.70247 194.20775 385
31.43089 -63.10581 196.97229 371
26.95500 -64.57473 199.86119 369
22.32780 -66.08219 202.89774 366
17.43811 -67.68993 206.09483 363
77.82249 -48.75225 176.30446 426
75.38234 -49.57247 178.26128 424
70.17908 -51.30737 179.63602 308
55.57817 -56.23237 179.05144 398
52.40258 -57.29816 181.31471 396
49.08802 -58.39752 183.68500 394
45.69504 -59.58855 186.13802 391
42.16644 -60.77744 188.71144 389
38.51714 -61.98391 191.30103 386
34.72950 -63.26760 194.07095 373
30.38206 -64.75039 196.85846 370
25.89338 -66.24241 199.74861 368
21.13858 -67.81331 202.78436 365
16.21027 -69.51401 205.97485 362
77.54002 -49.79742 176.13527 425
75.09890 -50.64964 178.10814 423
70.46649 -52.25794 179.62108 308
54.94049 -57.58171 178.79921 397
51.74329 -58.66143 181.11201 395
48.40444 -59.82698 183.50873 393
44.97250 -61.00975 185.95702 390
41.42421 -62.20638 188.51732 388
37.72965 -63.49748 191.15495 385
33.75311 -64.90588 193.87199 372
29.34788 -66.37104 196.69643 369
24.74344 -67.94609 199.63313 367
20.00351 -69.62116 202.69551 364
14.96936 -71.32433 205.93561 361
77.31060 -50.87958 175.96889 424
74.83674 -51.72662 177.94858 422
70.78153 -53.18267 179.64453 308
54.33694 -58.95263 178.60016 397
51.09183 -60.05339 180.89099 394
47.75244 -61.25596 183.30194 392
44.26362 -62.48385 185.77571 389
40.67867 -63.74677 188.36319 387
36.94934 -65.01655 191.00163 384
32.71035 -66.53748 193.70982 371
28.24725 -68.10373 196.55867 368
23.65259 -69.68718 199.48770 366
18.78971 -71.39925 202.61111 363
13.30053 -73.29536 205.82774 331
77.01974 -51.98227 175.81989 424
74.56081 -52.85222 177.81200 422
71.11213 -54.06205 179.62144 308
53.70053 -60.31470 178.35098 396
50.41374 -61.46259 180.71104 393
47.06996 -62.69527 183.08917 391
43.56525 -63.93488 185.60419 389
39.91170 -65.26062 188.17688 386
36.00080 -66.62402 190.82454 373
31.69599 -68.18077 193.55042 370
27.19540 -69.76624 196.38815 368
22.50795 -71.45606 199.36913 365
17.55618 -73.21232 202.45056 332
10.23035 -75.88988 205.61716 314
76.75511 -53.04053 175.64000 423
74.29523 -53.97713 177.65605 421
71.40934 -54.99664 179.64561 308
53.06755 -61.67418 178.13448 395
49.75840 -62.89601 180.49368 392
46.35250 -64.15519 182.90245 390
42.82898 -65.45660 185.40182 388
39.12400 -66.77129 187.95287 385
35.02834 -68.24730 190.62556 372
30.63402 -69.89502 193.36182 369
26.09281 -71.55297 196.22664 367
21.29666 -73.27815 199.18745 364
15.29696 -75.49351 202.30482 331
6.96072 -78.48653 205.41829 313
76.47471 -54.14470 175.45372 422
73.98482 -55.09602 177.50417 420
71.43593 -56.02789 179.56203 418
52.47419 -63.06995 177.91940 394
49.10397 -64.33951 180.25790 392
45.61923 -65.63346 182.67761 389
42.08626 -66.92510 185.16014 387
38.26152 -68.37619 187.79733 373
34.02466 -69.91896 190.42514 371
29.57273 -71.56494 193.18732 368
25.00584 -73.30753 196.04468 366
19.48697 -75.35873 199.01985 333
12.33842 -77.95338 202.03729 314
3.59091 -81.23575 205.21083 312
76.22332 -55.26480 175.30893 422
73.69962 -56.19656 177.30392 419
71.14217 -57.19486 179.39545 417
60.69577 -61.15269 179.73242 304
48.44569 -65.77428 180.01636 391
44.91816 -67.10071 182.46432 388
41.30431 -68.47768 184.95670 386
37.31454 -69.96747 187.55811 372
33.01113 -71.61733 190.23996 370
28.52931 -73.32059 193.01782 367
23.54232 -75.19019 195.87302 334
17.23628 -77.59108 198.75623 332
9.15798 -80.62150 201.75780 313
0.14808 -84.05038 204.99980 311
75.96719 -56.38997 175.13467 421
73.42248 -57.36931 177.15797 419
70.82053 -58.33232 179.22891 416
61.05873 -62.12152 179.74081 304
47.73136 -67.23586 179.79753 390
44.19151 -68.61594 182.25735 387
40.50227 -70.03306 184.76659 374
36.36345 -71.63961 187.32222 372
31.96644 -73.35564 189.99802 369
27.45813 -75.08084 192.82559 336
21.39623 -77.39481 195.59311 333
14.48643 -80.07951 198.51620 315
5.86035 -83.40884 201.50746 312
-3.48782 -87.04660 204.80386 310
75.68486 -57.50748 174.94090 420
73.13284 -58.51375 176.99876 418
70.38525 -59.59457 179.04504 387
61.43494 -63.12150 179.73079 304
47.03667 -68.77180 179.53897 389
43.47872 -70.16512 182.00870 387
39.59725 -71.70094 184.53712 373
35.37830 -73.33707 187.12502 371
30.96438 -75.07175 189.82780 368
25.40146 -77.24200 192.52448 334
19.19631 -79.70399 195.29128 332
11.36707 -82.73352 198.15321 314
2.48779 -86.28831 201.26469 311
75.42111 -58.62260 174.78220 419
72.87395 -59.64559 176.82098 417
69.78127 -60.88235 178.77327 386
61.79930 -64.07742 179.73456 304
46.35463 -70.23642 179.30881 388
42.74295 -71.68227 181.78883 386
38.62857 -73.32040 184.28941 372
34.36785 -75.02456 186.86064 370
29.32456 -77.07482 189.51390 336
23.29180 -79.46318 192.18575 333
16.69184 -82.12562 194.99614 315
8.16491 -85.54202 197.83958 312
-1.09895 -89.20821 200.98717 310
75.15802 -59.80116 174.58636 419
72.24643 -60.95026 176.54784 387
69.09514 -62.22764 178.51988 385
62.16564 -65.06504 179.70486 304
45.62219 -71.80818 179.05983 387
41.88761 -73.32184 181.51436 374
37.72549 -75.04794 184.04535 371
33.11068 -76.89240 186.59473 337
27.33319 -79.23328 189.13867 335
21.20513 -81.73889 191.82584 332
13.61639 -84.80283 194.61084 314
4.77701 -88.39683 197.48341 311
-11.13154 -94.88905 200.23685 265
74.71176 -61.01342 174.34926 388
71.63065 -62.26348 176.26263 386
68.47094 -63.61056 178.25685 397
62.54176 -66.06512 179.71867 304
44.91808 -73.33828 178.84503 386
40.95520 -74.95830 181.27776 373
36.75712 -76.71088 183.77585 370
31.19967 -79.01676 186.24478 336
25.24570 -81.49020 188.81274 334
18.85522 -84.15092 191.51817 315
10.42455 -87.59560 194.24315 313
0.90378 -91.59399 197.10097 284
74.09154 -62.29609 174.08171 387
70.99100 -63.59951 176.01254 385
67.83457 -64.94754 178.01315 396
62.91425 -67.00038 179.68262 304
44.12473 -74.96058 178.57977 374
40.04694 -76.65436 181.01360 372
34.97507 -78.81543 183.39133 337
29.24592 -81.22172 185.83006 335
23.17045 -83.75685 188.41719 332
15.80376 -86.83289 191.03575 314
7.14288 -90.53838 193.78769 312
-10.77289 -98.10738 196.02638 265
73.50342 -63.63504 173.78725 387
70.34620 -64.96671 175.71341 384
67.24023 -66.33526 177.72989 395
63.34670 -67.99229 179.72020 304
43.27628 -76.61461 178.28053 373
38.64484 -78.57874 180.60402 339
33.05384 -80.93856 182.93469 336
27.24002 -83.43443 185.42567 334
21.01745 -86.09861 188.03787 331
12.72541 -89.67189 190.60602 313
1.88010 -94.34070 193.19106 284
72.86020 -64.95380 173.48903 386
69.70486 -66.34886 175.43402 383
66.56123 -67.72987 177.49084 394
63.73124 -68.93561 179.70834 304
42.19076 -78.35471 177.95753 340
36.80666 -80.67416 180.14899 337
-81.50328 -35.52291 -14.69407 335
25.15891 -85.79290 185.01361 333
18.04452 -88.85805 187.51685 314
9.50918 -92.59140 190.16321 312
-10.32636 -101.19788 191.82291 265
72.26944 -66.33121 173.20348 385
69.03782 -67.72881 175.16458 382
65.96408 -69.09861 177.22260 393
63.21672 -70.32434 179.49127 391
51.21614 -75.61571 179.78311 300
34.98070 -82.86012 179.70099 336
29.17985 -85.40914 182.06189 334
23.02164 -88.13196 184.55804 332
15.03693 -91.69810 187.00070 313
2.87742 -97.09486 189.24031 284
71.64626 -67.69749 172.87834 384
68.38601 -69.16201 174.85260 381
65.29341 -70.52726 176.96693 392
62.54350 -71.77000 179.20421 390
51.68074 -76.68535 179.77325 300
33.12938 -85.04347 179.24063 335
27.18388 -87.69650 181.62910 333
20.31798 -90.82915 184.05000 315
10.91079 -95.07591 186.34773 285
-9.65347 -104.29845 187.57101 265
70.99186 -69.09301 172.58847 383
67.71581 -70.57801 174.53716 381
64.64951 -71.99222 176.66527 391
61.86093 -73.26923 178.94765 389
52.11096 -77.70861 179.82117 300
31.16207 -87.30711 178.76131 334
25.11522 -90.09837 181.12842 332
17.30732 -93.63857 183.47867 313
4.00308 -99.80341 185.23694 284
70.39375 -70.50143 172.27289 382
67.07504 -72.00919 174.23543 380
63.94616 -73.48354 176.40222 390
61.15979 -74.76520 178.69058 388
52.57567 -78.76820 179.77901 300
29.21254 -89.64551 178.20770 333
22.59233 -92.68700 180.57510 315
12.05641 -97.60451 182.52248 285
-28.31775 -116.44492 180.48061 284
69.72090 -71.90609 171.98018 381
66.38303 -73.51427 173.94041 379
63.30569 -74.95303 176.07870 389
60.44972 -76.28537 178.41039 387
53.06160 -79.78351 179.77280 300
27.19870 -92.01015 177.71956 332
19.65003 -95.58334 179.93275 286
5.11959 -102.43266 181.27609 283
-27.69258 -117.99374 180.43292 284
69.83537 -72.99915 171.87819 316
65.68336 -74.97971 173.59763 378
62.58769 -76.49086 175.79044 388
59.73104 -77.85855 178.10095 386
53.49089 -80.82449 179.80467 300
24.90880 -94.57530 177.16591 315
13.27174 -100.14130 178.67802 285
-19.34227 -115.79279 177.13586 345
-26.98375 -119.52961 180.43048 284
70.23136 -73.93193 171.85519 316
64.96896 -76.49648 173.30792 377
61.90080 -77.99772 175.48061 387
58.98792 -79.44000 177.82445 385
53.99396 -81.87286 179.80515 300
39.08130 -89.12237 179.91089 296
6.39806 -105.11019 177.32509 283
-15.17985 -115.58099 177.69049 347
-26.31770 -121.06554 180.45593 284
70.69902 -74.87716 171.86139 316
64.25324 -78.03425 172.98856 376
61.22969 -79.55108 175.17264 386
58.25923 -81.01786 177.54982 384
54.46877 -82.91880 179.78133 327
39.63260 -90.25887 179.88052 296
-8.10986 -113.94019 174.51320 290
-8.19560 -113.97015 178.79276 291
71.13554 -75.77192 171.86156 316
63.57381 -79.60680 172.64543 375
60.51130 -81.14539 174.86040 385
57.24608 -82.77071 177.15930 327
52.28096 -85.25241 179.18637 326
40.12892 -91.36086 179.91432 296
0.58368 -111.32222 175.99780 292
0.56544 -111.29192 180.07800 292
71.56219 -76.69239 171.84143 316
62.84666 -81.15829 172.27628 374
59.77905 -82.74137 174.58513 384
55.15261 -85.11912 176.52365 326
50.06546 -87.72359 178.55257 325
40.68540 -92.49844 179.88805 296
23.17685 -101.47720 180.01382 292
1.96729 -112.29585 180.22835 288
72.03663 -77.61171 171.85423 316
62.07631 -82.76645 171.95471 373
57.97896 -84.92816 173.94365 326
52.96379 -87.49754 175.88181 324
47.75563 -90.20222 177.93498 323
41.21777 -93.59129 179.87891 296
23.72886 -102.69751 180.06746 292
2.59482 -113.66358 180.23141 288
72.48081 -78.55357 171.82550 316
62.47654 -83.80809 171.92569 312
55.92767 -87.25504 173.29962 325
50.77432 -90.00900 175.22597 323
45.42160 -92.79297 177.29385 322
39.82834 -95.72602 179.49030 320
24.32086 -103.87386 180.06218 292
3.26609 -115.00958 180.23863 288
72.94725 -79.46890 171.81017 316
62.99825 -84.77217 171.89041 312
53.79072 -89.72488 172.58728 324
48.45592 -92.57045 174.53847 322
42.92225 -95.51619 176.62042 321
37.22958 -98.53601 178.85252 319
24.97016 -105.09870 180.04935 292
73.43066 -80.37721 171.84706 316
63.50519 -85.78429 171.90691 312
52.20046 -91.89807 171.98502 308
46.06324 -95.22308 173.77884 321
40.42327 -98.26215 175.90086 320
34.48238 -101.50836 178.14079 318
17.07984 -110.94176 178.45522 271
73.91795 -81.28646 171.84082 316
63.97513 -86.71122 171.88783 312
52.74834 -92.92557 171.98090 308
43.64365 -97.92693 173.03996 320
37.77781 -101.15275 175.13365 318
23.63858 -108.96886 175.72330 270
-54.43386 -151.86104 164.83949 373
74.40020 -82.17355 171.83005 316
64.49190 -87.69035 171.92554 312
53.32031 -93.96942 172.01340 308
41.10711 -100.77457 172.28467 318
31.82005 -105.96661 173.66444 271
11.13544 -117.50575 173.02600 270
-51.58936 -152.53995 165.14095 288
74.86295 -83.09179 171.79671 316
65.00806 -88.67025 171.92183 312
53.84894 -95.02026 171.98534 308
41.03250 -102.22335 172.08524 304
26.21968 -110.67947 172.22256 300
8.83817 -120.50203 172.40712 296
-50.76089 -154.20340 165.16196 288
75.38420 -83.97457 171.80730 316
65.54803 -89.60615 171.89700 312
54.39960 -96.02473 171.98544 308
41.64488 -103.38714 172.08315 304
26.88137 -111.83465 172.20004 300
9.55491 -121.83044 172.34633 296
-49.86546 -155.89062 165.10585 288
75.87396 -84.88850 171.82227 316
66.08411 -90.56617 171.89062 312
54.99607 -97.06339 172.00771 308
42.23097 -104.48705 172.08505 304
27.52773 -113.03847 172.20430 300
10.23502 -123.08208 172.39268 296
-48.97766 -157.60605 165.15883 288
76.37621 -85.76408 171.81459 316
66.64237 -91.56348 171.90398 312
55.53590 -98.05913 172.00180 308
42.86757 -105.57476 172.08119 304
28.19864 -114.24171 172.21935 300
10.94598 -124.43840 172.38898 296
-48.06444 -159.31677 165.11176 288
76.86916 -86.64604 171.77470 316
67.14697 -92.48750 171.88680 312
56.12663 -99.12232 171.95296 308
43.49913 -106.65104 172.07646 304
28.89189 -115.41860 172.20058 300
-31.53148 -151.61400 163.17145 371
-47.11252 -160.93806 165.12556 286
77.41606 -87.53848 171.80220 316
67.71783 -93.45560 171.88239 312
56.73037 -100.10603 171.94337 308
44.09861 -107.77499 172.08417 304
29.53852 -116.63713 172.22513 300
-27.94189 -151.58073 163.78349 372
77.89724 -88.46532 171.80107 316
68.25415 -94.40856 171.89049 312
57.33955 -101.11653 171.94427 308
44.74467 -108.88741 172.04355 304
30.24369 -117.81822 172.21555 300
-24.38939 -151.47174 164.32346 374
78.46104 -89.34093 171.77936 316
68.83582 -95.31387 171.85283 312
57.92451 -102.15938 171.94389 308
45.42327 -109.96371 172.06187 304
30.94225 -119.03090 172.21489 300
-20.89858 -151.36331 164.83034 375
78.95791 -90.22709 171.76659 316
69.41930 -96.27248 171.84622 312
58.51905 -103.17546 171.94327 308
46.06901 -111.04733 172.05876 304
31.65194 -120.19331 172.18999 300
-17.56222 -151.28098 165.34184 376
79.49418 -91.07495 171.76344 316
69.98513 -97.22986 171.87395 312
59.13702 -104.17200 171.95599 308
46.72229 -112.14425 172.04700 304
32.33081 -121.33678 172.20767 300
-15.42266 -152.02693 165.62396 291
80.05447 -91.95763 171.78775 316
70.54376 -98.13649 171.83464 312
59.75900 -105.17555 171.92509 308
47.39310 -113.19543 172.04289 304
33.06291 -122.53400 172.19989 300
-14.48207 -153.47849 165.60602 291
80.61189 -92.80059 171.75139 316
71.13469 -99.07382 171.85352 312
60.34626 -106.17616 171.95036 308
48.01828 -114.31336 172.02527 304
33.75323 -123.68219 172.13498 300
-13.48064 -154.84999 165.61082 291
81.16584 -93.70902 171.77734 316
71.74043 -100.01054 171.84068 312
61.00231 -107.16231 171.93303 308
48.69999 -115.34399 172.06161 304
-4.57729 -150.92578 162.80980 285
-12.54661 -156.29810 165.67673 290
81.69685 -94.54140 171.76201 316
72.32735 -100.91101 171.84644 312
61.62930 -108.16892 171.95500 308
49.42152 -116.42390 172.00703 304
-1.52857 -150.94164 163.32005 382
-11.61416 -157.69368 165.66089 290
82.27380 -95.39258 171.75313 316
72.90753 -101.85799 171.85622 312
62.27496 -109.11051 171.90570 308
50.08998 -117.50282 172.01282 304
1.47381 -150.86496 163.78458 383
-10.65212 -159.15523 165.63315 290
82.83649 -96.29577 171.76221 316
73.52234 -102.74697 171.82878 312
62.91442 -110.13762 171.94299 308
50.80374 -118.57066 172.02718 304
4.38981 -150.81406 164.29230 385
83.40100 -97.13283 171.76093 316
74.12652 -103.66195 171.80338 312
63.57918 -111.09969 171.91479 308
51.50810 -119.61057 172.04083 304
7.30342 -150.72749 164.82242 386
84.00700 -97.95988 171.74796 316
74.71676 -104.60256 171.79825 312
64.24982 -112.06080 171.89729 308
52.21828 -120.66969 171.99127 304
10.16188 -150.65024 165.27565 387
84.56213 -98.84576 171.75314 316
75.34518 -105.49692 171.80333 312
64.91206 -113.06332 171.93166 308
52.88398 -121.67911 172.00211 304
12.93846 -150.56886 165.73596 388
85.14389 -99.68095 171.70895 316
75.99308 -106.40656 171.80333 312
65.56118 -114.02691 171.89206 308
53.61058 -122.72249 172.01692 304
15.15199 -150.87971 166.03668 295
85.75759 -100.48791 171.74957 316
76.64790 -107.28674 171.78505 312
66.23091 -114.97684 171.89975 308
54.33676 -123.78683 171.98857 304
16.10859 -152.14801 166.05905 295
86.36864 -101.33445 171.72992 316
77.27393 -108.18810 171.80273 312
66.94825 -115.93900 171.87125 308
22.54305 -149.27489 163.16176 296
17.08908 -153.37688 166.03589 295
86.94047 -102.18288 171.71805 316
77.87814 -109.06296 171.79999 312
67.62125 -116.87041 171.86267 308
23.70258 -150.29881 163.25113 390
18.08240 -154.61726 166.08067 295
87.56405 -103.02274 171.73442 316
78.55638 -109.93571 171.77110 312
68.32163 -117.83675 171.86598 308
26.36117 -150.18309 163.71593 391
19.03041 -155.80829 166.06171 295
88.16478 -103.84308 171.72697 316
79.22729 -110.83849 171.76950 312
69.01268 -118.77372 171.86104 308
28.88575 -150.06992 164.15157 392
20.04498 -157.03708 166.11386 295
88.81545 -104.67242 171.72517 316
79.87225 -111.70010 171.78983 312
69.70931 -119.75889 171.84264 308
31.42064 -149.97826 164.64751 394
21.04729 -158.20622 166.07744 297
89.40255 -105.48999 171.68900 316
80.52647 -112.60053 171.79251 312
70.45912 -120.65876 171.84384 308
33.92125 -149.90799 165.07111 395
90.04218 -106.31827 171.68878 316
81.21455 -113.44715 171.76312 312
71.13898 -121.60295 171.86771 308
36.37686 -149.84268 165.50758 396
90.69694 -107.13024 171.71133 316
81.88383 -114.33691 171.77846 312
71.85286 -122.53471 171.83171 308
38.78700 -149.73148 165.87183 397
91.32648 -107.91277 171.65956 316
82.57058 -115.18843 171.76750 312
44.61847 -146.74460 163.37466 300
40.81059 -149.94197 166.20630 302
91.94682 -108.70992 171.67010 316
83.25473 -116.07005 171.75650 312
45.36599 -147.89638 163.30272 300
41.71125 -150.98019 166.20621 302
-28474.32422 -24140.50391 8955.25488 1000
92.64167 -109.52002 171.68306 316
83.91505 -116.91640 171.75929 312
46.13511 -149.10181 163.27307 300
42.67461 -152.10367 166.22884 302
93.28602 -110.30028 171.67943 316
84.62600 -117.78983 171.76497 312
48.01408 -149.40222 163.56821 401
43.60303 -153.19910 166.22533 301
93.94804 -111.13009 171.67352 316
85.31980 -118.60901 171.75172 312
50.22755 -149.30467 163.99016 403
44.50066 -154.26526 166.20209 301
94.60303 -111.92370 171.65326 316
86.06268 -119.45773 171.71680 312
52.39202 -149.22533 164.37508 404
45.44173 -155.32259 166.24091 301
95.27063 -112.70130 171.65256 316
86.72808 -120.30531 171.73720 312
54.54308 -149.11589 164.73154 405
46.38895 -156.41914 166.21165 301
95.92037 -113.48750 171.64137 316
87.44638 -121.14378 171.73315 312
56.65779 -149.07001 165.11838 406
47.37409 -157.47900 166.21964 301
96.62771 -114.24552 171.64220 316
64.07651 -144.13400 163.51973 304
58.78099 -148.98962 165.52782 407
97.28324 -114.99891 171.64449 316
64.85596 -145.16344 163.49637 304
60.85210 -148.90611 165.85222 408
97.97317 -115.76879 171.61938 316
65.62785 -146.22298 163.43907 304
62.85619 -148.84462 166.22701 409
98.69601 -116.56282 171.62360 316
66.39675 -147.25552 163.41899 304
64.04754 -149.55376 166.31154 306
99.37708 -117.33266 171.63757 316
67.19628 -148.29543 163.37189 304
64.97202 -150.49463 166.33948 306
100.08481 -118.05540 171.60086 316
68.78423 -148.56935 163.57362 412
65.89163 -151.45822 166.29448 306
100.75457 -118.83549 171.62917 316
70.74934 -148.49641 163.93430 413
66.82585 -152.37143 166.35129 306
101.47867 -119.58579 171.59648 316
72.60899 -148.43730 164.31285 414
67.74127 -153.31931 166.34348 306
81.40739 -141.39813 163.63780 307
74.48396 -148.35553 164.63609 415
68.72415 -154.23743 166.30978 306
82.17724 -142.29820 163.64052 307
76.31886 -148.27980 164.97162 417
69.64074 -155.12576 166.32129 305
82.98055 -143.26199 163.60730 307
78.19702 -148.26176 165.32372 418
70.64110 -156.07642 166.35912 305
83.76247 -144.20221 163.56026 307
79.99064 -148.17395 165.63760 419
71.56919 -156.96866 166.32149 305
84.58659 -145.08038 163.55226 307
81.73078 -148.10210 165.98047 420
85.38960 -146.02556 163.50301 307
83.52045 -148.01639 166.28067 421
86.20360 -146.91714 163.49002 307
84.72378 -148.55072 166.39305 310
87.01536 -147.82741 163.44681 307
85.67258 -149.32628 166.41879 310
88.64426 -147.82477 163.74722 423
86.61214 -150.16362 166.43236 310
90.35597 -147.77995 164.06941 424
87.51832 -150.96463 166.43829 310
91.99266 -147.70375 164.33276 425
88.44971 -151.79604 166.40004 310
93.62459 -147.64264 164.66978 426
89.36362 -152.54245 166.39986 310
95.23157 -147.62209 164.95787 427
90.31877 -153.38399 166.42348 310
96.87183 -147.50586 165.24715 418
91.27966 -154.16714 166.42984 310
98.51661 -147.38283 165.54277 419
92.23598 -154.94933 166.42003 310
100.18937 -147.19519 165.91217 420
93.21877 -155.71825 166.46744 310
101.80471 -147.03166 166.21017 421
94.13915 -156.46678 166.45291 309
103.29635 -147.02286 166.48196 314
104.19323 -147.69768 166.44516 314
105.12228 -148.40733 166.47627 314
106.03977 -149.13075 166.47189 314
106.93903 -149.82088 166.48073 314
107.87178 -150.53183 166.45999 314
108.75636 -151.21501 166.45598 314
109.70222 -151.90063 166.45355 314
110.64227 -152.56636 166.46489 314
111.57323 -153.27531 166.45103 314
114.67844 -150.85143 167.44862 316
115.58855 -151.48999 167.45357 316
120.01971 -148.97667 168.70282 489
-24491.41211 -36491.94922 6750.65332 1000
120.86229 -149.69638 168.64870 489
124.29188 -148.46793 169.45200 439
125.65698 -148.34026 169.67303 440
127.03218 -148.21347 169.92155 441
127.71828 -149.10457 169.82945 395
-14291.46973 -32200.66211 -3848.24121 1000
-4245.96729 -18303.86328 2696.64966 1000
-240.10135 -1939.38013 86.12469 437
-241.06865 -1943.56824 118.47533 437
-242.11699 -1947.80408 151.49098 432
-226.97047 -1938.86121 86.28132 498
-228.34476 -1943.57544 118.67520 492
-229.53171 -1948.54272 151.16119 469
-12980.36133 -58781.13281 -15927.47070 1000
-216.38336 -1946.53357 85.87265 413
247.39493 -1459.05249 97.14678 333
256.22955 -1450.30115 98.03991 489
256.36273 -1453.99365 121.48013 454
256.40460 -1457.70105 145.24077 453
256.33163 -1462.54285 169.03903 401
264.98450 -1448.39368 98.23055 499
265.34671 -1451.53772 121.76313 499
265.11917 -1454.90955 145.29720 499
265.33521 -1457.93115 168.98376 498
265.68698 -1461.91431 192.97882 415
273.88620 -1450.86682 97.90539 447
274.39227 -1454.77893 121.52044 447
274.53378 -1459.54639 145.04909 390
740.55176 -944.78046 110.87142 348
4150.19775 -7139.59570 1699.75269 1000
741.41992 -932.64044 111.64665 463
742.51648 -934.37512 129.39240 414
744.05377 -937.34113 146.55016 349
745.57031 -926.40112 112.00015 492
745.76886 -926.84619 129.63652 493
746.28534 -927.59894 147.08966 462
746.71075 -928.96313 164.66069 474
747.48163 -930.22443 181.90822 414
750.65997 -922.74304 112.10359 498
751.01202 -922.71283 129.66516 498
751.04840 -922.95764 147.18358 498
751.49805 -923.70453 164.77132 499
751.14514 -923.42523 182.24248 492
751.35938 -923.74402 199.66515 492
756.73248 -920.88409 111.80741 478
756.59900 -920.94293 129.55006 479
756.81616 -920.99512 146.84802 479
756.97375 -921.49554 164.30029 475
756.88110 -921.54834 181.99660 440
757.05621 -921.59607 199.43623 438
764.76959 -921.82666 111.49977 437
765.27130 -922.62091 128.85001 378
766.21143 -924.05902 146.35472 307
12208.66602 -14428.98145 -3514.71899 1000
848.89081 -542.84344 148.75763 1000
369.13397 -108.14845 167.61043 313
369.79303 -107.17560 167.60356 313
370.40369 -106.24750 167.62167 313
371.00250 -105.31725 167.64941 315
371.66687 -104.36843 167.65462 315
372.28766 -103.42377 167.64076 315
372.86111 -102.52946 167.62949 315
373.48929 -101.56818 167.63385 315
374.07773 -100.61578 167.67036 315
374.68207 -99.68218 167.67168 315
375.30450 -98.71280 167.66196 315
375.89111 -97.76331 167.65500 315
376.57312 -96.87209 167.62029 437
377.97153 -96.38663 167.36600 436
379.35980 -95.89706 167.15506 435
380.77106 -95.39662 166.87738 434
389.12289 -100.36626 167.67099 309
382.18256 -94.91719 166.58478 433
389.74484 -99.29883 167.70000 309
383.60156 -94.41898 166.35861 432
390.30585 -98.26004 167.68962 309
385.04819 -93.92012 166.04871 431
390.87271 -97.17903 167.69925 309
386.51675 -93.40354 165.77272 430
391.39096 -96.12506 167.71657 309
388.03110 -92.89899 165.51740 429
391.96442 -95.02686 167.72601 309
389.53128 -92.39588 165.20122 428
392.50079 -93.99915 167.71776 311
391.03058 -91.82065 164.94379 427
393.05112 -92.90988 167.74838 311
392.13934 -91.10451 164.73709 317
393.61276 -91.83246 167.71747 311
392.75146 -90.05721 164.74217 317
394.14920 -90.77734 167.77280 426
393.30270 -88.99271 164.74535 317
395.73724 -90.23489 167.47705 424
393.81985 -87.94839 164.76410 317
397.30771 -89.68629 167.14888 423
394.36688 -86.86465 164.75945 317
398.89371 -89.13860 166.88744 422
19077.35156 -9349.57910 -2552.24829 1000
394.91367 -85.83130 164.72133 317
400.53793 -88.56924 166.55147 421
409.37741 -92.88262 167.75278 305
395.45688 -84.72651 164.72397 317
402.19125 -87.99467 166.26291 420
409.91586 -91.66846 167.75510 305
395.96472 -83.67902 164.75525 317
403.84109 -87.44135 165.95415 419
410.40451 -90.50539 167.73935 305
396.51846 -82.62689 164.70546 317
405.53928 -86.81927 165.63571 418
410.91476 -89.33858 167.79424 305
396.98657 -81.53906 164.71397 317
407.22107 -86.18340 165.31638 437
411.43723 -88.14048 167.80183 305
397.46896 -80.43314 164.73563 317
408.66473 -85.47979 165.01233 436
411.88345 -86.96642 167.78636 305
398.01190 -79.34811 164.69591 317
409.93204 -84.65616 164.81674 312
412.41260 -85.76924 167.77237 305
375.03867 -68.06230 171.54269 316
410.46048 -83.52064 164.84071 312
412.89032 -84.52288 167.81413 305
375.47522 -67.13061 171.56438 316
410.96936 -82.35164 164.85782 312
413.32159 -83.37378 167.83237 305
375.85797 -66.14729 171.58260 316
411.49493 -81.16280 164.83865 312
414.75333 -82.52545 167.57851 433
376.22079 -65.19159 171.59253 316
412.00095 -80.01262 164.80341 312
416.29147 -81.78780 167.34814 432
376.59048 -64.23655 171.54996 316
412.44894 -78.82906 164.83076 312
417.87018 -80.99884 167.06253 431
376.97568 -63.28372 171.59511 316
412.95398 -77.66006 164.81300 312
419.42325 -80.21899 166.77588 430
377.37128 -62.30412 171.57906 316
413.40585 -76.44690 164.82639 312
421.04330 -79.49164 166.47691 429
377.71896 -61.34758 171.56476 316
413.87704 -75.27093 164.82980 312
422.71106 -78.67683 166.18922 428
431.86292 -82.20611 167.81937 301
378.05859 -60.33569 171.58969 316
414.38669 -74.13020 164.78604 312
424.29370 -77.90294 165.93140 427
432.34207 -80.89740 167.84558 301
378.39874 -59.40139 171.58528 316
414.82950 -72.92640 164.81787 312
426.01315 -77.08746 165.63499 426
432.76038 -79.59345 167.81880 301
378.75543 -58.39982 171.60591 316
415.27719 -71.74544 164.80951 312
427.64481 -76.21710 165.32132 425
433.19992 -78.27513 167.81729 301
379.09549 -57.42170 171.58493 316
389.79013 -61.24880 171.70190 312
429.35922 -75.42499 165.02950 424
433.61984 -76.94782 167.87930 301
379.43488 -56.43923 171.59744 316
390.10486 -60.19426 171.70296 312
430.28812 -74.28116 164.88077 308
434.06845 -75.58754 167.83083 301
379.73090 -55.47620 171.60709 316
390.47375 -59.14894 171.72910 312
430.73340 -73.04379 164.91992 308
434.45438 -74.29041 167.89783 301
380.09750 -54.49267 171.58051 316
390.78882 -58.09992 171.72739 312
431.23920 -71.74559 164.90691 308
434.82614 -72.99065 167.87593 301
380.37451 -53.50983 171.62759 316
391.16028 -57.05287 171.71928 312
431.65063 -70.46968 164.89062 308
436.41382 -71.98188 167.65315 420
380.70920 -52.51707 171.61404 316
391.45074 -55.98874 171.72539 312
432.07010 -69.11915 164.85049 308
438.17578 -71.13791 167.33209 419
381.01974 -51.53844 171.61740 316
391.82059 -54.92456 171.71227 312
432.50854 -67.83914 164.88805 308
439.91272 -70.22800 167.00800 433
381.29706 -50.54272 171.60275 316
392.11057 -53.90310 171.72427 312
432.94287 -66.52407 164.87262 308
441.54645 -69.21342 166.75548 432
381.57291 -49.55991 171.63879 316
392.44247 -52.84156 171.73535 312
433.29282 -65.23100 164.89551 308
443.20151 -68.20678 166.45343 431
381.85825 -48.53674 171.64035 316
392.71375 -51.75667 171.74484 312
433.67984 -63.94989 164.89139 308
444.83395 -67.24647 166.18925 430
382.17334 -47.57057 171.63092 316
393.04849 -50.71667 171.74329 312
434.08966 -62.63153 164.89406 308
446.51303 -66.24025 165.93188 429
456.31812 -69.05653 167.89207 297
382.40546 -46.58424 171.60349 316
393.29007 -49.63924 171.70993 312
405.64050 -53.17361 171.84026 309
448.20096 -65.23587 165.58502 428
456.71014 -67.58224 167.90570 297
382.70233 -45.55513 171.60880 316
393.61969 -48.57285 171.74704 312
405.97888 -51.99709 171.83362 309
449.96512 -64.18102 165.31912 427
457.01746 -66.13099 167.90240 297
382.93591 -44.54789 171.62604 316
393.85339 -47.54371 171.74321 313
406.26208 -50.89263 171.87201 309
451.69400 -63.16344 164.99982 426
457.38953 -64.68637 167.92912 297
383.19366 -43.54299 171.62398 316
394.13065 -46.45218 171.73798 313
406.53320 -49.74277 171.84891 309
452.19266 -61.75645 165.00835 303
457.69730 -63.18848 167.91348 297
268.29984 -12.95617 203.48006 289
394.43250 -45.38398 171.76024 313
406.83884 -48.57712 171.87994 309
452.58472 -60.35041 164.96643 303
458.01733 -61.75727 167.95236 297
268.27393 -12.64964 203.50673 314
394.67163 -44.32860 171.74306 313
407.10907 -47.44634 171.89056 309
452.91852 -58.90314 164.99364 303
458.28397 -60.24718 167.94408 297
3666.97949 -864.18884 217.08266 395
268.34979 -12.34324 203.50795 314
394.93585 -43.25176 171.75264 313
407.37042 -46.28978 171.89020 309
453.25092 -57.46281 165.00652 303
458.84265 -58.85448 167.89342 422
3666.65796 -841.39459 217.45622 487
3674.31152 -843.52222 275.06003 438
268.41385 -12.04862 203.50780 314
395.15845 -42.17421 171.72978 313
407.63055 -45.15086 171.87358 309
453.64053 -56.07984 164.95692 303
460.70200 -57.71592 167.61581 421
268.48087 -11.76224 203.49988 314
395.42368 -41.07359 171.73196 313
407.91098 -43.96428 171.85133 309
453.91415 -54.62703 164.98083 303
462.48398 -56.60389 167.30577 453
268.54016 -11.46809 203.50171 314
395.66977 -40.03658 171.76276 313
408.17517 -42.79454 171.88388 309
454.28546 -53.17006 164.98225 303
463.83054 -55.35486 167.14107 452
268.61227 -11.17195 203.49872 314
395.86209 -38.90951 171.75708 313
408.38959 -41.69402 171.89484 309
454.57730 -51.76711 164.97377 304
465.22147 -54.09277 166.93123 451
268.67062 -10.87558 203.49899 314
396.09344 -37.86896 171.77950 313
408.64304 -40.49347 171.85950 309
454.89627 -50.30367 164.99077 304
466.61163 -52.75520 166.68681 450
268.72321 -10.57862 203.49841 314
396.28287 -36.76352 171.76572 313
408.86331 -39.36896 171.88115 309
423.20709 -42.31533 172.03177 305
467.97864 -51.48482 166.50357 450
268.78259 -10.27629 203.50009 314
396.50702 -35.67830 171.77242 313
409.06668 -38.21400 171.88644 309
423.45035 -41.08252 171.99954 305
469.38785 -50.15383 166.25511 449
268.83221 -9.98290 203.50659 314
396.73059 -34.59159 171.76408 313
409.31601 -37.02661 171.87184 309
423.68085 -39.82544 172.04453 305
470.79971 -48.86124 166.05301 448
268.88947 -9.68308 203.50864 314
396.92465 -33.53560 171.78152 313
409.49704 -35.88036 171.89680 309
423.94818 -38.58076 172.01788 305
472.18307 -47.54176 165.83493 447
268.93750 -9.39297 203.50017 314
397.09210 -32.45917 171.78276 313
409.69754 -34.71528 171.90033 309
424.12500 -37.31399 172.00526 305
473.65195 -46.20494 165.59122 446
483.93005 -48.03501 168.02441 293
268.98651 -9.08856 203.50932 314
397.30396 -31.37529 171.78166 313
409.89139 -33.54312 171.88361 309
424.36768 -36.07450 172.00665 305
475.09479 -44.82180 165.31779 445
484.08252 -46.39896 168.04402 293
269.04111 -8.78908 203.50694 314
397.46625 -30.26053 171.78757 313
410.10455 -32.37756 171.87334 309
424.53348 -34.79432 172.03229 305
476.41290 -43.48371 165.12480 300
484.29648 -44.82951 168.02757 293
269.08725 -8.49778 203.49960 314
397.61847 -29.18303 171.76595 313
410.27838 -31.21816 171.89388 309
424.73163 -33.52032 172.01843 305
476.62979 -41.91028 165.11363 300
484.50693 -43.15265 168.08557 293
269.13101 -8.18804 203.50342 314
397.78085 -28.08895 171.78391 313
410.43167 -30.06452 171.91315 309
424.93011 -32.32001 172.02570 305
476.86310 -40.35788 165.09299 300
484.66260 -41.51030 168.10378 293
269.16675 -7.89328 203.50009 314
397.93417 -27.01296 171.79515 313
410.59872 -28.87757 171.90393 309
425.10364 -31.03728 172.03905 305
477.12344 -38.74564 165.11580 300
484.79675 -39.93141 168.12881 293
269.21524 -7.59201 203.50931 314
398.08536 -25.92678 171.77498 313
410.78253 -27.72813 171.86858 309
425.27795 -29.79408 172.06363 305
477.33984 -37.14240 165.10254 300
484.97418 -38.25284 168.08519 294
269.25458 -7.28973 203.50526 314
398.22003 -24.80101 171.77545 313
410.90845 -26.54029 171.89639 309
425.47037 -28.51254 172.05635 305
442.21652 -30.82188 172.17285 301
485.08176 -36.64917 168.15057 294
269.27823 -6.99819 203.50732 314
398.37372 -23.72894 171.78223 313
411.05771 -25.35999 171.91631 309
425.58923 -27.28463 172.01811 305
442.43811 -29.45988 172.22063 301
485.21802 -35.00795 168.11768 294
269.31863 -6.70045 203.50517 314
398.49200 -22.65161 171.75497 313
411.22330 -24.19523 171.91862 309
425.77615 -26.00036 172.02255 305
442.57574 -28.06326 172.22693 301
486.09341 -33.46759 168.00073 458
269.35764 -6.39790 203.50453 314
398.61462 -21.56166 171.79720 313
411.36935 -23.05253 171.90372 309
425.90143 -24.72169 172.01122 305
442.70685 -26.71440 172.20445 301
487.32251 -31.94994 167.85576 457
269.38416 -6.09261 203.50127 314
398.76273 -20.46048 171.80203 313
411.47647 -21.86368 171.92761 309
426.04224 -23.47921 172.03151 305
442.88736 -25.34829 172.20680 301
488.57114 -30.38042 167.62720 457
269.41165 -5.79685 203.50609 314
398.88080 -19.35398 171.76390 313
411.61304 -20.68630 171.88303 309
426.16278 -22.18795 172.05592 305
443.01202 -23.95841 172.20721 301
489.79425 -28.86856 167.44337 456
269.44046 -5.49360 203.50902 314
398.98404 -18.24233 171.76649 313
411.71185 -19.51692 171.89589 309
426.31317 -20.94477 172.04762 305
443.16724 -22.63621 172.19678 301
491.10843 -27.32850 167.24910 455
269.46393 -5.19452 203.50726 314
399.07239 -17.16482 171.76291 313
411.83646 -18.31689 171.90202 309
426.39746 -19.69985 172.01721 305
443.22882 -21.23973 172.18785 301
492.33698 -25.80214 167.07677 454
269.48752 -4.89150 203.50630 314
399.13898 -16.08997 171.75635 313
411.89392 -17.15304 171.91104 309
426.52341 -18.44468 172.05569 305
443.39029 -19.87346 172.23187 301
493.64066 -24.21631 166.84836 453
269.51303 -4.58927 203.50050 314
399.22757 -14.97632 171.78331 313
412.02609 -16.00584 171.91383 309
426.60342 -17.13665 172.03108 305
443.48126 -18.50364 172.19843 301
494.92355 -22.59644 166.66025 452
269.53259 -4.29191 203.49814 314
399.33026 -13.85878 171.80501 313
412.06253 -14.83130 171.89807 309
426.68436 -15.90538 172.04092 305
443.60477 -17.11135 172.21178 301
496.17413 -21.05043 166.41811 451
269.54184 -3.99154 203.50620 314
399.37286 -12.79271 171.78001 313
412.17151 -13.64960 171.90680 309
426.77332 -14.62170 172.06471 305
443.69214 -15.75405 172.18314 301
497.11475 -19.37071 166.27437 483
269.56464 -3.68582 203.50583 314
399.48273 -11.67421 171.75842 313
412.22647 -12.43291 171.91786 309
426.84274 -13.35392 172.04689 305
443.76099 -14.37063 172.19000 301
463.52710 -15.63728 172.39029 297
269.57663 -3.38625 203.50882 314
399.53061 -10.58555 171.76849 313
412.27478 -11.28494 171.87840 309
426.90115 -12.07791 172.02301 305
443.84924 -13.03765 172.18349 301
463.59198 -14.14206 172.42101 297
269.59232 -3.08696 203.50113 314
399.55618 -9.49400 171.78040 313
412.35239 -10.09337 171.91919 309
427.00031 -10.80544 172.02191 305
443.86124 -11.66146 172.21541 301
463.66113 -12.65484 172.40881 297
269.59433 -2.78536 203.50233 314
399.63644 -8.38721 171.80359 313
412.41043 -8.95211 171.90096 309
