# .PCD v.7 - Point Cloud Data file format
VERSION .7
FIELDS x y z rgb
SIZE 4 4 4 4
TYPE F F F U
COUNT 1 1 1 1
WIDTH 1381
HEIGHT 1
VIEWPOINT 4302.173828 -4098.709473 114.126953 0.002040 -0.109530 -0.000973 0.993981
POINTS 1381
DATA ascii
29.10315 -62.21660 199.59367 370
24.54073 -63.67356 202.56921 367
19.75798 -65.19685 205.67632 364
78.54865 -47.18782 176.17786 427
76.18445 -47.98138 178.13661 424
71.58384 -49.48290 179.62366 309
56.64305 -54.41361 178.89891 412
53.69971 -55.38592 181.22281 409
50.47813 -56.45729 183.57173 395
47.16134 -57.53735 185.99129 392
43.68154 -58.71901 188.50493 390
40.10632 -59.87795 191.11263 387
36.38903 -61.11652 193.77719 385
32.40142 -62.42934 196.54918 371
27.98297 -63.83360 199.46042 369
23.41294 -65.36613 202.44461 366
18.58230 -66.98563 205.56436 363
78.32231 -48.25640 175.99281 426
75.89700 -49.04914 177.99629 424
71.87335 -50.40785 179.62881 309
56.22164 -55.71276 178.74792 411
53.09660 -56.74363 181.00204 396
49.82689 -57.82482 183.35320 394
46.47029 -58.98544 185.78328 391
42.98859 -60.16208 188.33260 389
39.32866 -61.34584 190.91438 386
35.58397 -62.60383 193.66666 384
31.41620 -64.01053 196.40228 370
26.92254 -65.53800 199.34624 368
22.21468 -67.09681 202.36278 365
17.36313 -68.72984 205.51329 362
78.02963 -49.31880 175.85936 425
75.60656 -50.13747 177.82143 423
72.14467 -51.33706 179.60814 309
55.66679 -57.01910 178.50372 397
52.44597 -58.09279 180.79655 395
49.16870 -59.24690 183.18311 393
45.75875 -60.40199 185.64391 390
42.23452 -61.61714 188.14308 388
38.54828 -62.89750 190.75352 385
34.70718 -64.22112 193.50781 372
30.33901 -65.67934 196.26303 369
25.77844 -67.25926 199.19586 367
21.05421 -68.88022 202.21632 364
16.11860 -70.55223 205.39424 362
77.79305 -50.40570 175.68382 424
75.33798 -51.23166 177.67961 422
72.42717 -52.26266 179.63612 309
55.01688 -58.37677 178.29790 397
51.79459 -59.47758 180.61646 394
48.48196 -60.66491 182.99603 392
45.00784 -61.86367 185.45583 390
41.47218 -63.13627 188.00623 387
37.74243 -64.37521 190.64166 385
33.67091 -65.83378 193.30603 371
29.28316 -67.36728 196.15240 369
24.70181 -68.95689 199.03214 366
19.86213 -70.63747 202.12363 363
14.81834 -72.40025 205.33531 361
77.50908 -51.47556 175.52997 424
75.04181 -52.36084 177.53639 422
72.55014 -53.24869 179.58925 419
54.40143 -59.75760 178.08604 396
51.14617 -60.91241 180.39983 393
47.77433 -62.09555 182.74954 391
44.27721 -63.31696 185.21660 389
40.70612 -64.62096 187.78819 386
36.90461 -65.95227 190.42393 373
32.67747 -67.45993 193.12625 370
28.17640 -69.08955 195.96555 368
23.56145 -70.71516 198.93050 365
18.68393 -72.46038 202.00908 362
12.31592 -74.74622 205.18976 314
77.25040 -52.54284 175.37892 423
74.76360 -53.47167 177.35240 421
72.23440 -54.36871 179.40924 419
53.76247 -61.12406 177.85133 395
50.46892 -62.32887 180.16400 393
47.06245 -63.55580 182.57018 390
43.57351 -64.80730 185.07085 388
39.93102 -66.15199 187.61334 385
35.95876 -67.57677 190.26527 372
31.59913 -69.18693 192.98190 369
27.11011 -70.83279 195.82227 367
22.37425 -72.54556 198.76282 364
16.89050 -74.53307 201.86880 331
9.10859 -77.32726 205.01540 313
76.98734 -53.66870 175.19330 422
74.50728 -54.58338 177.19952 420
71.95889 -55.50790 179.26314 418
62.13993 -59.14937 179.70428 305
49.81886 -63.73175 179.95293 392
46.38886 -65.02838 182.34743 389
42.80393 -66.33228 184.83372 387
39.16614 -67.72181 187.42110 384
34.94890 -69.26720 190.03769 371
30.54889 -70.85846 192.79878 368
25.99616 -72.59330 195.67012 366
20.98781 -74.43339 198.61888 333
14.41119 -76.88420 201.65436 315
5.78701 -80.04731 204.79628 312
76.69318 -54.77095 175.02109 422
74.21465 -55.72370 177.06094 419
71.63943 -56.65865 179.10655 417
62.50330 -60.15241 179.70531 305
49.15361 -65.18555 179.73326 391
45.64350 -66.49257 182.16467 388
42.07394 -67.85046 184.62149 386
38.19751 -69.33440 187.23625 373
33.94255 -70.91051 189.84601 370
29.48113 -72.59490 192.63512 367
24.88299 -74.35882 195.51440 365
18.78349 -76.67972 198.39966 332
11.24941 -79.49010 201.38959 313
2.31745 -82.85452 204.58618 311
76.42935 -55.85733 174.85934 421
73.91054 -56.83045 176.89769 419
71.32732 -57.83809 178.96051 416
62.84920 -61.10235 179.69511 305
48.47134 -66.68537 179.49086 390
44.94141 -68.03160 181.90746 387
41.32367 -69.40556 184.43922 385
37.21778 -70.99921 186.98463 372
32.94914 -72.65663 189.64798 369
28.43673 -74.36752 192.40167 367
22.83456 -76.52983 195.20187 333
16.46983 -78.97001 198.16614 315
7.97843 -82.22174 201.11737 312
-1.23733 -85.78439 204.37549 310
76.17245 -56.98302 174.69620 420
73.65746 -57.97997 176.69073 418
71.02495 -58.99079 178.78040 416
63.17698 -62.08172 179.71487 305
47.76396 -68.17085 179.25165 389
44.20041 -69.51482 181.69896 387
40.45944 -70.98241 184.19919 373
36.26206 -72.62606 186.77840 371
31.88982 -74.34418 189.47385 368
26.78416 -76.36019 192.19028 334
20.69390 -78.76686 194.95714 332
13.39165 -81.60986 197.81039 314
4.60951 -85.08641 200.87794 311
-4.93287 -88.82700 204.13945 309
75.89099 -58.11801 174.53256 419
73.34444 -59.14409 176.55388 417
70.46345 -60.29716 178.55972 386
63.52674 -63.06462 179.71628 304
47.07359 -69.68053 179.04398 388
43.48281 -71.08492 181.47444 386
39.53551 -72.64143 183.94908 372
35.26703 -74.33514 186.52844 370
30.62936 -76.20264 189.19133 336
24.76258 -78.57664 191.86874 333
18.46369 -81.08097 194.67220 331
10.16695 -84.36466 197.50453 313
1.09332 -87.98924 200.55600 310
75.63092 -59.28609 174.35187 419
72.91077 -60.35694 176.32837 387
69.81190 -61.64030 178.29449 385
63.91283 -64.02109 179.67955 304
46.32630 -71.20266 178.79054 387
42.71766 -72.64901 181.24568 374
38.54214 -74.31328 183.73364 371
34.28759 -76.06597 186.32834 369
28.69667 -78.38579 188.84608 335
22.61466 -80.80584 191.55885 332
15.52010 -83.68263 194.29268 314
6.87731 -87.18880 197.15060 311
-3.56933 -91.45184 200.17606 283
75.34099 -60.41272 174.16643 388
72.29092 -61.66543 176.05220 386
69.14852 -62.98538 178.00725 384
64.25874 -64.99233 179.68085 304
45.62621 -72.72163 178.54738 386
41.80032 -74.30753 180.97441 373
37.58269 -76.04798 183.44666 370
32.47609 -78.12807 185.98450 336
26.62695 -80.59161 188.48528 334
20.40608 -83.11198 191.19914 331
12.42119 -86.46478 193.94157 313
3.42081 -90.17109 196.81236 310
-21.10679 -100.34701 198.92136 264
74.72728 -61.74920 173.87772 388
71.67685 -63.00103 175.79222 385
68.49405 -64.33694 177.78447 383
64.63538 -65.99120 179.70444 304
44.91261 -74.27011 178.27193 385
40.84743 -76.01107 180.67575 372
36.22482 -77.96408 183.12013 337
30.52473 -80.33742 185.56328 335
24.51194 -82.87679 188.15698 333
17.67187 -85.72375 190.82225 314
9.11841 -89.36594 193.52753 312
-2.75973 -94.33300 196.19847 283
74.14591 -63.04494 173.56854 387
71.03876 -64.38468 175.52794 384
67.79690 -65.72601 177.48956 382
65.03100 -66.91868 179.69511 304
44.07030 -75.91662 178.02571 373
39.80661 -77.72379 180.38643 339
34.31430 -80.09214 182.70718 336
28.54245 -82.57872 185.16537 334
22.40101 -85.21227 187.77208 331
14.58551 -88.52248 190.31480 313
5.48336 -92.39716 193.04907 284
73.53719 -64.37556 173.27164 386
70.36739 -65.72047 175.22337 383
67.14539 -67.12718 177.24248 394
64.47833 -68.31085 179.44328 392
52.70343 -73.45557 179.81540 300
38.02111 -79.80444 179.95381 338
32.43841 -82.24911 182.29100 335
26.49978 -84.87451 184.74475 333
19.88148 -87.74809 187.33768 314
11.42468 -91.41471 189.86839 312
-1.94813 -97.24692 192.18196 265
72.91319 -65.73437 173.00455 385
69.72046 -67.11395 174.92030 382
66.52131 -68.52449 176.96086 393
63.84971 -69.73910 179.20045 391
53.13134 -74.49270 179.78107 300
36.24081 -81.98147 179.50261 336
30.46037 -84.51675 181.85568 334
24.41173 -87.23518 184.34181 332
16.87313 -90.55779 186.82837 313
6.40841 -95.13734 189.18048 284
72.26741 -67.10717 172.69322 384
69.06371 -68.53575 174.66545 382
65.88509 -69.96435 176.67297 392
63.13516 -71.21240 178.93600 390
53.57014 -75.53458 179.78329 300
34.35295 -84.18082 179.04405 335
28.46387 -86.83971 181.38092 333
22.05035 -89.66768 183.85599 315
13.67964 -93.47675 186.25417 312
-1.56072 -100.32922 188.09137 265
71.66495 -68.48524 172.37743 383
68.40984 -69.94961 174.34207 381
65.22205 -71.39285 176.40770 391
62.43559 -72.66411 178.67419 389
53.96363 -76.55528 179.79590 300
32.40171 -86.41434 178.51634 334
26.39733 -89.19028 180.92879 332
19.08746 -92.51848 183.28940 314
7.43117 -97.89535 185.27403 284
71.00236 -69.85585 172.05956 382
67.71913 -71.38034 174.03146 380
64.54893 -72.86253 176.15045 390
61.77862 -74.19418 178.42331 388
54.43011 -77.59174 179.77678 300
30.44542 -88.75089 178.02882 333
24.28730 -91.62025 180.40582 331
15.25974 -95.78583 182.60001 285
-0.92771 -103.38272 183.96283 265
70.64616 -71.14978 171.85286 316
67.04822 -72.88686 173.73708 379
63.86605 -74.35333 175.84612 389
61.05656 -75.67674 178.14543 387
54.86850 -78.63730 179.78549 300
28.42679 -91.15412 177.54922 332
21.36662 -94.45409 179.81720 314
8.52897 -100.56208 181.37242 283
-24.34114 -116.10866 180.41022 344
71.07129 -72.08505 171.85594 316
66.37209 -74.37335 173.39896 378
63.21252 -75.85608 175.54176 388
60.33287 -77.23127 177.84743 386
55.32785 -79.65174 179.77780 300
40.64682 -86.66997 179.89786 296
16.37626 -98.32082 178.79779 285
-0.14067 -106.33521 179.84901 265
-23.67164 -117.64018 180.45424 284
71.46507 -73.02579 171.82497 316
65.68764 -75.84937 173.08498 377
62.51217 -77.39097 175.26161 387
59.62858 -78.79236 177.55666 385
55.78132 -80.69456 179.78380 300
41.15184 -87.81873 179.88725 296
9.68576 -103.19658 177.42770 283
-15.83811 -115.63736 177.13234 347
-23.04844 -119.11234 180.43657 284
71.91134 -73.93930 171.84526 316
64.96467 -77.38630 172.76546 376
61.77821 -78.96005 174.94710 386
58.86342 -80.38634 177.28786 384
55.65306 -82.01460 179.61517 326
41.66407 -88.91953 179.86165 296
-9.65979 -114.39706 173.71989 291
-9.71018 -114.40839 178.02155 291
-22.32383 -120.69396 180.40723 284
72.32084 -74.87701 171.84528 316
64.24461 -78.94493 172.43129 375
61.08307 -80.51673 174.64447 385
58.10650 -81.99368 177.00404 383
53.51831 -84.32056 179.02010 326
42.18063 -90.01746 179.90216 296
-0.93703 -111.74255 175.20773 292
-1.02876 -111.80659 179.35735 292
72.78422 -75.77905 171.81094 316
63.52803 -80.53407 172.10393 374
60.35101 -82.14240 174.33362 384
56.35658 -84.18557 176.44609 326
51.32427 -86.76069 178.41249 325
42.68737 -91.17235 179.90074 296
25.44922 -99.98572 180.03212 292
4.63053 -110.61143 180.23277 288
73.19901 -76.72056 171.83508 316
63.29210 -81.83706 171.93185 312
59.17381 -83.99047 173.86745 326
54.19281 -86.56012 175.80048 324
49.03778 -89.25823 177.80305 323
43.21360 -92.27660 179.89740 296
25.99714 -101.15226 179.99797 292
5.27336 -111.97536 180.22733 288
73.68864 -77.61840 171.82716 316
63.78654 -82.81521 171.89461 312
57.09594 -86.35049 173.18979 325
51.96789 -89.01488 175.09361 323
46.66322 -91.80626 177.17349 322
41.16713 -94.69695 179.34972 320
26.61199 -102.39404 179.98817 292
5.88048 -113.30723 180.20547 288
74.14369 -78.52291 171.82381 316
64.29577 -83.78790 171.91437 312
54.96012 -88.75406 172.48889 324
49.73249 -91.56449 174.41978 322
44.24241 -94.50048 176.47296 321
38.53539 -97.54053 178.66415 319
27.15110 -103.58052 180.00833 292
6.55571 -114.67120 180.18529 288
74.60091 -79.44121 171.80385 316
64.74825 -84.76897 171.89519 312
53.62369 -90.79817 172.01883 308
47.34625 -94.18831 173.69200 321
41.68235 -97.25288 175.78215 320
35.82996 -100.43812 178.01512 318
21.57186 -108.21505 178.84822 271
75.04135 -80.31970 171.79269 316
65.24031 -85.74485 171.91072 312
54.17052 -91.84334 171.97343 308
44.91566 -96.93656 172.94884 320
39.09304 -100.10759 175.01646 318
28.42317 -106.03757 176.31186 270
-54.82745 -151.84212 164.26230 373
75.52265 -81.23161 171.78448 316
65.75037 -86.67552 171.89867 312
54.70266 -92.84983 172.01138 308
42.36182 -99.76329 172.16487 318
36.29853 -103.18017 174.24113 271
16.01003 -114.46989 173.57188 269
-51.09068 -151.92386 164.74756 374
76.00012 -82.12460 171.80225 316
66.28520 -87.67898 171.86588 312
55.23227 -93.89684 171.96016 308
42.57625 -101.06528 172.07468 304
27.98206 -109.32947 172.22597 300
10.84220 -119.05453 172.37140 296
-47.95894 -152.43092 165.17767 288
76.49861 -83.04509 171.82211 316
66.75652 -88.61761 171.89403 312
55.78326 -94.94852 171.97412 308
43.16722 -102.20643 172.08995 304
28.61987 -110.58498 172.23001 300
11.52068 -120.39854 172.34543 296
-47.10657 -154.04805 165.15053 286
76.97159 -83.93114 171.79338 316
67.31477 -89.57951 171.86482 312
56.35252 -95.98595 171.96904 308
43.77171 -103.29053 172.08572 304
29.21840 -111.73849 172.18130 300
12.23906 -121.66177 172.37038 296
-46.19411 -155.74374 165.15025 286
77.45311 -84.81789 171.80472 316
67.84184 -90.49743 171.89027 312
56.90483 -96.95930 171.94658 308
44.38467 -104.37031 172.06729 304
29.85277 -112.93983 172.20657 300
12.90864 -123.00151 172.34343 296
-45.28284 -157.39481 165.22122 286
77.94001 -85.73801 171.76846 316
68.34955 -91.48678 171.89294 312
57.47490 -97.97625 171.96692 308
45.00063 -105.47625 172.09697 304
30.55208 -114.12062 172.16446 300
13.64097 -124.28664 172.36760 296
-44.38923 -159.04440 165.19792 286
78.45203 -86.59105 171.79318 316
68.90930 -92.43357 171.84641 312
58.00950 -99.04455 171.97774 308
45.59756 -106.56342 172.09099 304
31.21102 -115.34731 172.19191 300
-28.34735 -151.59019 163.15868 372
-43.42585 -160.71616 165.19743 286
78.98283 -87.46642 171.79590 316
69.42690 -93.34218 171.88344 312
58.61835 -100.02056 171.92799 308
46.18140 -107.66518 172.08423 304
31.85121 -116.50416 172.17976 300
-24.84833 -151.45403 163.72092 374
79.48902 -88.36111 171.76482 316
69.97042 -94.32153 171.84529 312
59.19707 -101.01999 171.97462 308
46.83831 -108.75227 172.08084 304
32.56053 -117.68102 172.15750 300
-21.38744 -151.36992 164.34386 375
79.98277 -89.22727 171.75620 316
70.53575 -95.26015 171.87090 312
59.79565 -102.02306 171.95332 308
47.44961 -109.86975 172.07736 304
33.22945 -118.87586 172.18071 300
-17.97005 -151.29701 164.86792 376
80.52031 -90.12302 171.77754 316
71.10464 -96.18128 171.87296 312
60.40441 -103.04316 171.93382 308
48.11192 -110.92813 172.03345 304
33.93255 -120.06101 172.16872 300
-14.65793 -151.25826 165.36684 377
81.03564 -90.97561 171.77321 316
71.63763 -97.12608 171.85950 312
60.96436 -104.04232 171.92645 308
48.73691 -111.98627 172.06517 304
34.61182 -121.21787 172.13850 300
-12.38962 -151.77197 165.65453 291
81.57420 -91.86958 171.77423 316
72.23436 -98.03806 171.81920 312
61.59137 -105.03136 171.90796 308
49.43046 -113.09216 172.06155 304
35.33695 -122.36474 172.14789 300
-11.43831 -153.18719 165.66785 291
82.13588 -92.72107 171.75464 316
72.82073 -98.94929 171.85248 312
62.20942 -106.04040 171.93385 308
50.05499 -114.11920 172.02791 304
36.03017 -123.54044 172.14386 300
-10.48865 -154.65100 165.71457 291
82.65511 -93.56458 171.74513 316
73.36638 -99.87529 171.80952 312
62.80606 -107.03423 171.92302 308
50.73281 -115.23645 172.01996 304
-1.80492 -150.77060 162.81937 285
-9.50692 -156.00430 165.68053 291
83.25133 -94.43277 171.75461 316
73.97826 -100.78157 171.84070 312
63.45203 -108.00289 171.93631 308
51.41321 -116.25449 172.03970 304
1.01407 -150.89290 163.29594 383
-8.57599 -157.44771 165.71837 290
83.78392 -95.29885 171.72343 316
74.54624 -101.69804 171.81351 312
64.08640 -108.97266 171.92268 308
52.06486 -117.31101 172.00336 304
3.95544 -150.79781 163.82274 385
-7.66415 -158.90671 165.65562 290
84.33392 -96.16936 171.75554 316
75.16692 -102.60983 171.83597 312
64.70219 -109.95726 171.88928 308
52.75974 -118.40521 172.00273 304
6.92313 -150.75023 164.29839 386
84.90640 -96.98254 171.71234 316
75.75044 -103.53823 171.79845 312
65.36478 -110.93324 171.90472 308
53.45001 -119.43259 171.97935 304
9.72524 -150.68539 164.79018 387
85.49232 -97.83898 171.74223 316
76.34914 -104.42681 171.78592 312
66.03786 -111.88834 171.90395 308
54.16751 -120.50567 172.01004 304
12.50505 -150.56174 165.20444 388
86.06033 -98.67942 171.74069 316
76.99201 -105.35440 171.80089 312
66.70117 -112.89812 171.89357 308
54.85907 -121.54374 172.01608 304
15.30622 -150.55246 165.67105 390
86.64127 -99.52194 171.74123 316
77.62524 -106.25464 171.80025 312
67.35327 -113.81754 171.88077 308
55.59238 -122.58453 171.98476 304
17.74858 -150.63829 166.10852 295
87.25329 -100.34504 171.73689 316
78.24802 -107.13248 171.81679 312
68.02806 -114.78545 171.87349 308
56.31891 -123.58778 171.98370 304
18.70857 -151.88928 166.08440 295
87.84040 -101.20745 171.71748 316
78.84158 -108.03078 171.76370 312
68.68950 -115.76157 171.86461 308
24.78724 -149.16396 163.20691 296
19.64867 -153.13257 166.11623 295
88.41759 -102.02099 171.71648 316
79.47972 -108.91873 171.75632 312
69.36417 -116.68764 171.86768 308
25.96785 -150.18443 163.28819 391
20.56799 -154.35518 166.10030 295
89.01302 -102.86612 171.71382 316
80.14973 -109.77940 171.79196 312
70.04926 -117.67883 171.87665 308
28.53420 -150.08705 163.73158 393
21.49494 -155.56064 166.09349 297
89.65739 -103.65625 171.70990 316
80.80150 -110.66542 171.77519 312
70.73289 -118.59727 171.83020 308
31.05657 -150.00594 164.18243 394
22.42615 -156.75865 166.11934 297
90.24374 -104.51108 171.68309 316
81.43946 -111.51431 171.75153 312
71.45515 -119.56788 171.84056 308
33.49948 -149.91640 164.61369 395
23.41662 -158.04436 166.13124 297
90.85170 -105.32750 171.70285 316
82.08450 -112.42680 171.77869 312
72.14034 -120.48234 171.85272 308
35.93414 -149.82863 165.03323 396
24.31904 -159.21609 166.10283 297
91.49984 -106.11207 171.67261 316
82.78582 -113.25583 171.77242 312
72.83556 -121.43437 171.81847 308
38.40090 -149.76881 165.43713 397
92.10490 -106.92627 171.67882 316
83.46097 -114.13938 171.72731 312
73.59127 -122.35664 171.81908 308
40.74870 -149.62395 165.86324 399
92.75373 -107.73598 171.68907 316
84.11058 -114.99506 171.73898 312
46.57600 -146.58359 163.33398 300
42.88597 -149.72554 166.22293 302
93.39318 -108.51853 171.68738 316
84.80152 -115.85873 171.73308 312
47.34463 -147.81493 163.31833 300
43.80964 -150.79947 166.20291 302
94.02518 -109.33724 171.66768 316
85.47771 -116.70007 171.72578 312
48.11026 -148.97667 163.28319 300
44.75857 -151.84756 166.20258 302
94.69293 -110.09917 171.65810 316
86.18710 -117.55347 171.74594 312
49.84664 -149.32620 163.52075 403
45.67547 -152.92857 166.19655 301
95.35157 -110.90117 171.66347 316
86.84698 -118.38245 171.70158 312
52.01878 -149.20865 163.94110 404
46.56312 -154.03023 166.21977 301
96.00983 -111.69132 171.65242 316
87.55530 -119.24584 171.70094 312
54.21429 -149.12987 164.33261 405
47.49141 -155.13803 166.25543 301
96.67612 -112.47713 171.66191 316
88.27985 -120.10035 171.70198 312
56.34509 -149.02957 164.73740 406
48.43879 -156.14798 166.25722 301
97.30299 -113.27665 171.60858 316
88.95654 -120.88802 171.72401 312
58.41313 -148.96338 165.06949 407
49.43880 -157.25392 166.23735 301
97.97325 -114.01190 171.63611 316
65.83762 -143.97044 163.54451 304
60.47417 -148.87749 165.46344 408
50.38311 -158.30109 166.25537 301
98.66783 -114.78403 171.62904 316
66.58479 -144.98763 163.47696 304
62.47890 -148.84113 165.85315 410
99.34473 -115.57599 171.63432 316
67.38787 -146.04817 163.42902 304
64.51084 -148.76466 166.18336 411
100.02405 -116.31091 171.61018 316
68.13226 -147.12581 163.43535 304
65.83060 -149.31628 166.32013 306
-19845.68750 -19359.24805 -5813.24902 1000
100.73370 -117.08424 171.60626 316
68.91214 -148.13637 163.35612 304
66.72517 -150.25900 166.30130 306
101.41682 -117.83933 171.57617 316
70.36624 -148.55600 163.57634 413
67.65286 -151.22537 166.33904 306
102.11600 -118.59511 171.59547 316
72.27432 -148.45079 163.91916 414
68.59305 -152.13194 166.33661 306
102.83035 -119.33469 171.60915 316
74.16294 -148.40880 164.25343 416
69.54352 -153.08620 166.33023 306
103.55460 -120.07600 171.57262 316
76.00320 -148.29861 164.62047 417
70.45903 -154.00032 166.33961 306
83.71468 -142.12865 163.63577 307
77.81123 -148.22861 164.91714 418
71.39457 -154.90033 166.36464 305
84.52514 -143.08382 163.62903 307
79.63939 -148.19067 165.29712 419
72.34660 -155.82991 166.32175 305
85.28902 -143.97751 163.55566 307
81.44396 -148.12831 165.56996 420
73.33308 -156.74002 166.34956 305
86.12695 -144.88535 163.56963 307
83.18011 -148.06503 165.91335 421
86.91522 -145.81998 163.50507 307
84.89410 -147.98251 166.22926 422
87.70131 -146.74007 163.47862 307
86.32294 -148.26770 166.41241 310
88.51617 -147.65303 163.45976 307
87.20635 -149.09674 166.43393 310
90.02121 -147.77611 163.66716 424
88.16954 -149.91180 166.43344 310
91.65237 -147.74161 164.00421 425
89.05725 -150.72054 166.40041 310
93.33508 -147.64087 164.29280 426
90.01218 -151.47604 166.44620 310
94.95182 -147.59164 164.57512 427
90.91537 -152.31523 166.42506 310
96.55236 -147.54877 164.88039 428
91.88847 -153.08983 166.45886 310
98.17297 -147.37204 165.19052 419
92.79852 -153.84424 166.45090 310
99.86620 -147.24075 165.52660 420
93.75285 -154.66263 166.43045 310
101.47500 -147.07587 165.85251 421
94.74013 -155.42928 166.45885 310
103.11055 -146.88518 166.13322 422
95.69849 -156.13919 166.45276 310
104.67913 -146.71799 166.42728 423
105.60994 -147.44658 166.43962 314
106.46317 -148.16200 166.44576 314
107.36940 -148.83197 166.44765 314
108.28134 -149.53262 166.48331 314
109.21053 -150.23532 166.46245 314
110.13708 -150.90446 166.45695 314
111.03060 -151.61694 166.47003 314
111.95325 -152.25525 166.47681 314
115.06770 -149.87146 167.47581 316
115.98001 -150.55246 167.44685 316
116.87067 -151.20781 167.44206 316
120.65573 -149.57007 168.37209 489
123.72401 -148.90996 169.01196 278
124.76375 -149.29570 169.07123 488
126.71169 -148.26012 169.56694 441
127.68655 -148.77032 169.59908 485
-263.22110 -1932.53931 86.71986 479
-264.29092 -1936.72815 119.18950 478
-265.67920 -1941.10803 151.65715 433
-251.33745 -1933.66321 86.77573 492
-252.36699 -1938.45386 119.58394 492
-254.19115 -1944.62280 152.04959 422
-241.18355 -1944.33618 86.50700 413
-4316.88672 -21447.60547 -2294.91187 1000
229.48357 -1459.69543 97.62250 288
435.56244 -35453.91406 5492.71436 1000
237.99895 -1444.22021 98.60336 472
238.00664 -1448.05115 122.08366 424
238.16507 -1453.00696 145.89664 423
238.11990 -1460.10071 169.35371 279
247.08075 -1441.12146 99.08519 496
247.02013 -1444.49451 122.67921 496
247.12531 -1448.12231 146.02702 495
247.05396 -1451.66125 169.59340 495
246.93619 -1455.35522 193.17795 493
255.87050 -1442.18237 99.09050 471
256.00928 -1446.33398 122.25317 471
256.05426 -1450.72827 146.06589 424
255.93504 -1456.65381 169.39018 371
264.75848 -1448.97522 98.41859 361
724.58582 -957.75690 127.85413 326
726.35034 -947.30518 128.50269 452
727.52338 -949.73792 146.13593 452
728.79260 -952.06372 163.68996 452
730.16040 -954.35529 181.23085 388
731.62347 -957.37115 198.67271 369
730.88501 -941.88245 128.91702 486
731.94611 -944.03149 146.12973 486
733.01660 -946.02777 163.84323 486
734.29211 -948.36469 181.25414 499
735.39728 -950.32928 198.79666 498
737.44739 -953.70929 216.55519 412
736.74341 -938.59442 128.72989 486
737.99951 -941.08063 146.19196 486
739.24030 -943.52936 163.72734 486
740.63428 -946.24243 181.16054 436
742.34583 -949.17834 198.80769 449
743.71436 -937.93512 128.54105 450
745.35986 -940.89215 145.89928 449
747.70868 -944.96069 163.45383 393
753.25555 -941.16418 128.03981 323
375.48135 -105.63467 167.64601 312
376.03046 -104.62736 167.66046 312
376.60867 -103.60756 167.67508 312
377.17734 -102.63279 167.68604 312
377.78174 -101.63268 167.68671 314
378.34482 -100.65800 167.67242 314
378.87634 -99.63293 167.65979 314
379.44656 -98.60865 167.70209 314
380.02841 -97.63374 167.67116 314
380.56885 -96.62535 167.67519 314
381.09369 -95.59693 167.70439 314
382.20908 -94.89247 167.54666 433
383.63574 -94.44186 167.22672 432
385.09216 -93.89340 166.97267 431
394.13324 -99.04267 167.67944 309
386.58499 -93.41842 166.67628 430
394.67014 -97.94545 167.68053 309
388.04849 -92.88220 166.38487 429
395.19492 -96.80220 167.73190 309
389.56949 -92.34054 166.07759 428
395.69580 -95.67989 167.71904 309
391.09262 -91.86259 165.77734 427
396.18854 -94.59608 167.72435 309
392.61258 -91.29334 165.50896 426
396.70859 -93.45680 167.73256 309
394.19379 -90.74609 165.16531 425
397.16257 -92.31233 167.76605 309
395.72382 -90.20531 164.86386 424
397.69357 -91.18332 167.75502 310
396.52643 -89.23770 164.78477 316
398.18921 -90.08829 167.75484 310
397.03091 -88.18764 164.75827 316
398.96729 -89.12592 167.69337 422
397.52872 -87.05875 164.76425 316
400.56836 -88.54563 167.38434 421
398.03360 -85.98132 164.75275 316
402.22162 -88.00181 167.04799 420
398.58130 -84.88020 164.77841 316
403.90515 -87.40507 166.70804 419
413.71600 -92.02146 167.74574 305
399.06320 -83.74907 164.73969 316
405.58994 -86.82242 166.39122 418
414.14365 -90.77223 167.75198 305
399.55511 -82.64469 164.72253 316
407.24622 -86.19367 166.07751 437
414.64603 -89.58379 167.75589 305
399.99554 -81.51522 164.72168 316
408.72882 -85.48730 165.79987 436
415.08765 -88.32336 167.76195 305
400.43338 -80.43697 164.72899 316
410.24036 -84.72441 165.51613 435
415.55389 -87.11318 167.81354 305
400.89325 -79.31454 164.74483 316
411.74673 -84.01895 165.27643 434
415.97815 -85.85551 167.76724 305
401.38254 -78.14354 164.74098 316
413.22723 -83.26100 164.99333 433
416.39923 -84.65113 167.79022 305
378.06381 -67.02479 171.58644 316
414.18646 -82.25430 164.82695 311
416.85080 -83.35490 167.83759 305
378.41641 -66.05692 171.57997 316
414.62842 -81.07243 164.86392 311
417.26306 -82.16199 167.84348 305
34358.20703 -14138.11816 1497.02722 1000
378.75964 -65.03761 171.59221 316
415.10184 -79.86598 164.82430 311
417.91232 -81.00310 167.78145 431
379.13034 -64.04509 171.61974 316
415.52426 -78.62498 164.86557 311
419.50107 -80.19115 167.47656 430
379.45010 -63.04663 171.60641 316
415.96149 -77.39653 164.82269 311
421.12378 -79.45470 167.17059 429
379.80478 -62.06594 171.58719 316
416.44427 -76.21260 164.81235 311
422.75085 -78.62771 166.88785 428
380.10422 -61.09631 171.59789 316
416.87341 -75.00758 164.80525 311
424.40140 -77.86147 166.59993 427
380.42496 -60.08372 171.58975 316
417.27371 -73.75608 164.80650 311
426.05411 -77.02199 166.31140 426
435.90857 -80.67763 167.81807 301
380.73560 -59.05436 171.62494 316
417.69086 -72.57648 164.84962 311
427.76019 -76.20137 165.99352 425
436.30899 -79.31294 167.81772 301
381.04922 -58.08152 171.61133 316
418.07611 -71.34349 164.82643 311
429.41196 -75.40805 165.66524 424
436.68045 -78.00941 167.83748 301
381.34940 -57.06021 171.61191 316
418.50797 -70.10092 164.83232 311
431.16608 -74.54588 165.34547 423
437.04916 -76.60315 167.83321 301
381.66730 -56.04820 171.64041 316
392.58505 -59.82296 171.73161 312
432.93246 -73.67313 165.00421 422
437.41562 -75.22118 167.84015 301
381.93533 -55.05564 171.61899 316
392.87411 -58.72706 171.72826 312
433.78958 -72.54781 164.87256 307
434.65375 -72.84895 166.10124 421
382.20874 -54.05540 171.64055 316
393.19229 -57.65641 171.70683 312
434.20706 -71.18014 164.89445 307
438.16342 -72.52265 167.85115 301
382.48001 -53.03608 171.63239 316
393.46298 -56.56403 171.71136 312
434.60208 -69.90574 164.91299 307
438.48990 -71.11742 167.88927 301
382.76404 -52.01293 171.61053 316
393.76273 -55.51714 171.74641 312
434.95706 -68.57872 164.86496 307
440.00797 -70.13226 167.66113 433
383.03857 -51.00722 171.64075 316
394.05695 -54.39581 171.76047 312
435.32971 -67.23370 164.92522 307
441.66104 -69.18240 167.32643 432
383.26813 -49.98735 171.61462 316
394.32132 -53.31496 171.74222 312
435.67108 -65.86245 164.87854 307
443.28253 -68.17625 167.06145 431
383.53818 -48.98841 171.61513 316
394.60855 -52.27935 171.73476 312
436.02704 -64.55059 164.88248 307
444.92105 -67.16467 166.78856 430
383.78311 -47.94664 171.62981 316
394.87427 -51.16682 171.73738 312
436.35318 -63.22388 164.92355 307
446.58911 -66.15675 166.45595 429
384.04803 -46.92208 171.66481 316
395.09064 -50.06233 171.74382 312
436.69785 -61.83937 164.93178 307
448.29953 -65.15852 166.16483 428
46002.73828 -12974.35547 -4389.36279 1000
384.27988 -45.94221 171.65990 316
395.33475 -48.97116 171.76073 312
407.93552 -52.50361 171.88425 308
450.02469 -64.14291 165.84879 427
459.98697 -66.88845 167.91531 297
384.48663 -44.89474 171.65559 316
395.59995 -47.88048 171.75392 312
408.19464 -51.28256 171.89143 308
451.78140 -63.09950 165.52193 426
460.22363 -65.37466 167.89246 297
384.71329 -43.88713 171.63081 316
395.84183 -46.82058 171.77817 312
408.43884 -50.14318 171.87067 308
453.53683 -62.00410 165.25539 425
460.46997 -63.82454 167.90022 297
384.93619 -42.86940 171.63779 316
396.03796 -45.71498 171.74947 312
408.70480 -48.97355 171.86717 308
454.99692 -60.85937 164.97981 303
460.73923 -62.32711 167.93881 297
3649.31885 -881.93683 280.16068 478
3654.11792 -883.13818 338.79401 397
385.11057 -41.85086 171.66490 316
396.30280 -44.62464 171.75780 312
408.96136 -47.77446 171.85954 308
455.29428 -59.39272 164.95866 303
461.03152 -60.87743 167.95689 297
385.31876 -40.82723 171.63876 316
396.49792 -43.53564 171.77454 312
409.18161 -46.61438 171.90114 308
455.54733 -57.94239 164.98935 303
461.21411 -59.30807 167.95496 297
385.51505 -39.80347 171.65672 316
396.70032 -42.44275 171.78664 312
409.40552 -45.46369 171.88290 308
455.88150 -56.46407 164.97112 303
461.44473 -57.85301 167.97807 297
269.19864 -11.83245 203.49590 289
396.89801 -41.35305 171.77716 312
409.62613 -44.29793 171.91068 308
456.15814 -55.03727 164.98668 303
462.60739 -56.50428 167.82880 453
269.21686 -11.52051 203.50623 314
397.08676 -40.25544 171.78520 312
409.79541 -43.09731 171.86081 308
456.43558 -53.60891 164.95938 303
463.92847 -55.24901 167.61281 452
269.25168 -11.20066 203.50139 314
397.31979 -39.15302 171.77408 312
410.03543 -41.93882 171.89224 308
456.69769 -52.08487 164.95938 303
465.31192 -53.98383 167.37869 451
269.27527 -10.90485 203.50842 314
397.48666 -38.07158 171.74368 312
410.23337 -40.75829 171.87573 308
456.92252 -50.66127 165.01091 303
466.66406 -52.73801 167.14725 450
269.29733 -10.59070 203.50958 314
397.66119 -36.94836 171.76814 312
410.37000 -39.58289 171.87975 308
457.19620 -49.17086 164.97400 303
468.07004 -51.43273 166.93756 450
269.32312 -10.28929 203.50243 314
397.83487 -35.83811 171.76346 312
410.55249 -38.39849 171.91649 308
425.17807 -41.31102 172.04794 304
469.42990 -50.09490 166.71376 449
269.35474 -9.97449 203.50607 314
397.97568 -34.75670 171.75113 312
410.76031 -37.23156 171.89000 308
425.35532 -40.02066 172.06630 304
470.84052 -48.75910 166.48485 448
269.36853 -9.66232 203.50476 314
398.13007 -33.65873 171.77379 312
410.91632 -36.05383 171.89461 308
425.54623 -38.79155 172.03459 304
472.29599 -47.45089 166.23811 447
269.38629 -9.36025 203.50299 314
398.30084 -32.56306 171.76891 312
411.05991 -34.88283 171.88939 308
425.73221 -37.48442 172.05452 304
473.72919 -46.15129 166.01553 446
269.40387 -9.05250 203.49716 314
398.41650 -31.46171 171.76762 312
411.22952 -33.66502 171.90752 308
425.85046 -36.23166 172.06570 304
475.12314 -44.76292 165.72916 445
269.42532 -8.73862 203.49823 314
398.58685 -30.37191 171.80040 312
411.39337 -32.48372 171.91342 308
426.05389 -34.94371 172.06285 304
476.65210 -43.44579 165.50446 444
486.69388 -45.06389 168.07030 293
269.44153 -8.44246 203.51007 314
398.69131 -29.26634 171.80193 312
411.49292 -31.30133 171.87483 308
426.18933 -33.65936 172.04796 304
478.08182 -42.05510 165.22478 443
486.81128 -43.45362 168.05429 293
269.45248 -8.13600 203.50253 314
398.85132 -28.16287 171.78323 312
411.63367 -30.14863 171.92569 308
426.29770 -32.41896 172.02866 304
478.79990 -40.53444 165.10487 299
486.90472 -41.79054 168.11142 293
269.46164 -7.82660 203.51031 314
398.94821 -27.06167 171.78416 312
411.75711 -28.97571 171.89088 308
426.46375 -31.12011 172.05432 304
478.93173 -38.94145 165.15181 299
486.95972 -40.09887 168.05728 293
269.46399 -7.51956 203.50121 314
399.03485 -25.94538 171.80554 312
411.89804 -27.75768 171.88914 308
426.55841 -29.84241 172.06317 304
479.10870 -37.35069 165.12570 299
487.07162 -38.44649 168.12883 293
269.46664 -7.20718 203.50488 314
399.15479 -24.83939 171.75560 312
411.99789 -26.58767 171.89284 308
426.71310 -28.58288 172.06467 304
479.28052 -35.69421 165.10947 299
487.13992 -36.80591 168.15021 293
269.47675 -6.90120 203.50577 314
399.23416 -23.74346 171.78093 312
412.11893 -25.41796 171.91240 308
426.81046 -27.30519 172.06862 304
443.83722 -29.54111 172.20572 300
487.14127 -35.10292 168.17122 293
269.48035 -6.59518 203.50993 314
399.34753 -22.63384 171.79672 312
412.20389 -24.24897 171.88786 308
426.93027 -26.02931 172.05359 304
443.96005 -28.10848 172.20753 300
487.20871 -33.50959 168.14989 293
269.48343 -6.28530 203.50496 314
399.45132 -21.52335 171.78560 312
412.31253 -23.01954 171.92795 308
427.01343 -24.75876 172.02444 304
444.01196 -26.72527 172.18492 300
487.45303 -31.80429 168.15662 457
269.48355 -5.98755 203.50729 314
399.49765 -20.42202 171.79161 312
412.39075 -21.87377 171.93648 308
427.08969 -23.46071 172.04559 304
444.13492 -25.36376 172.22208 300
488.63040 -30.31275 167.94075 457
269.47366 -5.67655 203.50679 314
399.59558 -19.34916 171.79141 312
412.44363 -20.69566 171.88600 308
427.16675 -22.23901 172.07518 304
444.19183 -24.01400 172.21825 300
489.87204 -28.80922 167.75031 456
269.46667 -5.38022 203.50069 314
399.66367 -18.22037 171.80374 312
412.49335 -19.48046 171.88408 308
427.27057 -20.93602 172.05011 304
444.28583 -22.63830 172.20375 300
491.15961 -27.22776 167.54530 455
269.46228 -5.06595 203.49945 314
399.70480 -17.13784 171.80522 312
412.59543 -18.30186 171.93298 308
427.29825 -19.66467 172.03163 304
444.38196 -21.25536 172.25159 300
492.40704 -25.64197 167.33076 454
269.45319 -4.76003 203.50864 314
399.78018 -15.98982 171.77370 312
412.65652 -17.13084 171.90094 308
427.39600 -18.37720 172.03404 304
444.42175 -19.84410 172.18858 300
493.67383 -24.09422 167.12915 453
269.43845 -4.46394 203.50426 314
399.80154 -14.90714 171.76154 312
412.70303 -15.91639 171.93089 308
427.39746 -17.10094 172.07309 304
444.49545 -18.48858 172.22717 300
494.98630 -22.55122 166.85414 452
269.42844 -4.15613 203.50267 314
399.85046 -13.78417 171.78792 312
412.72589 -14.73498 171.88693 308
427.45172 -15.84754 172.04364 304
444.50912 -17.12598 172.21823 300
496.32010 -20.94828 166.68913 452
269.40717 -3.84751 203.49847 314
399.88260 -12.67462 171.76649 312
412.73395 -13.57554 171.88570 308
427.48206 -14.55100 172.07550 304
444.57663 -15.70209 172.19423 300
497.19861 -19.27940 166.51477 483
269.39722 -3.55712 203.50494 314
399.90466 -11.59021 171.78014 312
412.78690 -12.40944 171.91554 308
427.51730 -13.29579 172.04237 304
444.58984 -14.33202 172.20702 300
497.87424 -17.57195 166.36809 482
269.37979 -3.24396 203.50389 314
399.91644 -10.46988 171.77773 312
412.79889 -11.17146 171.90262 308
427.57385 -11.98643 172.03262 304
444.61014 -12.96894 172.21634 300
464.56635 -14.04879 172.41061 296
269.35962 -2.94834 203.50963 314
399.94226 -9.38993 171.77321 312
412.82654 -10.02920 171.93501 308
427.53351 -10.70995 172.04375 304
444.63263 -11.58204 172.21866 300
464.61572 -12.59135 172.40039 296
269.33719 -2.64307 203.50403 314
399.94937 -8.30404 171.77304 312
412.83289 -8.84481 171.93237 308
427.55475 -9.47132 172.02666 304
444.64438 -10.22308 172.22635 300
464.56592 -11.06885 172.43375 296
269.30652 -2.34242 203.49773 314
272.78503 -2.46491 203.49411 280
412.80322 -7.66638 171.93289 308
427.52954 -8.17718 172.05542 304
444.62292 -8.80773 172.18756 300
464.61475 -9.54814 172.44341 296
269.28131 -2.03343 203.49916 314
272.72308 -2.13947 203.50870 310
412.80551 -6.45400 171.93115 308
427.54340 -6.89502 172.08025 304
444.60309 -7.44709 172.18713 300
464.56244 -8.02345 172.44003 296
269.25027 -1.73962 203.50009 314
272.69028 -1.82887 203.50253 310
412.77286 -5.27257 171.89391 308
427.53571 -5.66362 172.03365 304
444.61606 -6.03909 172.22702 300
464.55167 -6.57839 172.43660 296
31720.47852 -765.94543 7602.44629 1000
269.22983 -1.44172 203.49803 314
272.66379 -1.49466 203.50542 310
412.75104 -4.11140 171.89386 308
427.48032 -4.36014 172.05702 304
444.58017 -4.71143 172.23643 300
464.55893 -5.04260 172.37881 296
269.19611 -1.14212 203.50757 314
272.61948 -1.18039 203.50336 310
412.71179 -2.91006 171.92659 308
427.46509 -3.11048 172.03049 304
444.49185 -3.29666 172.23782 300
464.47165 -3.53560 172.43974 296
269.16229 -0.83671 203.49876 314
272.58145 -0.86519 203.49702 310
412.72910 -1.76823 171.89197 308
427.43973 -1.83684 172.06728 304
444.46375 -1.92353 172.24557 300
451.94421 -1.96581 174.67552 425
269.11746 -0.54391 203.50819 314
272.55521 -0.53611 203.50327 310
412.67532 -0.58396 171.92128 308
427.40561 -0.56101 172.02667 304
444.44553 -0.58606 172.23163 300
464.39166 -0.53346 172.42857 296
269.08142 -0.23557 203.50867 314
272.50427 -0.22074 203.50044 310
412.63541 0.59859 171.88301 308
427.35904 0.72208 172.07848 304
444.35001 0.82313 172.19952 300
452.20621 0.84302 174.61549 425
269.04205 0.05643 203.49887 314
272.46802 0.10062 203.50026 310
412.57892 1.77494 171.90234 308
427.29684 1.97287 172.07605 304
444.30621 2.20563 172.22136 300
452.15158 2.30688 174.56874 422
269.00763 0.35809 203.49806 314
272.42462 0.42392 203.50534 310
412.50708 3.00165 171.90663 308
427.21124 3.23120 172.06676 304
444.23901 3.54093 172.18994 300
464.15063 3.95476 172.40608 296
268.96255 0.65095 203.49771 314
272.38205 0.73211 203.49991 310
412.40323 4.17061 171.87523 308
427.11591 4.53759 172.01892 304
444.14999 4.92183 172.19560 300
464.06384 5.44984 172.42671 296
268.92517 0.95679 203.50281 314
272.33197 1.04969 203.50568 310
412.31628 5.32210 171.87463 308
427.01926 5.80229 172.04688 304
444.04871 6.32822 172.20447 300
463.98364 6.90978 172.38611 296
268.86807 1.24437 203.50381 314
272.27835 1.37710 203.50653 310
412.26468 6.48446 171.92635 308
426.95007 7.04359 172.06261 304
443.94464 7.65897 172.19995 300
463.82123 8.40156 172.40637 296
268.82239 1.54317 203.49879 314
272.22678 1.69396 203.50211 310
412.14151 7.70064 171.88876 308
426.85385 8.32261 172.06200 304
443.82251 9.01530 172.23172 300
463.69897 9.91029 172.42270 296
268.77191 1.83324 203.50313 314
272.17645 2.00003 203.50389 310
412.09064 8.85889 171.88692 308
426.74228 9.55754 172.02374 304
443.75198 10.40352 172.17798 300
463.58423 11.36273 172.42488 296
3981.97778 184.68715 529.18896 1000
268.72314 2.12907 203.50328 314
272.11465 2.32542 203.50465 310
411.98022 10.02605 171.87384 308
426.62106 10.84366 172.03845 304
443.59940 11.80070 172.18155 300
463.49777 12.88573 172.41051 296
268.67175 2.42229 203.50980 314
272.05872 2.64157 203.50000 310
411.87283 11.18795 171.90265 308
426.49881 12.08052 172.05252 304
443.43942 13.12343 172.20512 300
463.33069 14.36296 172.40222 296
268.60809 2.72601 203.50952 314
271.99585 2.94756 203.50925 310
411.73135 12.35155 171.88312 308
426.36566 13.35196 172.03975 304
443.34955 14.53383 172.19380 300
463.14767 15.83872 172.41647 296
268.55151 3.01075 203.50858 314
271.94565 3.26958 203.50230 310
411.58820 13.54267 171.91550 308
426.22647 14.63456 172.03239 304
443.15103 15.87143 172.22627 300
496.60324 19.79109 166.27287 452
268.49985 3.30226 203.50667 314
271.87296 3.57616 203.50606 310
411.49341 14.71542 171.89931 308
426.12289 15.85962 172.05612 304
443.00818 17.22039 172.19762 300
495.35767 21.41323 166.51619 452
268.43790 3.60324 203.50679 314
271.81537 3.88677 203.49866 310
411.30643 15.85798 171.88428 308
425.92780 17.12478 172.01231 304
442.87335 18.58879 172.20595 300
494.04486 22.99726 166.68797 453
4959.99414 407.66058 376.74704 266
268.38037 3.88608 203.49918 314
271.73932 4.20645 203.50485 310
411.16794 17.07225 171.88022 308
425.77063 18.38671 172.02495 304
442.69348 19.93894 172.22144 300
492.72998 24.60191 166.84975 454
4953.28564 437.02957 299.16156 434
4923.71191 434.11533 375.42587 322
268.31177 4.18499 203.50829 314
271.67636 4.51859 203.49835 310
411.03329 18.21079 171.86179 308
425.65143 19.62415 172.00761 304
442.51990 21.29848 172.18922 300
491.49097 26.14054 167.03830 455
4931.45215 463.87863 298.46890 435
268.24521 4.46991 203.50142 314
271.60953 4.82642 203.50177 310
410.88071 19.37803 171.88638 308
425.44562 20.92204 172.00851 304
442.29855 22.65458 172.15915 300
490.21606 27.70924 167.22147 456
4905.97363 489.85815 297.68463 477
268.17038 4.76360 203.50261 314
271.53723 5.12658 203.50067 310
410.71384 20.51783 171.90186 308
425.26016 22.13756 172.02625 304
442.10147 24.03672 172.21378 300
489.02731 29.23638 167.42407 457
4891.92578 517.20331 297.84259 478
268.10709 5.04843 203.49881 314
271.45795 5.43931 203.49763 310
410.54471 21.69726 171.85564 308
425.09158 23.40903 172.00929 304
441.92480 25.37768 172.18465 300
487.72809 30.75994 167.64249 457
4879.93701 545.17401 297.17972 490
268.03894 5.34293 203.50577 314
271.38205 5.75627 203.50810 310
410.33109 22.89132 171.87643 308
424.88535 24.67720 172.03041 304
441.73633 26.72633 172.21432 300
486.49493 32.24383 167.79129 458
4869.62500 572.78455 297.31339 490
267.96564 5.62721 203.50244 314
271.30573 6.05333 203.50505 310
410.15808 24.01542 171.89735 308
424.70496 25.88944 172.02257 304
441.50729 28.10119 172.19138 300
485.30582 33.74379 167.97971 459
4854.78809 599.59741 296.40878 338
267.88974 5.91661 203.50790 314
271.22217 6.36353 203.50006 310
409.97461 25.21061 171.89133 308
424.49545 27.12766 172.04065 304
441.27469 29.46716 172.19655 300
484.12549 35.24857 168.10674 293
4842.60596 628.03674 296.28534 339
267.81741 6.19780 203.50810 314
271.13968 6.66769 203.50101 310
409.78738 26.34576 171.89468 308
424.23758 28.37264 172.01616 304
441.03098 30.80413 172.14516 300
483.91840 36.87511 168.12761 293
4831.07080 654.11890 296.59277 340
4890.73584 662.84833 374.91687 452
267.72791 6.48488 203.49980 314
271.05313 6.97592 203.50214 310
409.54089 27.47351 171.85359 308
424.04184 29.66245 171.99525 304
476.11685 37.36651 165.12315 300
483.69751 38.48898 168.08496 293
4820.25000 681.59357 296.32831 442
4888.62500 692.17859 374.26340 499
267.65714 6.77278 203.50714 314
270.96487 7.28381 203.50790 310
409.33206 28.64455 171.83981 308
423.79813 30.86099 172.02997 304
475.87177 38.94289 165.09152 300
483.51123 40.08660 168.09665 293
4814.20068 709.41962 296.81674 442
4898.69385 722.60156 374.59659 442
267.57190 7.05090 203.50061 314
270.88446 7.58592 203.50932 310
409.13840 29.82532 171.88852 308
423.59106 32.15118 171.99829 304
475.55768 40.46794 165.08513 300
483.24274 41.75218 168.06705 293
4808.77734 737.97675 296.27960 442
267.48444 7.33031 203.50732 314
270.79190 7.88566 203.51018 310
408.91083 30.95723 171.85741 308
423.31821 33.37827 172.02678 304
475.30423 42.02401 165.08441 300
483.02081 43.33967 168.01541 293
4804.33936 766.10089 296.03851 442
267.40341 7.62062 203.50140 314
270.69778 8.18579 203.50847 310
408.65662 32.11765 171.86867 308
423.04938 34.58624 171.98582 304
474.95050 43.63783 165.04558 300
482.75650 44.96636 168.05023 293
4801.83936 794.67627 295.91776 441
4893.99512 810.33447 374.78107 276
267.31406 7.90377 203.50877 314
270.60623 8.48809 203.50574 310
408.42667 33.23636 171.86359 308
422.79907 35.85727 172.00391 304
474.16040 45.04533 165.15497 446
482.46381 46.53201 168.01059 293
4799.80029 823.62433 296.15131 441
267.23181 8.17356 203.49977 314
270.51093 8.78542 203.50203 310
408.15067 34.37920 171.83189 308
422.56973 37.09592 171.98904 304
472.74020 46.38232 165.36934 447
482.19522 48.14766 168.01562 293
4797.85645 851.60052 296.72668 441
267.13437 8.46267 203.49857 314
270.41388 9.09339 203.51001 310
407.91852 35.55719 171.83484 308
422.29758 38.29784 171.98909 304
471.29984 47.75077 165.63228 448
481.92920 49.81074 168.01653 293
4796.20215 880.80676 296.03293 440
267.04996 8.73572 203.50359 314
270.32352 9.39399 203.51059 310
407.64941 36.69968 171.85057 308
422.01367 39.55303 171.99400 304
469.87476 49.06475 165.81444 449
4794.34668 909.70636 296.48450 440
4838.08447 918.69360 374.14316 497
266.95578 9.01171 203.50099 314
270.22226 9.68210 203.50172 310
407.37408 37.83898 171.85536 308
421.69235 40.77372 171.95944 304
468.49307 50.39305 166.02023 450
4792.09277 938.62146 295.97900 440
4847.26953 950.04877 374.75375 354
266.86240 9.29175 203.50156 314
270.12473 9.99193 203.49841 310
407.10126 38.94751 171.82008 308
421.43738 42.01781 171.95836 304
467.09811 51.65363 166.26793 451
4790.67383 967.79010 296.48141 440
266.76538 9.56787 203.50784 314
270.01535 10.28494 203.50060 281
406.86050 40.10244 171.84467 308
421.13800 43.18754 171.96538 304
465.69482 52.91280 166.41130 451
4789.63965 996.52618 295.60986 440
4969.36670 1035.72888 538.88293 497
266.66864 9.84342 203.49835 314
269.94727 10.59009 203.48935 281
406.56671 41.20908 171.81232 308
452.66949 51.60802 164.93474 303
464.37744 54.20876 166.64085 452
4786.91113 1024.80408 295.88751 440
266.56195 10.12951 203.50714 314
269.87564 10.88438 203.47969 281
406.25272 42.36441 171.81546 308
452.28223 53.03179 164.96220 303
462.97913 55.44235 166.85503 453
4785.77490 1054.45569 296.68155 439
266.46576 10.39640 203.50978 314
393.53455 40.53643 171.72505 312
405.95764 43.47598 171.81552 308
451.94357 54.43637 164.92612 303
461.45270 56.64351 167.05807 421
4783.11816 1083.87134 296.01453 439
266.36398 10.67683 203.50679 314
393.25223 41.59950 171.71718 312
405.64413 44.61591 171.84258 308
451.50290 55.81098 164.92189 303
459.57269 57.76052 167.34349 422
4781.88477 1113.08069 296.61340 439
266.25198 10.94231 203.49854 314
392.98645 42.65561 171.68683 312
405.35297 45.76458 171.85172 308
451.12369 57.19787 164.91243 303
457.77640 58.91179 167.65884 423
4780.07324 1141.56909 296.52982 439
266.15479 11.21670 203.50581 314
392.67569 43.73099 171.68912 312
405.02026 46.86400 171.79883 308
450.71295 58.63787 164.95549 303
455.94931 59.94468 167.91487 424
4778.54492 1170.51904 295.92322 439
266.04257 11.48919 203.50816 314
392.37628 44.74138 171.71373 312
404.70432 48.00813 171.81444 308
450.32477 59.99462 164.94769 303
455.53421 61.42431 167.91537 297
4776.20605 1200.19678 296.79559 438
265.93097 11.75824 203.50121 314
392.03815 45.79575 171.68213 312
404.33038 49.12858 171.82135 308
449.86499 61.40946 164.94455 303
455.17377 62.81962 167.88376 297
4774.78320 1229.89941 295.99927 438
265.82205 12.02382 203.50459 314
391.71570 46.83195 171.67792 312
404.03967 50.23285 171.79492 308
449.45865 62.79330 164.96812 303
454.78925 64.28047 167.88579 297
4776.82324 1261.21582 295.85651 415
265.71194 12.28998 203.49840 314
391.39117 47.91093 171.70166 312
403.66873 51.36061 171.82585 308
448.88528 64.19930 164.94666 428
454.38101 65.75807 167.86708 297
265.59653 12.56089 203.50316 314
391.10159 48.90785 171.69608 312
403.33536 52.45696 171.82722 308
447.19446 65.23335 165.22816 429
453.98465 67.18497 167.87936 297
265.48129 12.83413 203.50235 314
390.72986 49.98570 171.67392 312
402.93622 53.61159 171.78854 308
445.55417 66.18089 165.52176 430
453.58398 68.60342 167.88202 297
265.35791 13.08985 203.50655 314
390.39859 51.02020 171.70139 312
402.57980 54.67974 171.80806 308
