# .PCD v.7 - Point Cloud Data file format
VERSION .7
FIELDS x y z rgb
SIZE 4 4 4 4
TYPE F F F U
COUNT 1 1 1 1
WIDTH 1367
HEIGHT 1
VIEWPOINT 4296.120605 -4099.987305 134.578079 0.003505 -0.114123 -0.002610 0.993457
POINTS 1367
DATA ascii
41.33130 -92.51974 179.89862 296
23.80457 -101.45551 180.02583 292
2.71303 -112.20414 180.24306 288
72.54125 -77.68178 171.85472 316
62.50714 -82.88169 171.90218 312
57.66316 -85.40568 173.70709 327
52.59447 -88.04125 175.66296 325
47.39033 -90.72656 177.67906 324
41.85878 -93.61264 179.89578 296
24.42051 -102.62561 180.00426 292
3.37064 -113.56530 180.20396 288
73.00589 -78.62316 171.81076 316
63.00675 -83.86985 171.90004 312
55.56848 -87.80508 173.05128 325
50.37159 -90.52203 174.94470 323
44.97709 -93.35280 177.06102 322
39.39632 -96.27809 179.25729 320
25.06223 -103.87219 180.05309 292
4.06091 -114.94258 180.20975 288
73.49034 -79.51510 171.82268 316
63.54400 -84.83795 171.89023 312
53.39211 -90.24249 172.33961 324
48.07508 -93.07429 174.29555 322
42.53374 -96.04393 176.36598 321
36.78188 -99.12238 178.60428 319
25.68525 -105.04224 179.99524 292
73.94452 -80.43990 171.81613 316
64.05703 -85.80872 171.89323 312
52.76848 -91.88924 171.99788 308
45.68405 -95.76402 173.55222 321
39.97747 -98.84598 175.65372 320
32.99994 -102.62528 177.70003 271
15.12266 -112.30424 177.91846 271
74.46413 -81.31911 171.81436 316
64.53204 -86.74532 171.88133 312
53.33801 -92.96790 172.01894 308
43.21744 -98.51468 172.76183 320
37.38134 -101.74890 174.88774 319
-162.31149 -89.23705 -33.74833 270
-53.87087 -151.88377 164.78741 373
74.95234 -82.21135 171.80032 316
65.08158 -87.74516 171.87613 312
53.90417 -93.98553 172.00165 308
41.04012 -101.15487 172.12045 304
29.97513 -107.33219 173.07831 271
8.82057 -119.08786 172.35411 296
-50.76807 -152.34956 165.21262 287
75.40936 -83.11639 171.80688 316
65.61462 -88.66998 171.87711 312
54.44598 -95.01122 172.00360 308
41.64756 -102.23471 172.12082 304
26.89373 -110.64265 172.23979 300
9.53752 -120.43343 172.38832 296
-49.87036 -154.04239 165.17828 288
75.93111 -83.99936 171.81725 316
66.14156 -89.64664 171.87463 312
55.02029 -96.02046 171.97255 308
42.28329 -103.35152 172.07082 304
27.55727 -111.78138 172.24252 300
10.27807 -121.73128 172.38957 296
-49.03981 -155.75867 165.16769 288
76.42561 -84.89650 171.80890 316
66.65211 -90.58672 171.85944 312
55.58942 -97.03959 171.96593 308
42.88167 -104.42294 172.09468 304
28.21109 -112.98375 172.18936 300
11.01383 -123.04973 172.38582 296
-48.12859 -157.47853 165.12909 288
76.92958 -85.82536 171.78052 316
67.20567 -91.56664 171.89438 312
56.16345 -98.05054 171.98761 308
43.50908 -105.55013 172.08475 304
28.87189 -114.20971 172.19348 300
11.69469 -124.30571 172.38403 296
-47.14901 -159.07851 165.10596 286
77.44895 -86.69421 171.77036 316
-69.47024 -41.59180 -20.30384 312
56.74580 -99.10539 171.96703 308
44.17454 -106.63394 172.05397 304
29.54528 -115.38223 172.18115 300
-30.95082 -151.62766 163.12276 371
-46.18587 -160.71390 165.13483 286
77.98721 -87.58098 171.80565 316
68.33603 -93.45459 171.89101 312
57.37566 -100.07850 171.98404 308
44.81984 -107.73923 172.07710 304
30.26122 -116.57250 172.20003 300
-27.38689 -151.55205 163.72745 372
78.49138 -88.47119 171.79141 316
68.89878 -94.36366 171.85564 312
57.96669 -101.12099 171.95132 308
45.46430 -108.79870 172.05806 304
30.96841 -117.74023 172.19847 300
-23.84519 -151.42662 164.25470 373
79.02853 -89.32638 171.76082 316
69.43987 -95.33245 171.87537 312
58.55742 -102.12517 171.97833 308
46.09470 -109.89283 172.07007 304
31.67300 -118.88461 172.21048 300
-20.35241 -151.38133 164.75192 375
79.59795 -90.19573 171.79517 316
70.00536 -96.27631 171.84856 312
59.18250 -103.10091 171.94388 308
46.77869 -110.98017 172.04576 304
32.34706 -120.05502 172.18582 300
-16.98834 -151.33144 165.35866 376
80.12761 -91.07069 171.78699 316
70.61584 -97.18381 171.84341 312
59.81967 -104.08916 171.94513 308
47.42473 -112.04870 172.03610 304
33.09409 -121.27127 172.19324 300
-14.53669 -151.82799 165.61176 291
80.65131 -91.92363 171.78242 316
71.19293 -98.08591 171.85136 312
60.41253 -105.11486 171.92558 308
48.06898 -113.15895 172.03052 304
33.83557 -122.43797 172.18677 300
-13.59853 -153.25061 165.62973 291
81.23498 -92.82004 171.74431 316
71.78999 -99.03735 171.83223 312
61.05874 -106.08823 171.95476 308
48.78632 -114.19850 172.05826 304
34.52716 -123.55365 172.16035 300
-12.55272 -154.59889 165.62415 291
81.78417 -93.66199 171.74924 316
72.37379 -99.97707 171.84979 312
61.66401 -107.09359 171.93971 308
49.46877 -115.27316 172.01038 304
-3.60809 -150.71021 162.82349 285
-11.58318 -156.05737 165.67751 290
82.33029 -94.51468 171.74789 316
72.95615 -100.85799 171.85631 312
62.35920 -108.05032 171.94179 308
50.12710 -116.34962 172.01746 304
-1.01336 -150.92445 163.24963 382
-10.61889 -157.41403 165.67630 290
82.94083 -95.40582 171.74007 316
73.56485 -101.77281 171.84543 312
62.96291 -109.05038 171.94402 308
50.86346 -117.39935 172.02138 304
2.03183 -150.86374 163.73868 383
-9.68308 -158.84976 165.64386 290
83.47893 -96.21800 171.72079 316
74.18040 -102.71055 171.84918 312
63.62889 -110.05733 171.93071 308
51.54287 -118.41606 172.00565 304
4.99870 -150.75500 164.25175 385
84.05440 -97.07958 171.72760 316
74.82589 -103.58928 171.82927 312
64.31924 -111.02804 171.92480 308
52.23196 -119.50692 171.99695 304
7.88389 -150.69992 164.74289 386
84.64899 -97.94777 171.74979 316
75.41114 -104.48887 171.80692 312
64.95605 -111.97591 171.91870 308
52.97645 -120.55373 171.99409 304
10.74232 -150.64610 165.20554 387
85.25070 -98.79659 171.71407 316
76.03818 -105.40192 171.82095 312
65.62535 -112.91517 171.91161 308
53.67864 -121.54365 171.99205 304
13.53265 -150.54510 165.66031 388
85.83674 -99.60683 171.71243 316
76.67615 -106.29169 171.79440 312
66.29517 -113.91125 171.89548 308
54.43966 -122.60184 171.98058 304
16.12607 -150.62918 166.02759 295
86.42525 -100.43375 171.70116 316
77.33102 -107.18678 171.79811 312
67.00774 -114.85141 171.91058 308
55.15979 -123.63824 172.01283 304
17.05370 -151.87016 166.07664 295
87.02713 -101.29550 171.72662 316
78.00114 -108.06709 171.81990 312
67.66841 -115.78939 171.87418 308
23.39630 -149.01932 163.17999 296
18.05284 -153.11345 166.04483 295
87.65419 -102.11395 171.70674 316
78.63731 -108.96416 171.80055 312
68.39149 -116.73505 171.86459 308
24.28485 -150.24814 163.18349 390
19.04504 -154.30478 166.08675 295
88.29082 -102.93747 171.72899 316
79.28935 -109.83931 171.80348 312
69.09084 -117.73189 171.87045 308
26.92917 -150.14099 163.67555 391
20.02827 -155.50014 166.06331 295
88.87811 -103.74268 171.72086 316
79.92545 -110.71523 171.80199 312
69.78401 -118.63778 171.87613 308
29.46143 -150.10114 164.07722 392
21.01736 -156.68684 166.12912 297
89.51308 -104.56049 171.70528 316
80.58431 -111.62717 171.79498 312
70.52209 -119.56287 171.84682 308
32.02126 -149.98868 164.55472 394
21.96558 -157.93848 166.12398 297
90.12154 -105.37017 171.69589 316
81.30421 -112.47144 171.77779 312
71.22086 -120.52763 171.83807 308
34.48162 -149.90683 164.95973 395
22.95397 -159.16879 166.09853 297
90.75739 -106.21355 171.69086 316
81.93336 -113.31413 171.77563 312
71.93780 -121.45416 171.84256 308
36.91983 -149.75864 165.42664 396
91.40653 -107.00646 171.70009 316
82.61028 -114.19156 171.77988 312
72.66879 -122.39838 171.86623 308
39.34398 -149.72249 165.78125 397
92.06939 -107.77830 171.68416 316
83.32857 -115.05216 171.76077 312
45.49754 -146.46509 163.35078 300
41.71678 -149.66463 166.20648 302
92.72265 -108.60910 171.69081 316
83.99783 -115.89371 171.74802 312
46.26165 -147.67535 163.29269 300
42.61732 -150.68849 166.18900 302
93.36745 -109.39919 171.66264 316
84.68804 -116.73747 171.73557 312
47.06514 -148.81105 163.25639 300
43.55907 -151.79388 166.24712 302
94.00136 -110.18911 171.65044 316
85.40887 -117.62184 171.73721 312
48.56363 -149.37576 163.44720 401
44.49976 -152.84247 166.23077 301
94.68251 -110.97116 171.64932 316
86.13349 -118.44628 171.70567 312
50.82984 -149.23604 163.85823 403
45.45473 -153.92612 166.25044 301
95.35124 -111.75793 171.66331 316
86.82632 -119.30181 171.69710 312
52.98425 -149.17897 164.25824 404
46.41456 -155.04463 166.24368 301
96.00907 -112.52208 171.65530 316
87.55817 -120.13928 171.71764 312
55.13301 -149.08435 164.66592 405
47.35817 -156.05846 166.23151 301
96.72018 -113.33286 171.64514 316
88.28503 -120.92827 171.69719 312
57.28541 -149.05321 165.06947 406
48.31935 -157.11012 166.21092 301
97.38931 -114.09927 171.61481 316
64.97200 -143.80917 163.52301 304
59.35012 -148.97638 165.43600 407
49.27825 -158.21649 166.21263 301
98.07489 -114.87363 171.60365 316
65.70284 -144.86296 163.49547 304
61.44929 -148.84401 165.80080 408
-36555.53516 -34152.01953 10181.84766 1000
98.76288 -115.60871 171.63078 316
66.54843 -145.90039 163.45721 304
63.48276 -148.77052 166.13683 409
99.46491 -116.39191 171.61140 316
67.33675 -146.98814 163.43802 304
64.90368 -149.26186 166.29610 306
100.17616 -117.15124 171.61539 316
68.12547 -148.01573 163.38622 304
65.87643 -150.19579 166.29271 306
100.85222 -117.89638 171.61050 316
69.39133 -148.56000 163.47803 412
66.77071 -151.09238 166.34834 306
101.56685 -118.61298 171.62251 316
71.33308 -148.50861 163.88727 413
67.74979 -152.01358 166.31477 306
102.29183 -119.37223 171.61037 316
73.21337 -148.41144 164.20738 414
68.71474 -152.94571 166.36334 306
103.00262 -120.14111 171.57234 316
75.10489 -148.32976 164.58257 415
69.64991 -153.87177 166.35329 306
83.04623 -142.00861 163.66750 307
76.96529 -148.30931 164.90350 416
70.57986 -154.76736 166.36896 305
83.86322 -142.92763 163.61928 307
78.79320 -148.21242 165.21033 418
71.53999 -155.72765 166.32149 305
84.66852 -143.86046 163.58272 307
80.55502 -148.12160 165.53654 419
72.53236 -156.59357 166.34515 305
85.48700 -144.79718 163.55814 307
82.37064 -148.09192 165.84308 420
86.27517 -145.71040 163.51942 307
84.10416 -148.02200 166.20149 421
87.12051 -146.60437 163.45999 307
85.63303 -148.20781 166.39429 310
87.90133 -147.51399 163.47227 307
86.55509 -148.96577 166.40579 310
89.24361 -147.82918 163.64276 423
87.51033 -149.82584 166.41522 310
90.92525 -147.75284 163.93962 424
88.43425 -150.61678 166.39757 310
92.59718 -147.68839 164.26582 425
89.36612 -151.37099 166.43642 310
94.23399 -147.63602 164.52267 426
90.32796 -152.20299 166.45264 310
-14945.05469 -17572.90234 -171.66649 1000
95.85183 -147.54712 164.87126 427
91.27466 -152.98286 166.44691 310
97.53921 -147.42924 165.17007 418
92.23838 -153.73750 166.45261 310
99.16505 -147.30431 165.49695 419
93.16688 -154.53418 166.42224 310
100.81953 -147.12767 165.79965 420
94.15257 -155.31430 166.44986 310
102.44419 -146.98331 166.08562 421
95.07819 -156.03105 166.46933 310
104.09487 -146.81664 166.39719 422
105.10634 -147.37537 166.47821 314
106.00338 -148.03351 166.43298 314
106.94012 -148.73442 166.45630 314
107.86403 -149.44739 166.44279 314
108.79208 -150.11763 166.48236 314
109.68456 -150.79787 166.48087 314
110.62836 -151.49574 166.47049 314
111.56773 -152.15715 166.44521 314
114.68821 -149.77667 167.48949 316
115.55598 -150.46892 167.45770 316
116.51245 -151.12926 167.46570 316
120.39937 -149.36536 168.44383 489
124.52621 -149.06407 169.10870 489
126.34881 -148.28491 169.53342 440
127.45002 -148.54642 169.67426 485
-16802.15234 -44924.80469 -2160.56616 1000
-9258.12207 -25979.10938 7133.19141 1000
-4737.31738 -17086.69141 -3328.46411 1000
-252.08009 -1940.36182 85.02125 435
-253.19716 -1944.52673 117.56513 372
-238.99780 -1937.54895 85.50797 498
-239.91179 -1940.82092 118.24812 498
-240.66887 -1944.22498 150.64413 494
-241.36235 -1948.28735 183.03555 431
-227.74933 -1943.74536 85.16393 466
-229.40517 -1949.65869 117.97019 416
-4192.03662 -65173.73047 4480.50977 1000
239.32845 -1464.85352 96.27182 347
248.32359 -1456.55261 96.87236 464
248.15657 -1461.04028 120.72159 462
248.31343 -1465.39722 144.29846 461
248.48247 -1470.56897 168.29811 413
256.92813 -1455.17029 96.87393 497
257.26096 -1459.10071 120.50072 497
257.43784 -1462.85071 144.25011 497
257.33789 -1467.01135 168.35568 496
257.50558 -1472.36621 192.14182 402
266.28336 -1457.49365 96.90169 478
266.44022 -1462.53162 120.55862 435
266.42834 -1468.94263 144.10760 375
2043.13550 -49588.26562 10075.24707 1000
8544.51172 -27441.56445 -6472.77734 1000
20843.27539 -54458.71094 14798.25781 1000
733.39655 -943.17084 110.86143 345
734.99744 -932.98419 111.83885 461
735.72253 -934.16711 129.27394 411
737.34204 -936.85132 146.62740 346
739.41791 -927.26514 112.16998 491
739.54529 -927.20862 129.52219 491
739.71613 -927.67047 146.95656 461
740.26208 -928.95007 164.33754 473
741.21851 -930.78253 181.85048 347
744.78003 -923.64337 112.25248 497
744.75104 -923.52374 129.76241 498
744.69556 -923.45276 147.13565 498
744.91528 -923.63800 164.37636 498
744.73932 -923.16656 181.86877 491
744.78845 -923.51520 199.18102 471
751.52136 -922.21320 112.01863 479
751.40442 -921.86377 129.41318 480
751.35791 -921.61041 147.13133 480
751.43524 -921.66394 164.30499 476
751.86108 -922.80847 181.85634 404
750.87958 -920.97327 199.19070 441
759.06567 -925.34833 109.99658 382
759.40790 -925.93439 127.74422 382
760.66077 -928.25061 144.94070 312
8128.17578 -9766.12598 -619.67511 1000
37210.70703 -45686.62891 2081.63916 1000
40685.70312 -45243.64844 1151.71448 1000
25042.22070 -21973.62695 7347.24463 1000
367.92490 -108.68094 167.58731 313
368.58557 -107.76852 167.60332 313
369.22791 -106.84544 167.62927 313
369.84299 -105.89355 167.63113 315
370.48438 -104.99541 167.63013 315
371.07532 -104.05374 167.64679 315
371.70819 -103.11652 167.61945 315
372.30856 -102.17170 167.64546 315
372.91910 -101.24480 167.67180 315
373.54971 -100.30448 167.62891 315
374.16373 -99.36628 167.66769 315
374.75861 -98.40005 167.66695 315
375.33066 -97.47954 167.66750 315
376.51450 -96.90524 167.49838 437
377.88068 -96.42392 167.25990 436
379.27625 -95.92963 166.96143 435
387.90726 -101.10881 167.64859 309
380.63922 -95.41621 166.70667 434
388.48544 -100.04816 167.67584 309
382.10538 -94.95434 166.48364 433
389.03351 -99.02720 167.68533 309
383.49500 -94.46394 166.21796 432
389.64529 -97.99355 167.69250 309
384.94952 -93.96841 165.94142 431
390.20053 -96.93208 167.71698 309
386.45837 -93.45100 165.63588 430
390.72723 -95.84612 167.70006 309
387.88745 -92.95334 165.38583 429
391.31546 -94.78275 167.72943 309
389.38449 -92.41703 165.09128 428
391.87903 -93.76472 167.72237 311
390.90692 -91.87995 164.77200 427
392.41501 -92.66650 167.71904 311
391.62073 -90.87798 164.76089 317
392.93710 -91.63561 167.76727 311
392.17917 -89.84707 164.76018 317
394.00568 -90.81954 167.58513 426
392.70996 -88.79793 164.76216 317
395.58273 -90.27644 167.30717 424
393.25653 -87.78525 164.74019 317
397.19296 -89.74918 167.00418 423
393.83121 -86.69736 164.75597 317
398.79733 -89.18777 166.71846 422
408.08603 -93.79349 167.76288 305
394.38159 -85.63943 164.75464 317
400.38547 -88.60352 166.44102 421
408.60489 -92.59769 167.72018 305
394.91428 -84.59360 164.74628 317
402.05490 -88.01626 166.12724 420
409.16006 -91.45076 167.73755 305
395.43008 -83.55637 164.74141 317
403.73871 -87.49144 165.80934 419
409.63980 -90.28512 167.78642 305
395.95618 -82.48896 164.71275 317
405.40060 -86.86333 165.49512 418
410.12717 -89.09031 167.76888 305
396.47958 -81.43577 164.71992 317
407.07199 -86.28646 165.17058 437
410.65472 -87.95310 167.79712 305
396.93613 -80.34451 164.74162 317
408.51617 -85.58494 164.92215 436
411.18472 -86.75146 167.78026 305
397.44821 -79.26810 164.69533 317
409.27133 -84.53374 164.82028 312
411.62872 -85.57966 167.80081 305
374.57639 -67.97844 171.57368 316
409.80728 -83.36103 164.85008 312
412.10791 -84.37217 167.81174 305
374.96521 -67.05890 171.55612 316
410.34192 -82.19508 164.80376 312
413.07422 -83.37312 167.72127 434
375.38318 -66.06703 171.53722 317
410.87387 -81.06737 164.81956 312
414.57910 -82.63280 167.47935 433
28614.67383 -11981.40723 4258.44385 1000
375.75854 -65.13901 171.56012 317
411.35529 -79.87413 164.79909 312
416.14963 -81.84544 167.19583 432
376.13916 -64.17429 171.58060 317
411.86835 -78.70409 164.82840 312
417.69855 -81.09415 166.90573 431
376.52606 -63.20380 171.56625 317
412.34076 -77.55648 164.79567 312
419.25089 -80.32881 166.63164 430
376.89603 -62.25710 171.58217 317
412.79227 -76.36544 164.83850 312
420.90289 -79.53140 166.37785 429
430.56024 -83.35909 167.81596 301
377.24496 -61.28549 171.56725 317
413.31030 -75.22470 164.79260 312
422.48328 -78.75139 166.05017 428
431.04715 -82.04937 167.81474 301
377.59921 -60.30372 171.57713 317
413.76328 -74.01570 164.80188 312
424.12476 -77.97486 165.78773 427
431.50705 -80.76399 167.79272 301
377.95862 -59.34267 171.59442 317
414.22046 -72.82900 164.80421 312
425.78421 -77.12819 165.49182 426
431.96149 -79.41735 167.82127 301
378.27258 -58.38343 171.57213 317
414.66806 -71.68213 164.77286 312
427.49170 -76.36723 165.19815 425
432.34970 -78.11652 167.82977 301
378.64798 -57.43966 171.61348 317
389.20679 -61.19653 171.69312 313
429.11121 -75.50959 164.87285 308
432.81735 -76.82912 167.82066 301
378.98135 -56.44233 171.60434 317
389.56549 -60.18549 171.71692 313
429.61292 -74.21648 164.87520 308
433.19138 -75.53107 167.83781 301
379.30560 -55.47116 171.60660 317
389.94736 -59.12340 171.71489 313
430.05408 -72.96285 164.90808 308
433.61078 -74.20408 167.84808 301
379.62863 -54.51757 171.60880 317
390.28870 -58.09951 171.68552 313
430.51520 -71.69141 164.86076 308
434.39801 -72.99138 167.78874 421
379.93890 -53.51242 171.62054 317
390.62531 -57.03690 171.68222 313
430.93414 -70.36308 164.87846 308
436.16547 -72.08566 167.48964 420
43786.16797 -14413.30664 6238.57715 1000
380.26758 -52.55660 171.58794 317
390.93103 -56.00375 171.73146 313
431.38940 -69.13115 164.85313 308
438.00092 -71.20630 167.16296 419
380.55899 -51.55484 171.59081 317
391.28854 -54.94456 171.69350 313
431.84067 -67.81091 164.88730 308
439.74280 -70.31083 166.85202 433
380.84171 -50.56628 171.59755 317
391.56668 -53.91467 171.73404 313
432.24048 -66.49405 164.86783 308
441.31909 -69.31341 166.61584 432
381.16122 -49.56569 171.62523 317
391.91342 -52.86592 171.70406 313
432.59915 -65.21812 164.86372 308
443.00021 -68.34301 166.34998 431
381.45004 -48.60040 171.62105 317
392.23373 -51.78047 171.71199 313
433.00943 -63.93111 164.90358 308
444.66977 -67.34808 166.03479 430
455.08136 -70.46210 167.85582 297
381.73615 -47.59557 171.62276 317
392.49313 -50.72509 171.69861 313
404.77832 -54.29848 171.82233 309
446.35373 -66.34285 165.78532 429
455.44708 -69.00632 167.86484 297
382.01221 -46.59553 171.61275 317
392.82547 -49.67541 171.73328 313
405.05731 -53.17262 171.83998 309
447.99460 -65.35606 165.48236 428
455.80661 -67.56424 167.90132 297
382.25992 -45.61316 171.61232 317
393.11673 -48.63234 171.71179 313
109.21067 -30.24182 -26.46612 309
449.75433 -64.28536 165.19456 427
456.13882 -66.10669 167.89651 297
382.54187 -44.64577 171.63998 317
393.37152 -47.57422 171.74599 313
405.68445 -50.86402 171.86409 309
451.03015 -63.17983 164.99548 304
456.44955 -64.62225 167.94966 297
382.79269 -43.60793 171.64012 317
393.65158 -46.47844 171.71625 313
405.99268 -49.73560 171.85277 309
451.45938 -61.74199 164.96187 304
456.81415 -63.13919 167.94038 298
268.01971 -13.06320 203.49619 289
393.92853 -45.41808 171.71954 313
406.27063 -48.60588 171.88351 309
451.83414 -60.30331 164.97189 304
457.13635 -61.71429 167.92441 298
268.06168 -12.75869 203.50774 314
394.16229 -44.36461 171.73418 313
406.55981 -47.44620 171.86237 309
452.16028 -58.90420 164.98952 304
457.39407 -60.22331 167.95580 298
3654.99805 -862.44714 215.00043 499
3660.25952 -863.11688 273.69724 480
268.12430 -12.46102 203.49728 314
394.43311 -43.32810 171.73442 313
406.83194 -46.32761 171.85336 309
452.54303 -57.51259 164.96239 304
458.63281 -59.00920 167.77525 422
268.19702 -12.17515 203.50090 314
394.66547 -42.24500 171.73712 313
407.08389 -45.20381 171.84796 309
452.84528 -56.08170 164.98328 304
460.45187 -57.90518 167.46680 421
268.26636 -11.88047 203.50195 314
394.92227 -41.14038 171.76096 313
407.33752 -44.05506 171.85976 309
453.17847 -54.62691 164.95978 304
462.33524 -56.78563 167.19513 453
15108.38281 -3443.94458 -1293.42358 1000
268.32782 -11.59288 203.50377 314
395.18185 -40.10363 171.73001 313
407.60892 -42.89141 171.85507 309
453.53867 -53.21616 164.99722 304
463.70139 -55.46163 166.98636 452
268.38541 -11.29463 203.50632 314
395.39755 -39.01245 171.74313 313
407.84076 -41.72774 171.88483 309
453.83633 -51.78094 165.00740 304
464.99423 -54.26194 166.78224 451
268.45633 -11.00595 203.50429 314
395.60617 -37.92770 171.77493 313
408.09787 -40.60025 171.88100 309
422.32111 -43.58974 172.03906 305
466.37439 -52.91779 166.53139 450
268.51642 -10.70582 203.49901 314
395.83554 -36.88806 171.77016 313
408.29141 -39.45238 171.86163 309
422.60757 -42.38133 172.00494 305
467.80234 -51.67057 166.34285 450
268.56674 -10.41586 203.50604 314
396.06085 -35.80669 171.74538 313
408.54877 -38.26905 171.90149 309
422.82510 -41.13564 172.00644 305
469.20523 -50.39005 166.08624 449
268.61755 -10.12862 203.50038 314
396.25485 -34.73183 171.77486 313
408.77850 -37.14613 171.90031 309
423.09381 -39.91225 171.99699 305
470.59787 -49.01181 165.90031 448
268.67459 -9.83375 203.50653 314
396.44153 -33.62007 171.76340 313
408.95023 -35.97438 171.90216 309
423.29468 -38.65100 172.00772 305
471.99225 -47.74600 165.69571 447
482.68784 -49.73706 168.04173 293
268.72961 -9.52726 203.50304 314
396.64047 -32.57721 171.77174 313
409.18027 -34.79421 171.86885 309
423.54498 -37.38259 172.04434 305
473.45944 -46.35667 165.42003 446
482.94897 -48.08794 167.99605 293
268.78494 -9.24082 203.50432 314
396.82361 -31.45466 171.76974 313
409.35492 -33.65396 171.89520 309
423.75049 -36.13418 171.99971 305
474.89227 -45.03729 165.19934 445
483.12384 -46.48190 168.08026 293
268.82742 -8.94774 203.50031 314
396.99191 -30.38470 171.74271 313
409.58359 -32.48442 171.86163 309
423.94879 -34.89939 172.03949 305
475.59058 -43.54625 165.09863 300
483.36539 -44.82013 168.08664 293
268.87781 -8.64049 203.50795 314
397.16699 -29.31187 171.76024 313
409.73297 -31.35193 171.89859 309
424.12918 -33.64158 172.02194 305
475.84122 -41.96257 165.11490 300
483.51965 -43.19971 168.07423 293
268.91608 -8.34875 203.50060 314
397.33545 -28.23699 171.75923 313
409.91486 -30.15950 171.86447 309
424.31085 -32.38564 172.00746 305
476.07178 -40.45177 165.07489 300
483.70566 -41.61538 168.11311 293
268.96713 -8.04836 203.50093 314
397.51285 -27.12740 171.77838 313
410.08990 -29.03798 171.87114 309
424.50735 -31.18277 172.01730 305
476.33304 -38.86278 165.14076 300
483.90820 -39.98971 168.10056 293
269.00458 -7.75611 203.50478 314
397.64673 -26.04803 171.78091 313
410.28293 -27.87212 171.89832 309
424.72189 -29.90351 172.00490 305
476.56433 -37.25599 165.08435 300
484.03976 -38.38173 168.15152 294
269.04037 -7.46485 203.50281 314
397.82306 -24.94752 171.76845 313
410.41461 -26.70373 171.90367 309
424.85611 -28.64936 172.01082 305
441.52243 -30.93166 172.20227 301
484.18143 -36.74939 168.13385 294
269.07498 -7.15912 203.50723 314
397.94830 -23.88762 171.78227 313
410.57822 -25.51308 171.89514 309
425.02682 -27.37401 172.02663 305
441.70950 -29.56816 172.22360 301
484.75171 -35.15931 168.08958 459
269.11987 -6.86222 203.50333 314
398.08597 -22.79804 171.78143 313
410.72107 -24.34228 171.89893 309
425.18546 -26.12850 172.03326 305
441.89105 -28.18161 172.16927 301
485.91895 -33.61068 167.89978 458
269.15402 -6.56998 203.50531 314
398.20300 -21.70348 171.78470 313
410.86694 -23.17332 171.90388 309
425.33643 -24.89176 172.02902 305
442.04575 -26.84470 172.22299 301
487.15988 -32.10696 167.71967 457
269.17886 -6.27471 203.49765 314
398.35590 -20.61560 171.78110 313
410.99188 -22.03254 171.88963 309
425.47964 -23.59799 172.01459 305
442.19583 -25.50694 172.17783 301
488.36746 -30.59282 167.51207 457
269.21509 -5.97249 203.49794 314
398.43192 -19.51556 171.77942 313
411.09918 -20.83652 171.88536 309
425.59644 -22.35119 172.01297 305
442.36172 -24.15233 172.18245 301
489.60742 -29.08343 167.32430 456
269.24832 -5.67113 203.50554 314
398.57516 -18.41097 171.77763 313
411.21426 -19.70475 171.89880 309
425.70892 -21.13391 172.06015 305
442.50668 -22.75049 172.20665 301
490.91339 -27.51977 167.12247 455
269.27179 -5.37009 203.50639 314
398.69064 -17.31329 171.79608 313
411.32709 -18.48480 171.89160 309
425.84314 -19.82511 172.06302 305
442.63919 -21.38167 172.17366 301
492.20041 -25.96286 166.93542 454
269.29797 -5.07376 203.50916 314
398.76593 -16.24174 171.77740 313
411.44641 -17.34398 171.89755 309
425.93921 -18.60901 172.04849 305
442.75830 -20.05576 172.23402 301
493.44992 -24.39980 166.67834 453
269.31766 -4.77242 203.50392 314
398.87457 -15.14414 171.77499 313
411.55481 -16.18372 171.89731 309
426.05124 -17.32696 172.06924 305
442.85568 -18.66911 172.19470 301
494.74469 -22.85116 166.48930 452
269.33450 -4.47571 203.50458 314
398.91574 -14.05690 171.77486 313
411.61676 -14.99261 171.91359 309
426.13431 -16.05092 172.06750 305
442.95026 -17.30418 172.19827 301
496.02670 -21.21750 166.25151 451
269.35883 -4.17459 203.49948 314
399.02005 -12.98437 171.75912 313
411.72470 -13.80082 171.90289 309
426.26981 -14.80005 172.04402 305
443.03967 -15.97032 172.23082 301
496.99811 -19.58110 166.13959 483
269.37601 -3.88227 203.49779 314
399.06042 -11.85045 171.77046 313
411.79269 -12.66440 171.92361 309
426.32965 -13.55452 172.02654 305
443.10675 -14.61127 172.23648 301
462.80161 -15.83030 172.41084 297
269.38766 -3.58348 203.50206 314
399.16263 -10.77063 171.76871 313
411.84720 -11.49221 171.91042 309
426.42621 -12.28575 172.05518 305
443.22787 -13.23805 172.19566 301
462.85468 -14.30359 172.41740 297
269.40921 -3.27655 203.49823 314
399.20969 -9.66029 171.79753 313
411.92511 -10.31179 171.91519 309
426.45737 -11.00320 172.06624 305
443.29422 -11.82299 172.19444 301
462.98199 -12.84277 172.39436 297
269.41296 -2.97652 203.50453 314
399.23383 -8.57103 171.75484 313
411.97662 -9.12094 171.88597 309
426.54916 -9.75836 172.02295 305
443.34390 -10.45406 172.23120 301
463.03537 -11.33734 172.41298 297
269.42673 -2.68063 203.50894 314
399.30576 -7.46591 171.78018 313
412.00281 -7.96565 171.87845 309
426.56894 -8.47613 172.02621 305
443.38187 -9.13283 172.18788 301
463.06827 -9.82138 172.43031 297
67966.89844 -2510.61694 -5353.28955 1000
269.43399 -2.37839 203.50056 314
399.35577 -6.38533 171.80406 313
412.04996 -6.76048 171.87840 309
426.62573 -7.23948 172.03397 305
443.45718 -7.74689 172.18961 301
463.14688 -8.32655 172.36932 297
269.44168 -2.08296 203.50072 314
272.91690 -2.17350 203.48878 281
412.09079 -5.58010 171.90440 309
426.66504 -5.93752 172.05244 305
443.49908 -6.35700 172.23526 301
463.16846 -6.83971 172.42674 297
269.43869 -1.78184 203.50594 314
272.87503 -1.85259 203.49504 281
412.12189 -4.40177 171.88770 309
426.67819 -4.71474 172.01411 305
443.51260 -5.01398 172.23163 301
463.20972 -5.37785 172.40907 297
269.44629 -1.48009 203.49744 314
272.84119 -1.53009 203.50334 310
412.14682 -3.23192 171.90005 309
426.72998 -3.43751 172.03572 305
443.58185 -3.62189 172.18095 301
463.27863 -3.87114 172.39598 297
269.44241 -1.18186 203.50270 314
272.83841 -1.21018 203.50496 310
412.16260 -2.06403 171.92361 309
426.72806 -2.14714 172.04704 305
443.55313 -2.28653 172.19156 301
451.59311 -2.34784 174.48705 425
512.82574 -2.71702 168.30812 288
269.45114 -0.88658 203.50681 314
272.83881 -0.88095 203.50571 310
412.18304 -0.91161 171.90747 309
426.73846 -0.88180 172.05528 305
443.54840 -0.93795 172.18970 301
463.27475 -0.91345 172.41667 297
512.77869 -0.92875 168.31108 288
269.44299 -0.58947 203.49974 314
272.83908 -0.56741 203.50116 310
412.18323 0.24726 171.91682 309
426.70734 0.37184 172.05867 305
443.56586 0.48419 172.21983 301
463.29593 0.59077 172.36990 297
512.82825 0.84422 168.28555 288
269.43594 -0.28510 203.50029 314
272.83191 -0.24434 203.50201 310
412.14133 1.47719 171.92361 309
426.73416 1.62987 172.06984 305
443.55240 1.79929 172.20056 301
451.77576 1.94594 174.46956 422
512.88855 2.63769 168.32376 288
269.43005 0.01012 203.50832 314
272.83456 0.07185 203.50276 310
412.12122 2.60215 171.92009 309
426.70517 2.90312 172.04134 305
443.58008 3.18121 172.17900 301
463.28088 3.58331 172.36729 297
269.42325 0.31991 203.50290 314
272.81815 0.40401 203.49837 310
412.12277 3.78977 171.89389 309
426.66382 4.18086 172.01707 305
443.52887 4.55873 172.18312 301
463.19595 5.05088 172.36320 297
269.41550 0.62021 203.50180 314
272.80383 0.72073 203.50008 310
412.06833 4.95451 171.90118 309
426.66214 5.42243 172.01714 305
443.46735 5.95390 172.21872 301
463.19138 6.50696 172.42595 297
269.40482 0.91653 203.50299 314
272.79163 1.04460 203.50981 310
412.05524 6.16577 171.89458 309
426.61053 6.69221 172.06902 305
443.47070 7.29324 172.18309 301
463.13116 8.03474 172.41544 297
269.39120 1.21156 203.50734 314
272.77771 1.35352 203.50484 310
412.02216 7.32751 171.89897 309
426.54880 7.92716 172.06737 305
443.37454 8.66747 172.17189 301
463.10956 9.49272 172.40184 297
269.37460 1.51540 203.50414 314
272.75946 1.67719 203.50470 310
411.94589 8.50075 171.88878 309
426.51062 9.20900 172.01282 305
443.35361 10.04832 172.19095 301
463.02417 10.99484 172.39461 297
269.34991 1.81426 203.49939 314
272.74969 2.00625 203.50916 310
411.89560 9.67493 171.90375 309
426.45560 10.45459 172.04324 305
443.26581 11.38132 172.17662 301
462.96890 12.50710 172.39467 297
269.33136 2.10961 203.49773 314
272.72104 2.32396 203.50822 310
411.81290 10.87594 171.87325 309
426.40002 11.76309 172.03938 305
443.19388 12.77507 172.18286 301
462.89752 13.98218 172.36012 297
269.31680 2.41791 203.50867 314
272.73245 2.64042 203.49844 281
411.77875 12.03194 171.89748 309
426.29996 13.02279 172.05574 305
443.13681 14.14382 172.22258 301
462.83521 15.45276 172.36554 297
269.29395 2.71555 203.50592 314
272.73117 2.96808 203.48846 281
411.70386 13.18994 171.88951 309
426.24323 14.29578 172.05765 305
443.02109 15.49977 172.21182 301
496.79971 19.48080 166.20161 483
269.26544 3.01075 203.50710 314
272.71771 3.28664 203.48160 281
411.61432 14.36388 171.87589 309
426.13400 15.51853 172.02611 305
442.94110 16.87632 172.21431 301
495.61484 21.10722 166.33525 452
269.23672 3.31375 203.49760 314
272.70932 3.60286 203.47490 281
411.51523 15.56926 171.86549 309
426.02997 16.78314 172.04607 305
442.84830 18.23617 172.18497 301
494.27954 22.63141 166.58820 453
269.21481 3.60325 203.50616 314
398.70651 15.56003 171.76189 313
411.39194 16.74154 171.91142 309
425.95697 18.03346 172.05006 305
442.75690 19.59473 172.16537 301
493.03583 24.27015 166.78329 454
4930.72217 432.42380 292.98703 415
269.18033 3.90832 203.49812 314
398.63635 16.63803 171.74515 313
411.27988 17.87868 171.90810 309
425.84122 19.28891 172.04518 305
442.60391 20.98826 172.16005 301
491.80188 25.81273 167.00687 455
4910.56152 459.96042 292.84229 465
269.15579 4.20926 203.50128 314
398.52417 17.72225 171.78436 313
411.19131 19.06896 171.90370 309
425.72293 20.57311 172.02328 305
442.46362 22.35202 172.17369 301
490.49307 27.37131 167.20886 456
4890.18506 486.72803 292.49841 466
269.11133 4.50327 203.50015 314
398.38553 18.84370 171.78258 313
411.05197 20.20320 171.91092 309
425.57489 21.85726 172.00980 305
442.34866 23.65751 172.21680 301
489.25568 28.88056 167.40027 457
4876.72314 514.35901 292.25110 483
269.07968 4.80303 203.50813 314
398.27783 19.89806 171.75093 313
410.92441 21.42587 171.87076 309
425.44153 23.09934 172.04462 305
442.17230 25.04052 172.18051 301
488.01343 30.39002 167.56038 457
4864.66211 542.30438 292.27643 483
269.04468 5.09894 203.50583 314
398.16626 20.98744 171.76042 313
410.81982 22.56406 171.86244 309
425.31244 24.34162 172.00804 305
442.01199 26.42486 172.19380 301
486.82190 31.94324 167.77753 458
4855.89697 569.61633 292.33563 490
5109.94971 600.83539 620.20526 1000
268.99911 5.39355 203.50156 314
398.04694 22.10813 171.75575 313
410.66406 23.72468 171.85928 309
425.16907 25.61293 171.99817 305
441.90378 27.80087 172.15948 301
485.56290 33.43648 167.95387 459
4848.09277 597.23047 292.65317 490
268.96350 5.68855 203.50497 314
397.90039 23.19981 171.73622 313
410.49905 24.91930 171.86476 309
425.01633 26.84617 172.04393 305
441.72574 29.10109 172.17589 301
484.39804 34.92125 168.09804 460
4840.21484 625.90521 292.74487 460
268.91864 5.98848 203.49928 314
397.71912 24.26852 171.73473 313
410.37085 26.05121 171.88539 309
424.81757 28.12456 172.01038 305
441.53241 30.51383 172.20064 301
484.22052 36.52079 168.11546 294
4834.80713 653.24127 292.10086 460
268.87097 6.28121 203.50616 314
397.58517 25.37711 171.73306 313
410.22824 27.25673 171.88260 309
424.64529 29.36602 172.00127 305
476.58444 37.09213 165.11113 300
484.11423 38.20375 168.10368 294
4829.85938 682.38104 292.90195 460
268.83136 6.58341 203.50629 314
397.40652 26.46880 171.76721 313
410.03967 28.38787 171.88394 309
424.48718 30.60930 172.01965 305
476.35165 38.64954 165.08284 300
483.92795 39.80118 168.08191 293
4824.99219 709.57019 292.63931 460
268.77072 6.87293 203.50264 314
397.27161 27.55894 171.73103 313
409.85352 29.55306 171.84595 309
424.28320 31.88435 171.99132 305
476.06308 40.18220 165.08456 300
483.79324 41.44085 168.09341 293
4822.58301 738.23950 292.29584 381
268.72391 7.17288 203.49797 314
397.10965 28.63290 171.77045 313
409.66028 30.73868 171.89626 309
424.11459 33.14604 172.01628 305
475.88254 41.81483 165.11610 300
483.58340 43.05408 168.06845 293
4820.41162 766.72461 292.68121 380
268.67090 7.46901 203.49947 314
396.90009 29.70245 171.76746 313
409.51541 31.87387 171.86847 309
423.87787 34.40649 171.99602 305
475.61267 43.38314 165.09729 300
483.42184 44.72613 168.00731 293
4820.39111 796.16882 293.34674 380
268.62204 7.77013 203.50800 314
396.74780 30.77359 171.72404 313
409.32837 33.02586 171.84541 309
423.67004 35.65488 172.00417 305
474.48700 44.75727 165.23416 446
483.19986 46.34299 168.04561 293
4818.06152 825.51752 293.36243 380
4947.07764 848.27863 373.20731 395
268.56363 8.05289 203.49916 314
396.52979 31.85320 171.74681 313
409.09964 34.19668 171.84271 309
423.48734 36.87325 172.02953 305
473.06308 46.09659 165.50768 447
483.02090 47.93236 167.98352 293
4817.48535 853.46716 292.57309 380
4931.97217 874.53699 372.73926 498
268.50601 8.35840 203.49869 314
396.37613 32.96550 171.72493 313
408.89886 35.37105 171.85640 309
423.21039 38.13087 172.00322 305
471.58469 47.41593 165.68993 448
4815.69092 882.92084 292.56097 380
268.44775 8.64962 203.50668 314
396.13562 34.02596 171.75862 313
408.67114 36.54295 171.88245 309
423.01730 39.38027 171.98526 305
470.18637 48.71985 165.95189 449
4813.98682 911.64142 293.03586 380
268.38806 8.94256 203.50475 314
395.93933 35.11852 171.75645 313
408.47757 37.70395 171.84480 309
422.77020 40.60838 171.99290 305
468.83600 50.07502 166.16858 450
4812.06201 941.35577 293.75009 380
268.31958 9.23723 203.49936 314
395.70209 36.18531 171.74841 313
408.21014 38.82934 171.82689 309
422.50400 41.88548 171.98396 305
467.38815 51.33547 166.40744 451
3953.99365 788.73523 154.08038 1000
4811.21045 969.83673 293.44046 380
268.26031 9.52768 203.50375 314
395.51703 37.29207 171.74319 313
408.01294 40.01697 171.84732 309
422.26929 43.10563 172.00618 305
466.02542 52.62104 166.59271 451
4808.49023 999.00452 293.99072 426
268.19589 9.82665 203.50932 314
395.27353 38.35514 171.71036 313
407.75168 41.12300 171.84552 309
453.77707 51.48813 164.98071 303
464.69150 53.89689 166.79572 452
4809.88818 1028.45300 293.57474 284
4867.43408 1042.03088 373.04382 497
4884.65430 1045.90845 451.76910 403
268.12140 10.10912 203.49832 314
395.06479 39.43989 171.75085 313
407.50839 42.30830 171.83194 309
453.49695 52.89938 164.95671 303
463.32858 55.15458 166.99298 453
4810.47998 1058.44409 293.76166 284
268.04654 10.40311 203.50668 314
394.79169 40.47815 171.72148 313
407.22644 43.43797 171.83997 309
453.15100 54.34316 164.95686 303
461.85825 56.37266 167.24539 421
4810.66943 1088.86621 294.29611 284
267.97449 10.69236 203.49965 314
394.53513 41.59053 171.73672 313
406.95566 44.60943 171.85574 309
452.84006 55.79285 164.96396 303
459.99503 57.50510 167.53412 422
4818.83154 1119.79834 293.61630 456
267.90149 10.98565 203.49829 314
394.31693 42.65436 171.69588 313
406.68661 45.75367 171.85963 309
452.46402 57.18007 164.94734 303
458.15054 58.60985 167.85123 423
4806.59863 1146.34570 294.59299 425
267.82681 11.27365 203.50316 314
394.04312 43.69038 171.73875 313
406.42047 46.88939 171.85411 309
452.08728 58.64511 164.91173 303
457.40820 59.98696 167.95869 297
4804.93066 1176.27771 294.35593 431
267.74713 11.57348 203.50671 314
393.79425 44.74712 171.73856 312
406.11307 48.03135 171.83115 309
451.76340 60.04086 164.97534 303
457.06485 61.41963 167.90808 297
4804.38477 1205.77869 293.80429 419
267.67047 11.85045 203.50056 314
393.48169 45.86136 171.71341 312
405.86951 49.18890 171.84811 309
451.34341 61.45603 164.94868 303
456.79932 62.92800 167.90172 297
4794.71191 1233.44336 293.79599 350
267.59308 12.14665 203.49976 314
393.24402 46.89060 171.71863 312
405.52747 50.31925 171.84613 309
450.98251 62.90548 164.94124 303
456.44479 64.40932 167.91116 297
267.51413 12.42939 203.50870 314
392.94046 47.96677 171.70799 312
405.27081 51.46767 171.81828 309
449.33588 63.91012 165.24797 428
456.09045 65.85145 167.84610 297
267.42126 12.72618 203.50922 314
392.66324 49.03566 171.69792 312
404.95825 52.61076 171.79613 309
447.58804 64.95542 165.54063 429
455.75961 67.28220 167.89641 297
267.33984 13.00861 203.50775 314
392.32217 50.06484 171.71364 312
404.63974 53.70491 171.81946 309
445.93027 65.99149 165.81697 430
455.39407 68.76987 167.88223 297
44244.02344 13051.93945 -3547.20923 1000
44338.71094 13079.31641 -2042.80994 1000
267.24362 13.29391 203.50638 314
392.05322 51.14174 171.70398 312
432.91187 63.50963 164.83678 308
444.24060 66.95480 166.10344 431
267.15625 13.58139 203.49767 314
391.70496 52.20388 171.71295 312
432.51270 64.81511 164.86629 308
442.63721 67.93951 166.34338 432
267.07266 13.87375 203.50227 314
391.39508 53.26543 171.67787 312
432.12372 66.12724 164.82196 308
440.99088 68.96425 166.61815 433
267.05402 14.17773 203.47890 288
391.08560 54.29044 171.69176 312
431.72031 67.41722 164.84052 308
439.34543 69.91100 166.89384 434
380.04086 51.78942 171.57886 316
390.74316 55.35464 171.69446 312
431.24936 68.75523 164.83026 308
437.59784 70.84006 167.24101 420
379.72870 52.77298 171.59232 316
390.41913 56.39326 171.67940 312
430.82407 70.01795 164.83183 308
435.78043 71.70483 167.51669 421
379.40958 53.78337 171.56415 316
390.08017 57.44476 171.66061 312
430.34845 71.31254 164.87903 308
433.98718 72.54505 167.85127 422
379.05374 54.74245 171.57396 316
389.72241 58.49181 171.67447 312
429.91193 72.56861 164.88106 308
433.50775 73.83553 167.80598 301
378.74277 55.72249 171.55655 316
389.37460 59.55370 171.66151 312
429.40823 73.86389 164.83229 308
433.07532 75.19138 167.82527 301
378.40869 56.70211 171.54097 316
389.03455 60.55468 171.67212 312
428.80707 75.05465 164.89488 425
432.65579 76.51400 167.79965 301
378.03271 57.68883 171.57080 316
388.67178 61.59337 171.65269 312
427.13602 75.88850 165.20752 426
432.26440 77.82201 167.82057 301
377.71674 58.62803 171.53499 316
413.99527 72.37394 164.78316 312
425.42621 76.74126 165.47072 427
431.79123 79.11005 167.79745 301
377.36740 59.62844 171.53754 316
413.54562 73.54153 164.78169 312
423.79269 77.55547 165.80852 428
431.34488 80.46655 167.79514 301
376.99161 60.57832 171.54349 316
413.03851 74.77728 164.76360 312
422.20233 78.33656 166.06812 429
430.92010 81.72723 167.78641 301
376.61972 61.56652 171.53784 316
412.56622 75.89674 164.77768 312
420.55539 79.10375 166.35242 430
430.44717 83.07506 167.74234 301
376.24109 62.49999 171.54512 316
412.09845 77.12110 164.79198 312
418.95770 79.91761 166.61095 431
375.85068 63.48354 171.54990 316
411.60535 78.26381 164.76939 312
417.35941 80.64294 166.91962 432
375.47220 64.41182 171.51299 316
411.09189 79.45969 164.77054 312
415.80429 81.43828 167.19676 433
375.09644 65.38180 171.51309 316
410.61346 80.63070 164.77745 312
414.29709 82.17446 167.43974 434
374.69547 66.35965 171.51749 316
410.07294 81.73942 164.77899 312
412.73022 82.93671 167.69511 435
374.30469 67.30047 171.51393 316
409.57767 82.93945 164.79889 312
411.88507 83.97193 167.79918 305
53618.25391 23661.54492 -6498.33936 1000
373.89804 68.24599 171.50853 316
409.04541 84.05160 164.78499 312
411.40045 85.15067 167.74271 305
396.63663 79.81969 164.66544 316
408.23511 85.10564 164.87006 437
410.92563 86.36358 167.72816 305
396.15030 80.88465 164.69252 316
406.76447 85.81937 165.10155 418
410.43933 87.54181 167.74753 305
395.65085 81.95363 164.65971 317
405.06192 86.44199 165.47038 419
409.91879 88.70857 167.72310 305
395.11145 83.02534 164.66333 317
403.36102 86.97272 165.77092 421
409.40811 89.85961 167.69702 305
394.58783 84.10990 164.69371 317
401.72751 87.60328 166.09657 422
408.90985 91.08907 167.73125 305
394.02087 85.16834 164.67638 317
400.10431 88.14039 166.38683 423
408.36292 92.21439 167.72549 305
393.48398 86.19090 164.67038 317
398.48560 88.72526 166.68356 424
407.80582 93.43957 167.68184 305
392.96329 87.28333 164.68518 317
396.89828 89.28799 166.97749 425
392.36844 88.32590 164.70242 317
395.28561 89.79067 167.28082 426
391.82800 89.33124 164.72646 317
393.74103 90.37093 167.56474 427
391.22733 90.37495 164.69606 317
392.64255 91.15708 167.71152 311
390.61987 91.41875 164.70842 428
392.06201 92.20570 167.68707 311
389.13397 91.95317 165.01685 429
391.53857 93.23356 167.70525 311
3767.36816 1950.63403 217.25775 494
3773.99219 1954.06262 283.57812 486
387.62997 92.45789 165.29404 430
390.96973 94.32657 167.70697 311
386.17560 92.96429 165.56761 431
390.39050 95.40294 167.68802 309
384.70966 93.46317 165.81926 432
389.80838 96.41293 167.65208 309
383.22638 94.01416 166.11823 433
389.26428 97.47464 167.65108 309
381.83243 94.51329 166.36124 434
388.67599 98.53882 167.64476 309
380.40744 94.97314 166.63992 435
388.10461 99.61111 167.61766 309
378.97287 95.48939 166.89977 436
387.50821 100.65774 167.64211 309
377.60538 95.97720 167.16003 437
376.24344 96.42072 167.36964 438
374.89142 96.89333 167.61406 315
374.26337 97.84974 167.62276 315
373.67923 98.83853 167.61980 315
373.08713 99.74281 167.58519 315
372.49686 100.71576 167.62230 315
371.87997 101.62994 167.61917 315
371.24716 102.55914 167.61546 315
370.59073 103.53077 167.60748 315
369.98801 104.42287 167.60306 315
369.31644 105.35482 167.58081 315
368.70709 106.26550 167.58218 315
368.02759 107.17986 167.58578 313
367.42450 108.10734 167.58975 313
4661.34180 4779.06836 216.14363 296
4638.70801 4814.31592 217.78276 448
4617.40771 4851.25195 217.84683 441
4597.43408 4887.24561 217.74144 441
4578.89258 4927.14990 217.68840 430
4563.08496 4971.43555 217.79373 425
4549.33643 5017.02246 216.21660 415
4541.67773 5071.68652 216.41347 393
4538.32568 5130.69092 217.48595 393
4536.20557 5192.22852 217.57634 400
4530.31152 5250.50732 217.13107 399
4528.88721 5315.15771 216.49324 404
4527.28516 5378.16748 216.55280 405
4522.61035 5441.76611 216.75067 406
11332.79199 16852.37500 1208.78577 1000
3201.23926 4971.83496 216.15935 495
4186.43311 6709.08398 1634.80017 1000
767.98053 1039.06787 101.39815 393
768.23395 1039.24915 120.73751 393
768.30420 1039.67017 140.13550 393
768.56390 1039.96155 159.44923 393
768.73175 1040.56458 178.86200 393
769.05554 1040.95959 197.86258 393
769.30023 1041.10095 217.42345 323
769.39258 1041.56860 236.55984 323
769.69135 1042.24548 256.02991 322
769.81567 1042.54285 275.29749 322
770.21454 1043.01343 294.60303 322
770.45880 1043.36340 313.98386 322
770.70294 1043.85791 333.70300 322
760.36597 1040.17041 101.83555 487
760.45081 1040.37524 121.03479 488
760.71979 1040.54431 140.46259 488
760.69250 1040.90454 159.66095 488
760.88049 1040.97778 178.79370 488
761.23999 1041.42310 197.97809 488
761.41028 1041.71960 217.33141 488
761.32520 1042.03455 236.53017 488
761.47748 1042.17249 255.67253 488
761.76141 1042.25562 275.16757 488
761.95447 1042.62732 294.23230 487
762.00177 1042.92700 313.64670 487
762.33099 1043.21033 333.08231 487
3110.82495 5913.36621 220.85912 283
3041.07690 5864.14795 220.61940 433
2992.63379 5853.80273 220.32318 401
2946.99048 5851.86230 221.18166 384
2903.23804 5850.57715 221.43776 346
2873.61646 5879.00244 221.38057 266
2823.24316 5864.11768 221.83319 452
2776.58105 5853.48389 221.17175 453
2774.38403 5848.88721 325.52332 483
2731.19287 5850.62256 220.29582 484
2731.22339 5851.19580 324.47238 484
2690.66333 5854.07031 221.47289 484
2689.84595 5854.09814 325.95145 484
2646.04297 5851.23584 221.43228 485
2645.70337 5849.74365 325.08545 485
2604.88330 5852.35010 220.55910 486
2604.71313 5851.35938 324.67712 485
2566.17432 5860.26270 220.94572 486
2564.31421 5853.33008 323.77786 486
3609.62378 8459.02246 2506.63281 1000
2525.37012 5861.15527 220.40544 486
2524.28979 5856.10742 323.89896 486
2486.03809 5863.52393 222.06183 487
2486.28491 5864.15088 323.27225 487
2472.13428 5938.37305 220.87753 326
2450.94336 5881.93311 323.52573 312
1408.65771 3192.33960 163.52516 297
2478.67261 6067.87842 221.51341 325
2457.35010 6011.30322 326.51703 315
1375.45007 3162.38403 108.70651 278
1360.69360 3122.39111 164.42737 320
1433.22205 3320.95801 219.25220 466
2411.65015 5997.39258 429.61691 496
1346.71472 3144.47534 109.44408 295
1326.07788 3087.54712 165.22513 373
1410.89673 3323.21899 219.48457 466
1323.73364 3140.46948 109.92159 295
1311.53540 3106.55322 165.40553 411
1301.33105 3139.33716 109.84156 381
1298.34167 3129.20020 165.10869 417
1290.47400 3168.59106 109.02600 381
1285.14319 3153.91479 164.69557 417
2202.84155 5872.57910 220.97519 396
1277.98779 3197.21777 108.84567 380
1272.43469 3179.68408 164.48737 420
2163.73267 5873.82910 220.67462 389
1265.67334 3227.16699 107.58111 372
1259.35413 3206.34448 163.90411 418
2123.22607 5874.22754 220.82399 488
1255.68616 3262.93481 107.29176 350
1246.29089 3235.35034 163.80473 402
2105.62256 5939.50830 220.80049 457
1245.29163 3302.56787 106.34870 344
1235.72363 3269.04492 162.95139 385
2060.93872 5927.28271 221.73708 458
1237.72253 3347.54736 104.28835 326
1224.96387 3309.14038 162.90700 372
2022.60388 5933.77197 220.36693 373
1236.45520 3420.45996 102.76036 298
1216.11414 3353.62085 161.52179 357
2028.59106 6083.93848 221.59494 274
1239.70996 3510.77832 99.78636 308
1214.62976 3423.89185 160.41982 304
1244.25476 3608.01855 96.83654 303
1221.22900 3527.53833 159.36455 303
1227.82153 3636.33423 157.34642 301
1234.57617 3750.68945 156.31021 300
694.95563 3652.84692 339.97906 1000
248.76810 1542.29553 91.21991 420
248.85843 1542.49915 116.55836 356
249.15282 1542.61548 141.87761 356
248.89030 1543.18311 167.12492 356
248.92191 1544.30164 192.39658 281
239.29416 1541.80164 91.04760 430
239.61929 1541.60583 116.56190 430
239.50481 1541.04553 141.83408 430
239.36610 1540.46960 167.29588 431
