# .PCD v.7 - Point Cloud Data file format
VERSION .7
FIELDS x y z rgb
SIZE 4 4 4 4
TYPE F F F U
COUNT 1 1 1 1
WIDTH 1388
HEIGHT 1
VIEWPOINT 4286.863281 -4103.664551 133.651871 0.005577 -0.114523 -0.003448 0.993399
POINTS 1388
DATA ascii
44.14046 -8.17184 204.85278 436
41.40243 -8.27643 207.61679 434
38.58329 -8.44242 210.43228 431
-179.33955 -17.75602 223.03781 384
-155.79366 -16.73001 235.03445 396
-156.93748 -16.78846 241.27689 357
-181.73196 -17.81752 269.48019 487
83.00411 -7.37296 179.53419 316
70.09232 -8.01214 178.71043 462
67.96948 -8.12055 180.82858 460
65.80878 -8.21723 182.96725 458
63.60248 -8.34091 185.18343 456
61.35666 -8.44102 187.43997 454
59.09243 -8.53304 189.71643 451
56.73558 -8.63671 192.09207 449
54.31233 -8.75422 194.50076 446
51.85331 -8.88215 196.98660 444
49.32674 -9.01482 199.53250 441
46.72176 -9.12198 202.14818 439
44.04620 -9.25407 204.84294 436
41.30371 -9.40944 207.59560 433
38.44942 -9.55387 210.44542 431
-179.42354 -20.22295 223.04803 384
-161.25377 -19.33627 235.29836 294
-181.71388 -20.28209 269.52191 486
83.03709 -8.21356 179.52049 316
70.04488 -8.94757 178.67598 462
67.92204 -9.03575 180.79036 460
65.74702 -9.17049 182.95107 458
63.50166 -9.27113 185.12508 456
61.28698 -9.39140 187.38911 453
58.98828 -9.52249 189.72606 451
56.60382 -9.68615 192.04646 449
54.20951 -9.77761 194.49390 446
51.75423 -9.91325 196.94650 444
49.17568 -10.05089 199.50330 441
46.56485 -10.22329 202.15291 439
43.90504 -10.38335 204.79799 436
41.14710 -10.51548 207.61311 433
38.28927 -10.68758 210.42191 431
-179.35294 -22.68839 223.07184 384
-181.68478 -22.80018 269.53925 486
83.07439 -9.04414 179.50151 316
69.96388 -9.87844 178.62924 462
67.84706 -10.00399 180.73244 460
65.63731 -10.12158 182.91104 457
63.41734 -10.23872 185.11559 455
61.16253 -10.41766 187.35878 453
58.89365 -10.54344 189.68321 451
56.52545 -10.67456 192.03717 449
54.09846 -10.84869 194.45450 446
51.60521 -10.96078 196.96745 444
49.07797 -11.14423 199.47824 441
46.45145 -11.27433 202.09758 438
43.78167 -11.47355 204.81525 436
41.03907 -11.59973 207.60254 433
38.14645 -11.81458 210.42754 430
-179.34189 -25.19518 223.04237 384
-181.72806 -25.24642 269.57211 486
83.12797 -9.91162 179.53105 316
69.88978 -10.77377 178.58583 462
67.75427 -10.91776 180.74103 459
65.56855 -11.10160 182.88455 457
63.37656 -11.25049 185.07959 455
61.08292 -11.40327 187.35724 453
58.78045 -11.52009 189.64262 451
56.39811 -11.69110 192.02991 448
53.98952 -11.84931 194.43736 446
51.52773 -12.03617 196.92224 443
48.94106 -12.19331 199.48186 441
46.36822 -12.37788 202.08115 438
43.63802 -12.55686 204.79399 436
40.87166 -12.75851 207.58441 433
38.01923 -12.95005 210.44193 430
-179.43010 -27.66792 223.08833 384
-181.72125 -27.79173 269.59747 486
83.18417 -10.75227 179.53369 316
69.80293 -11.71027 178.58458 461
67.70151 -11.89528 180.69478 459
65.51562 -12.03026 182.86275 457
63.25793 -12.20054 185.05269 455
60.98837 -12.38709 187.29364 452
58.66459 -12.54631 189.63071 451
56.31907 -12.73092 192.01080 448
53.90662 -12.87693 194.40663 446
51.41611 -13.08409 196.89587 443
48.84221 -13.27211 199.46410 441
46.20662 -13.47215 202.09402 438
43.52643 -13.63730 204.79808 435
40.77773 -13.87676 207.56474 433
37.91986 -14.05275 210.41510 430
-179.36005 -30.10886 223.03113 384
-181.67279 -30.22680 269.61176 486
83.24061 -11.57102 179.52180 316
69.73440 -12.65491 178.51758 461
67.60391 -12.82495 180.66682 459
65.42419 -12.99049 182.82201 457
63.18565 -13.17020 185.04662 455
60.92484 -13.35670 187.27284 452
58.59822 -13.52814 189.59648 450
56.18680 -13.73979 191.95766 448
53.79495 -13.92078 194.37576 445
51.30614 -14.12606 196.88847 443
48.71707 -14.34583 199.46114 440
46.09723 -14.54412 202.06404 438
43.39625 -14.74556 204.77730 435
40.61293 -14.94864 207.55948 432
37.78098 -15.17741 210.43040 430
-179.36270 -32.59331 223.05580 384
-181.64424 -32.73684 269.57837 486
83.30313 -12.41270 179.51614 316
69.66592 -13.59465 178.48311 461
67.52720 -13.77259 180.62213 459
65.35102 -13.94516 182.79025 457
63.11600 -14.16730 185.02036 454
60.84930 -14.36191 187.24434 452
58.50029 -14.54265 189.55029 450
56.11653 -14.74949 191.94273 447
53.64983 -14.95835 194.38759 445
51.18711 -15.18849 196.88965 443
48.60631 -15.40966 199.44958 440
45.97466 -15.63535 202.07458 438
43.26685 -15.88058 204.78081 435
40.48109 -16.08500 207.55838 432
37.61487 -16.35725 210.42015 429
-179.47066 -34.97337 223.07582 384
-181.70677 -35.20319 269.68652 486
-186.81091 -35.63530 277.12891 496
-186.76331 -35.61048 284.03705 495
-186.70331 -35.63763 290.85056 495
83.38621 -13.24642 179.52177 316
69.61656 -14.52683 178.45850 461
67.45418 -14.71578 180.59384 459
65.30608 -14.94997 182.75194 456
63.05270 -15.13032 184.94681 454
60.74193 -15.32910 187.23961 452
58.42711 -15.55453 189.56413 449
56.02903 -15.77108 191.93088 447
53.55687 -16.00339 194.34358 445
51.04478 -16.25747 196.82994 442
48.50717 -16.47685 199.40578 440
45.88328 -16.73380 202.05865 437
43.13069 -16.95227 204.75877 435
40.35640 -17.23260 207.52711 432
37.49382 -17.47938 210.41769 429
-179.45782 -37.50864 223.06331 384
-181.72673 -37.64335 269.68515 486
83.41577 -14.10481 179.50380 463
69.56480 -15.45351 178.41396 461
67.42704 -15.66262 180.53476 458
65.21680 -15.90385 182.70189 456
62.95259 -16.13175 184.94331 454
60.66397 -16.34559 187.21396 452
58.33934 -16.57224 189.50266 449
55.95755 -16.82673 191.88530 447
53.48220 -17.03852 194.34705 444
50.97732 -17.30637 196.82913 442
48.36685 -17.56418 199.36934 440
45.75613 -17.78426 202.04294 437
43.01842 -18.08262 204.73219 434
40.23262 -18.35701 207.52400 432
37.37093 -18.60365 210.41490 429
-179.44299 -39.99910 223.03436 384
-181.68011 -40.20618 269.65335 486
83.37916 -14.97268 179.48505 463
69.48357 -16.39660 178.37894 460
67.34105 -16.64011 180.49678 458
65.12331 -16.86305 182.67999 456
62.89637 -17.07947 184.88608 454
60.59983 -17.32434 187.17574 451
58.27641 -17.60440 189.50575 449
55.83121 -17.81622 191.86681 447
53.39018 -18.11323 194.31183 444
50.83326 -18.36754 196.78133 442
48.26719 -18.62107 199.35970 439
45.61705 -18.91190 201.98361 437
42.89257 -19.19464 204.69780 434
40.08677 -19.48039 207.48895 432
37.21955 -19.75504 210.38222 429
-179.43143 -42.41195 223.11998 383
-181.60991 -42.62840 269.77823 486
83.33366 -15.80898 179.45209 463
69.43737 -17.35926 178.36575 460
67.27575 -17.60538 180.48000 458
65.08731 -17.84267 182.66977 456
62.80588 -18.10826 184.84462 453
60.52172 -18.34760 187.13617 451
58.17015 -18.60293 189.44659 449
55.74295 -18.86906 191.85046 446
53.29489 -19.13016 194.26501 444
50.77503 -19.40388 196.78654 441
48.17199 -19.72563 199.33281 439
45.49381 -19.98610 201.98802 437
42.79116 -20.32017 204.69106 434
39.95897 -20.59658 207.50385 431
37.05544 -20.90956 210.37189 429
-179.49832 -44.99163 223.07812 383
83.24248 -16.66871 179.40845 462
69.37514 -18.29620 178.28951 460
67.19411 -18.55009 180.43430 458
65.01343 -18.83067 182.61894 455
62.73346 -19.06159 184.82413 453
60.44084 -19.35220 187.08208 451
58.10064 -19.63197 189.44836 449
55.68861 -19.91010 191.82765 446
53.21305 -20.16946 194.23019 444
50.67722 -20.49496 196.75529 441
48.05380 -20.77268 199.30908 439
45.36853 -21.08671 201.98146 436
42.66458 -21.41623 204.66597 434
39.83567 -21.72462 207.48680 431
36.96292 -22.09050 210.38451 428
-179.45563 -47.43863 223.15898 383
83.19453 -17.54158 179.35500 462
69.29870 -19.26588 178.27008 460
67.16110 -19.51269 180.38693 457
64.94492 -19.77689 182.57838 455
62.67290 -20.05474 184.81279 453
60.37000 -20.33216 187.06427 451
58.00969 -20.62810 189.39377 448
55.60475 -20.94858 191.76604 446
53.11590 -21.25558 194.23648 443
50.57405 -21.53743 196.70827 441
47.96814 -21.86731 199.28148 438
45.26020 -22.21587 201.95406 436
42.54240 -22.55127 204.66501 433
39.71121 -22.86257 207.45975 431
36.77896 -23.23018 210.37622 428
-179.47987 -49.88279 223.06326 383
83.16610 -18.39322 179.32077 462
69.22001 -20.18594 178.21617 459
67.06231 -20.45627 180.35791 457
64.85368 -20.75483 182.53275 455
62.60543 -21.06335 184.74756 453
60.31030 -21.35407 187.04378 450
57.93710 -21.64264 189.34273 448
55.52705 -21.95784 191.72896 446
53.03021 -22.27057 194.20950 443
50.50131 -22.62981 196.69481 441
47.87130 -22.94028 199.29129 438
45.17722 -23.28762 201.94299 435
42.39861 -23.68656 204.63937 433
39.56650 -24.02344 207.47133 430
36.64210 -24.39707 210.34930 428
-179.43764 -52.45228 223.09491 383
83.09531 -19.24480 179.26517 462
69.18342 -21.13029 178.17944 459
66.99704 -21.43393 180.32976 457
64.81172 -21.75667 182.51041 455
62.54741 -22.06337 184.72856 452
60.22025 -22.37411 187.01543 450
57.87411 -22.70164 189.34280 448
55.44540 -22.99001 191.72749 445
52.92965 -23.34147 194.15820 443
50.37527 -23.67845 196.68777 440
47.76028 -24.05931 199.23355 438
45.05688 -24.41463 201.90184 435
42.28399 -24.78768 204.63820 433
39.45943 -25.15539 207.45143 430
36.51033 -25.58826 210.33197 427
-179.53014 -54.94811 223.09793 383
83.03194 -20.13369 179.20638 461
69.11845 -22.10464 178.14252 459
66.93403 -22.40881 180.26062 457
64.75513 -22.74416 182.45026 454
62.48648 -23.06306 184.67874 452
60.15367 -23.35332 186.97365 450
57.76690 -23.69321 189.27696 448
55.34521 -24.06587 191.70479 445
52.84630 -24.42662 194.11086 443
50.31133 -24.78338 196.66869 440
47.66854 -25.12514 199.22624 438
44.97886 -25.50002 201.86699 435
42.20229 -25.90098 204.63744 432
39.33281 -26.30219 207.41852 430
36.38966 -26.74155 210.31752 427
-179.51187 -57.44016 223.07820 383
83.00368 -20.98913 179.17868 461
69.05685 -23.07915 178.08330 459
66.88889 -23.38812 180.22681 456
64.67043 -23.72600 182.38426 454
62.41400 -24.04952 184.65240 452
60.09122 -24.39321 186.93491 450
57.69249 -24.74581 189.25504 447
55.28164 -25.07852 191.62662 445
52.77380 -25.47728 194.10709 442
50.19303 -25.83921 196.63048 440
47.57802 -26.24566 199.18726 437
44.88181 -26.61350 201.86662 435
42.08697 -27.03647 204.58601 432
39.20675 -27.47041 207.44154 429
36.14084 -27.91936 210.33203 403
-179.85500 -59.99805 223.09712 361
82.93829 -21.87786 179.11528 461
69.01393 -24.03116 178.03156 458
66.82652 -24.33419 180.18945 456
64.61177 -24.67828 182.34193 454
62.34753 -25.05677 184.59993 452
60.02411 -25.40551 186.87195 449
57.62989 -25.75727 189.20006 447
55.16458 -26.14756 191.62877 445
52.69013 -26.53068 194.06480 442
50.09706 -26.92875 196.59764 440
47.48120 -27.35926 199.20154 437
44.74659 -27.74916 201.83557 434
41.89650 -28.20159 204.57407 415
38.81496 -28.67935 207.38277 412
35.54237 -29.14799 210.32344 403
-180.47281 -62.53941 223.13373 361
82.87952 -22.73072 179.07848 460
75.30539 -23.94418 179.59673 312
66.75716 -25.33352 180.12303 456
64.56229 -25.69205 182.33456 454
62.24231 -26.03730 184.54369 451
59.94489 -26.42446 186.84770 449
57.52647 -26.80246 189.18466 447
55.11292 -27.19342 191.56316 444
52.57388 -27.61259 194.02191 442
50.03226 -28.01639 196.54288 439
47.34740 -28.43642 199.18068 419
44.44213 -28.92114 201.82179 417
41.42958 -29.38625 204.52415 414
38.34798 -29.88479 207.37497 411
34.97680 -30.44234 210.30301 402
-181.06653 -65.21622 223.22186 361
82.85421 -23.59772 179.01512 460
75.44246 -24.82465 179.60240 312
66.71600 -26.29308 180.06050 456
64.48085 -26.69673 182.26385 453
62.19739 -27.04513 184.51904 451
59.87872 -27.46643 186.80449 449
57.44905 -27.82599 189.12244 446
55.00426 -28.23490 191.53833 444
52.53405 -28.69341 194.01945 442
49.75908 -29.12243 196.52873 421
46.89682 -29.59639 199.07477 419
43.97077 -30.07324 201.73650 416
40.97370 -30.59343 204.49207 413
37.79162 -31.14246 207.31558 404
34.36945 -31.70713 210.24588 401
-181.70816 -67.84383 223.23616 361
82.77964 -24.50425 178.95821 460
75.59097 -25.75453 179.57304 312
66.63396 -27.30112 180.01016 455
64.41433 -27.66754 182.20108 453
62.13245 -28.08205 184.45462 451
59.79001 -28.49056 186.76300 449
57.37521 -28.86993 189.10364 446
54.82752 -29.34039 191.49924 425
52.11034 -29.80775 193.93500 423
49.34700 -30.25804 196.44623 420
46.48912 -30.79631 199.01677 418
43.50681 -31.30179 201.71881 415
-92.50653 -16.05516 -6.11316 413
37.17363 -32.39133 207.27960 403
33.77612 -33.00145 210.20909 401
-182.96973 -70.61907 216.49150 425
-182.41650 -70.44714 223.20708 361
82.76303 -25.35069 178.93159 460
75.71951 -26.62256 179.58110 312
66.58243 -28.26513 179.98613 455
64.37335 -28.67841 182.17311 453
62.07218 -29.09547 184.41408 451
59.66018 -29.53460 186.69699 429
57.05906 -29.98514 188.99799 427
54.42103 -30.42758 191.37849 425
51.69417 -30.91457 193.86015 422
48.91866 -31.42008 196.38716 420
46.02607 -31.94119 198.97694 417
43.03859 -32.50060 201.62564 415
39.94735 -33.02299 204.40591 405
36.60617 -33.66839 207.27324 403
33.11937 -34.27795 210.20073 400
-182.98221 -73.12788 216.51587 425
-184.37024 -73.39485 223.26582 322
82.70746 -26.26043 178.85519 459
75.88140 -27.53081 179.58478 312
66.55610 -29.25733 179.93471 455
64.27238 -29.66210 182.09549 433
61.78098 -30.12914 184.34505 431
59.27269 -30.59101 186.59511 429
56.66776 -31.06875 188.93428 427
54.01507 -31.55990 191.30798 424
51.30284 -32.06382 193.76257 422
48.45480 -32.59707 196.29375 419
45.58692 -33.15035 198.88808 417
42.57809 -33.69503 201.61171 414
39.36773 -34.30124 204.33882 405
35.99827 -34.93276 207.22102 402
32.55107 -35.58232 210.15201 399
-182.92542 -75.64951 216.52986 425
-186.94154 -76.42471 223.27757 322
82.64698 -27.14114 178.81229 459
76.03288 -28.38120 179.57054 312
66.32790 -30.27481 179.82686 435
-80.45324 -15.49980 -17.65837 433
61.46423 -31.22259 184.21645 431
58.91862 -31.70777 186.49101 428
56.28874 -32.21941 188.84976 426
53.61483 -32.69196 191.23148 424
50.87840 -33.24384 193.69688 421
48.05629 -33.79427 196.22112 419
45.15196 -34.33651 198.83357 416
42.07729 -34.93607 201.52776 407
38.82534 -35.56588 204.31332 404
35.41140 -36.19341 207.15089 401
31.92399 -36.88216 210.14102 399
-182.94675 -78.27253 216.49385 424
-189.46078 -79.54047 223.39447 321
82.62849 -27.99874 178.76236 459
76.20728 -29.27514 179.57863 312
66.02949 -31.32170 179.72148 434
63.57572 -31.81327 181.86241 432
61.10779 -32.30193 184.08418 430
58.53901 -32.78724 186.37863 428
55.92742 -33.29583 188.74194 425
53.24538 -33.87012 191.11507 423
50.47557 -34.38353 193.59142 420
47.61173 -34.95412 196.17224 418
44.68539 -35.52604 198.79184 415
41.52785 -36.18383 201.47429 406
38.25020 -36.82011 204.27776 403
34.81052 -37.51639 207.13878 401
31.27740 -38.22202 210.09669 363
-182.97928 -80.78725 216.57407 424
82.56635 -28.88418 178.71349 458
76.40099 -30.18040 179.59979 312
65.66147 -32.36155 179.58580 434
63.25492 -32.85552 181.77133 432
60.72868 -33.36757 183.98912 429
58.15812 -33.89149 186.28265 427
55.52669 -34.46934 188.61729 425
52.80190 -34.97937 191.03027 422
50.04761 -35.55086 193.53365 420
47.18817 -36.15383 196.08728 417
44.22896 -36.75467 198.71007 408
41.01099 -37.40800 201.39302 405
37.67679 -38.09930 204.20885 403
34.23549 -38.82672 207.07379 400
30.59449 -39.57798 210.11104 363
-182.93971 -83.35870 216.54288 439
82.50436 -29.80700 178.62723 458
76.56377 -31.04853 179.56102 312
65.35922 -33.44838 179.45851 433
62.87371 -33.96248 181.63324 431
60.37627 -34.45512 183.88876 429
57.77703 -35.01773 186.15717 426
55.14438 -35.56226 188.52875 424
52.40136 -36.14631 190.94893 422
49.62593 -36.74204 193.42763 419
46.72601 -37.35100 196.00124 417
43.69409 -38.02168 198.65941 407
40.42252 -38.71469 201.37036 405
37.05813 -39.40887 204.14447 402
33.58408 -40.16084 207.08025 399
29.94638 -40.92247 210.05643 362
-182.88521 -85.97350 216.53137 439
82.48116 -30.68619 178.56378 458
76.73815 -31.95185 179.58876 312
65.02788 -34.48276 179.31427 432
62.56161 -35.04423 181.54233 430
60.02289 -35.56796 183.77638 428
57.43940 -36.14235 186.07307 426
54.74472 -36.72049 188.43579 423
52.01938 -37.33883 190.85864 421
49.16835 -37.92118 193.34039 419
46.28383 -38.58670 195.95111 416
43.14224 -39.23383 198.53514 407
39.86731 -39.98140 201.26543 404
36.47259 -40.73128 204.07094 401
32.99819 -41.46181 207.03378 399
29.22676 -42.30455 210.02022 362
-182.74338 -88.47827 216.54335 438
82.38247 -31.59589 178.49599 438
76.91251 -32.81509 179.59576 312
64.67871 -35.58396 179.22011 432
62.19625 -36.13437 181.37628 430
59.63670 -36.71853 183.66922 427
57.04263 -37.28832 185.94919 425
54.33850 -37.87717 188.31422 423
51.59353 -38.50219 190.73868 420
48.75550 -39.14146 193.26323 418
45.79498 -39.80227 195.81686 408
42.59583 -40.54266 198.50072 406
39.31959 -41.24058 201.20998 403
35.88038 -42.02381 204.03951 401
32.37877 -42.80618 206.94574 398
28.57644 -43.66644 209.97948 358
-188.28087 -92.40067 209.67812 485
-188.09427 -92.30327 216.58760 296
82.13532 -32.56227 178.37959 438
77.12498 -33.71721 179.55600 312
64.34154 -36.66884 179.06068 431
61.87190 -37.22831 181.25778 429
59.27340 -37.81188 183.51414 427
56.64611 -38.42290 185.82866 424
53.96491 -39.02605 188.19727 422
51.20253 -39.68248 190.64134 420
48.34521 -40.32743 193.17648 417
45.27613 -41.04212 195.73830 408
42.06561 -41.80040 198.40410 405
38.73347 -42.53342 201.14017 403
35.29234 -43.34932 203.99306 400
31.75570 -44.17310 206.95209 397
27.87150 -45.07542 209.99539 358
-187.79085 -94.88399 209.72174 485
-195.10252 -96.56143 216.50455 294
81.88546 -33.50047 178.25238 437
77.32898 -34.58723 179.56325 312
64.00502 -37.74937 178.95068 431
61.51269 -38.35563 181.14354 428
58.92085 -38.92870 183.41447 426
56.26755 -39.55420 185.72267 424
53.58673 -40.22110 188.13416 421
50.78891 -40.87027 190.56995 419
47.84097 -41.58990 193.07590 410
44.74602 -42.30085 195.65144 407
41.51192 -43.09999 198.34045 404
38.15083 -43.89486 201.09669 402
34.67826 -44.70908 203.93497 399
31.10922 -45.54218 206.86542 396
27.14044 -46.48329 209.95337 357
-187.30750 -97.40091 209.69521 485
81.63776 -34.46273 178.14555 436
77.52598 -35.43708 179.58197 312
63.70189 -38.81257 178.82481 430
61.15419 -39.42797 181.00262 428
58.55935 -40.07218 183.26830 425
55.88533 -40.75426 185.63071 423
53.16339 -41.42027 188.03001 421
50.35950 -42.09184 190.45493 418
47.34881 -42.81663 192.99089 409
44.17522 -43.56651 195.57901 406
40.92170 -44.37217 198.25922 404
37.57119 -45.19380 201.02617 401
34.09378 -46.03746 203.86432 398
30.49359 -46.93950 206.82899 396
26.42732 -47.89720 209.88876 356
-186.93555 -99.93542 209.68735 484
81.37159 -35.42772 178.01027 436
77.72023 -36.34307 179.57289 312
63.34402 -39.92582 178.67514 429
60.78998 -40.56562 180.87694 427
58.21433 -41.21423 183.16470 425
55.50351 -41.88741 185.48636 422
52.75411 -42.58125 187.89684 420
49.90761 -43.32116 190.34114 411
46.85923 -44.06845 192.88028 408
43.65002 -44.86061 195.45682 406
40.36373 -45.66145 198.13568 403
36.98170 -46.52268 200.95488 400
33.46212 -47.42264 203.78888 398
29.81643 -48.33731 206.80801 395
25.68549 -49.38028 209.89142 356
-186.78084 -102.55740 209.72203 485
81.13879 -36.38913 177.89471 435
77.96362 -37.19378 179.59148 312
63.00477 -41.03667 178.51611 429
60.46991 -41.71708 180.76903 426
57.84277 -42.36456 183.02469 424
55.11776 -43.05880 185.38632 422
52.36417 -43.76361 187.76422 419
49.44472 -44.54745 190.25327 410
46.33291 -45.35698 192.78224 407
43.11831 -46.13603 195.36363 405
39.80904 -47.00764 198.06012 402
36.37955 -47.87437 200.85677 400
32.83458 -48.78238 203.72827 397
29.16744 -49.74919 206.73232 394
24.61939 -50.89194 209.81119 269
80.85728 -37.38147 177.76042 435
78.18044 -38.07001 179.57422 312
62.69074 -42.18274 178.39278 428
60.07488 -42.87206 180.60092 426
57.45499 -43.53914 182.89795 423
54.73302 -44.26896 185.23740 421
51.95266 -44.96727 187.66223 412
48.95094 -45.79421 190.13863 409
45.78471 -46.63091 192.64270 407
42.57492 -47.46284 195.28773 404
39.22804 -48.35728 197.96600 402
35.80991 -49.23782 200.78445 399
32.21495 -50.16117 203.66512 396
28.51110 -51.18107 206.68365 394
-188.38055 -108.31908 202.72206 483
80.59900 -38.35915 177.61638 434
78.31804 -38.99350 179.53433 430
62.34055 -43.27818 178.23061 427
59.73853 -43.99602 180.48024 425
57.09511 -44.73813 182.78056 423
54.33620 -45.46734 185.12904 420
51.46467 -46.24024 187.53383 411
48.44787 -47.05242 190.00932 408
45.30660 -47.91381 192.57559 406
42.01226 -48.76564 195.19754 403
38.66822 -49.67241 197.89117 401
35.18404 -50.61448 200.73524 398
31.59062 -51.56845 203.60553 396
27.80399 -52.61105 206.63770 382
-188.06570 -110.90366 202.74687 495
80.36420 -39.35983 177.49944 432
78.07092 -39.99867 179.44041 430
61.97383 -44.43745 178.08417 427
59.38105 -45.16314 180.33966 424
56.70363 -45.87883 182.63252 422
53.98508 -46.63160 185.00453 420
50.97938 -47.45322 187.39119 410
47.93822 -48.31828 189.91324 408
44.78015 -49.21363 192.44371 405
41.46595 -50.10729 195.10091 403
38.09421 -51.05424 197.80247 400
34.58536 -51.99260 200.64075 398
30.88296 -53.04994 203.56488 384
26.84918 -54.15698 206.59845 370
-187.41689 -113.43460 202.69011 495
80.07863 -40.35551 177.32689 431
77.77802 -41.00857 179.29840 429
61.63522 -45.57562 177.95207 426
59.03865 -46.30024 180.22343 424
56.31076 -47.07884 182.52881 421
53.51361 -47.87337 184.88394 412
50.51068 -48.74583 187.29695 409
47.43921 -49.61523 189.78777 407
44.22188 -50.52459 192.32739 405
40.90646 -51.43934 194.98341 402
37.51169 -52.40037 197.70918 399
33.90251 -53.44607 200.55370 385
30.03310 -54.51665 203.46704 383
25.79613 -55.70193 206.49339 369
79.85112 -41.35914 177.21667 430
77.49941 -42.02746 179.13651 428
68.94353 -44.50927 179.62646 308
58.65085 -47.51175 180.04785 423
55.94805 -48.28973 182.35892 421
53.07776 -49.11761 184.71225 411
50.04880 -49.97222 187.12662 409
46.93966 -50.90590 189.61688 406
43.68850 -51.83412 192.23465 404
40.34983 -52.79601 194.89697 401
36.89057 -53.80068 197.63313 387
33.10201 -54.88035 200.46317 384
29.14542 -56.01671 203.38200 382
24.70113 -57.34173 206.42537 368
79.56349 -42.39071 177.05309 430
77.25159 -43.04432 179.02377 428
69.20470 -45.43347 179.63446 308
58.30172 -48.69190 179.91757 422
55.53555 -49.49577 182.21603 413
52.59650 -50.37298 184.58992 410
49.54917 -51.26094 186.98999 408
46.42125 -52.22085 189.53560 406
43.14359 -53.17358 192.09937 403
39.75746 -54.15886 194.75836 389
36.05008 -55.29232 197.52708 386
32.25961 -56.40865 200.35294 384
28.13506 -57.63581 203.31131 370
23.58016 -58.96651 206.35045 368
79.32922 -43.40254 176.90015 429
76.96646 -44.11900 178.87505 427
69.43468 -46.40033 179.66376 308
57.93246 -49.89945 179.76746 422
55.08896 -50.73120 182.07350 412
52.09712 -51.64099 184.42154 410
49.04291 -52.56087 186.85228 407
45.86532 -53.50330 189.41025 405
42.58167 -54.54188 192.00063 390
38.95832 -55.62320 194.63564 388
35.24654 -56.73474 197.37489 385
31.38946 -57.93263 200.25511 383
27.02131 -59.25167 203.20995 369
22.41785 -60.63330 206.26996 367
79.05441 -44.42075 176.78107 428
76.67552 -45.16702 178.74860 426
69.70542 -47.30745 179.65765 308
57.55980 -51.07343 179.60954 414
54.64856 -52.00046 181.91245 411
51.63091 -52.90739 184.30807 409
48.53925 -53.89060 186.73268 407
45.33698 -54.84924 189.22688 392
41.83883 -55.94559 191.81747 390
38.21656 -57.07125 194.49835 387
34.42813 -58.27147 197.25395 385
30.43071 -59.48832 200.15698 371
25.93016 -60.88771 203.09473 368
21.25647 -62.30917 206.22929 366
78.80937 -45.44345 176.63632 428
76.40334 -46.19069 178.58076 426
69.99281 -48.21845 179.64372 308
57.13377 -52.30309 179.42882 413
54.17942 -53.24920 181.77074 411
51.16758 -54.21189 184.14987 408
48.03272 -55.20822 186.60266 394
44.60032 -56.26078 189.08194 391
41.09061 -57.41595 191.66441 389
37.42248 -58.53860 194.34081 386
33.62476 -59.73932 197.14766 384
29.37022 -61.11103 200.04131 370
24.80907 -62.52789 202.99484 368
20.07249 -64.02583 206.12816 365
78.53425 -46.51034 176.46417 427
76.14426 -47.28628 178.44907 425
70.28040 -49.14814 179.63379 308
56.69622 -53.55956 179.26164 412
53.75587 -54.49162 181.59540 410
50.66135 -55.51197 183.95880 395
47.31856 -56.56716 186.42107 393
43.86905 -57.69876 188.90047 390
40.31403 -58.83219 191.54369 388
36.62575 -60.07155 194.24748 385
32.68057 -61.28792 197.00238 372
28.30312 -62.72855 199.91147 369
23.68544 -64.20872 202.88478 367
18.88625 -65.77281 206.06113 364
78.28316 -47.56314 176.30402 426
75.86590 -48.31902 178.31609 424
70.55367 -50.09554 179.63713 308
56.25473 -54.82578 179.08194 411
53.24192 -55.81816 181.40701 397
50.00047 -56.90668 183.78479 394
46.63168 -57.97874 186.20059 392
43.12358 -59.12279 188.72705 389
39.52084 -60.31033 191.35245 387
35.77834 -61.55030 194.08327 384
31.66569 -62.94519 196.85959 371
27.21955 -64.42194 199.75865 368
22.56381 -65.95836 202.81364 366
17.70653 -67.54995 205.95876 363
78.00204 -48.58121 176.13934 426
75.61047 -49.41291 178.12799 423
70.87776 -50.99589 179.62424 308
55.81280 -56.06521 178.92198 398
52.62506 -57.15579 181.20949 396
49.33981 -58.28400 183.58093 393
45.93662 -59.40833 186.06718 391
42.42100 -60.58130 188.56403 389
38.77578 -61.84077 191.23557 386
34.96344 -63.11181 193.92322 373
30.63105 -64.58230 196.74355 370
26.10904 -66.06264 199.64900 368
21.41128 -67.66956 202.71745 365
16.46335 -69.37266 205.87003 362
77.74045 -49.64947 175.99040 425
75.32613 -50.50023 178.00952 423
71.18621 -51.92531 179.63339 308
55.19040 -57.41182 178.71613 397
51.94221 -58.55826 180.99727 395
48.65233 -59.67307 183.37265 393
45.22239 -60.83570 185.83308 390
41.65635 -62.10414 188.40433 388
37.97400 -63.35623 191.05562 385
33.97718 -64.73854 193.79262 372
29.61417 -66.23158 196.58865 369
25.02939 -67.78997 199.53383 367
20.24636 -69.43314 202.60246 364
15.19888 -71.14163 205.80740 361
77.47001 -50.73984 175.82326 424
75.04907 -51.58603 177.81619 422
71.48781 -52.85875 179.64365 308
54.53868 -58.78181 178.49046 396
51.29729 -59.91525 180.78163 394
47.95333 -61.11942 183.18013 392
44.46807 -62.29287 185.64931 389
40.90144 -63.59190 188.22578 387
37.17229 -64.88915 190.89482 384
32.97813 -66.35909 193.57256 371
28.55318 -67.91219 196.43234 368
23.87705 -69.52171 199.37422 366
19.02005 -71.24068 202.49463 363
13.65965 -73.10064 205.70981 331
77.23979 -51.83989 175.67030 424
74.75433 -52.68619 177.67041 421
71.77982 -53.77618 179.62589 308
53.96154 -60.13637 178.26727 396
50.63789 -61.32833 180.58890 393
47.25089 -62.52260 182.99030 391
43.77941 -63.78765 185.44931 388
40.12144 -65.06461 188.05673 386
36.27171 -66.47195 190.69151 373
31.94275 -68.00554 193.40526 370
27.42142 -69.62526 196.26694 367
22.73068 -71.32515 199.25316 365
17.79055 -73.07565 202.33362 362
10.68588 -75.64909 205.49619 314
76.96964 -52.90096 175.51659 423
74.48608 -53.82455 177.49951 421
71.92796 -54.75524 179.57617 418
53.30375 -61.52908 178.02367 395
49.99402 -62.74959 180.38615 392
46.59076 -64.00195 182.79549 390
43.00211 -65.26623 185.25970 388
39.36420 -66.59961 187.85965 385
35.26902 -68.13349 190.48488 372
30.92943 -69.68443 193.27080 369
26.32251 -71.38494 196.10591 366
21.60335 -73.07082 199.10750 364
15.63541 -75.24577 202.17944 331
7.39551 -78.27316 205.32771 313
76.67437 -54.01891 175.35539 422
74.18506 -54.92323 177.34140 420
71.62681 -55.89336 179.42123 418
52.66048 -62.95368 177.78177 394
49.31270 -64.19323 180.12099 391
45.85539 -65.47056 182.55284 389
42.29975 -66.78012 185.07295 387
38.50592 -68.18663 187.67426 373
34.27282 -69.74547 190.33633 371
29.85083 -71.38357 193.06114 368
25.24796 -73.14613 195.96214 366
19.79497 -75.14881 198.90497 333
12.79434 -77.75509 201.94717 314
4.08232 -81.01360 205.13696 312
76.42296 -55.12800 175.19505 421
73.88850 -56.06391 177.20416 419
71.33562 -57.05631 179.27966 417
61.40592 -60.78597 179.70361 304
48.63460 -65.64958 179.90532 391
45.17467 -66.94778 182.32990 388
41.55299 -68.32764 184.84763 386
37.57777 -69.84064 187.44109 372
33.26784 -71.46404 190.11302 370
28.79038 -73.12821 192.89297 367
23.87083 -75.01011 195.78429 334
17.61890 -77.35559 198.67738 332
9.63712 -80.39864 201.72066 313
0.59375 -83.85445 204.91339 311
76.15858 -56.20887 175.02345 421
73.63996 -57.19818 177.04018 419
71.02378 -58.22461 179.12036 416
61.74838 -61.77912 179.71297 304
47.93964 -67.08598 179.69933 390
44.42582 -68.46435 182.15048 387
40.76093 -69.85468 184.66440 385
36.60410 -71.46379 187.24818 371
32.24556 -73.15215 189.90062 369
-26.50140 -10.22417 -3.25434 366
21.72829 -77.19078 195.50789 333
14.97485 -79.79512 198.39336 315
6.34714 -83.16293 201.43941 312
-3.04769 -86.77560 204.73085 310
75.89848 -57.36164 174.83839 420
73.35554 -58.35997 176.85162 418
70.67622 -59.38887 178.91261 386
62.09193 -62.74693 179.72954 304
47.25910 -68.59032 179.46973 389
43.67280 -70.00127 181.92371 386
39.82976 -71.49112 184.42674 373
35.62060 -73.16360 186.99321 370
31.22689 -74.92133 189.66881 368
25.77380 -77.02126 192.42360 334
19.54305 -79.44495 195.21466 332
11.86583 -82.47743 198.12773 314
2.93573 -85.97544 201.15483 311
-11.10259 -91.49023 204.24573 256
75.61649 -58.48319 174.64488 419
73.05946 -59.53103 176.68013 417
70.00425 -60.70169 178.66815 386
62.50286 -63.73925 179.72441 304
46.59515 -70.10538 179.18985 388
42.94677 -71.53807 181.69559 385
38.90789 -73.16071 184.16254 372
34.60398 -74.87219 186.79372 370
29.64905 -76.85946 189.42380 336
23.66442 -79.27229 192.11638 333
17.14510 -81.85879 194.90237 315
8.63921 -85.26985 197.76753 312
-0.66112 -88.97051 200.86815 310
75.32213 -59.62807 174.45897 419
72.47576 -60.79383 176.41963 387
69.34862 -62.06298 178.39534 385
62.84153 -64.70621 179.68808 304
45.84341 -71.65082 178.98114 387
42.09287 -73.14297 181.44121 374
37.92693 -74.86713 183.93568 371
33.47275 -76.67377 186.53523 337
27.66899 -79.05058 189.05719 335
21.55305 -81.52581 191.75757 332
14.05246 -84.57904 194.53598 314
5.25414 -88.14117 197.42680 311
-9.39947 -94.11197 200.19957 265
74.94048 -60.82271 174.26120 388
71.88754 -62.10149 176.15686 386
68.68338 -63.43778 178.17322 384
63.25400 -65.67655 179.69093 304
45.17060 -73.15604 178.74396 386
41.22002 -74.81879 181.14185 373
36.99274 -76.54348 183.67769 370
31.54004 -78.78945 186.12062 336
25.63098 -81.25206 188.71738 333
19.32102 -83.88428 191.42575 315
10.89689 -87.38848 194.14355 313
1.72265 -91.13811 197.04546 284
74.33207 -62.14200 173.95833 387
71.26524 -63.44468 175.90384 385
68.03651 -64.76024 177.91148 396
63.61426 -66.62486 179.69101 304
44.39108 -74.76162 178.43839 374
40.30526 -76.47921 180.86900 372
35.31225 -78.56528 183.26894 337
29.59548 -80.97228 185.77094 335
23.52469 -83.52955 188.33316 332
16.31648 -86.61178 191.00230 314
7.57489 -90.22681 193.73877 312
-9.02637 -97.27026 196.10011 265
73.71843 -63.47161 173.67636 386
70.58466 -64.78141 175.59415 384
67.42235 -66.17618 177.61328 395
63.99533 -67.60345 179.69217 304
43.49036 -76.38337 178.18782 373
38.98023 -78.35505 180.53665 338
33.43913 -80.74983 182.87932 336
27.57247 -83.26264 185.33702 334
21.33428 -85.91094 187.93172 331
13.17879 -89.43462 190.52156 313
2.67319 -93.91801 193.14677 284
73.13995 -64.76535 173.37424 386
69.98426 -66.16065 175.32872 383
66.79051 -67.54025 177.37566 394
64.10635 -68.71957 179.60202 392
42.55288 -78.13723 177.87019 340
37.17040 -80.45660 180.08914 337
31.49239 -82.93872 182.46021 335
25.52197 -85.56908 184.92955 333
18.53782 -88.57405 187.45557 314
9.92834 -92.32729 190.09018 312
-8.47664 -100.36354 191.88588 265
72.53651 -66.14491 173.07591 385
69.29881 -67.56496 175.05281 382
66.15343 -68.95174 177.08865 393
63.42204 -70.16884 179.34839 391
51.92943 -75.23308 179.77933 300
35.34697 -82.59521 179.65442 336
29.52751 -85.15294 182.00166 334
23.37289 -87.88152 184.51353 331
15.46977 -91.38879 186.97818 313
3.67324 -96.63303 189.23720 283
71.88014 -67.51084 172.80869 384
68.64285 -68.94686 174.76401 381
65.48635 -70.38201 176.81056 392
62.75386 -71.59393 179.11276 390
52.36463 -76.27690 179.80063 300
33.47705 -84.79951 179.17654 335
27.53475 -87.46809 181.54973 333
20.79759 -90.51610 184.00665 315
11.74871 -94.63246 186.34485 285
-7.88410 -103.44941 187.71194 265
71.26469 -68.89934 172.47720 383
67.96250 -70.37210 174.46040 380
64.82520 -71.84672 176.56477 391
62.08460 -73.10741 178.82292 389
52.84700 -77.31923 179.80322 300
31.53878 -87.08655 178.69217 334
25.45541 -89.88662 181.09018 332
17.77987 -93.38984 183.42328 313
4.79527 -99.36103 185.24788 283
70.63048 -70.29575 172.15201 382
67.32865 -71.84259 174.13817 379
64.19381 -73.30606 176.24652 390
61.34489 -74.61457 178.55144 388
53.30659 -78.36164 179.77068 300
29.54844 -89.41219 178.15427 333
23.06025 -92.45277 180.52280 315
12.83040 -97.20820 182.49564 285
-28.18380 -116.24374 180.39326 343
69.96356 -71.72112 171.83618 381
66.65176 -73.28121 173.84859 379
63.51556 -74.79492 175.96390 389
60.64315 -76.14983 178.30569 387
53.73801 -79.37305 179.78883 300
27.55125 -91.77950 177.63129 332
20.13085 -95.26485 179.89449 314
5.96551 -102.02204 181.27385 283
-27.01499 -117.61465 180.43663 284
-44140.42969 -20982.83203 -2171.28906 1000
70.39661 -72.65648 171.84123 316
65.95968 -74.80672 173.53961 378
62.80846 -76.31500 175.67415 388
59.96516 -77.67736 178.02411 386
54.23885 -80.40434 179.79939 300
39.29699 -87.58052 179.93152 296
14.07256 -99.69073 178.66095 284
-19.46249 -115.83970 176.99464 345
-26.32874 -119.09442 180.45415 284
70.81390 -73.59531 171.83853 316
65.24016 -76.30443 173.21156 377
62.09996 -77.82687 175.39908 387
59.22731 -79.22160 177.70338 385
54.68966 -81.46672 179.77202 300
39.81629 -88.68592 179.89780 296
7.27045 -104.61802 177.31378 283
-15.30212 -115.59399 177.58411 347
-25.64697 -120.61789 180.47012 284
71.25770 -74.51781 171.86356 316
64.54984 -77.82111 172.85735 376
61.41226 -79.36939 175.09502 386
58.49335 -80.82767 177.40742 384
54.84286 -82.65147 179.71222 327
40.37240 -89.83070 179.90384 296
-8.45592 -114.05048 174.30620 291
-8.52562 -114.03651 178.61996 291
71.68243 -75.39980 171.86011 316
63.83712 -79.40875 172.53117 375
60.69197 -80.97535 174.75702 385
57.62284 -82.48282 177.11607 327
52.66335 -85.01676 179.08031 326
40.85075 -90.94250 179.87833 296
0.23784 -111.41640 175.82199 292
0.15977 -111.39636 179.89363 292
72.17288 -76.33516 171.82219 316
63.06878 -80.95291 172.21025 374
59.99216 -82.53675 174.47444 384
55.54252 -84.80469 176.46367 326
50.47245 -87.41907 178.51970 325
41.41486 -92.06974 179.89149 296
23.88848 -100.99296 180.04842 292
2.68752 -111.84214 180.22713 288
72.61436 -77.25980 171.82664 316
62.58472 -82.43250 171.89148 312
58.41522 -84.60307 173.87526 326
53.40182 -87.20496 175.82707 324
48.15204 -89.95807 177.85753 323
41.97597 -93.14844 179.88557 296
24.48223 -102.20508 180.03027 292
3.36441 -113.18317 180.20845 288
73.06620 -78.15422 171.84291 316
63.09096 -83.45168 171.92207 312
56.30351 -86.98452 173.19611 325
51.18076 -89.72318 175.14395 323
45.79515 -92.54494 177.20161 322
40.21966 -95.46290 179.39966 320
25.05826 -103.44614 180.05321 292
3.96296 -114.57351 180.21791 288
73.51822 -79.08906 171.80251 316
63.54905 -84.37508 171.88391 312
54.16615 -89.42484 172.51045 324
48.86978 -92.26201 174.45998 322
43.35269 -95.21249 176.55695 321
37.61369 -98.27419 178.73489 319
25.68589 -104.63093 180.03752 292
73.99417 -80.00088 171.82515 316
64.06115 -85.35612 171.89067 312
52.81194 -91.50887 171.99901 308
46.50425 -94.88563 173.72878 321
40.81815 -97.95946 175.85399 320
34.87209 -101.21449 178.05911 318
18.26963 -110.20068 178.49936 271
74.48576 -80.90136 171.79903 316
64.56100 -86.34934 171.90186 312
53.35186 -92.54676 172.02116 308
44.04549 -97.65601 172.97266 319
38.20165 -100.85522 175.09344 318
24.97009 -108.10436 175.90373 270
-54.47475 -151.85413 164.67500 373
74.93669 -81.76863 171.81467 316
65.09908 -87.31981 171.88004 312
53.88990 -93.53615 172.01076 308
41.53208 -100.47658 172.23705 318
33.13463 -105.12793 173.83311 271
12.33591 -116.72958 173.10316 270
-51.09159 -152.20789 165.16359 287
75.42416 -82.66476 171.79323 316
65.61400 -88.24760 171.88470 312
54.43161 -94.58519 171.99385 308
41.64536 -101.84711 172.09651 304
26.82887 -110.20229 172.24237 300
9.46359 -120.09014 172.39740 296
-50.24251 -153.87750 165.15071 288
75.91676 -83.55878 171.78806 316
66.13005 -89.20219 171.89839 312
55.02351 -95.63535 171.99622 308
42.22310 -102.94004 172.11229 304
27.48235 -111.44118 172.19664 300
10.11579 -121.40221 172.33923 296
-49.38464 -155.61942 165.17705 288
76.42746 -84.48975 171.82321 316
66.68893 -90.17641 171.88232 312
55.58200 -96.61495 171.97763 308
42.83366 -104.06599 172.08141 304
28.14878 -112.64790 172.20042 300
10.83025 -122.72373 172.33647 296
-48.50117 -157.27841 165.11290 288
76.95327 -85.37302 171.80759 316
67.21233 -91.12804 171.87149 312
56.16193 -97.64216 171.95441 308
43.48403 -105.15574 172.07179 304
28.81082 -113.78967 172.23302 300
11.58261 -124.00021 172.36403 296
-47.56404 -158.91087 165.17050 286
77.42661 -86.24353 171.77565 316
67.74582 -92.07970 171.86057 312
56.70576 -98.64237 171.99388 308
44.09716 -106.25639 172.07153 304
29.47438 -114.98456 172.17546 300
12.33101 -125.28284 172.35187 296
-46.55701 -160.61595 165.14191 286
77.96847 -87.15105 171.78287 316
68.26897 -92.99873 171.85573 312
57.31888 -99.70416 171.95747 308
44.73035 -107.33978 172.09540 304
30.15022 -116.17271 172.20671 300
-28.02467 -151.54533 163.64297 372
78.50098 -88.00574 171.78000 316
68.83570 -93.96516 171.84169 312
57.89714 -100.70618 171.95020 308
45.34872 -108.44631 172.08900 304
30.82471 -117.36749 172.21846 300
-24.52326 -151.51016 164.20102 374
79.00771 -88.89240 171.76433 316
69.39701 -94.87883 171.83966 312
58.52573 -101.68174 171.98230 308
45.99581 -109.51668 172.07368 304
31.55801 -118.52780 172.21600 300
-21.01491 -151.40672 164.72807 375
79.55589 -89.78217 171.77463 316
69.96129 -95.82298 171.83818 312
59.13041 -102.68214 171.94173 308
46.64169 -110.58817 172.07040 304
32.23534 -119.74939 172.17749 300
-17.62895 -151.33043 165.27960 376
80.09035 -90.64279 171.76675 316
70.52087 -96.76622 171.85321 312
59.73621 -103.72392 171.96724 308
47.31931 -111.68089 172.06805 304
32.96675 -120.87558 172.14964 300
-14.84918 -151.57663 165.65562 291
80.63208 -91.50556 171.76749 316
71.10073 -97.69069 171.85410 312
60.31037 -104.67130 171.91924 308
47.97276 -112.71743 172.03957 304
33.68765 -122.02523 172.17531 300
-13.93898 -152.96780 165.65459 291
81.18061 -92.34627 171.74510 316
71.69032 -98.60694 171.86136 312
60.95997 -105.71465 171.95682 308
48.65144 -113.80847 172.02097 304
34.36461 -123.23381 172.16498 300
-12.96478 -154.45355 165.66899 291
81.71181 -93.22755 171.76060 316
72.27974 -99.52713 171.81969 312
61.57951 -106.67472 171.94495 308
49.32453 -114.89080 172.03278 304
35.12771 -124.34861 172.14816 300
-11.94673 -155.85161 165.69020 291
82.27372 -94.08214 171.77324 316
72.89742 -100.44392 171.85590 312
62.24616 -107.65276 171.94061 308
50.03113 -115.91122 172.02165 304
-1.64668 -150.92030 163.17726 382
-11.00858 -157.22934 165.62448 290
82.81741 -94.96732 171.74515 316
73.46277 -101.37263 171.80951 312
62.85777 -108.63988 171.94341 308
50.67083 -116.99042 172.00133 304
1.32358 -150.82906 163.64377 383
-10.05410 -158.67841 165.67010 290
83.37490 -95.79860 171.73680 316
74.05886 -102.27036 171.82115 312
63.49261 -109.64161 171.90056 308
51.38262 -118.03092 171.99704 304
4.30114 -150.75668 164.14459 385
-9.08553 -160.04640 165.67775 290
83.96140 -96.64008 171.71899 316
74.70539 -103.17552 171.84114 312
64.16402 -110.60983 171.90909 308
52.07126 -119.12002 172.01741 304
7.19074 -150.74916 164.64513 386
84.55246 -97.51135 171.73145 316
75.28755 -104.09676 171.83939 312
64.80943 -111.55371 171.89508 308
52.79049 -120.14429 171.99042 304
10.00740 -150.63774 165.06824 387
85.10423 -98.34549 171.74489 316
75.93848 -105.00177 171.83151 312
65.45824 -112.52441 171.87338 308
53.50993 -121.18690 172.01321 304
12.79768 -150.61717 165.58078 388
85.69312 -99.18788 171.71852 316
76.53701 -105.85876 171.80141 312
66.14409 -113.50414 171.91560 308
54.25867 -122.21061 171.98991 304
15.55393 -150.49980 165.97415 390
86.28874 -99.99188 171.70618 316
77.20164 -106.74901 171.80827 312
66.84168 -114.42665 171.91379 308
54.98052 -123.27174 172.01146 304
16.69928 -151.57504 166.07518 295
86.91435 -100.85848 171.70622 316
77.80772 -107.64565 171.77292 312
67.49586 -115.39158 171.87907 308
23.17762 -148.73138 163.23804 296
17.72365 -152.82730 166.10060 295
87.48934 -101.64671 171.73322 316
78.48601 -108.52707 171.80768 312
68.18917 -116.36511 171.88095 308
23.86933 -150.08333 163.15691 296
18.64651 -154.03725 166.06721 295
88.11393 -102.49684 171.72533 316
79.13512 -109.44543 171.81081 312
68.89980 -117.30691 171.88542 308
26.22133 -150.15892 163.55563 391
19.62530 -155.26445 166.06987 295
88.72158 -103.32262 171.71756 316
79.74422 -110.31728 171.77316 312
69.61634 -118.25603 171.85056 308
28.74490 -150.08612 164.00398 393
20.62440 -156.47937 166.13121 295
89.34850 -104.14122 171.68698 316
80.40951 -111.17764 171.76280 312
70.29694 -119.19907 171.87288 308
31.29218 -149.98088 164.41124 394
21.59888 -157.66013 166.12604 297
89.94755 -104.95375 171.66949 316
81.06144 -112.04596 171.78995 312
71.01764 -120.12176 171.83003 308
33.80516 -149.91455 164.84708 395
22.52349 -158.89853 166.07640 297
90.59519 -105.76664 171.71133 316
81.75539 -112.91145 171.77991 312
71.74602 -121.05830 171.82596 308
36.20927 -149.81541 165.31601 396
91.21205 -106.55115 171.67670 316
82.44125 -113.75688 171.74402 312
72.46755 -121.99097 171.84763 308
38.63710 -149.69743 165.71283 397
91.85629 -107.37445 171.70155 316
83.13316 -114.63622 171.74634 312
45.18414 -146.14880 163.35764 300
40.98533 -149.61105 166.13341 399
92.51613 -108.14521 171.66956 316
83.79929 -115.48399 171.75330 312
45.99345 -147.30396 163.35376 300
42.25158 -150.39725 166.20146 301
93.15573 -108.94473 171.66040 316
84.46252 -116.36333 171.71928 312
46.70906 -148.50667 163.26489 300
43.21640 -151.48148 166.24898 301
93.81045 -109.74199 171.64140 316
85.18987 -117.19853 171.74449 312
47.85504 -149.38179 163.39334 401
44.16289 -152.60277 166.20079 301
94.43481 -110.54617 171.67171 316
85.86398 -118.02894 171.74706 312
50.10302 -149.27844 163.78305 403
45.09809 -153.66594 166.22554 301
95.13519 -111.29971 171.67181 316
86.59077 -118.88756 171.74820 312
52.25006 -149.23439 164.18732 404
46.06586 -154.69682 166.21764 301
95.78735 -112.12304 171.65643 316
87.28919 -119.68730 171.69920 312
54.39849 -149.16328 164.54877 405
46.96529 -155.76947 166.25172 301
96.46576 -112.85876 171.65697 316
87.99341 -120.53159 171.72414 312
56.54282 -149.07031 164.95041 406
47.95494 -156.82945 166.24571 301
97.12098 -113.65768 171.62120 316
88.71181 -121.35715 171.73038 312
58.62714 -148.98842 165.26749 407
48.90868 -157.92387 166.23463 301
97.80938 -114.41016 171.60809 316
65.39802 -144.50327 163.48306 304
60.67045 -148.87599 165.69028 408
98.47533 -115.17371 171.64058 316
66.19299 -145.53786 163.46028 304
62.76272 -148.82919 166.01744 410
99.19196 -115.92744 171.61893 316
66.99304 -146.62663 163.43573 304
64.54099 -148.91275 166.29512 305
99.86810 -116.68779 171.63390 316
67.78610 -147.66429 163.38362 303
65.49719 -149.86626 166.34135 305
100.56011 -117.43269 171.60814 316
68.66775 -148.59644 163.38039 412
66.39693 -150.76537 166.30318 305
101.30386 -118.19134 171.60811 316
70.56310 -148.54027 163.76340 413
67.32427 -151.72327 166.30588 305
101.97726 -118.96563 171.59155 316
72.45838 -148.45622 164.10294 414
68.27314 -152.63405 166.33585 305
102.69099 -119.66950 171.57268 316
74.33430 -148.38855 164.45186 416
69.26720 -153.53479 166.32886 305
82.71124 -141.61870 163.64395 307
76.21291 -148.31824 164.78859 417
70.21619 -154.49561 166.35608 305
83.52889 -142.56886 163.62383 307
78.03481 -148.23669 165.11516 418
71.14397 -155.37799 166.33493 305
84.29717 -143.47879 163.57831 307
79.85796 -148.19911 165.39558 419
72.08225 -156.26836 166.36908 305
85.08064 -144.38484 163.58171 307
81.60134 -148.08420 165.73933 420
73.04803 -157.22960 166.36444 305
85.90993 -145.31424 163.52180 307
83.38262 -148.01302 166.05092 421
86.74714 -146.19925 163.50166 307
85.07899 -147.96747 166.37091 422
87.52984 -147.11302 163.45314 307
86.17632 -148.67514 166.43298 309
88.51577 -147.83604 163.51569 423
87.05859 -149.46011 166.41087 309
90.20605 -147.77988 163.80676 424
88.02071 -150.27519 166.43236 309
91.84998 -147.70354 164.09369 425
88.92764 -151.06053 166.40059 309
93.48078 -147.66212 164.38800 426
89.85229 -151.85699 166.43431 309
95.07498 -147.58589 164.68799 427
90.84278 -152.65895 166.41991 309
96.72668 -147.54094 164.99020 418
91.77693 -153.40506 166.45299 309
98.37416 -147.37749 165.30693 419
92.69163 -154.19334 166.42538 309
100.03030 -147.20422 165.61270 420
93.68920 -154.95659 166.43993 309
101.67194 -147.02112 165.92905 421
94.65020 -155.71460 166.44666 310
103.26333 -146.90096 166.25534 422
95.60770 -156.44971 166.46121 310
104.65333 -146.98625 166.45813 314
105.56600 -147.66418 166.45384 314
106.45989 -148.36128 166.48534 314
107.36396 -149.08545 166.48016 314
108.26694 -149.75206 166.46167 314
109.22887 -150.46689 166.44843 314
110.10800 -151.14073 166.47969 314
111.06644 -151.78629 166.46281 314
111.99863 -152.48453 166.47964 314
115.09223 -150.04945 167.48062 316
115.97075 -150.71686 167.47462 316
116.90456 -151.36464 167.45923 316
119.63892 -149.34673 168.32367 274
120.74715 -149.65071 168.41797 489
124.05158 -148.63533 169.14201 489
124.85081 -149.33055 169.06174 489
-34978.42188 -54838.53516 9907.21484 1000
126.84937 -148.25075 169.62344 441
127.70425 -148.89142 169.59438 395
-9863.63770 -18322.32617 5100.50781 1000
-226.99068 -1656.58911 -37.57727 1000
218.92711 -5.96722 216.63684 1000
-11394.70020 -47605.97656 -7861.33740 1000
-240.18243 -1940.55664 86.37334 438
-241.29288 -1945.50476 118.56533 438
-243.17239 -1952.27063 151.23076 484
-227.51419 -1939.18213 86.48696 497
-228.57884 -1944.98096 119.04892 491
-230.35457 -1951.00208 151.42410 467
-216.66968 -1946.31726 86.41386 410
-10226.32031 -47891.87891 -8690.54980 1000
-3832.20581 -28530.98438 7441.11816 1000
255.81180 -1449.27051 97.84383 449
256.22147 -1452.60266 121.38166 449
256.24518 -1457.46729 145.06636 394
264.66037 -1445.27332 98.03611 499
264.67139 -1448.08923 121.60758 499
264.76877 -1451.02393 145.38530 499
265.15179 -1453.84521 168.96512 484
265.08530 -1456.38745 192.80713 484
273.48846 -1445.97900 98.02995 488
273.64273 -1449.21533 121.59028 488
274.01883 -1452.51550 145.08571 453
273.92624 -1456.65454 168.81859 463
282.85352 -1452.59656 97.31454 398
283.00787 -1459.93677 121.03024 329
742.57111 -935.01257 111.19807 412
743.71216 -937.50946 128.47897 346
745.58044 -927.43073 111.55313 461
746.30640 -928.67395 128.94289 461
747.10333 -929.98633 146.45303 461
748.08990 -931.95105 163.99844 394
748.96033 -933.67828 181.52817 347
750.47003 -922.98126 111.78983 499
751.05127 -923.79114 129.04860 499
751.66614 -924.62427 146.58449 499
752.27850 -926.12769 164.10471 499
752.72595 -926.59827 181.49228 492
753.25049 -927.75757 198.87653 499
756.75574 -920.50989 111.71191 480
757.02203 -921.35400 129.18414 480
757.87335 -922.54572 146.63025 480
758.56519 -923.85889 164.04614 476
759.08209 -924.47919 181.77415 441
759.81519 -925.96002 199.21147 388
764.06793 -920.59100 111.49625 438
764.90576 -921.95654 129.04405 438
