# .PCD v.7 - Point Cloud Data file format
VERSION .7
FIELDS x y z rgb
SIZE 4 4 4 4
TYPE F F F U
COUNT 1 1 1 1
WIDTH 1380
HEIGHT 1
VIEWPOINT 4426.783203 -4084.931152 141.773621 -0.016873 -0.126338 -0.001811 0.991842
POINTS 1380
DATA ascii
77.74810 -34.04409 179.55211 312
64.29032 -37.12196 178.93163 431
61.77073 -37.71581 181.12486 429
59.23069 -38.31643 183.41919 427
56.57768 -38.92467 185.74561 425
53.84697 -39.51429 188.14247 422
51.08718 -40.17710 190.58115 420
48.20464 -40.82413 193.12286 417
45.09345 -41.55702 195.67192 408
41.83832 -42.28467 198.33992 405
38.50259 -43.07404 201.14464 403
35.08485 -43.82433 203.97394 400
31.50568 -44.68919 206.96469 397
27.49727 -45.58430 209.98558 358
-187.78583 -95.03843 209.70570 485
-195.66550 -96.82810 216.61409 294
81.87878 -34.00581 178.07413 437
77.99780 -34.94598 179.57681 312
63.98444 -38.22304 178.77544 431
61.45198 -38.85849 181.00653 428
58.84959 -39.43971 183.25772 426
56.20732 -40.07680 185.61476 424
53.46217 -40.74383 188.02383 422
50.63726 -41.40069 190.44824 419
47.66393 -42.08580 193.00102 410
44.52435 -42.80707 195.58780 407
41.28107 -43.60665 198.29918 405
37.93941 -44.38686 201.02438 402
34.44788 -45.21127 203.92477 399
30.84768 -46.02948 206.87889 397
26.79527 -47.03558 209.94339 357
-187.35776 -97.58131 209.68748 485
81.63229 -34.98286 177.91623 437
78.22961 -35.82489 179.57582 312
63.63474 -39.34246 178.63153 430
61.10206 -39.97337 180.85167 428
58.48514 -40.59844 183.11815 426
55.80592 -41.22803 185.47911 423
53.05915 -41.94045 187.89923 421
50.23699 -42.59003 190.37173 419
47.18784 -43.34835 192.91031 409
43.99857 -44.08825 195.52266 406
40.73406 -44.89642 198.19859 404
37.35877 -45.72517 200.98157 401
33.82081 -46.57900 203.86946 399
30.22401 -47.46381 206.82372 396
26.08847 -48.47219 209.91827 357
-186.79393 -100.08901 209.68112 484
81.37895 -35.95235 177.78741 436
78.48028 -36.71348 179.57489 312
63.30047 -40.45675 178.47630 429
60.73344 -41.09921 180.72704 427
58.09981 -41.75043 183.00203 425
55.40882 -42.44789 185.37242 423
52.63666 -43.10977 187.76819 420
49.76430 -43.86550 190.25946 411
46.65437 -44.60638 192.78191 408
43.46005 -45.40616 195.41795 406
40.15719 -46.22328 198.12022 403
36.76498 -47.08002 200.89436 401
33.21647 -47.96841 203.77974 398
29.53707 -48.85588 206.78696 395
25.01743 -50.01753 209.91484 269
-186.80122 -102.75928 209.74356 485
81.12105 -36.97435 177.67122 435
78.69682 -37.58116 179.54904 312
62.94600 -41.58363 178.31609 429
60.39807 -42.25463 180.55594 427
57.75859 -42.91713 182.85097 424
55.03401 -43.62723 185.24504 422
52.23838 -44.33088 187.64009 420
49.27287 -45.10958 190.10625 410
46.12912 -45.88900 192.68510 408
42.93391 -46.72925 195.27623 405
39.61364 -47.54760 198.00218 402
36.14703 -48.45545 200.82472 400
32.60072 -49.36501 203.72395 397
28.88486 -50.33064 206.73911 395
-188.38225 -105.85786 202.78947 484
80.86777 -37.95719 177.49886 435
78.59436 -38.56029 179.48131 431
62.62131 -42.74527 178.20227 428
60.01611 -43.41926 180.43867 426
57.38145 -44.11695 182.75171 424
54.64020 -44.80733 185.09007 421
51.79275 -45.58426 187.53738 412
48.77330 -46.37178 190.02997 409
45.61221 -47.17545 192.56351 407
42.36552 -48.05492 195.21219 404
39.01480 -48.93144 197.94115 402
35.53174 -49.81394 200.73337 399
31.98381 -50.79304 203.64597 396
28.25516 -51.73451 206.67867 394
-188.40588 -108.47554 202.77435 483
80.60728 -38.97591 177.38992 434
78.32319 -39.58014 179.31516 430
62.29799 -43.87976 178.02521 427
59.69871 -44.59660 180.30940 425
57.00987 -45.30275 182.59895 423
54.27377 -46.05442 184.96609 421
51.35092 -46.80955 187.38487 411
48.24583 -47.65580 189.88098 409
45.11873 -48.47664 192.46393 406
41.84512 -49.39702 195.11314 404
38.43060 -50.29229 197.84669 401
34.96490 -51.24585 200.63921 398
31.30968 -52.21777 203.61542 396
27.41318 -53.24191 206.65498 382
-187.97459 -111.08768 202.70912 495
80.37621 -39.96422 177.24089 433
78.03407 -40.58702 179.18509 430
69.24797 -43.03289 179.66100 308
59.31604 -45.76688 180.12666 424
56.61514 -46.51089 182.47601 422
53.85635 -47.26944 184.82904 413
50.83871 -48.10814 187.28253 410
47.75676 -48.95110 189.77122 408
44.58826 -49.83869 192.34200 405
41.28373 -50.74809 195.01111 403
37.84777 -51.66337 197.71378 400
34.36184 -52.64389 200.56500 398
30.52877 -53.67913 203.52711 384
26.37213 -54.82794 206.56497 370
-187.33604 -113.65427 202.70679 495
80.13343 -40.96472 177.09442 431
77.78829 -41.63509 179.03770 429
69.54881 -43.96390 179.63339 308
58.98932 -46.94774 179.98628 424
56.24715 -47.70640 182.29778 422
53.39878 -48.51934 184.71324 412
50.35804 -49.36354 187.13695 410
47.27040 -50.25946 189.62395 407
44.05450 -51.13384 192.23477 405
40.70879 -52.06248 194.88841 402
37.25429 -53.06443 197.65839 400
33.58264 -54.10497 200.49316 386
29.62429 -55.18072 203.45866 383
25.26064 -56.45903 206.49377 370
79.85603 -42.01995 176.93433 431
77.51150 -42.68050 178.88069 428
69.83140 -44.87657 179.64363 308
58.60274 -48.15946 179.85597 423
55.86952 -48.91037 182.18674 421
52.91759 -49.75842 184.53732 411
49.86332 -50.64035 186.96118 409
46.72541 -51.55454 189.49480 406
43.47504 -52.49075 192.07658 404
40.15752 -53.47813 194.78412 401
36.52069 -54.51159 197.52547 387
32.72940 -55.58068 200.35962 385
28.69442 -56.74360 203.34201 371
24.16723 -58.09223 206.44038 369
79.60410 -43.04252 176.78766 430
77.22385 -43.72948 178.73119 428
70.15617 -45.83283 179.64111 308
58.23549 -49.32365 179.66121 422
55.43631 -50.18616 182.00594 413
52.46095 -51.03896 184.37985 411
49.39462 -51.96563 186.83374 408
46.21787 -52.89418 189.36368 406
42.93872 -53.85358 191.99142 403
39.43714 -54.92192 194.64014 389
35.71292 -55.98928 197.39304 386
31.84162 -57.14946 200.29875 384
27.64071 -58.39376 203.24965 370
22.99323 -59.75951 206.33846 368
79.34341 -44.07494 176.63007 429
76.98135 -44.79314 178.60577 427
70.45543 -46.74721 179.64374 308
57.87827 -50.56458 179.53148 422
55.00725 -51.44487 181.84550 412
51.97073 -52.31787 184.22812 410
48.91114 -53.27333 186.70750 407
45.72192 -54.24871 189.20357 405
42.23531 -55.27739 191.81291 391
38.64556 -56.38535 194.52722 388
34.88270 -57.50778 197.26099 386
30.99291 -58.67018 200.16385 372
26.51157 -59.99881 203.14265 370
21.87213 -61.42574 206.24663 367
79.07649 -45.10292 176.45221 429
76.69572 -45.85694 178.47229 426
70.75173 -47.70967 179.65289 308
57.49757 -51.80718 179.37192 414
54.51828 -52.70312 181.67783 411
51.52839 -53.62963 184.06857 409
48.37316 -54.59896 186.53847 407
45.01818 -55.65415 189.05002 392
41.49201 -56.69840 191.65599 390
37.87777 -57.85540 194.36372 387
34.08775 -59.01685 197.15190 385
29.93520 -60.31129 200.04715 371
25.41724 -61.65717 203.02718 369
20.66284 -63.15248 206.15733 366
78.82397 -46.19153 176.32260 428
76.44705 -46.91837 178.29196 426
71.04901 -48.64706 179.63811 308
57.06712 -53.05730 179.19374 413
54.08920 -53.98750 181.53659 411
51.02412 -54.92691 183.90013 408
47.74788 -55.97079 186.35497 394
44.33233 -57.05616 188.92018 391
40.72191 -58.20156 191.48889 389
37.07533 -59.34417 194.23302 386
33.20986 -60.55262 197.02396 384
28.87849 -61.95683 199.94495 370
24.29872 -63.36436 202.91934 368
19.48971 -64.87489 206.07771 365
78.56880 -47.21825 176.15155 427
76.15247 -48.03386 178.14130 425
71.36098 -49.57059 179.61900 308
56.62439 -54.32053 178.99385 412
53.65351 -55.29345 181.34419 410
50.43784 -56.30626 183.72162 395
47.07935 -57.36533 186.20905 393
43.57459 -58.49714 188.71837 391
39.99711 -59.68018 191.32968 388
36.21857 -60.85550 194.08372 386
32.21751 -62.14475 196.90846 372
27.80145 -63.58620 199.78860 370
23.15913 -65.08267 202.85027 367
18.32028 -66.62798 206.01135 364
78.31475 -48.29836 175.98712 427
75.88776 -49.10576 178.00017 424
71.71651 -50.46424 179.64357 308
56.16576 -55.58402 178.84219 412
53.05039 -56.61060 181.14812 397
49.76077 -57.71212 183.51682 395
46.36625 -58.80834 185.98662 392
42.82014 -59.96039 188.56787 390
39.18591 -61.19411 191.21687 387
35.39623 -62.41442 193.93135 385
31.17488 -63.78602 196.72986 371
26.67529 -65.29163 199.67801 369
21.95741 -66.85815 202.73714 366
17.08609 -68.44914 205.90936 363
78.06198 -49.37036 175.80365 426
75.58407 -50.21539 177.83136 424
72.02301 -51.41153 179.64098 308
55.58143 -56.93122 178.61517 398
52.36969 -58.02343 180.91621 396
49.08370 -59.11675 183.33363 394
45.61586 -60.28924 185.80325 391
42.07887 -61.43937 188.37704 389
38.39989 -62.66945 191.00769 386
34.50826 -64.01663 193.75380 373
30.15835 -65.49991 196.59793 370
25.59693 -66.98507 199.56007 368
20.83668 -68.63036 202.62891 365
15.78867 -70.26070 205.84622 362
77.77402 -50.47442 175.64848 425
75.35073 -51.29634 177.65170 423
72.38024 -52.34042 179.62233 308
54.98784 -58.28067 178.35881 397
51.75135 -59.40285 180.72096 395
48.39087 -60.55476 183.11571 393
44.91665 -61.74462 185.61491 390
41.31661 -62.97375 188.17967 388
37.59014 -64.23828 190.83374 385
33.50341 -65.65652 193.57278 372
29.06658 -67.13698 196.43399 369
24.41676 -68.77109 199.42145 367
19.62073 -70.39503 202.51767 364
14.53031 -72.15267 205.74538 361
77.50592 -51.55716 175.47168 424
75.04745 -52.44503 177.51678 422
72.52244 -53.32642 179.56755 420
54.36297 -59.64568 178.17073 397
51.08047 -60.81813 180.49359 394
47.67194 -62.01030 182.89830 392
44.18801 -63.22644 185.41505 389
40.56442 -64.50612 187.99535 387
36.75932 -65.81623 190.69156 374
32.47355 -67.31740 193.42783 371
28.00829 -68.87916 196.29007 369
23.28322 -70.51974 199.28163 366
18.37381 -72.22358 202.41058 363
12.14861 -74.40492 205.62343 315
77.25046 -52.67416 175.31004 424
74.75587 -53.54829 177.34976 422
72.23247 -54.45837 179.41347 419
53.73538 -61.06632 177.91989 396
50.42074 -62.25721 180.25246 393
47.00115 -63.47968 182.66833 391
43.47040 -64.72443 185.21989 389
39.76083 -66.00981 187.78490 386
35.78014 -67.46155 190.50546 373
31.41429 -68.99287 193.24457 370
26.89118 -70.62432 196.12328 368
22.10617 -72.31078 199.12837 365
16.71910 -74.23984 202.24075 333
8.98132 -77.00495 205.38875 314
76.99543 -53.76831 175.13680 423
74.47321 -54.69624 177.15556 421
71.91338 -55.61948 179.26166 419
61.95803 -59.23249 179.72090 304
49.75004 -63.66686 180.00931 393
46.28445 -64.94605 182.47485 390
42.72924 -66.23315 184.98846 388
39.01016 -67.61092 187.62708 385
34.80602 -69.12444 190.28358 372
30.37767 -70.73927 193.02763 369
25.77870 -72.37524 195.94844 367
20.79025 -74.21808 198.98779 334
14.21049 -76.55352 202.06133 316
5.63382 -79.72233 205.22993 313
-63814.85547 -23264.74414 12640.99121 1000
76.75497 -54.92363 174.94295 422
74.22559 -55.84467 177.00627 420
71.60054 -56.81377 179.07170 418
62.33129 -60.25455 179.70721 304
49.08482 -65.17843 179.81084 392
45.56054 -66.47047 182.24335 389
41.96151 -67.81115 184.78773 387
38.08473 -69.25036 187.41846 373
33.78252 -70.81733 190.06403 371
29.29011 -72.44740 192.83969 368
24.66206 -74.20758 195.81087 366
18.59719 -76.43040 198.70653 333
11.07502 -79.18426 201.75601 315
2.22845 -82.50948 205.02190 312
76.45762 -56.04302 174.78250 422
73.95148 -56.98964 176.81161 419
71.33578 -58.00285 178.90643 417
62.76567 -61.20059 179.68457 304
48.37131 -66.62413 179.55864 391
44.84614 -67.96918 182.03613 388
41.18200 -69.34545 184.57840 386
37.08712 -70.89586 187.17143 373
32.75227 -72.53470 189.87144 370
28.22522 -74.22025 192.68422 367
22.71326 -76.33069 195.50432 334
16.34262 -78.71571 198.48381 316
7.86208 -81.93720 201.49664 313
-1.35012 -85.40312 204.77379 311
-84.96999 -32.65728 -24.35334 421
73.65455 -58.17191 176.62236 419
71.02309 -59.18980 178.73912 416
63.13121 -62.19107 179.69998 304
47.71459 -68.16338 179.34177 390
44.09493 -69.53422 181.81493 387
40.34210 -70.98016 184.36000 374
36.11877 -72.59157 186.96649 372
31.69987 -74.26246 189.68338 369
26.62239 -76.20857 192.39743 336
20.52584 -78.60870 195.27750 333
13.22093 -81.40311 198.17975 315
4.47163 -84.74396 201.22194 312
-5.05925 -88.37260 204.58493 310
75.93266 -58.35054 174.40433 420
73.37249 -59.31789 176.45645 418
70.38639 -60.49054 178.47444 387
63.52845 -63.18553 179.67836 304
46.99287 -69.67858 179.10399 389
43.36526 -71.09396 181.56526 387
39.39770 -72.61507 184.09995 373
35.09185 -74.31097 186.69110 371
30.51821 -76.13167 189.42104 337
24.59259 -78.42310 192.12393 335
18.28099 -80.91087 194.97073 332
10.04981 -84.10104 197.85634 314
0.97213 -87.66843 200.96150 311
75.66251 -59.49950 174.23135 419
72.86753 -60.59177 176.23601 388
69.75411 -61.85654 178.21170 386
63.95183 -64.16693 179.67844 304
46.26342 -71.17587 178.83102 388
42.58870 -72.64845 181.30365 375
38.43553 -74.32774 183.87009 372
34.12603 -76.04990 186.49858 370
28.48337 -78.28726 189.08745 336
22.41636 -80.69111 191.76157 333
15.38559 -83.50022 194.56616 315
6.74340 -86.93883 197.51707 313
-3.35070 -90.94765 200.61682 284
75.34110 -60.71016 173.98042 389
72.26975 -61.94906 175.96062 387
69.07204 -63.24467 177.96262 385
64.36803 -65.13721 179.70079 304
45.57215 -72.78492 178.57632 387
41.65878 -74.35728 181.04001 374
37.44295 -76.02266 183.58316 371
32.30183 -78.12431 186.11484 337
26.48903 -80.48470 188.68506 335
20.23352 -83.02670 191.47485 332
12.24914 -86.24761 194.23723 314
3.28928 -89.92322 197.14380 311
-19.06518 -98.97967 199.50157 265
74.74116 -62.00835 173.68713 389
71.61623 -63.28027 175.65855 386
68.41026 -64.61087 177.66370 384
64.78770 -66.13513 179.70837 304
44.82314 -74.33118 178.32498 386
40.77558 -76.04778 180.74811 373
36.06239 -77.98083 183.23579 339
30.37032 -80.33638 185.74066 336
24.36484 -82.81248 188.31525 334
17.49544 -85.63556 191.05658 315
8.97870 -89.14455 193.81339 313
-2.55387 -93.92126 196.60410 284
74.12129 -63.33778 173.39969 388
70.97632 -64.67812 175.38527 385
67.71664 -65.99627 177.40115 383
65.03460 -67.15240 179.66826 395
43.99029 -76.01380 178.01906 374
39.66519 -77.77294 180.45084 340
34.20631 -80.07995 182.83308 337
28.35729 -82.54972 185.31136 335
22.22788 -85.13142 187.94902 333
14.42274 -88.42666 190.60576 314
5.53462 -92.11041 193.36351 285
-18.95822 -102.46293 195.10721 265
73.51205 -64.66733 173.13416 387
70.30884 -66.04479 175.09480 384
67.08398 -67.41361 177.12729 395
64.36266 -68.57466 179.39333 394
52.66346 -73.60226 179.78734 300
37.90056 -79.87810 180.01950 339
32.29954 -82.30309 182.36375 336
26.30317 -84.86228 184.88196 334
19.65565 -87.67239 187.48015 316
11.22760 -91.30368 190.09360 313
-1.65964 -96.82485 192.54332 284
72.90481 -66.03529 172.79199 386
69.67902 -67.45174 174.80048 383
66.45003 -68.85210 176.84485 395
63.68368 -70.06733 179.13144 393
53.12525 -74.64428 179.76840 300
36.08827 -82.06895 179.57257 338
30.33512 -84.57631 181.94563 335
24.24305 -87.22330 184.45470 333
16.67426 -90.48755 186.98900 315
6.46767 -94.89509 189.41194 285
72.24392 -67.45729 172.48318 385
68.99718 -68.89260 174.47119 383
65.78693 -70.29570 176.55499 394
63.01907 -71.53339 178.86992 392
53.59329 -75.68764 179.77686 300
34.17346 -84.26876 179.05925 336
28.27547 -86.88534 181.45061 334
21.84268 -89.69186 184.00957 316
13.51868 -93.40514 186.48546 313
-0.99917 -99.78046 188.42783 266
71.64138 -68.86211 172.18509 384
68.33092 -70.30652 174.16339 382
65.11824 -71.79111 176.29639 393
62.33254 -73.00166 178.58589 391
54.07218 -76.71786 179.79359 300
32.27269 -86.50401 178.58328 335
26.22785 -89.24979 181.01805 333
18.90499 -92.52050 183.43044 315
7.39420 -97.68375 185.47165 285
70.99265 -70.27454 171.87231 383
67.64756 -71.80164 173.86641 381
64.45145 -73.27017 175.96693 392
61.60139 -74.52671 178.30888 390
54.51529 -77.79041 179.78368 300
30.32435 -88.86087 178.07863 334
24.06078 -91.71222 180.51535 316
15.07218 -95.75685 182.71774 286
-0.42865 -102.83636 184.24133 266
71.38641 -71.21706 171.86079 316
66.97442 -73.26892 173.52879 380
63.78541 -74.77392 175.70050 391
60.93090 -76.07030 178.03333 389
55.04530 -78.83248 179.76320 300
28.30156 -91.25482 177.56999 333
21.17184 -94.51530 179.89732 315
8.43487 -100.45002 181.52081 285
-26.11305 -116.47314 180.47682 284
71.83575 -72.17109 171.82426 316
66.28259 -74.79836 173.21855 379
63.07670 -76.30031 175.37914 390
60.18501 -77.63692 177.73676 388
55.53553 -79.86068 179.74754 300
40.53086 -86.92315 179.91827 296
16.17438 -98.39006 178.88202 286
0.36529 -105.90447 180.06053 266
-25.36515 -118.02117 180.41974 284
72.32911 -73.07742 171.83965 316
65.57307 -76.33421 172.90350 378
62.39472 -77.84729 175.09018 388
59.47594 -79.25624 177.40508 387
56.02698 -80.89404 179.75711 300
41.07486 -88.07047 179.88313 296
9.59430 -103.13644 177.51173 285
-16.59373 -115.65247 177.20576 345
-24.64022 -119.54634 180.41380 284
72.77963 -74.04292 171.83386 316
64.89394 -77.84813 172.55489 377
61.65505 -79.42844 174.78003 387
58.74007 -80.84339 177.11952 385
55.08183 -82.62451 179.44627 328
41.61652 -89.14935 179.88599 296
1.27920 -108.84560 175.87643 266
-11.00160 -114.83968 177.97150 289
-23.95352 -121.11189 180.47432 284
73.25220 -74.95972 171.80353 316
64.18373 -79.43988 172.21814 376
60.96268 -81.02878 174.44518 386
57.90982 -82.51715 176.79021 328
52.93385 -84.96616 178.85406 327
42.22612 -90.28209 179.88377 296
-1.66294 -111.94792 175.22781 290
-1.70578 -111.95919 179.42293 290
73.70844 -75.86238 171.80455 316
63.60311 -80.96300 171.88222 312
60.24250 -82.63602 174.10069 385
55.80960 -84.85525 176.15662 327
50.74358 -87.44106 178.24681 326
42.78080 -91.42455 179.85747 296
25.16355 -100.27821 180.03777 292
3.84028 -110.92831 180.22855 288
74.20177 -76.80164 171.80061 316
64.13357 -81.91747 171.89696 312
58.63382 -84.71673 173.53773 328
53.64188 -87.25626 175.51517 326
48.42752 -89.90838 177.59854 325
43.08304 -92.67435 179.84271 323
25.74432 -101.49519 179.99135 292
4.49992 -112.29558 180.16679 288
74.71248 -77.72761 171.81731 316
64.65559 -82.92953 171.88417 312
56.53830 -87.08216 172.86594 327
51.41075 -89.76640 174.83498 325
46.06819 -92.55038 176.94972 324
40.57421 -95.35680 179.15297 322
26.37947 -102.67889 180.03221 292
5.22433 -113.69317 180.18062 288
75.21353 -78.63846 171.78854 316
65.16758 -83.90302 171.88544 312
54.38154 -89.56657 172.12631 325
49.13083 -92.33072 174.12627 323
43.62846 -95.21417 176.24921 322
37.95143 -98.22654 178.52461 320
27.05780 -103.90540 180.00584 292
5.92045 -115.04015 180.18475 288
75.68507 -79.52409 171.78609 316
65.72450 -84.84062 171.90129 312
54.35563 -90.88708 171.97794 308
46.75771 -94.99947 173.39819 322
41.05560 -98.00168 175.56627 321
35.24380 -101.11000 177.85683 319
19.86258 -109.31906 178.57600 273
76.21994 -80.47007 171.81778 316
66.24796 -85.84012 171.91193 312
54.92968 -91.93656 172.00461 308
44.31532 -97.71844 172.65140 321
38.48333 -100.83556 174.78094 320
26.30972 -107.44888 175.84450 271
-55.74447 -151.87733 164.29465 371
76.73193 -81.36050 171.80957 316
66.79575 -86.81804 171.90079 312
55.52759 -93.00436 172.00275 308
42.60567 -100.08448 172.06125 304
33.87654 -104.88634 173.62918 272
14.41707 -115.57584 173.22366 270
-51.85705 -151.94995 164.76508 373
77.22421 -82.28626 171.77379 316
67.34206 -87.75568 171.87401 312
56.11137 -94.02802 171.97531 308
43.22208 -101.18060 172.10857 304
28.34787 -109.48068 172.18202 300
10.87126 -119.24050 172.32385 296
-48.90950 -152.47415 165.15961 288
77.73425 -83.15855 171.80476 316
67.91077 -88.72963 171.89049 312
56.70443 -95.03281 171.98447 308
43.85305 -102.32333 172.07863 304
29.04452 -110.72388 172.21426 300
11.57769 -120.53797 172.35109 296
-47.94053 -154.15933 165.15587 288
78.28900 -84.06110 171.80646 316
68.46400 -89.71807 171.88972 312
57.30997 -96.11619 171.99051 308
44.50363 -103.40517 172.05667 304
29.73815 -111.87998 172.17857 300
12.37840 -121.87189 172.31255 296
-46.97449 -155.83235 165.14738 286
78.81578 -84.96976 171.78526 316
69.00966 -90.64670 171.85968 312
57.89096 -97.14353 171.94612 308
45.13523 -104.55082 172.06100 304
30.41356 -113.08756 172.19565 300
13.07515 -123.15792 172.32988 296
-46.02628 -157.55551 165.18565 286
79.33865 -85.86631 171.79216 316
69.58611 -91.63178 171.85498 312
58.52361 -98.12923 171.93988 308
45.82050 -105.65749 172.03783 304
31.11270 -114.27782 172.19286 300
13.86024 -124.47435 172.30832 296
-45.04973 -159.21361 165.17491 286
79.88439 -86.73391 171.78688 316
70.19775 -92.54897 171.83095 312
59.12497 -99.17107 171.96362 308
46.47558 -106.72258 172.05832 304
31.82281 -115.48130 172.16910 300
-28.54856 -151.59131 163.18896 371
-44.05686 -160.79924 165.13112 286
80.42722 -87.64639 171.76535 316
70.75927 -93.48531 171.84520 312
59.75724 -100.19263 171.93279 308
47.16241 -107.84383 172.03731 304
32.55148 -116.67165 172.14900 300
-24.91546 -151.51839 163.77614 372
80.98851 -88.50044 171.78714 316
71.33659 -94.43564 171.85057 312
60.38869 -101.20517 171.92819 308
47.78586 -108.94432 172.03590 304
33.25440 -117.85188 172.16568 300
-21.31470 -151.39569 164.29066 373
81.57489 -89.40929 171.76178 316
71.94965 -95.38589 171.83990 312
61.02581 -102.22195 171.93011 308
48.51124 -110.03563 172.01216 304
-86.91076 -54.15759 -20.33117 300
-17.76221 -151.34576 164.83795 375
82.14503 -90.28313 171.75337 316
72.54700 -96.32676 171.83459 312
61.64997 -103.19756 171.91400 308
49.17009 -111.08408 172.00632 304
34.71669 -120.22804 172.16032 300
-14.39625 -151.20488 165.42072 376
82.69385 -91.14012 171.74739 316
73.15868 -97.26944 171.82881 312
62.30789 -104.21674 171.92345 308
49.85025 -112.19309 172.02127 304
35.47223 -121.41589 172.18112 300
-12.13406 -151.86058 165.69559 291
83.28067 -92.02904 171.75909 316
73.77748 -98.19455 171.84998 312
62.96027 -105.22051 171.92746 308
50.57891 -113.26130 172.00653 304
36.18921 -122.57537 172.17018 300
-11.14081 -153.28149 165.64221 291
83.85405 -92.87605 171.75706 316
74.37901 -99.14443 171.80307 312
63.58616 -106.19971 171.93715 308
51.28909 -114.32883 171.99767 304
37.00195 -123.75552 172.14589 300
-10.11953 -154.73666 165.68719 291
84.45975 -93.74381 171.75600 316
75.01546 -100.05301 171.82224 312
64.28535 -107.18010 171.90535 308
51.97390 -115.42018 171.99568 304
-1.12351 -150.79999 162.84015 285
-9.08774 -156.14783 165.68648 291
85.01427 -94.63397 171.70963 316
75.62529 -100.96050 171.79839 312
64.93231 -108.20676 171.90810 308
52.69838 -116.43758 172.02747 304
1.80924 -150.81328 163.29460 382
-8.07664 -157.50433 165.68578 290
85.62923 -95.48610 171.73442 316
76.27745 -101.91807 171.81807 312
65.63808 -109.17185 171.87436 308
53.44880 -117.50497 172.01041 304
4.81405 -150.80067 163.81039 383
-7.06215 -158.97392 165.68559 290
86.24854 -96.33074 171.70319 316
76.88115 -102.78516 171.79808 312
66.31808 -110.18028 171.87009 308
54.13166 -118.56985 171.96815 304
7.87047 -150.71205 164.32832 384
86.86417 -97.16937 171.72426 316
77.57156 -103.72528 171.77762 312
66.98795 -111.13051 171.86864 308
54.87611 -119.65032 172.00027 304
10.76642 -150.65785 164.80226 386
87.45294 -98.05830 171.69223 316
78.19772 -104.64652 171.78801 312
67.69766 -112.10947 171.89767 308
55.64420 -120.71413 172.00659 304
13.66773 -150.57611 165.31003 387
88.05531 -98.90400 171.72462 316
78.86931 -105.54023 171.79852 312
68.39253 -113.06213 171.89098 308
56.41772 -121.72455 171.98421 304
16.49030 -150.53217 165.72060 388
88.68788 -99.71198 171.68504 316
79.50365 -106.44963 171.76276 312
69.07261 -114.06297 171.88707 308
57.16291 -122.79458 171.97523 304
18.90304 -150.68295 166.09926 295
89.31967 -100.54854 171.69652 316
80.19096 -107.31045 171.76921 312
69.82484 -115.01918 171.89052 308
25.40371 -147.88782 163.22511 296
19.89856 -151.90088 166.09761 295
89.97940 -101.38799 171.67468 316
80.85406 -108.24261 171.74986 312
70.52640 -115.95779 171.84752 308
26.19660 -149.21272 163.18024 296
20.91971 -153.15039 166.09119 297
90.59999 -102.23514 171.67421 316
81.56028 -109.11880 171.77611 312
71.25532 -116.94419 171.87813 308
27.51359 -150.11771 163.29568 390
21.89973 -154.44542 166.09561 297
91.25160 -103.04242 171.69557 316
82.23402 -110.01807 171.76225 312
71.95537 -117.90230 171.85864 308
30.16325 -150.06859 163.79033 391
22.83064 -155.63620 166.08011 297
91.89455 -103.89700 171.69606 316
82.92467 -110.87569 171.74930 312
72.71928 -118.83750 171.82021 308
32.75565 -149.94186 164.24257 392
23.83501 -156.85696 166.07457 297
92.52994 -104.72841 171.67017 316
83.59236 -111.76648 171.76753 312
73.47507 -119.78873 171.82692 308
35.32219 -149.87434 164.68127 394
24.85378 -158.14148 166.13739 297
93.18233 -105.53001 171.64481 316
84.29041 -112.62093 171.76556 312
74.20366 -120.70518 171.85004 308
37.84346 -149.76077 165.08745 395
93.88428 -106.36548 171.66515 316
84.99840 -113.52901 171.74730 312
74.94352 -121.64494 171.79816 308
40.29163 -149.64287 165.51590 396
94.51564 -107.17557 171.67784 316
85.71548 -114.39304 171.70978 312
47.74194 -145.43132 163.37936 300
42.76416 -149.59827 165.90393 397
95.19364 -107.96627 171.66299 316
86.41644 -115.22150 171.71501 312
48.53945 -146.63597 163.35457 300
44.74603 -149.80872 166.23370 301
95.89986 -108.74876 171.64919 316
87.16530 -116.07606 171.72397 312
49.38084 -147.84981 163.30762 300
45.75446 -150.87810 166.22224 301
96.54821 -109.57878 171.61992 316
87.88723 -116.94150 171.69818 312
50.17361 -148.98740 163.31532 300
46.69392 -151.94635 166.25688 301
97.26861 -110.36077 171.64104 316
88.62696 -117.77699 171.70535 312
52.14781 -149.19479 163.62524 401
47.71456 -153.04562 166.24702 301
97.95821 -111.16381 171.65092 316
89.33534 -118.64099 171.70219 312
54.36544 -149.10611 164.01257 402
48.68238 -154.09196 166.26077 301
98.66808 -111.92618 171.62257 316
90.09933 -119.48784 171.67178 312
56.61283 -149.05492 164.41039 404
49.64352 -155.22021 166.20770 301
99.33166 -112.70997 171.60573 316
90.86379 -120.34856 171.70425 312
58.81931 -148.98615 164.77721 405
50.66058 -156.22998 166.25520 301
100.05927 -113.49617 171.60033 316
67.49688 -142.97507 163.54857 304
60.96193 -148.88873 165.14781 406
51.61713 -157.33643 166.25461 301
100.75329 -114.28136 171.61151 316
68.32689 -144.00970 163.49794 304
63.09903 -148.79541 165.55821 407
101.47598 -115.05481 171.57698 316
69.13324 -145.07716 163.49631 304
65.17923 -148.72275 165.87476 408
102.19511 -115.83183 171.57521 316
69.93528 -146.11292 163.46628 304
67.21318 -148.65146 166.22897 409
102.91590 -116.60961 171.59001 316
70.74632 -147.15071 163.44553 304
68.38989 -149.39563 166.35583 305
103.64858 -117.33140 171.59229 316
71.58160 -148.19954 163.36504 304
69.38008 -150.35637 166.35120 305
104.42069 -118.10769 171.57921 316
73.27866 -148.40930 163.65340 412
70.32930 -151.30031 166.34697 305
105.16778 -118.86801 171.58812 316
75.22788 -148.36606 164.00916 413
71.31740 -152.18808 166.36725 305
105.87669 -119.59970 171.58665 316
77.17437 -148.29922 164.33910 414
72.29103 -153.14359 166.34901 305
85.91943 -141.26546 163.68700 307
79.05982 -148.23300 164.66145 415
73.27194 -154.08377 166.32454 305
86.72086 -142.19278 163.64893 307
80.93538 -148.13394 164.99913 416
74.26456 -154.95888 166.36320 305
87.55299 -143.11568 163.61990 307
82.84203 -148.04744 165.32451 417
75.27436 -155.89310 166.34297 305
88.41903 -144.06129 163.58067 307
84.67046 -148.01376 165.69627 419
76.27837 -156.78633 166.34297 305
89.23267 -144.97253 163.55782 307
86.45553 -147.93835 165.99185 420
90.07700 -145.88507 163.49927 307
88.28460 -147.86848 166.32419 421
90.93252 -146.78867 163.50533 307
89.48953 -148.32387 166.42746 309
91.78601 -147.73250 163.47685 307
90.46861 -149.14064 166.45515 309
93.47959 -147.66391 163.77238 423
91.42763 -149.98364 166.41083 309
95.21531 -147.57567 164.07370 424
92.40096 -150.76067 166.44418 309
96.90483 -147.51213 164.41887 415
93.36298 -151.56245 166.46432 310
98.68148 -147.31837 164.72083 416
94.31915 -152.35231 166.42438 310
100.43510 -147.18652 165.03995 417
95.29247 -153.16388 166.46655 310
102.16679 -146.97520 165.37791 418
96.29192 -153.92027 166.45221 310
103.88123 -146.80446 165.73788 419
97.26659 -154.73846 166.43649 310
105.52759 -146.67325 166.02094 420
98.23653 -155.51707 166.47746 310
107.21875 -146.48019 166.32494 421
99.22917 -156.30962 166.43027 310
108.43470 -146.85057 166.44434 314
109.32293 -147.58202 166.46461 314
110.26511 -148.28018 166.46982 314
111.23086 -149.01302 166.48495 314
112.18450 -149.69858 166.45476 314
114.60764 -148.39636 167.11244 438
116.07023 -148.43188 167.32970 439
117.18834 -148.81078 167.42906 316
118.13282 -149.48734 167.44373 316
117.87128 -149.81700 170.53140 312
119.81113 -149.12833 167.77106 268
118.83241 -150.48410 170.55045 312
120.82024 -149.67479 167.81297 490
124.20631 -148.77615 168.48798 489
-28384.50586 -43901.21484 -2345.00195 1000
-29271.62500 -46502.59766 6564.93359 1000
-25326.05469 -54795.53906 -5726.11914 1000
-19204.25391 -51214.15234 10193.25195 1000
-426.92618 -1937.96106 83.07234 492
-429.89676 -1945.76929 115.77460 465
-415.05264 -1942.75867 82.53077 474
-417.05194 -1948.80505 116.21381 473
-419.51807 -1954.62598 149.53871 472
63.74387 -1480.39368 94.73568 369
73.79974 -1472.88733 95.22631 474
73.59571 -1477.56360 119.40179 474
73.05956 -1481.83264 143.76878 473
72.29955 -1486.64856 167.99216 370
83.00448 -1473.45349 95.49566 494
82.51747 -1477.56494 119.44393 494
82.31288 -1481.73853 143.71152 466
81.63609 -1486.42249 167.99850 462
91.72810 -1479.60083 94.81441 418
90.86903 -1487.15088 118.81654 353
-708.42975 -21613.97852 3066.52124 1000
4739.96729 -20101.64062 3618.35034 1000
4768.47607 -13195.09961 3711.74609 1000
580.37579 -976.94177 80.01765 359
583.84644 -967.29742 81.19822 469
585.52289 -972.18848 97.59139 421
587.31555 -977.04340 114.42088 422
589.94843 -983.92651 130.69116 336
588.79926 -962.74786 81.48992 494
590.41449 -966.91833 98.16301 494
591.86096 -971.05609 114.76375 493
593.56653 -975.65784 131.41646 491
595.01001 -979.51251 148.11725 466
596.72772 -983.95013 165.11118 433
594.71460 -960.20148 81.61935 494
596.05664 -964.41907 98.04759 494
597.87653 -968.54938 114.75236 493
599.54120 -973.14929 131.27298 492
601.05835 -976.92072 148.34850 488
602.68146 -981.38147 165.10484 467
601.19775 -959.77747 81.46735 469
602.95538 -964.00134 97.82583 469
604.91333 -968.89734 114.50326 422
607.09113 -974.77069 131.08224 422
610.31262 -983.19061 147.76006 269
608.94409 -962.32422 80.62892 422
611.80737 -969.08337 97.06755 358
11726.32812 -18990.81250 -1607.91113 1000
373.55325 -106.13770 167.62720 313
374.14206 -105.18958 167.65398 313
374.75842 -104.25166 167.63388 313
375.34137 -103.33343 167.67197 315
375.90314 -102.37418 167.64328 315
376.52133 -101.44273 167.68475 315
377.10321 -100.50748 167.68825 315
377.66177 -99.53902 167.65062 315
378.24432 -98.58223 167.69916 315
378.82681 -97.63926 167.65781 315
379.40854 -96.70919 167.70213 315
379.95734 -95.71967 167.67836 315
381.29657 -95.22205 167.45680 435
382.66498 -94.76554 167.18985 434
384.04095 -94.24928 166.92999 433
392.51337 -99.23847 167.67723 309
385.46536 -93.80489 166.69205 432
393.06891 -98.20000 167.69545 309
386.88870 -93.28169 166.40091 431
393.62250 -97.12421 167.73433 309
388.30988 -92.81640 166.13972 430
394.17010 -96.06666 167.73538 309
389.79474 -92.30206 165.83698 429
394.68585 -95.01863 167.70923 309
391.26544 -91.78410 165.57014 428
395.20837 -93.93820 167.74495 309
42207.03516 -22836.11523 -2929.17505 1000
392.74146 -91.25327 165.24518 427
395.74438 -92.88335 167.76566 309
394.23752 -90.75935 164.97382 426
396.23923 -91.78458 167.74065 311
395.44229 -90.02189 164.78508 317
396.81308 -90.71801 167.73721 311
395.98520 -88.99691 164.77661 317
397.32770 -89.70208 167.77133 425
396.51971 -87.91901 164.76770 317
398.87024 -89.15376 167.46555 424
397.05750 -86.86543 164.75453 317
400.47577 -88.58692 167.17139 423
397.59024 -85.80527 164.75497 317
402.05948 -88.04153 166.84618 422
398.08203 -84.75410 164.74680 317
403.71017 -87.47012 166.55774 420
412.36957 -91.65073 167.77130 305
398.59735 -83.69710 164.74318 317
405.35065 -86.92635 166.22296 419
412.88046 -90.47591 167.73524 305
399.09933 -82.67033 164.73341 317
406.96970 -86.35018 165.92075 438
413.34940 -89.29521 167.75357 305
399.60336 -81.58124 164.77194 317
408.38611 -85.65287 165.68359 437
413.85416 -88.15164 167.76967 305
400.08304 -80.50433 164.74892 317
409.82941 -84.89346 165.43193 436
414.33142 -86.94780 167.81105 305
400.54846 -79.38678 164.73096 317
411.31598 -84.19984 165.16231 435
414.79147 -85.76734 167.77052 305
401.00299 -78.34369 164.73143 317
412.78210 -83.49313 164.88806 434
415.27127 -84.60297 167.78831 305
401.48087 -77.26789 164.72444 317
413.40518 -82.39967 164.87039 312
415.76712 -83.37551 167.81226 305
378.39923 -66.19697 171.58156 316
413.88168 -81.25322 164.82928 312
416.21265 -82.21368 167.83928 305
378.73276 -65.25597 171.58795 316
414.36362 -80.08525 164.82802 312
417.32172 -81.28345 167.65231 432
379.11230 -64.31651 171.61293 316
414.86215 -78.91327 164.81448 312
418.86554 -80.53512 167.39830 431
379.46130 -63.36373 171.62003 316
415.34305 -77.74411 164.85973 312
420.41541 -79.79088 167.09119 430
379.85083 -62.40488 171.60994 316
415.78424 -76.57869 164.84436 312
422.01395 -79.02525 166.82355 429
380.16504 -61.42398 171.60262 316
416.22205 -75.38466 164.81821 312
423.60529 -78.24233 166.57614 428
380.52109 -60.46155 171.61389 316
416.70428 -74.22543 164.82620 312
425.20282 -77.43847 166.27217 427
434.49673 -80.96932 167.80884 301
380.86206 -59.49157 171.62402 316
417.12143 -73.00606 164.80136 312
426.86060 -76.61639 165.95483 426
434.94638 -79.65844 167.84201 301
381.19904 -58.52291 171.60657 316
417.56714 -71.83271 164.83621 312
428.47705 -75.84908 165.67290 425
435.33603 -78.34729 167.83473 301
381.50293 -57.54184 171.63739 316
417.98563 -70.67568 164.78780 312
430.17844 -75.01871 165.35765 424
435.72501 -77.01311 167.82292 301
381.83664 -56.59313 171.62276 316
392.39667 -60.31396 171.72456 313
431.86859 -74.23048 165.07303 423
436.12659 -75.73685 167.87357 301
382.12039 -55.60039 171.61995 317
392.75864 -59.28271 171.74767 313
432.90558 -73.13168 164.90987 308
436.54703 -74.35651 167.86180 301
382.44107 -54.63265 171.63699 317
393.10150 -58.25650 171.72697 313
433.37396 -71.86499 164.88582 308
436.90402 -73.08026 167.84615 301
382.72665 -53.66742 171.62112 317
393.42255 -57.16530 171.70927 313
433.78793 -70.56326 164.86234 308
437.30377 -71.73746 167.86757 301
383.02008 -52.68233 171.63519 317
393.74051 -56.12171 171.75632 313
434.20633 -69.29871 164.86331 308
438.85031 -70.81059 167.64514 419
383.35199 -51.67899 171.63350 317
394.00964 -55.09090 171.71526 313
434.63043 -67.96688 164.88580 308
440.47031 -69.85137 167.36513 433
383.62650 -50.70857 171.64688 317
394.31870 -54.06663 171.75882 313
434.97763 -66.68050 164.87042 308
442.08826 -68.88657 167.08514 432
383.89212 -49.71193 171.65387 317
394.63483 -52.99429 171.73070 313
435.35968 -65.40141 164.91434 308
443.72809 -67.90921 166.78310 431
3498.84302 -998.04010 103.82806 498
3507.39575 -1000.53333 159.07011 485
384.15915 -48.72955 171.61829 317
394.92041 -51.93988 171.72722 313
435.72391 -64.11160 164.88342 308
445.33755 -66.96655 166.51840 430
384.41626 -47.74409 171.63800 317
395.18466 -50.91138 171.73299 313
436.08151 -62.80139 164.88333 308
446.99319 -65.95248 166.26651 429
384.70129 -46.77683 171.62811 317
395.47931 -49.82459 171.76042 313
436.43301 -61.48461 164.87483 308
448.67554 -64.95993 165.92641 428
458.53110 -67.74166 167.89983 297
384.96930 -45.77156 171.64024 317
395.77533 -48.76297 171.73819 313
407.99408 -52.17497 171.86520 309
450.36407 -63.93263 165.62868 427
458.81787 -66.30762 167.90401 297
385.20377 -44.76498 171.64348 317
396.03506 -47.69120 171.74127 313
408.26685 -51.06674 171.85579 309
452.08585 -62.94106 165.35185 426
459.12936 -64.83720 167.92834 297
19012.73828 -5096.51660 -2351.80493 1000
385.43243 -43.77378 171.63905 317
396.28778 -46.66282 171.76616 313
408.54489 -49.88583 171.88156 309
453.79837 -61.84809 165.01366 425
459.43036 -63.34664 167.93950 297
385.69556 -42.79853 171.65242 317
396.52039 -45.58729 171.76877 313
408.84497 -48.77544 171.85585 309
454.42514 -60.56073 164.97314 304
459.74863 -61.91947 167.93909 297
385.88336 -41.78281 171.64175 317
396.76764 -44.51878 171.76799 313
409.12094 -47.64648 171.87604 309
454.78394 -59.11510 164.95526 304
460.02679 -60.44975 167.97992 297
386.13437 -40.79290 171.66542 317
397.04147 -43.47155 171.75609 313
409.34354 -46.46127 171.86064 309
455.06714 -57.71419 164.97618 304
460.36865 -58.96262 167.99338 298
386.37479 -39.79123 171.66182 317
397.22882 -42.41340 171.77139 313
409.62213 -45.31746 171.86755 309
455.44150 -56.24251 165.01512 304
460.97272 -57.56142 167.91293 421
386.56149 -38.78741 171.65677 317
397.48492 -41.33327 171.77031 313
409.88242 -44.19928 171.89160 309
455.77411 -54.84923 165.01680 304
462.68686 -56.41791 167.61247 453
386.77368 -37.79413 171.65691 317
397.72162 -40.27199 171.75301 313
410.09427 -43.06564 171.90862 309
456.04398 -53.38652 164.98621 304
463.97745 -55.20515 167.45544 452
386.98706 -36.79126 171.65878 317
397.94272 -39.16567 171.79343 313
410.35406 -41.90499 171.91664 309
456.34280 -51.96838 165.02051 304
465.32397 -53.93854 167.24915 451
387.15311 -35.75897 171.67937 317
398.11713 -38.11867 171.75403 313
410.55496 -40.73671 171.89305 309
456.61478 -50.55968 164.99985 304
466.65198 -52.67353 166.98563 451
387.34457 -34.78326 171.66460 317
398.31705 -37.01503 171.76004 313
410.75232 -39.61425 171.87173 309
456.90823 -49.11526 164.97739 304
468.07672 -51.39939 166.78998 450
387.52579 -33.77990 171.67926 317
398.55154 -35.94064 171.75897 313
410.96033 -38.47264 171.88582 309
425.23822 -41.32406 172.02051 305
469.41360 -50.13088 166.59499 449
387.70114 -32.75462 171.68991 317
398.73697 -34.91177 171.79231 313
411.20383 -37.28671 171.92580 309
425.47324 -40.06476 172.04778 305
470.84100 -48.84750 166.34622 448
387.90927 -31.74042 171.69556 317
398.89743 -33.78874 171.78152 313
411.38190 -36.13973 171.88496 309
425.66037 -38.84002 172.02982 305
472.17642 -47.50110 166.11050 447
388.04257 -30.75700 171.65587 317
399.07364 -32.74201 171.80565 313
411.58002 -34.97240 171.90788 309
425.85709 -37.57822 172.03101 305
473.61966 -46.18784 165.88916 446
388.22351 -29.73542 171.67805 317
399.26599 -31.65482 171.78554 313
411.75644 -33.82726 171.90924 309
426.09766 -36.34658 172.01793 305
475.03003 -44.89143 165.67827 445
485.58173 -46.73035 168.05168 293
388.37317 -28.73462 171.67767 317
399.43661 -30.56618 171.77878 313
411.92047 -32.65485 171.89970 309
426.27197 -35.08795 172.07011 305
476.51086 -43.53123 165.38380 444
485.76602 -45.07630 168.04602 293
388.53674 -27.72036 171.66435 317
399.58936 -29.50066 171.78714 313
412.10632 -31.54092 171.93449 309
426.46628 -33.83353 172.01927 305
477.91055 -42.19007 165.17764 443
485.92084 -43.45212 168.02658 293
388.67673 -26.66617 171.66887 317
399.70599 -28.38478 171.79202 313
412.26923 -30.35422 171.89386 309
426.60074 -32.57708 172.05711 305
478.36707 -40.63556 165.15221 300
486.06842 -41.80505 168.05960 293
388.79514 -25.65119 171.68094 317
399.86749 -27.33979 171.77469 313
412.43188 -29.20681 171.93179 309
426.80960 -31.34408 172.05708 305
478.61697 -39.05667 165.15240 300
486.20847 -40.24749 168.10709 294
388.94391 -24.67639 171.67801 317
399.98978 -26.25140 171.80318 313
412.56229 -28.04655 171.90675 309
426.98535 -30.08254 172.06827 305
478.77530 -37.50795 165.13676 300
486.32800 -38.59628 168.10127 294
271.57938 -7.57308 203.48375 286
400.15475 -25.14663 171.78625 313
412.71521 -26.88097 171.92064 309
427.11313 -28.83738 172.06699 305
479.02438 -35.90630 165.10527 300
486.46484 -36.94885 168.12965 294
271.52731 -7.26552 203.50429 314
400.25739 -24.06199 171.80710 313
412.85507 -25.72883 171.90598 309
427.24054 -27.61575 172.02870 305
443.93356 -29.76621 172.24046 301
486.56516 -35.33984 168.16443 294
271.55212 -6.97592 203.49918 314
400.38986 -22.95787 171.81682 313
412.97540 -24.56770 171.90335 309
427.37692 -26.34419 172.05893 305
444.05875 -28.40119 172.24539 301
486.62027 -33.70536 168.13043 294
271.56573 -6.67924 203.50539 314
400.47769 -21.89000 171.79442 313
413.09393 -23.39857 171.88979 309
427.53821 -25.10477 172.02916 305
444.23135 -27.06940 172.19681 301
487.16782 -32.10318 168.06741 457
271.59280 -6.37976 203.50037 314
400.61841 -20.78223 171.77919 313
413.23615 -22.23630 171.93170 309
427.67136 -23.85318 172.06398 305
444.36060 -25.68152 172.20319 301
488.39700 -30.64791 167.91678 457
271.60641 -6.08783 203.50713 314
400.71402 -19.73065 171.78564 313
413.32635 -21.07243 171.91118 309
427.75027 -22.56031 172.07381 305
444.47766 -24.32769 172.24358 301
489.65195 -29.12437 167.70523 456
271.61914 -5.78578 203.50243 314
400.82779 -18.64178 171.78419 313
413.45563 -19.88640 171.91336 309
427.88022 -21.31524 172.06610 305
444.58350 -22.96113 172.21513 301
490.90997 -27.61207 167.53922 455
271.63345 -5.49101 203.50220 314
400.88474 -17.51174 171.79396 313
413.53958 -18.71915 171.91615 309
427.97601 -20.08158 172.06932 305
444.70856 -21.61462 172.24332 301
492.16370 -26.04657 167.30350 454
271.65210 -5.19101 203.50763 314
400.97781 -16.46617 171.80853 313
413.60834 -17.55079 171.92010 309
428.10651 -18.79475 172.03365 305
444.79727 -20.26445 172.22334 301
493.42093 -24.50179 167.09201 453
271.66135 -4.89177 203.50766 314
401.06534 -15.37036 171.80934 313
413.72433 -16.39416 171.93077 309
428.17340 -17.54361 172.05162 305
444.88397 -18.88594 172.25302 301
494.64960 -22.92118 166.90111 452
271.65845 -4.60498 203.50667 314
401.13962 -14.26972 171.79529 313
413.75061 -15.20061 171.92059 309
428.24487 -16.28230 172.04303 305
444.97305 -17.52178 172.19363 301
495.93982 -21.32712 166.69281 452
271.67508 -4.30719 203.50719 314
401.16336 -13.18862 171.78201 313
413.85406 -14.05105 171.93277 309
428.30698 -14.99356 172.08615 305
445.09979 -16.15302 172.23616 301
497.00507 -19.74741 166.54694 483
271.66711 -4.00031 203.50018 314
401.23126 -12.05021 171.79485 313
413.90881 -12.85359 171.90942 309
428.41733 -13.74043 172.08115 305
445.12231 -14.79540 172.25624 301
497.68365 -18.04498 166.43208 482
271.67163 -3.70297 203.50549 314
401.29910 -10.98733 171.80388 313
413.93134 -11.66724 171.94565 309
428.47241 -12.51413 172.03546 305
445.24359 -13.44408 172.24370 301
464.79846 -14.53459 172.44379 297
62457.40234 -3492.35229 -4909.64307 1000
271.67419 -3.40757 203.50618 314
401.31296 -9.90481 171.78972 313
413.97714 -10.52863 171.94066 309
428.53030 -11.26404 172.04330 305
445.28412 -12.09493 172.21227 301
464.90891 -13.02963 172.40527 297
271.67624 -3.10409 203.50160 314
401.38553 -8.80355 171.81053 313
414.05310 -9.31890 171.91306 309
428.54266 -9.97996 172.04427 305
445.29736 -10.71954 172.20609 301
464.94788 -11.58857 172.40883 297
271.67657 -2.81847 203.50336 314
401.37317 -7.70683 171.79930 313
414.08960 -8.15135 171.90366 309
428.56424 -8.69885 172.08208 305
445.33514 -9.35384 172.24951 301
465.01678 -10.10964 172.44344 297
271.66907 -2.51152 203.49902 314
401.43018 -6.59306 171.78821 313
414.12726 -6.97663 171.91258 309
428.63510 -7.46881 172.03777 305
445.39102 -7.95952 172.25157 301
465.03433 -8.58385 172.40663 297
271.66028 -2.21310 203.50056 314
401.42676 -5.52073 171.78786 313
414.12213 -5.84319 171.91579 309
428.62277 -6.17328 172.04323 305
445.39334 -6.58873 172.24969 301
465.05307 -7.10696 172.42511 297
271.64496 -1.91581 203.50769 314
401.44638 -4.41707 171.80777 313
414.15897 -4.65512 171.91519 309
428.62994 -4.92331 172.03369 305
445.45175 -5.25637 172.23488 301
465.05103 -5.60002 172.44261 297
271.63684 -1.61418 203.49834 314
401.43433 -3.30357 171.79222 313
414.12708 -3.46104 171.89882 309
428.65991 -3.66677 172.07376 305
445.43625 -3.91144 172.22522 301
465.11606 -4.12374 172.43971 297
271.63330 -1.31546 203.50627 314
401.46368 -2.22822 171.79767 313
414.16269 -2.28649 171.93213 309
428.69098 -2.38127 172.04752 305
445.43433 -2.54933 172.22224 301
451.61328 -2.56431 174.87357 423
271.61551 -1.01717 203.50117 314
401.43460 -1.10715 171.78491 313
414.14603 -1.11665 171.90105 309
428.65976 -1.12883 172.07228 305
445.44574 -1.16293 172.21291 301
465.09210 -1.14528 172.42143 297
271.59717 -0.72803 203.49765 314
401.44110 -0.04569 171.82294 313
414.08932 0.04086 171.89354 309
428.63931 0.13606 172.06104 305
445.43179 0.22267 172.23048 301
465.04810 0.32176 172.40350 297
271.57571 -0.42351 203.50009 314
401.38803 1.08889 171.80328 313
414.07565 1.21932 171.90465 309
428.60748 1.40520 172.06813 305
445.41919 1.57858 172.21623 301
451.53976 1.65186 174.90295 422
271.55969 -0.12334 203.50793 314
401.38235 2.14970 171.79865 313
414.05365 2.40484 171.89905 309
428.59296 2.66304 172.03557 305
445.36353 2.94426 172.21036 301
465.00571 3.29860 172.41408 297
271.53720 0.17339 203.50935 314
401.35013 3.23639 171.81700 313
414.03018 3.58077 171.92654 309
428.57474 3.87810 172.06700 305
445.32901 4.30031 172.23274 301
464.95444 4.80188 172.40279 297
271.51328 0.47343 203.50983 314
401.29037 4.36942 171.79605 313
413.98053 4.71872 171.92284 309
428.49481 5.17592 172.05103 305
445.29568 5.67589 172.22287 301
464.90942 6.24182 172.39798 297
271.48792 0.76351 203.50221 314
401.25183 5.45827 171.78996 313
413.93781 5.92932 171.92465 309
428.45673 6.44099 172.06166 305
445.25372 7.03695 172.21799 301
464.86017 7.77701 172.43504 297
271.46423 1.06531 203.50316 314
401.21542 6.53538 171.79567 313
413.89401 7.09808 171.93817 309
428.41074 7.69421 172.07643 305
445.18448 8.40805 172.21199 301
464.77191 9.22399 172.41441 297
271.43359 1.36786 203.50522 314
401.14645 7.62278 171.81302 313
413.83652 8.23382 171.92509 309
428.31589 8.97216 172.07829 305
445.08069 9.77991 172.19591 301
464.72659 10.68795 172.38855 297
271.40594 1.66950 203.50179 314
401.07437 8.74124 171.77002 313
413.76334 9.41635 171.94228 309
428.26361 10.21251 172.06822 305
445.01743 11.11373 172.19475 301
464.61649 12.20973 172.38623 297
4858.54785 251.69643 139.04610 428
4874.92822 252.92378 215.06998 270
271.37228 1.95962 203.50699 314
400.97629 9.80896 171.77386 313
413.67386 10.61136 171.89778 309
428.20279 11.49859 172.04758 305
444.94910 12.46733 172.22115 301
464.52725 13.70886 172.41753 297
29750.33594 1791.39392 -4178.20264 1000
4836.98145 279.19104 139.73822 429
30074.39258 1811.14954 209.88705 1000
271.33582 2.25417 203.50739 314
400.91571 10.90032 171.78882 313
413.58258 11.79762 171.91454 309
428.08688 12.73882 172.05104 305
444.87064 13.87313 172.20102 301
497.68219 17.37375 166.36836 483
4812.93262 305.82788 139.75673 474
271.30124 2.56324 203.49872 314
400.80905 12.02060 171.77127 313
413.48944 12.96436 171.89018 309
427.97107 13.99932 172.03102 305
444.75739 15.23814 172.23502 301
496.99728 19.01842 166.47678 483
4796.22070 332.37854 140.75224 313
271.27020 2.85844 203.50639 314
400.74695 13.10148 171.77542 313
413.37598 14.13192 171.90256 309
427.87900 15.27049 172.06158 305
444.60910 16.60909 172.20363 301
495.90585 20.68965 166.63960 452
4770.14062 358.65533 140.99879 324
271.22717 3.14821 203.50235 314
400.63055 14.21846 171.78679 313
413.26898 15.27150 171.93597 309
427.79077 16.51762 172.04527 305
444.54230 17.96345 172.18010 301
494.62943 22.21659 166.82961 453
4758.10107 386.91483 141.40639 431
271.18555 3.44498 203.49774 314
400.54764 15.27133 171.76411 313
