# .PCD v.7 - Point Cloud Data file format
VERSION .7
FIELDS x y z rgb
SIZE 4 4 4 4
TYPE F F F U
COUNT 1 1 1 1
WIDTH 1378
HEIGHT 1
VIEWPOINT 4406.842773 -4086.506836 141.365448 -0.014603 -0.125728 -0.001175 0.991957
POINTS 1378
DATA ascii
72.88054 -60.45243 176.30692 388
69.72395 -61.72556 178.30844 386
63.62986 -64.13757 179.68175 304
46.30578 -71.07223 178.89395 388
42.61456 -72.49919 181.37852 375
38.48087 -74.19156 183.93594 372
34.14388 -75.90419 186.54344 370
28.58692 -78.09043 189.17171 336
22.55156 -80.53431 191.86873 333
15.53909 -83.29140 194.70090 315
6.90206 -86.73385 197.57567 313
-2.85692 -90.67012 200.72189 284
75.32655 -60.53467 174.07011 389
72.23267 -61.79791 176.00377 387
69.06295 -63.09200 178.04257 385
64.00980 -65.11913 179.68356 304
45.59526 -72.61187 178.64622 387
41.67879 -74.17418 181.10263 374
37.48690 -75.90749 183.65208 371
32.44543 -77.94855 186.20638 337
26.55330 -80.30835 188.77939 335
20.39731 -82.82591 191.51373 332
12.39340 -86.08464 194.27399 314
3.49101 -89.71048 197.25537 311
-18.01160 -98.39243 199.63312 265
74.71568 -61.86028 173.77769 388
71.61053 -63.15125 175.74889 386
68.43609 -64.47434 177.75041 384
64.44308 -66.12043 179.67551 304
44.86648 -74.21464 178.39752 386
40.77501 -75.85902 180.86578 373
36.12328 -77.76286 183.35124 338
30.49354 -80.12296 185.80873 336
24.49939 -82.60276 188.39043 334
17.67080 -85.42198 191.13266 315
9.17214 -88.89677 193.87061 313
-2.07222 -93.55025 196.72694 284
74.14394 -63.19117 173.49283 388
70.97886 -64.52203 175.43544 385
67.72935 -65.87547 177.46956 383
64.87298 -67.07274 179.66580 304
43.99631 -75.86520 178.09785 374
39.79028 -77.58577 180.57588 340
34.26315 -79.89021 182.92224 337
28.47491 -82.33293 185.41423 335
22.32732 -84.93808 188.06012 333
14.58695 -88.21013 190.66008 314
5.82489 -91.87154 193.47429 312
-17.91230 -101.84906 195.25162 265
73.52535 -64.54034 173.21252 387
70.34199 -65.91181 175.17801 384
67.11153 -67.26330 177.19296 395
64.41239 -68.43139 179.49010 393
52.29316 -73.59373 179.78554 300
37.99878 -79.68690 180.10477 339
32.39318 -82.08767 182.50443 336
26.41370 -84.64282 184.96632 334
19.84820 -87.48999 187.62299 316
11.40117 -91.05708 190.19231 313
-1.20889 -96.46144 192.68716 284
72.88519 -65.90455 172.88953 386
69.70547 -67.27710 174.86426 383
66.45598 -68.71648 176.94119 394
63.74962 -69.89375 179.21465 393
52.73478 -74.64916 179.80942 300
36.16970 -81.87151 179.65002 338
30.38556 -84.36642 182.01646 335
24.30026 -86.99538 184.57655 333
16.81471 -90.26993 187.08627 314
6.87129 -94.59904 189.55415 285
72.28982 -67.26352 172.60643 385
69.02467 -68.71391 174.55215 382
65.81348 -70.15090 176.65166 393
63.04895 -71.37888 178.93416 392
53.21068 -75.70650 179.77643 300
34.30042 -84.05440 179.19266 336
28.41285 -86.69070 181.56166 334
22.00282 -89.45457 184.07057 316
13.68887 -93.16509 186.59209 313
-0.31802 -99.35741 188.61606 284
71.61699 -68.69002 172.29028 384
68.36928 -70.17905 174.24272 382
65.15557 -71.58620 176.38025 392
62.35001 -72.83611 178.67966 391
53.65690 -76.77411 179.78914 300
32.37300 -86.31007 178.70082 335
26.36065 -89.02566 181.10727 333
19.06330 -92.27745 183.52022 315
7.81188 -97.33560 185.61278 285
70.98762 -70.10218 171.96854 383
67.69988 -71.62086 173.96545 381
64.45267 -73.08442 176.08643 391
61.64148 -74.39683 178.41470 390
54.17942 -77.77504 179.78113 300
30.37103 -88.64258 178.19452 334
24.24705 -91.48431 180.60474 332
15.53166 -95.41779 182.84612 286
0.59208 -102.28770 184.48140 266
71.06889 -71.23185 171.83382 316
67.00696 -73.11385 173.62904 380
63.78016 -74.60786 175.78381 390
60.94053 -75.92280 178.10608 388
54.62769 -78.84434 179.75800 300
28.37990 -91.02975 177.67815 333
21.33154 -94.27720 179.98409 315
8.90292 -100.07825 181.69643 285
-26.68599 -116.57713 180.44508 284
71.49499 -72.14672 171.83577 316
66.31964 -74.61507 173.33765 379
63.11410 -76.11813 175.46992 389
60.21611 -77.49266 177.81348 387
55.13342 -79.88542 179.79608 300
40.14791 -86.93080 179.91284 296
16.58766 -98.02893 179.01303 286
1.30215 -105.22369 180.32922 266
-26.02296 -118.12251 180.45062 284
71.96455 -73.09536 171.84094 316
65.61830 -76.13562 172.97762 378
62.41516 -77.68769 175.18428 388
59.51019 -79.05920 177.53551 386
55.63266 -80.91293 179.75635 300
40.68970 -88.09587 179.89072 296
10.05018 -102.74850 177.72794 285
-17.01789 -115.72913 177.21095 345
-25.24841 -119.65768 180.47011 284
72.42471 -74.00112 171.83014 316
-146.64964 -71.37323 -40.75002 377
61.70081 -79.25189 174.84236 387
58.75985 -80.66335 177.20448 385
55.26251 -82.35368 179.58302 328
41.22692 -89.22932 179.89072 296
2.23943 -108.15124 176.17389 266
-11.97275 -115.06448 177.90038 289
-24.57204 -121.20882 180.42178 284
72.89264 -74.93413 171.83411 316
64.19134 -79.27785 172.30835 376
61.00193 -80.83026 174.55972 386
58.02021 -82.30376 176.91014 384
53.13345 -84.71926 179.00000 327
41.74895 -90.31329 179.87007 296
-2.57633 -112.21269 175.14342 290
-2.62679 -112.27985 179.36177 290
73.36114 -75.88210 171.80547 316
63.44424 -80.85435 171.96152 375
60.27047 -82.45798 174.22574 385
55.97187 -84.60917 176.29718 327
50.89757 -87.14585 178.36571 326
42.34231 -91.44886 179.88869 296
24.66432 -100.34016 180.04005 292
3.32849 -111.05454 180.21875 288
73.84229 -76.81551 171.80684 316
63.76802 -81.92521 171.91669 312
58.77820 -84.48149 173.67563 328
53.80867 -86.99918 175.67851 326
48.61541 -89.64909 177.72507 325
42.86091 -92.58774 179.87242 296
25.30594 -101.57307 180.02934 292
3.94686 -112.41092 180.19559 288
74.31963 -77.71926 171.81116 316
64.29021 -82.93089 171.89868 312
56.69815 -86.85646 173.02089 327
51.61024 -89.47952 174.98267 325
46.27837 -92.26550 177.08745 324
40.73610 -95.08888 179.31306 322
25.92932 -102.79714 180.00932 292
4.66266 -113.78026 180.21304 288
74.82091 -78.62374 171.82057 316
64.78497 -83.89196 171.88499 312
54.56231 -89.25709 172.32823 325
49.31627 -92.05182 174.30785 323
43.80458 -94.91029 176.41588 322
38.12815 -97.88250 178.64804 320
26.50887 -103.96550 180.00943 292
5.32042 -115.14800 180.17291 288
75.33663 -79.54388 171.81282 316
65.33817 -84.88178 171.87143 312
53.95476 -90.90343 172.01718 308
46.91558 -94.65096 173.57246 322
41.31842 -97.70916 175.71263 321
35.41125 -100.79966 177.96416 319
20.87377 -108.59888 178.81172 273
75.82124 -80.44288 171.81512 316
65.83571 -85.83438 171.88774 312
54.51598 -91.95488 171.98209 308
44.49207 -97.37628 172.79622 321
38.65301 -100.54250 174.93727 320
27.29318 -106.70036 176.16040 271
-56.13503 -151.87706 164.30972 371
76.33215 -81.35229 171.81644 316
66.39512 -86.80566 171.87306 312
55.11337 -93.04004 171.97374 308
42.17064 -100.13804 172.06892 304
34.82013 -104.13999 173.96754 272
15.43627 -114.78645 173.60466 270
-52.16972 -151.95485 164.90347 373
76.83464 -82.26627 171.77939 316
66.94189 -87.77464 171.86900 312
55.66863 -94.04218 171.97217 308
42.81320 -101.23960 172.08458 304
27.83377 -109.55706 172.20276 300
10.37388 -119.30009 172.32907 296
-49.59855 -152.66141 165.21582 288
77.37439 -83.18241 171.80017 316
67.49915 -88.76123 171.87651 312
56.26388 -95.10351 171.96671 308
43.42180 -102.32951 172.09792 304
28.52645 -110.76969 172.20264 300
11.05573 -120.61272 172.33447 296
-48.65598 -154.37660 165.15094 288
77.89124 -84.06647 171.81113 316
68.05750 -89.72263 171.86484 312
56.86511 -96.13235 171.96359 308
44.03908 -103.48091 172.06631 304
29.25045 -111.97178 172.21429 300
11.83769 -121.93939 172.32698 296
-47.69797 -156.06505 165.13284 288
78.41625 -84.95737 171.78369 316
68.59106 -90.67593 171.84953 312
57.45570 -97.14270 171.98677 308
44.70041 -104.60085 172.06151 304
29.91216 -113.18520 172.21472 300
12.58480 -123.23787 172.34027 296
-46.76414 -157.76270 165.11311 286
78.93085 -85.84598 171.77229 316
69.15704 -91.63223 171.84955 312
58.08298 -98.19432 171.93752 308
45.32859 -105.70125 172.05545 304
30.59094 -114.36369 172.20531 300
13.31726 -124.55507 172.31552 296
-45.81847 -159.43155 165.11208 286
79.50761 -86.74597 171.77539 316
69.72276 -92.59451 171.84604 312
58.66230 -99.20174 171.93192 308
46.00968 -106.79878 172.07458 304
31.33669 -115.57352 172.18947 300
-28.93942 -151.60204 163.24438 371
80.04239 -87.64767 171.79514 316
70.34615 -93.52573 171.84554 312
59.30186 -100.21011 171.95610 308
46.66211 -107.86880 172.03468 304
32.05413 -116.76736 172.16844 300
-25.29125 -151.50426 163.78098 372
80.57166 -88.53290 171.74617 316
70.92484 -94.45815 171.84979 312
59.94791 -101.22554 171.96165 308
47.31385 -108.97493 172.04486 304
32.73571 -117.91728 172.18581 300
-21.66762 -151.42609 164.38811 373
81.13556 -89.43697 171.77469 316
71.50664 -95.41912 171.85156 312
60.53116 -102.26328 171.91200 308
48.02533 -110.03807 172.02805 304
33.46937 -119.14684 172.14790 300
-18.18711 -151.28888 164.87979 375
81.72346 -90.30508 171.74460 316
72.11121 -96.37538 171.85596 312
61.17892 -103.24871 171.94495 308
48.70567 -111.12980 172.04857 304
34.20877 -120.27627 172.18898 300
-14.76142 -151.20213 165.42365 376
82.25082 -91.16938 171.75061 316
72.69460 -97.30656 171.81746 312
61.84525 -104.28219 171.95396 308
49.39446 -112.21149 172.02893 304
34.91825 -121.51013 172.13344 300
-12.79393 -152.06947 165.66516 291
82.86045 -92.03488 171.74583 316
73.31685 -98.22939 171.80717 312
62.46801 -105.27346 171.89700 308
50.07807 -113.32936 172.00923 304
35.67335 -122.64232 172.17456 300
-11.78638 -153.46402 165.65073 291
83.39892 -92.90567 171.75485 316
73.94437 -99.16866 171.80826 312
63.13000 -106.28283 171.94368 308
50.74365 -114.37519 172.03381 304
36.44334 -123.80107 172.14384 300
-10.78559 -154.91357 165.66060 291
84.02550 -93.77122 171.74997 316
74.55642 -100.07756 171.80038 312
63.78889 -107.24219 171.89877 308
51.46246 -115.45793 171.99472 304
-1.70269 -150.95340 162.83197 381
-9.77233 -156.28781 165.66954 290
84.59735 -94.62843 171.71581 316
75.15151 -101.03593 171.79260 312
64.47361 -108.27389 171.93095 308
52.19056 -116.52920 172.02055 304
1.40640 -150.87659 163.34962 382
-8.75914 -157.74435 165.68849 290
85.17754 -95.50826 171.72200 316
75.79862 -101.94121 171.81946 312
65.10763 -109.24984 171.89096 308
52.90661 -117.61182 171.98761 304
4.43449 -150.81943 163.89784 383
-7.77577 -159.16042 165.70421 290
85.77001 -96.35606 171.72852 316
76.44955 -102.83321 171.79366 312
65.82923 -110.24472 171.89925 308
53.61554 -118.66322 172.01813 304
7.45732 -150.68916 164.37712 384
86.39896 -97.20908 171.73022 316
77.09160 -103.76842 171.77809 312
66.47223 -111.19267 171.87933 308
54.39068 -119.74905 172.01070 304
10.38101 -150.61507 164.85844 386
-26229.52930 -18589.31445 -294.23444 1000
87.00698 -98.05977 171.73738 316
77.72429 -104.69395 171.80331 312
67.18848 -112.16084 171.89558 308
55.11286 -120.78121 172.00961 304
13.23765 -150.54677 165.34715 387
87.61677 -98.94402 171.71252 316
78.39718 -105.56565 171.81528 312
67.88763 -113.14012 171.89751 308
55.88568 -121.80604 171.96120 304
16.08247 -150.52594 165.77390 388
88.23920 -99.77335 171.68633 316
79.04655 -106.50160 171.77661 312
68.58852 -114.14113 171.86134 308
56.58575 -122.84232 171.99065 304
18.26886 -150.88019 166.10518 295
88.87433 -100.62373 171.68188 316
79.71861 -107.40447 171.79552 312
69.28024 -115.06729 171.86325 308
24.83025 -147.97968 163.21596 296
19.24381 -152.08041 166.05678 295
89.45741 -101.46066 171.68452 316
80.33848 -108.29590 171.78496 312
70.03127 -116.02977 171.88911 308
25.57744 -149.36949 163.21806 296
20.24734 -153.31519 166.09846 295
90.11811 -102.27972 171.66809 316
81.04448 -109.18948 171.77269 312
70.75294 -117.01009 171.85402 308
27.05180 -150.14513 163.33888 390
21.23352 -154.56093 166.12260 297
90.76528 -103.09601 171.70294 316
81.72925 -110.05886 171.74561 312
71.47070 -117.97776 171.87279 308
29.69353 -150.07228 163.77983 391
22.18493 -155.79767 166.09521 297
91.39791 -103.93652 171.68300 316
82.40177 -110.96539 171.77289 312
72.17753 -118.90918 171.82872 308
32.27831 -149.96437 164.23822 392
23.16971 -157.04439 166.07375 297
92.04717 -104.77016 171.66469 316
83.07652 -111.84846 171.73688 312
72.90591 -119.84123 171.81821 308
34.85410 -149.87695 164.66624 394
24.21606 -158.25885 166.11557 297
92.68562 -105.59017 171.66602 316
83.80457 -112.70713 171.74107 312
73.64280 -120.80782 171.83710 308
37.35212 -149.78810 165.11276 395
93.38197 -106.41169 171.68352 316
84.47748 -113.56556 171.76025 312
74.39234 -121.71026 171.81354 308
39.88137 -149.65933 165.52417 396
94.05222 -107.18868 171.67152 316
85.18797 -114.41995 171.74448 312
47.14539 -145.57603 163.37892 300
42.31331 -149.62259 165.97090 397
94.71201 -107.99421 171.63615 316
85.90500 -115.30868 171.73595 312
47.96765 -146.75839 163.37102 300
44.18097 -149.96242 166.24126 301
95.38386 -108.83128 171.64276 316
86.63626 -116.14166 171.70587 312
48.74308 -148.00844 163.33141 300
45.10194 -151.03821 166.21744 301
96.04078 -109.64706 171.66524 316
87.34670 -117.04150 171.72148 312
49.53956 -149.17036 163.25822 300
46.10934 -152.09406 166.24115 301
96.74860 -110.40339 171.66083 316
88.05941 -117.88544 171.71454 312
51.64815 -149.24364 163.60719 401
47.02178 -153.22496 166.20921 301
97.44958 -111.21873 171.62648 316
88.81622 -118.71272 171.71832 312
53.87312 -149.13429 164.01331 402
48.01713 -154.30634 166.25433 301
98.11568 -112.01703 171.62885 316
89.55232 -119.56707 171.72527 312
56.13905 -149.04797 164.41470 404
48.98147 -155.32585 166.23170 301
98.79794 -112.77423 171.62593 316
90.28915 -120.43436 171.67123 312
58.31705 -148.95563 164.79578 405
49.96994 -156.40822 166.25922 301
99.54125 -113.55244 171.60507 316
66.92376 -143.06256 163.57913 304
60.43821 -148.92795 165.22772 406
50.98422 -157.46126 166.23460 301
100.25462 -114.35093 171.61571 316
67.72278 -144.15086 163.49619 304
62.58464 -148.84258 165.59412 407
100.93942 -115.11057 171.58951 316
68.48277 -145.19740 163.49327 304
64.67825 -148.72269 165.91341 408
101.64752 -115.91830 171.58008 316
69.30757 -146.24850 163.43466 304
66.77665 -148.66412 166.30067 409
102.39629 -116.66115 171.60918 316
70.17883 -147.32303 163.43274 304
67.79583 -149.55649 166.35002 305
103.11708 -117.42422 171.60855 316
70.97672 -148.30455 163.38712 303
68.75791 -150.50926 166.31152 305
103.84031 -118.17121 171.59618 316
72.76383 -148.46849 163.67053 412
69.70037 -151.45021 166.35320 305
104.56556 -118.95238 171.58102 316
74.72533 -148.39687 164.05060 413
70.65743 -152.35345 166.33623 305
105.32786 -119.69529 171.57971 316
76.68168 -148.28548 164.38979 414
71.67342 -153.28372 166.32434 305
85.29527 -141.39490 163.67325 307
78.53973 -148.24512 164.73354 415
72.61729 -154.21902 166.37308 305
86.11782 -142.36250 163.65562 307
80.44044 -148.16103 165.04881 416
73.59322 -155.12192 166.34019 305
86.97274 -143.29001 163.62682 307
82.27595 -148.09041 165.38843 418
74.58257 -156.08891 166.32458 305
87.79861 -144.21071 163.58263 307
84.13883 -148.00801 165.68958 419
75.58026 -156.95779 166.37796 305
88.62582 -145.09941 163.56583 307
85.97662 -147.95493 166.01825 420
89.45238 -146.06352 163.52731 307
87.75037 -147.86246 166.33992 421
90.30341 -146.92232 163.49451 307
88.86665 -148.48389 166.42046 309
91.27691 -147.72942 163.50594 422
89.80235 -149.30748 166.43134 309
93.00134 -147.70654 163.80341 423
90.79984 -150.10663 166.42827 309
94.68800 -147.64238 164.14369 424
91.73113 -150.93745 166.40919 309
96.34710 -147.54080 164.44780 425
92.72790 -151.71819 166.41304 309
98.10213 -147.40585 164.73717 416
93.67123 -152.55956 166.45204 309
99.85683 -147.23169 165.10693 417
94.67871 -153.32857 166.45061 309
101.59189 -147.03928 165.39929 418
95.62576 -154.08830 166.47874 309
103.28780 -146.89305 165.76245 419
96.61759 -154.87360 166.43631 309
104.97451 -146.72067 166.03995 420
97.58900 -155.63617 166.42856 310
106.62323 -146.55815 166.36943 421
107.74202 -146.99344 166.44133 314
108.70930 -147.70610 166.43651 314
109.61594 -148.40471 166.48558 314
110.59568 -149.12346 166.47827 314
111.52063 -149.85254 166.47934 314
112.46705 -150.52988 166.47009 314
115.45773 -148.46550 167.35300 439
116.53079 -148.90884 167.46573 316
117.48238 -149.60435 167.42906 316
117.23198 -149.96312 170.55621 312
118.43741 -150.25989 167.43385 316
118.15271 -150.66777 170.50954 312
120.48426 -149.36198 167.95143 490
124.73105 -149.22285 168.62358 489
-1798.83667 -3149.12183 -212.41188 1000
-12382.50000 -23203.92383 -3690.02930 1000
-14602.08008 -27691.98242 -7638.55127 1000
-8960.65820 -17157.50000 -412.95572 1000
-402.21933 -1940.18567 83.58832 466
-404.94986 -1950.16943 116.70463 352
-389.60605 -1942.86731 83.46308 495
-391.57935 -1949.14844 116.72472 494
-393.67609 -1955.35571 150.04610 491
-6103.72412 -28120.70898 -4534.58643 1000
-4682.59424 -34440.96094 -3777.73633 1000
91.59697 -1472.30408 71.24780 432
90.80019 -1479.21326 95.41159 371
101.25961 -1467.03992 72.13004 476
100.62308 -1471.44287 95.68534 475
100.22460 -1475.62964 119.77779 474
99.83163 -1480.30566 143.80716 433
99.43254 -1486.97241 168.09286 343
110.08669 -1467.78052 71.77651 494
109.77468 -1471.80017 95.85747 494
109.69437 -1475.83435 120.02001 493
109.35384 -1479.42273 143.83379 466
108.90679 -1484.20349 168.02483 462
118.65903 -1472.48987 71.71476 418
118.51288 -1477.82922 95.34493 417
117.83900 -1485.53394 119.14421 277
5784.19189 -53207.69141 9956.79883 1000
13071.63672 -36613.32422 -4245.35107 1000
17323.26172 -48733.75000 1909.22021 1000
603.94476 -969.68085 79.93216 426
606.12195 -975.45148 96.57664 363
608.05316 -962.80487 80.78466 472
609.70593 -967.03918 97.27104 471
611.51135 -971.42657 113.96220 471
613.60461 -976.83447 130.74368 437
615.49756 -981.22125 147.70142 364
613.51495 -958.60583 81.05537 495
615.16437 -962.85754 97.59814 494
616.81879 -967.08942 114.33977 494
618.69000 -971.48346 131.00374 492
620.21552 -975.47711 147.89784 492
621.70691 -979.65796 165.09518 490
619.33972 -956.75360 80.95887 493
621.15100 -960.84442 97.53426 493
622.99036 -965.47961 114.05662 466
624.88275 -970.02936 130.97722 490
627.18408 -975.85687 147.63979 448
629.08392 -980.08606 164.94511 354
626.56836 -957.09174 80.39745 467
628.60260 -962.15204 97.02924 419
630.78558 -967.53271 113.82365 418
635.55511 -962.43005 79.21486 354
11634.35059 -18584.09961 -4496.42676 1000
372.63715 -107.12150 167.64902 313
373.23740 -106.19382 167.64902 313
373.85056 -105.24178 167.65735 313
374.45557 -104.29652 167.66307 313
375.06561 -103.37547 167.67847 315
375.62006 -102.43268 167.66266 315
376.23868 -101.51511 167.67577 315
376.82501 -100.58009 167.65514 315
377.43277 -99.58809 167.66510 315
377.97885 -98.65788 167.65253 315
378.54181 -97.72626 167.66508 315
379.10626 -96.73498 167.69009 315
379.65503 -95.78143 167.70357 315
381.01834 -95.33479 167.42130 435
382.40652 -94.81263 167.17702 434
383.81213 -94.35502 166.89604 433
392.29788 -99.29340 167.71539 309
385.22867 -93.84882 166.63908 432
392.83160 -98.21138 167.71132 309
386.65616 -93.37910 166.37285 431
393.38394 -97.15943 167.68362 309
388.13046 -92.88783 166.10522 430
393.89435 -96.09722 167.72032 309
389.54227 -92.38378 165.80064 429
394.46286 -95.02521 167.72629 309
391.04404 -91.87092 165.55034 428
394.97629 -93.99449 167.74440 309
392.52182 -91.30759 165.26587 427
395.50662 -92.89341 167.73209 309
394.05872 -90.82751 164.94792 426
395.98981 -91.83686 167.77800 311
395.17319 -90.05309 164.77319 317
396.52115 -90.80376 167.75934 311
395.69214 -89.01801 164.75461 317
397.12814 -89.76466 167.73798 425
396.22638 -87.98277 164.75595 317
398.71075 -89.21302 167.47444 424
396.78174 -86.92400 164.77165 317
400.24667 -88.65153 167.16225 423
397.29016 -85.88238 164.74823 317
401.87955 -88.12949 166.86598 422
397.83780 -84.83242 164.76553 317
403.51065 -87.54236 166.54848 420
412.15375 -91.69147 167.75334 305
398.33841 -83.77274 164.72931 317
405.13931 -86.97002 166.20506 419
412.64291 -90.50230 167.73901 305
398.83432 -82.68487 164.74887 317
406.78214 -86.40611 165.90790 418
413.13312 -89.37812 167.79834 305
399.31335 -81.58276 164.72813 317
408.23605 -85.67487 165.62910 437
413.64688 -88.19769 167.78117 305
399.79156 -80.52247 164.75330 317
409.72147 -85.00945 165.41162 436
414.09619 -86.97171 167.79848 305
400.28232 -79.45074 164.74603 317
411.13538 -84.30499 165.09587 435
414.59192 -85.80047 167.77046 305
400.72919 -78.35724 164.75098 317
412.62970 -83.56140 164.84938 434
415.05960 -84.62725 167.78305 305
401.23541 -77.28072 164.75090 317
413.17188 -82.43393 164.85272 312
415.51331 -83.40462 167.83546 305
378.14606 -66.24783 171.58690 316
413.63611 -81.26163 164.81616 312
415.97180 -82.24551 167.80118 305
378.53641 -65.26367 171.60530 316
414.15479 -80.07263 164.82358 312
417.16730 -81.35617 167.64679 432
378.86096 -64.30776 171.57227 316
414.62241 -78.93594 164.84299 312
418.70688 -80.58719 167.34808 431
379.22815 -63.38482 171.60036 316
415.10751 -77.75075 164.83995 312
420.30801 -79.82545 167.09578 430
379.61282 -62.42538 171.60994 316
415.55902 -76.57095 164.82288 312
421.88922 -79.08229 166.81149 429
379.96124 -61.45572 171.59145 316
416.02588 -75.42015 164.82816 312
423.45343 -78.30978 166.55753 428
4981.20215 -1841.46643 1316.50293 1000
380.29846 -60.49926 171.59776 316
416.47577 -74.22852 164.81595 312
425.07037 -77.50917 166.21335 427
434.23972 -81.01511 167.78893 301
31955.46289 -12055.39258 -349.82187 1000
380.62411 -59.52087 171.59961 316
416.92068 -73.02950 164.82031 312
426.73145 -76.70572 165.91806 426
434.69238 -79.66304 167.82179 301
380.96765 -58.54199 171.59305 316
417.35678 -71.87272 164.80455 312
428.34979 -75.90617 165.66685 425
435.10980 -78.36075 167.83098 301
381.27988 -57.57777 171.59795 317
417.80463 -70.66980 164.81400 312
430.07166 -75.10332 165.31987 424
435.52881 -77.05025 167.86058 301
381.58038 -56.59489 171.63425 317
392.22296 -60.31630 171.74100 313
431.73987 -74.24543 165.03548 423
435.91586 -75.74730 167.83936 301
381.89047 -55.62514 171.59949 317
392.50818 -59.29475 171.72203 313
432.66394 -73.16713 164.91444 308
436.32828 -74.42988 167.88812 301
382.23495 -54.62505 171.61087 317
392.88690 -58.22851 171.70334 313
433.15201 -71.84320 164.90596 308
436.69638 -73.07638 167.86430 301
382.50964 -53.66003 171.61823 317
393.19943 -57.19384 171.73413 313
433.56204 -70.58240 164.91281 308
437.08386 -71.72790 167.90663 301
382.81491 -52.67947 171.61551 317
393.50421 -56.13671 171.75021 313
433.94873 -69.29927 164.90312 308
438.75085 -70.83041 167.58041 419
383.09351 -51.71978 171.62991 317
393.79266 -55.10054 171.72166 313
434.37347 -68.03695 164.87688 308
440.39539 -69.94197 167.35107 433
383.37180 -50.71247 171.65295 317
394.10297 -54.05784 171.75861 313
434.78214 -66.70455 164.91960 308
441.97589 -68.93384 167.03310 432
383.67865 -49.73937 171.65463 317
394.42914 -53.00753 171.75157 313
435.17627 -65.42471 164.90417 308
443.60410 -67.98888 166.78635 431
383.92200 -48.75252 171.63892 317
394.73108 -51.93761 171.74501 313
435.54028 -64.09533 164.90614 308
445.23993 -67.01233 166.47021 430
3527.85425 -984.78271 158.81264 485
384.23453 -47.74840 171.66019 317
394.97021 -50.87736 171.76057 313
435.86011 -62.80917 164.89874 308
446.87939 -66.02202 166.19873 429
384.47543 -46.77666 171.64786 317
395.26154 -49.83453 171.73019 313
436.24936 -61.50574 164.91771 308
448.61301 -65.01392 165.95132 428
458.33508 -67.78667 167.91364 297
384.73502 -45.79693 171.62357 317
395.53528 -48.77449 171.77524 313
407.82104 -52.17614 171.88629 309
450.27042 -63.99304 165.58862 427
458.60767 -66.28883 167.89528 297
384.97357 -44.77982 171.65149 317
395.80145 -47.72482 171.76886 313
408.06461 -51.06563 171.88921 309
452.00137 -62.93998 165.31117 426
458.94742 -64.85173 167.92696 297
385.23889 -43.80708 171.63867 317
396.09036 -46.67851 171.76781 313
408.35776 -49.90026 171.89908 309
453.76111 -61.89314 165.02113 425
459.28662 -63.39724 167.90245 297
385.47574 -42.81320 171.65916 317
396.33185 -45.58350 171.74004 313
408.62668 -48.75107 171.90038 309
454.23038 -60.56713 164.96584 304
459.60190 -61.91723 167.97693 297
385.67334 -41.79610 171.66055 317
396.58151 -44.51397 171.75952 313
408.88043 -47.65586 171.88446 309
454.55984 -59.10215 164.95091 304
459.87369 -60.46261 167.98689 297
385.92456 -40.77772 171.65399 317
396.82559 -43.46840 171.75423 313
409.19357 -46.50102 171.88914 309
454.91498 -57.69923 164.98293 304
460.12677 -59.00177 167.94572 298
386.13150 -39.80031 171.66040 317
397.06683 -42.39049 171.77838 313
409.42273 -45.33922 171.88759 309
455.23453 -56.27801 164.98277 304
460.93781 -57.59177 167.90939 421
386.36145 -38.77235 171.65045 317
397.27475 -41.33682 171.75670 313
409.64743 -44.17440 171.90436 309
455.55652 -54.87305 164.96497 304
462.62045 -56.48436 167.63727 453
386.57874 -37.79125 171.66333 317
397.52191 -40.25492 171.76770 313
409.93188 -43.03339 171.89690 309
455.87198 -53.41333 164.98320 304
463.97418 -55.23630 167.39249 452
386.76999 -36.76486 171.64320 317
397.69312 -39.20360 171.74629 313
410.16339 -41.90147 171.87860 309
456.14417 -51.95824 165.00226 304
465.27484 -53.97173 167.20456 451
386.96503 -35.76597 171.67540 317
397.91019 -38.12027 171.75873 313
410.33633 -40.73417 171.92058 309
456.43927 -50.55780 164.98549 304
466.61722 -52.74756 166.97411 451
387.15268 -34.78783 171.67897 317
398.14328 -37.03826 171.75507 313
410.59680 -39.62680 171.86946 309
456.68387 -49.10177 164.99731 304
467.97629 -51.46219 166.76950 450
387.34036 -33.73996 171.68390 317
398.33868 -35.97571 171.77469 313
410.80597 -38.42793 171.92328 309
425.08078 -41.28428 172.04599 305
469.38940 -50.18713 166.52538 449
387.50690 -32.73222 171.69342 317
398.51859 -34.87233 171.76256 313
410.98422 -37.31798 171.89854 309
425.27402 -40.05272 172.02594 305
470.77225 -48.85646 166.32492 448
387.68671 -31.72610 171.69211 317
398.68140 -33.78711 171.77615 313
411.21579 -36.14540 171.89726 309
425.46313 -38.79628 172.04387 305
472.15390 -47.52379 166.10178 447
387.84561 -30.75139 171.69254 317
398.90237 -32.71101 171.76619 313
411.38583 -34.96835 171.91710 309
425.67841 -37.59116 172.06000 305
473.59677 -46.25783 165.88766 446
388.02988 -29.70161 171.68520 317
399.05643 -31.65688 171.78670 313
411.58636 -33.83299 171.91983 309
425.88733 -36.33925 172.04665 305
475.03510 -44.91576 165.63994 445
485.34024 -46.67353 168.03302 293
388.18085 -28.72224 171.68990 317
399.22235 -30.57462 171.76018 313
411.75058 -32.66273 171.88287 309
426.06000 -35.06368 172.07004 305
476.49051 -43.51492 165.40897 444
485.52689 -45.08875 168.07225 293
388.33017 -27.69028 171.69971 317
399.38663 -29.46974 171.76389 313
411.90497 -31.48259 171.90891 309
426.26590 -33.81260 172.04410 305
477.93579 -42.19239 165.12215 443
485.69785 -43.47792 168.06073 293
388.45282 -26.67788 171.69206 317
399.52823 -28.38448 171.77632 313
412.05899 -30.37556 171.91690 309
426.42639 -32.58255 172.02698 305
478.19797 -40.59433 165.09526 300
485.86328 -41.84887 168.04245 293
388.59698 -25.64320 171.69803 317
399.68771 -27.31239 171.78810 313
412.25021 -29.19838 171.91182 309
426.63083 -31.33265 172.05054 305
478.38205 -39.06630 165.15724 300
486.00800 -40.19460 168.08411 294
271.32761 -7.85180 203.49284 286
399.81415 -26.21469 171.79900 313
412.37375 -28.05027 171.89613 309
426.79684 -30.06242 172.03288 305
478.61270 -37.52821 165.11119 300
486.14944 -38.56708 168.14578 294
271.32010 -7.54773 203.50940 314
399.92984 -25.11919 171.77435 313
412.52560 -26.84136 171.90285 309
426.93777 -28.84671 172.02332 305
478.81940 -35.90216 165.09505 300
486.24826 -36.92794 168.13498 294
271.35129 -7.25127 203.49821 314
400.08783 -24.04808 171.80768 313
412.68680 -25.69347 171.92307 309
427.08215 -27.55605 172.02992 305
443.70712 -29.76395 172.22729 301
486.36868 -35.29356 168.18274 294
271.37262 -6.96447 203.50885 314
400.20724 -22.95271 171.79431 313
412.77875 -24.50785 171.90465 309
427.19617 -26.33683 172.03452 305
443.88144 -28.36370 172.23129 301
486.47723 -33.71692 168.18271 294
271.38889 -6.66657 203.50813 314
400.31812 -21.87603 171.78658 313
412.94003 -23.34952 171.92970 309
427.33652 -25.05939 172.04599 305
444.03064 -27.01925 172.19331 301
487.20374 -32.09937 168.08736 457
271.41425 -6.37006 203.49893 314
400.43005 -20.78498 171.78639 313
413.05695 -22.20812 171.92552 309
427.46222 -23.82334 172.02699 305
444.16571 -25.68077 172.22537 301
488.43610 -30.61702 167.83946 457
271.43478 -6.07553 203.49750 314
400.49841 -19.68129 171.78329 313
413.16861 -21.02015 171.91327 309
427.60364 -22.57328 172.03334 305
444.28738 -24.29003 172.22153 301
489.64233 -29.13636 167.64946 456
271.44254 -5.76944 203.50629 314
400.62201 -18.62763 171.80103 313
413.26331 -19.87937 171.93016 309
427.70316 -21.30102 172.05838 305
444.43683 -22.94614 172.24873 301
490.87894 -27.57848 167.44704 455
271.46082 -5.47217 203.49878 314
400.70172 -17.52625 171.81073 313
413.32660 -18.67420 171.93307 309
427.78937 -20.02083 172.06358 305
444.53790 -21.59718 172.21994 301
492.13281 -26.06206 167.29987 454
271.47351 -5.18037 203.50978 314
400.77536 -16.42157 171.81580 313
413.43906 -17.52600 171.91588 309
427.93103 -18.79973 172.05086 305
444.64587 -20.24630 172.24071 301
493.35971 -24.47169 167.05568 453
271.48834 -4.87855 203.50200 314
400.83804 -15.30977 171.78590 313
413.50452 -16.37243 171.93758 309
428.00131 -17.50236 172.03250 305
444.74942 -18.84658 172.24606 301
494.67151 -22.92720 166.87556 452
271.49051 -4.57600 203.50015 314
400.93329 -14.23589 171.79398 313
413.61969 -15.15767 171.90274 309
428.06583 -16.27691 172.08870 305
444.86121 -17.54454 172.21642 301
495.92566 -21.34379 166.68738 452
271.50247 -4.27929 203.50267 314
400.97308 -13.15919 171.77577 313
413.66632 -14.00350 171.93684 309
428.15051 -15.01841 172.05490 305
444.89227 -16.12059 172.21698 301
496.96811 -19.73237 166.47336 483
271.50787 -3.98960 203.50963 314
401.04221 -12.04679 171.80312 313
413.74335 -12.86583 171.94470 309
428.21411 -13.73219 172.04214 305
444.97409 -14.77742 172.21434 301
497.63861 -18.07673 166.38652 482
271.50827 -3.68562 203.50694 314
401.10797 -10.97570 171.77333 313
413.77960 -11.68394 171.93323 309
428.28027 -12.48714 172.05206 305
445.08035 -13.41954 172.23727 301
464.62872 -14.54062 172.44446 297
271.50980 -3.39100 203.50598 314
401.13574 -9.88089 171.82117 313
413.80264 -10.49753 171.92245 309
428.34067 -11.22087 172.05823 305
445.09775 -12.06208 172.23758 301
464.70142 -13.05500 172.42502 297
271.51263 -3.08750 203.50842 314
401.20013 -8.77576 171.81651 313
413.88904 -9.33049 171.90799 309
428.41092 -9.93090 172.03839 305
445.13577 -10.69097 172.20383 301
464.78607 -11.51751 172.44858 297
271.50000 -2.78613 203.50311 314
401.22549 -7.68234 171.79231 313
413.87906 -8.13880 171.91777 309
428.44815 -8.70772 172.03670 305
445.17874 -9.29689 172.22997 301
464.84750 -10.03774 172.43275 297
271.50757 -2.48697 203.50316 314
401.24106 -6.56609 171.79770 313
413.95532 -6.96437 171.91798 309
428.44415 -7.40428 172.05917 305
445.20709 -7.98936 172.23402 301
464.89215 -8.58349 172.44907 297
271.49640 -2.19245 203.50150 314
401.25180 -5.46861 171.81114 313
413.97061 -5.80492 171.92981 309
428.44901 -6.18033 172.06207 305
445.22958 -6.59890 172.24991 301
464.89581 -7.11265 172.39125 297
271.49307 -1.88618 203.50011 314
401.27188 -4.38330 171.81653 313
413.95898 -4.60985 171.91832 309
428.51099 -4.90209 172.06677 305
445.29407 -5.23845 172.22003 301
464.93298 -5.58955 172.43983 297
271.48117 -1.59358 203.50673 314
401.28616 -3.27633 171.77820 313
413.96451 -3.45784 171.93607 309
428.48706 -3.63533 172.03650 305
445.29150 -3.84640 172.19701 301
464.95914 -4.13791 172.44803 297
271.46240 -1.29604 203.50446 314
401.27942 -2.18717 171.81854 313
413.99323 -2.25329 171.93404 309
428.51654 -2.36299 172.03307 305
445.29034 -2.51849 172.24808 301
451.55902 -2.55207 174.84052 423
271.44955 -0.98803 203.49884 314
401.25827 -1.10734 171.81624 313
413.96362 -1.12902 171.89323 309
428.47385 -1.10443 172.07713 305
445.28406 -1.13360 172.19855 301
464.91229 -1.12885 172.43143 297
271.43750 -0.68895 203.49925 314
401.25970 0.02262 171.79895 313
413.92798 0.07432 171.89980 309
428.45908 0.15911 172.05453 305
445.25507 0.21407 172.21033 301
464.89221 0.32862 172.43726 297
271.42264 -0.39598 203.50206 314
401.24261 1.10970 171.81650 313
413.92273 1.23366 171.89781 309
428.43271 1.39483 172.03563 305
445.24493 1.59723 172.21832 301
451.53088 1.68186 174.82140 422
271.39868 -0.10138 203.49803 314
401.18674 2.18790 171.80933 313
413.89438 2.42621 171.91597 309
428.41870 2.70137 172.06833 305
445.21545 2.98088 172.21918 301
464.88129 3.31141 172.42937 297
271.38852 0.20172 203.49936 314
401.15231 3.28299 171.79404 313
413.88812 3.60355 171.92870 309
428.37457 3.93900 172.07262 305
445.16608 4.34924 172.20358 301
464.84833 4.83292 172.40283 297
271.35858 0.50685 203.50919 314
401.12473 4.37522 171.79219 313
413.84357 4.78791 171.94211 309
428.32935 5.22337 172.03246 305
445.12048 5.68709 172.20660 301
464.74078 6.27084 172.39801 297
271.34171 0.80141 203.50349 314
401.08752 5.49983 171.81381 313
413.77469 5.96496 171.94199 309
428.28943 6.45315 172.07520 305
445.06860 7.06778 172.18840 301
464.68982 7.78495 172.43410 297
271.31085 1.09313 203.50656 314
401.00674 6.58392 171.78120 313
413.71082 7.13938 171.91357 309
428.24796 7.73845 172.07875 305
445.04324 8.40396 172.24773 301
464.66333 9.26861 172.39873 297
271.28690 1.39971 203.49850 314
400.95337 7.66631 171.77370 313
413.66257 8.30377 171.90280 309
428.14938 8.98827 172.07034 305
444.92130 9.80771 172.22279 301
464.58548 10.71946 172.37837 297
61423.46484 2960.45508 -8889.87695 1000
271.25412 1.69943 203.50101 314
400.91367 8.78541 171.80453 313
413.56155 9.45019 171.89389 309
428.08423 10.22888 172.06650 305
444.88589 11.13910 172.23717 301
464.47891 12.26298 172.41823 297
4857.75293 252.01506 214.77455 381
271.22360 1.99994 203.50645 314
400.81766 9.83813 171.76917 313
413.53021 10.62759 171.91135 309
428.01102 11.49621 172.06500 305
444.78033 12.53640 172.20940 301
464.40262 13.71358 172.43407 297
4874.93066 280.96863 138.49283 429
4842.54639 279.04404 215.29337 404
271.18735 2.29733 203.51012 314
400.75208 10.97015 171.78955 313
413.41461 11.80310 171.88519 309
427.89691 12.77791 172.06903 305
444.67795 13.92287 172.20088 301
497.65875 17.46439 166.33260 483
4853.53955 308.20004 139.38918 430
4925.72168 313.72806 214.71709 294
271.14810 2.58775 203.50299 314
400.66446 12.06115 171.78918 313
413.32809 12.99736 171.88443 309
427.82529 14.01934 172.03125 305
444.57907 15.25563 172.23906 301
496.92630 19.09210 166.40736 483
4829.13428 336.06604 139.75856 475
271.11850 2.89305 203.50200 314
400.56293 13.13704 171.80170 313
413.23483 14.15687 171.92081 309
427.69983 15.28667 172.05563 305
444.47913 16.61479 172.21254 301
495.88229 20.70591 166.57681 452
4815.30273 363.13065 139.23024 475
271.07190 3.19434 203.50201 314
400.48721 14.21715 171.79727 313
413.14252 15.31959 171.92380 309
427.63052 16.55324 172.05348 305
444.35980 17.99835 172.20932 301
494.62775 22.27609 166.79089 453
4803.17188 390.79520 140.23659 488
271.03043 3.48504 203.50516 314
400.34137 15.33443 171.78131 313
413.02103 16.48400 171.87958 309
427.51080 17.80112 172.03490 305
444.23633 19.36720 172.19695 301
493.37720 23.88367 166.99313 454
4788.41748 417.57623 140.73596 326
270.99207 3.78169 203.50734 314
400.27283 16.40346 171.78648 313
412.88245 17.63950 171.88600 309
427.39795 19.04807 172.06534 305
444.07751 20.72107 172.19705 301
492.09927 25.37801 167.21365 455
4772.74854 444.32397 140.07826 329
270.94910 4.08241 203.50610 314
400.11349 17.50377 171.78110 313
412.77579 18.83015 171.91312 309
427.26556 20.33685 172.05980 305
443.93085 22.06658 172.18724 301
490.87149 26.95132 167.41000 456
4759.88428 470.59186 140.99695 435
270.90955 4.38250 203.49838 314
399.99539 18.60931 171.78247 313
412.63986 19.99958 171.92123 309
427.07877 21.61773 172.02773 305
443.78671 23.46130 172.18825 301
489.62317 28.46540 167.58609 457
4753.05908 498.05045 140.80699 435
4867.17676 511.27103 215.91502 269
270.85593 4.68362 203.49771 314
399.85147 19.71634 171.76685 313
412.48776 21.19378 171.89999 309
426.97717 22.83037 172.05269 305
443.67032 24.79469 172.22565 301
488.38004 29.96150 167.77664 457
4744.29883 524.92413 141.22186 435
4815.81934 533.53027 215.59219 499
270.80563 4.97491 203.50539 314
399.74283 20.79507 171.78214 313
412.33362 22.36128 171.91748 309
426.81924 24.08322 172.05666 305
443.50592 26.17318 172.20258 301
487.13977 31.54283 167.93579 458
4740.01904 553.64557 141.34479 436
4840.95850 565.88165 214.83028 498
270.75610 5.26864 203.50771 314
399.60880 21.86013 171.77242 313
412.18069 23.52324 171.89476 309
426.65213 25.36561 172.03682 305
443.28928 27.53702 172.18539 301
485.95135 33.00370 168.12811 459
4734.45557 580.58990 141.51917 436
270.70438 5.57000 203.50354 314
399.45096 22.95599 171.76146 313
412.03888 24.68023 171.86931 309
426.49374 26.62910 172.03369 305
443.14490 28.89395 172.20438 301
485.71124 34.59672 168.11407 294
4731.81104 608.55084 140.67555 497
270.64267 5.85806 203.50899 314
399.29770 24.04607 171.79128 313
411.88538 25.83327 171.88225 309
426.26968 27.88169 172.02057 305
478.15976 35.20971 165.10785 300
485.64200 36.27475 168.13168 294
4729.45410 636.70520 141.31006 496
4849.93066 653.34882 215.63310 277
270.58942 6.16405 203.50368 314
399.12183 25.13239 171.76007 313
411.68811 27.00008 171.89622 309
426.12897 29.13610 172.02637 305
477.94110 36.80462 165.07867 300
485.48471 37.90171 168.09154 294
4727.83936 664.70831 141.23227 496
4810.01807 675.91620 215.40804 498
4864.52490 684.34406 291.44812 498
270.53314 6.45152 203.50606 314
398.94476 26.21490 171.74574 313
411.55365 28.16512 171.88733 309
425.88773 30.39387 172.04460 305
477.69666 38.35366 165.12109 300
485.29108 39.51310 168.05331 293
4727.08789 692.60748 141.11575 495
4880.94238 716.08685 292.52029 498
270.46674 6.75298 203.50005 314
398.78665 27.29385 171.75777 313
411.34024 29.31338 171.87537 309
425.73914 31.63384 172.01723 305
477.44333 39.94374 165.08310 300
485.15009 41.14190 168.05577 293
4725.93457 720.46417 141.16336 495
270.40543 7.04594 203.50458 314
398.61676 28.39141 171.78047 313
411.15628 30.48674 171.88887 309
425.51556 32.89872 172.05214 305
477.21484 41.48796 165.10226 300
484.92249 42.76837 168.08316 293
4725.13965 748.59668 140.42264 495
4822.66162 764.88733 214.73892 412
270.34140 7.34283 203.50645 314
398.40549 29.49731 171.77971 313
410.95697 31.66953 171.90492 309
425.27197 34.14382 171.99602 305
476.43112 42.98917 165.17624 445
484.72067 44.36684 168.01300 293
4724.23584 776.85760 140.86374 495
4772.61377 785.16010 214.97102 497
270.27673 7.63633 203.50781 314
398.22507 30.58578 171.77087 313
410.74475 32.80706 171.89044 309
425.08359 35.38678 172.04071 305
474.96469 44.34718 165.42613 446
484.53293 46.04609 167.98512 293
4722.55664 805.49921 140.12570 495
270.20251 7.93076 203.50374 314
398.01242 31.63472 171.74767 313
410.50299 33.94524 171.87291 309
424.84561 36.60122 172.01387 305
473.52100 45.62302 165.65840 447
4722.15137 834.34357 140.86497 494
4939.53760 874.62714 214.86610 497
270.14062 8.22571 203.50281 314
397.79782 32.71357 171.77713 313
410.33102 35.13197 171.88806 309
424.59860 37.89258 172.03723 305
472.12457 46.99966 165.93115 448
4720.32422 862.47479 141.04857 494
270.07080 8.51884 203.50705 314
397.57748 33.80149 171.77606 313
410.06952 36.25508 171.87955 309
424.34277 39.11581 172.01251 305
470.68573 48.29909 166.10956 449
4719.89502 890.61127 140.21901 494
270.00043 8.81600 203.49753 314
397.35480 34.90024 171.74316 313
409.83698 37.42296 171.87009 309
424.14194 40.34624 172.02774 305
469.31610 49.61609 166.36989 450
4719.05273 919.83484 140.39412 494
269.92310 9.10430 203.49904 314
397.12518 35.94115 171.74210 313
409.62027 38.58058 171.86391 309
423.84283 41.57386 172.01799 305
467.89691 50.90862 166.52856 450
4718.32275 947.37952 140.79532 494
269.84180 9.39616 203.50009 314
396.88928 37.04037 171.75674 313
409.34198 39.71563 171.88551 309
455.42795 49.75264 164.96912 304
466.54654 52.20682 166.77138 451
4717.02246 977.07220 140.74280 493
269.77078 9.69271 203.50359 314
396.69250 38.11124 171.72295 313
409.07956 40.90472 171.84744 309
455.13474 51.18257 164.98241 304
465.19812 53.46115 167.00320 452
4715.10791 1005.16748 139.76601 493
269.68298 9.97759 203.50322 314
396.42526 39.17125 171.75221 313
408.82953 42.06744 171.85185 309
454.77423 52.61044 164.97205 303
463.85831 54.68584 167.14748 453
4715.15723 1033.66223 139.64548 493
4851.39697 1065.31091 214.97749 495
269.60468 10.27723 203.50191 314
396.15952 40.22978 171.74133 313
408.58087 43.18443 171.87315 309
454.45776 54.03857 164.94466 303
462.50366 55.93344 167.36389 454
4713.72168 1062.29688 139.54904 492
269.52405 10.57022 203.50926 314
395.91440 41.32947 171.71246 313
408.26697 44.31220 171.86145 309
454.06915 55.46747 164.93991 303
460.75446 57.09392 167.64830 422
4712.37354 1091.72205 139.75510 492
269.42816 10.86251 203.50264 314
395.67331 42.38800 171.70647 313
408.03467 45.49433 171.87366 309
453.70639 56.93730 164.92073 303
458.98181 58.19046 167.92857 298
4721.11572 1123.63684 139.61121 409
269.34491 11.14093 203.50482 314
395.38150 43.48079 171.73737 313
407.71762 46.61319 171.84828 309
453.33405 58.31498 164.97595 303
458.60666 59.66692 167.95190 298
269.26050 11.43858 203.50572 314
395.07599 44.50900 171.70871 313
407.44632 47.74289 171.86330 309
453.01727 59.78044 164.92570 303
458.29974 61.15392 167.93687 297
269.17023 11.71998 203.50067 314
394.82608 45.58152 171.73062 313
407.11292 48.92243 171.85028 309
452.62485 61.14062 164.95172 303
457.96390 62.63276 167.92072 297
269.12943 12.03023 203.48341 288
394.51099 46.64904 171.70099 313
406.81720 50.06892 171.83952 309
451.76419 62.44947 165.01985 427
457.61246 64.11581 167.89680 297
383.41330 44.64872 171.63464 316
394.23041 47.73584 171.73047 313
406.50281 51.19453 171.84769 309
450.02097 63.52433 165.32281 428
457.29410 65.53809 167.85953 297
383.13824 45.65873 171.61024 316
393.91110 48.80074 171.71733 313
406.16745 52.31032 171.85619 309
448.32938 64.53027 165.60043 429
456.92969 67.04044 167.83841 297
382.84375 46.66388 171.58238 316
393.59296 49.81094 171.69882 313
434.47318 61.92881 164.88081 308
446.62949 65.52702 165.92139 430
456.54367 68.45734 167.86589 297
382.51437 47.62513 171.59221 316
393.28217 50.89975 171.68521 313
434.08704 63.22198 164.82326 308
444.99573 66.51962 166.23091 431
382.23679 48.61269 171.61444 316
392.99585 51.95928 171.72200 313
433.70480 64.56823 164.84581 308
443.35083 67.55789 166.44095 432
381.93951 49.62931 171.59918 316
392.65567 52.98798 171.70586 313
433.26215 65.83117 164.83150 308
441.70895 68.50486 166.74207 433
381.61020 50.57644 171.58418 316
392.32941 54.04118 171.68994 313
432.88910 67.13939 164.86435 308
440.11407 69.46927 166.99373 434
381.29187 51.57967 171.60440 316
391.97952 55.07863 171.71724 313
432.45087 68.41869 164.81664 308
438.40311 70.40475 167.27351 420
380.96304 52.54953 171.60472 316
391.61728 56.13892 171.67387 313
431.98727 69.74376 164.83469 308
436.60178 71.26049 167.58694 421
380.63480 53.53632 171.60347 316
391.29306 57.20063 171.68953 312
431.54352 71.04468 164.85460 308
435.05978 72.23380 167.84665 301
380.30484 54.50137 171.57437 316
390.93964 58.22272 171.66055 312
431.05536 72.27317 164.86238 308
434.67047 73.58472 167.86789 301
379.92496 55.51247 171.59299 316
390.52795 59.27635 171.69078 312
430.58853 73.59129 164.88849 308
434.24368 74.88974 167.81946 301
379.58557 56.44625 171.57246 316
390.20605 60.32406 171.67334 312
429.63638 74.68032 164.96349 425
433.77078 76.21741 167.81931 301
379.23557 57.41623 171.54698 316
415.60010 70.92680 164.74289 312
427.90887 75.49983 165.27364 426
433.31598 77.54944 167.83435 301
378.88138 58.41829 171.54469 316
415.15723 72.13729 164.79201 312
426.23984 76.30895 165.58313 427
432.89240 78.85223 167.77235 301
378.50839 59.39597 171.53812 316
414.64566 73.28521 164.79845 312
424.59909 77.13704 165.84904 428
432.44815 80.14668 167.75920 301
378.12238 60.33248 171.56558 316
414.21027 74.50777 164.75706 312
423.00290 77.93262 166.14290 429
431.99496 81.47448 167.75551 301
377.75644 61.32893 171.54938 316
413.70883 75.66019 164.80019 312
421.33429 78.74731 166.43791 430
377.37839 62.29054 171.53752 316
413.20126 76.85878 164.80431 312
419.75900 79.50557 166.68849 431
376.99249 63.25424 171.55151 316
412.72064 78.03006 164.78029 312
418.16718 80.28298 166.96228 432
376.57065 64.17284 171.51866 316
412.20901 79.15758 164.77328 312
416.63162 81.02759 167.26476 433
376.18906 65.15031 171.53513 316
411.69177 80.35830 164.76849 312
415.05356 81.82463 167.52538 434
375.77423 66.09197 171.52843 316
411.12170 81.51396 164.82130 312
413.54776 82.53784 167.73436 435
375.38074 67.03056 171.52911 316
410.62964 82.68199 164.82411 312
412.95151 83.68674 167.77876 305
398.20557 78.46607 164.68800 317
410.09332 83.79314 164.78667 312
412.46609 84.90067 167.78804 305
397.71304 79.55763 164.66422 317
409.03326 84.71737 164.92737 437
411.96225 86.06100 167.77275 305
397.19821 80.62177 164.67604 317
407.54843 85.46542 165.17491 438
411.45331 87.28023 167.71748 305
396.68149 81.70229 164.68317 317
405.96606 86.09116 165.48083 419
410.90927 88.44822 167.73944 305
396.14310 82.78160 164.66875 317
404.31030 86.68905 165.80078 420
410.35980 89.59911 167.72386 305
395.60880 83.82500 164.71460 317
402.62732 87.26835 166.11922 421
409.88092 90.77371 167.71094 305
395.03055 84.91160 164.71167 317
401.00067 87.86629 166.40350 423
409.32675 91.96300 167.69408 305
394.48282 85.97556 164.70065 317
399.33545 88.38777 166.70856 424
408.78284 93.16091 167.66762 305
393.92841 87.03572 164.71692 317
397.71890 88.93554 167.01512 425
393.36777 88.03440 164.73544 317
396.17981 89.52260 167.30823 426
3737.10767 1821.50244 151.56146 493
392.76935 89.11953 164.73233 317
394.57330 90.08694 167.56975 427
392.21103 90.15944 164.73161 317
393.55127 90.88686 167.69629 311
391.49094 91.10605 164.75162 428
393.00275 91.97249 167.68048 311
389.97299 91.65912 165.07080 429
392.45126 93.03210 167.70534 311
388.48608 92.17870 165.34280 430
391.85147 94.08191 167.66747 309
386.97992 92.68513 165.62471 431
391.29364 95.13354 167.67125 309
385.52982 93.22141 165.88568 432
390.70319 96.21173 167.66708 309
384.07419 93.73177 166.13319 433
390.14648 97.24908 167.64055 309
382.62009 94.22417 166.42331 434
389.52704 98.31393 167.65271 309
381.20990 94.69225 166.63577 435
388.97101 99.33592 167.63495 309
379.78647 95.21810 166.89438 436
388.38394 100.38145 167.65340 309
378.41037 95.67012 167.18063 437
376.99289 96.18230 167.43030 438
375.73395 96.68781 167.60065 315
375.11826 97.63392 167.63040 315
374.49353 98.60729 167.62938 315
9614.33887 6105.32471 -2204.67017 1000
373.90271 99.52052 167.58952 315
373.27759 100.49808 167.62057 315
11199.46289 7329.07959 -650.36517 1000
372.64612 101.39841 167.60893 315
372.00775 102.35364 167.60040 315
371.37939 103.31207 167.61020 315
370.71927 104.23858 167.59152 315
370.10202 105.14069 167.57373 315
369.45328 106.07666 167.60580 313
