# .PCD v.7 - Point Cloud Data file format
VERSION .7
FIELDS x y z rgb
SIZE 4 4 4 4
TYPE F F F U
COUNT 1 1 1 1
WIDTH 1374
HEIGHT 1
VIEWPOINT 4325.721191 -4094.651855 136.872208 -0.002876 -0.118517 -0.000521 0.992948
POINTS 1374
DATA ascii
68.54697 -146.87856 163.42085 304
66.14350 -149.18280 166.34177 305
101.41584 -117.06336 171.59241 316
69.31572 -147.89655 163.38145 304
67.03995 -150.09950 166.34985 305
102.09949 -117.82522 171.60338 316
70.56545 -148.53522 163.52765 412
67.98392 -151.03058 166.34428 305
102.83625 -118.53944 171.57170 316
72.49990 -148.48027 163.85268 413
68.99639 -151.94760 166.34015 305
103.56393 -119.29444 171.59529 316
74.42534 -148.38503 164.21652 414
69.90984 -152.87166 166.36737 305
104.28327 -120.05407 171.56987 316
76.34182 -148.31650 164.56143 415
70.86835 -153.79382 166.36124 305
84.33437 -141.93266 163.64673 307
78.15983 -148.24762 164.89796 416
71.84525 -154.70850 166.33868 305
85.14877 -142.85805 163.62920 307
80.04416 -148.17450 165.23766 418
72.82482 -155.63591 166.32417 305
85.91751 -143.81361 163.58347 307
81.85374 -148.10461 165.52832 419
73.78339 -156.51436 166.34399 305
86.78952 -144.68420 163.53796 307
83.63721 -148.04330 165.87427 420
87.57817 -145.60030 163.51042 307
85.42210 -147.99283 166.14867 421
88.39196 -146.55180 163.51135 307
86.94138 -148.09361 166.38788 310
89.27118 -147.42618 163.44986 307
87.88583 -148.93806 166.43575 310
90.59171 -147.77869 163.62515 423
88.81440 -149.74352 166.41357 310
92.26698 -147.68304 163.96240 424
89.74781 -150.53462 166.43721 310
93.95293 -147.66016 164.24854 425
90.70848 -151.35341 166.42593 310
95.57841 -147.58415 164.57413 426
91.69474 -152.08842 166.41907 310
97.23285 -147.49678 164.84125 417
92.62997 -152.88371 166.42224 310
98.92576 -147.32074 165.19989 418
93.60618 -153.68137 166.43573 310
100.63596 -147.15247 165.50467 419
94.56178 -154.43750 166.42749 310
-9980.55273 -12265.51465 1264.43530 1000
102.27042 -146.98741 165.83873 420
95.54623 -155.24651 166.45825 310
103.94507 -146.83586 166.12723 421
96.48933 -156.00929 166.45192 310
105.57736 -146.64923 166.40631 422
106.55286 -147.26637 166.43474 314
107.43712 -147.98874 166.48479 314
108.35764 -148.69556 166.46005 314
109.30312 -149.40050 166.44336 314
110.21856 -150.08170 166.45285 314
111.17465 -150.79807 166.45721 314
112.08891 -151.42599 166.48242 314
115.20869 -149.09827 167.48529 316
116.11930 -149.77574 167.45465 316
117.05473 -150.44460 167.45625 316
-1616.38281 -2608.59058 -527.18256 1000
117.97839 -151.09680 167.43315 316
120.50280 -149.43878 168.20543 489
124.67831 -149.16531 168.87029 489
127.60384 -148.69176 169.42683 486
-25634.74023 -52104.88281 -2638.56104 1000
-7966.47998 -20096.27930 -138.19597 1000
-287.93372 -1938.30786 85.42934 496
-289.49664 -1942.87354 118.09621 473
-290.37143 -1947.15625 150.85762 424
-276.32706 -1942.46436 85.00595 471
-277.69904 -1946.68176 117.87800 470
-278.91360 -1952.35999 150.55600 362
-788.04004 -18225.51562 2315.43335 1000
205.56538 -1464.78540 96.57017 472
205.72063 -1469.75671 120.28728 427
205.33649 -1476.16968 144.16600 355
214.67924 -1462.34839 96.60376 495
214.62135 -1466.48254 120.41704 495
214.49129 -1471.03992 144.25447 498
214.67323 -1475.35767 168.16527 494
223.63678 -1465.09167 96.22757 469
223.58875 -1470.34595 120.12837 422
223.79269 -1475.96802 143.83374 410
12903.38574 -48132.60156 -13122.85449 1000
698.21490 -954.91382 94.09190 392
700.93896 -945.78052 95.03632 449
702.24579 -948.54883 112.03378 449
703.65790 -951.68744 129.45320 393
706.11853 -956.63129 146.33647 323
705.49011 -940.57306 95.21902 486
706.33899 -942.54150 112.29975 486
707.48120 -944.64600 129.80356 486
708.67694 -946.87830 147.11298 486
709.75751 -949.12390 164.31325 448
711.27515 -952.08441 181.66197 393
711.13501 -937.17877 95.37965 499
711.88446 -939.15240 112.39572 499
713.08258 -940.85980 129.74704 499
713.93890 -942.68811 147.20247 499
714.80756 -944.57898 164.45682 499
715.89185 -946.41449 181.62477 498
717.86969 -936.00922 94.87235 453
718.99805 -938.30518 112.39873 453
719.87354 -940.34039 129.54230 453
721.01099 -942.25629 146.82840 453
722.18933 -944.68610 164.28267 410
724.43945 -948.43481 181.71652 329
726.26434 -938.13489 94.33017 398
727.80621 -941.02759 111.61071 329
33339.47266 -47122.79688 -9321.29395 1000
29257.22852 -25084.69727 9807.06055 1000
368.75525 -108.41271 167.61479 313
369.39435 -107.48512 167.63942 313
369.99304 -106.59692 167.65689 313
370.59866 -105.64940 167.62877 315
371.24921 -104.70679 167.66454 315
371.88467 -103.81046 167.65567 315
372.48004 -102.86486 167.63977 315
373.09280 -101.92612 167.63329 315
373.67221 -101.01881 167.63358 315
374.29053 -100.05754 167.65392 315
374.85721 -99.13873 167.65189 315
375.48141 -98.16807 167.65889 315
376.03314 -97.23321 167.66397 315
377.18497 -96.62296 167.47293 437
378.56619 -96.19183 167.23814 436
379.93234 -95.68970 167.00436 435
388.54800 -100.87798 167.69662 309
381.33499 -95.19002 166.72021 434
389.16760 -99.82622 167.67372 309
382.73193 -94.70383 166.45267 433
389.69272 -98.76478 167.67554 309
384.18454 -94.23093 166.22523 432
390.25629 -97.75195 167.68127 309
385.62167 -93.73747 165.92043 431
390.82300 -96.67010 167.71771 309
387.10269 -93.20225 165.65318 430
391.36432 -95.63618 167.74086 309
388.56937 -92.70241 165.36703 429
391.90582 -94.54658 167.74471 309
390.03046 -92.18766 165.09004 428
392.49774 -93.53799 167.75523 311
391.54794 -91.67080 164.81001 427
393.02048 -92.43881 167.76547 311
392.25964 -90.67908 164.75044 317
393.57968 -91.39638 167.76999 311
392.81525 -89.67802 164.73018 317
131.07401 -68.12775 -37.07665 426
393.36157 -88.62540 164.77580 317
396.19455 -90.05613 167.28975 425
393.88364 -87.55326 164.73502 317
397.74200 -89.51617 167.02812 424
394.46292 -86.55412 164.76901 317
399.35193 -88.96271 166.70766 423
408.63449 -93.60278 167.72093 305
394.99481 -85.49059 164.72360 317
400.95245 -88.40464 166.44672 421
409.17783 -92.42564 167.76175 305
395.48895 -84.42104 164.70726 317
402.62988 -87.82552 166.11226 420
409.68097 -91.23154 167.76680 305
396.00296 -83.34738 164.71265 317
404.29453 -87.26061 165.82672 419
410.17285 -90.06606 167.77357 305
396.55310 -82.28670 164.70049 317
405.96954 -86.68193 165.49988 418
410.66583 -88.90092 167.80719 305
397.04016 -81.20155 164.69894 317
407.52078 -86.02739 165.21011 437
411.15912 -87.71617 167.76042 305
397.50610 -80.13229 164.71532 317
409.02335 -85.31529 164.93005 436
411.67728 -86.53218 167.77740 305
398.03116 -79.09706 164.73846 317
409.84335 -84.34441 164.82588 312
412.13922 -85.34280 167.81999 305
375.15335 -67.80080 171.56509 316
410.37311 -83.18195 164.85956 312
412.64154 -84.15894 167.80878 305
24810.33594 -10739.56836 4183.88770 1000
375.50204 -66.83255 171.54947 316
410.88467 -82.00085 164.82796 312
413.48535 -83.14532 167.70499 434
375.91333 -65.88126 171.56352 316
411.35709 -80.87093 164.82567 312
415.01279 -82.41726 167.48647 433
376.28055 -64.95745 171.55855 316
411.85983 -79.72080 164.83369 312
416.57956 -81.67811 167.18835 432
376.64804 -63.97699 171.58620 317
412.32883 -78.57282 164.83968 312
418.12408 -80.90316 166.92867 431
377.00790 -63.05668 171.58260 317
412.83359 -77.40959 164.78893 312
419.70862 -80.11331 166.66960 430
377.41461 -62.06287 171.56047 317
413.31943 -76.19427 164.80812 312
421.30350 -79.35443 166.37924 429
430.98734 -83.15190 167.78569 301
377.74091 -61.14540 171.58902 317
413.73959 -75.03572 164.78354 312
422.91617 -78.55347 166.11661 428
431.42230 -81.89362 167.82587 301
378.11719 -60.16954 171.60674 317
414.24396 -73.88147 164.80763 312
424.51053 -77.74993 165.81801 427
431.86826 -80.54655 167.84187 301
378.46289 -59.17601 171.56731 317
414.65558 -72.68471 164.78099 312
426.18790 -76.99448 165.53087 426
432.29010 -79.26350 167.82817 301
378.78662 -58.21658 171.61438 317
415.10785 -71.50180 164.80917 312
427.85971 -76.16418 165.17548 425
432.72244 -77.94026 167.86957 301
379.14346 -57.25994 171.58372 317
389.66611 -61.06495 171.69778 313
429.55649 -75.35470 164.88911 424
433.18625 -76.66014 167.85243 301
379.46802 -56.28765 171.59857 317
390.02271 -59.99545 171.70531 313
430.02756 -74.06824 164.88084 308
433.56165 -75.33826 167.84108 301
11258.40527 -3881.59131 -1134.62292 1000
41362.94141 -14466.94824 -1945.18677 1000
379.79086 -55.30695 171.60472 317
390.36874 -58.96062 171.69559 313
430.46735 -72.79741 164.87038 308
433.96625 -74.01169 167.86543 301
380.06985 -54.32563 171.59056 317
390.69177 -57.94088 171.72182 313
430.92438 -71.54406 164.86549 308
434.73804 -72.78946 167.81607 421
380.42471 -53.35706 171.59889 317
391.04800 -56.92080 171.72980 313
431.35178 -70.22324 164.87404 308
436.49673 -71.93628 167.48950 420
380.71283 -52.40698 171.61259 317
391.36679 -55.84473 171.71182 313
431.80826 -68.97845 164.86166 308
438.33075 -71.04379 167.18936 419
381.02866 -51.39961 171.63521 317
391.68762 -54.79555 171.73114 313
432.23160 -67.69160 164.88167 308
440.03946 -70.17841 166.87218 433
381.32269 -50.43244 171.63045 317
391.98425 -53.75494 171.74133 313
432.59006 -66.40688 164.89925 308
441.62305 -69.20371 166.64084 432
381.59113 -49.46124 171.60010 317
392.33304 -52.73404 171.70441 313
432.99100 -65.06541 164.84840 308
443.27963 -68.18526 166.34740 431
381.85287 -48.44556 171.60994 317
392.62738 -51.64200 171.71919 313
433.39035 -63.80965 164.85646 308
444.89261 -67.20235 166.08694 430
455.26230 -70.31892 167.87640 297
382.15112 -47.46133 171.63254 317
392.90558 -50.61569 171.74770 313
405.10065 -54.17590 171.85501 309
446.58130 -66.22595 165.80803 429
455.64191 -68.85793 167.88416 297
382.43500 -46.51361 171.60907 317
393.19193 -49.55550 171.71992 313
405.38828 -53.00831 171.85336 309
448.25732 -65.19543 165.47694 428
456.02390 -67.41365 167.88771 297
382.69705 -45.49628 171.63480 317
393.48944 -48.47536 171.72533 313
405.73059 -51.87093 171.86169 309
449.97110 -64.17118 165.20102 427
456.34570 -65.93650 167.91100 297
382.95248 -44.53313 171.64354 317
393.77924 -47.43383 171.75078 313
405.98517 -50.75806 171.87915 309
451.36075 -63.02254 164.96037 304
456.63928 -64.47589 167.96156 297
383.20557 -43.50465 171.62379 317
394.01395 -46.39674 171.73845 313
406.31885 -49.61159 171.86967 309
451.70151 -61.63233 164.99597 304
456.98218 -63.00217 167.93721 298
3627.02539 -900.12555 214.72717 452
383.43399 -42.53088 171.64395 317
394.29163 -45.29961 171.74747 313
406.59073 -48.50212 171.84503 309
452.08862 -60.19388 165.00003 304
457.28711 -61.57919 167.93544 298
268.61499 -12.63831 203.48280 289
394.53735 -44.27027 171.71898 313
406.84766 -47.37123 171.84439 309
452.39526 -58.78308 164.98575 304
457.59036 -60.08840 167.93320 298
268.59595 -12.32164 203.50424 314
394.79364 -43.18502 171.76869 313
407.14056 -46.20164 171.85362 309
452.78735 -57.36219 164.94125 304
458.84311 -58.84106 167.80722 422
268.64999 -12.04005 203.50203 314
395.04153 -42.12380 171.76660 313
407.36334 -45.04737 171.88045 309
453.08691 -55.95088 164.96986 304
460.69028 -57.77368 167.49457 421
268.72009 -11.75068 203.49988 314
395.26794 -41.05773 171.73495 313
407.63049 -43.91542 171.85814 309
453.42969 -54.56571 164.96196 304
462.43668 -56.65768 167.20906 453
268.77841 -11.46299 203.50185 314
395.53430 -39.97552 171.76863 313
407.87756 -42.78370 171.86107 309
453.77277 -53.10044 165.00151 304
463.82828 -55.40807 166.96715 452
268.84137 -11.17288 203.51012 314
395.74826 -38.90597 171.73822 313
408.13849 -41.64443 171.85541 309
454.09283 -51.69205 164.98309 304
465.12399 -54.09626 166.79491 451
268.89111 -10.88892 203.49773 314
395.96735 -37.87774 171.76506 313
408.36429 -40.50138 171.90027 309
422.59323 -43.52110 172.02121 305
466.52444 -52.87128 166.56024 450
268.95029 -10.58738 203.50693 314
396.17023 -36.80196 171.75912 313
408.57529 -39.32732 171.86285 309
422.83267 -42.27275 172.01031 305
467.91318 -51.55605 166.37154 450
269.00845 -10.30294 203.50011 314
396.38116 -35.70382 171.74884 313
408.84256 -38.20065 171.89674 309
423.07849 -41.04675 171.99800 305
469.29465 -50.26434 166.12920 449
269.06409 -10.00849 203.50690 314
396.57428 -34.65089 171.73326 313
409.05072 -37.07137 171.90346 309
423.29214 -39.78482 172.03638 305
470.66812 -48.94704 165.93629 448
269.10553 -9.71984 203.51009 314
396.77789 -33.55619 171.74330 313
409.26236 -35.91813 171.89102 309
423.52448 -38.55994 171.99687 305
472.10986 -47.65167 165.68616 447
482.76794 -49.60583 168.00650 293
269.15479 -9.42900 203.50957 314
396.98050 -32.49367 171.73932 313
409.45761 -34.71647 171.85732 309
423.73773 -37.32914 172.00616 305
473.51706 -46.30495 165.42627 446
482.97388 -47.99108 168.03969 293
269.20706 -9.13555 203.50333 314
397.13184 -31.39225 171.76114 313
409.65176 -33.56002 171.90344 309
423.91388 -36.05753 171.99887 305
474.96744 -44.95565 165.20018 445
483.21570 -46.37061 168.01300 293
269.24982 -8.84121 203.50931 314
397.32886 -30.35455 171.78380 313
409.83121 -32.42722 171.89317 309
424.13763 -34.83844 172.04953 305
475.73474 -43.46964 165.14232 300
483.34818 -44.80423 168.04831 293
269.28958 -8.55726 203.50223 314
397.50751 -29.22772 171.74405 313
410.02731 -31.25944 171.89514 309
424.31046 -33.55898 172.00937 305
475.99554 -41.93473 165.11258 300
483.59497 -43.18716 168.11084 293
269.33716 -8.25578 203.49890 314
397.67407 -28.19369 171.78104 313
410.17593 -30.12832 171.88710 309
424.50699 -32.32877 172.00874 305
476.18423 -40.37597 165.10747 300
483.75256 -41.55005 168.09280 293
269.37982 -7.97031 203.50554 314
397.80206 -27.08660 171.77620 313
410.37830 -28.97460 171.89381 309
424.71542 -31.06542 172.05701 305
476.42755 -38.82901 165.14659 300
483.91833 -39.88318 168.12056 293
269.41785 -7.67456 203.50369 314
397.93823 -26.02260 171.75713 313
410.50095 -27.77107 171.89592 309
424.88269 -29.87296 172.02634 305
476.67340 -37.26498 165.13208 300
484.03348 -38.30016 168.14680 294
269.44370 -7.38357 203.50130 314
398.08420 -24.91707 171.75011 313
410.65384 -26.63689 171.86612 309
425.04861 -28.61988 172.05870 305
441.64417 -30.86425 172.21646 301
484.15683 -36.64321 168.13641 294
269.48883 -7.08500 203.50113 314
398.24393 -23.82121 171.76875 313
410.79547 -25.46339 171.87984 309
425.19348 -27.35305 172.05663 305
441.85373 -29.48460 172.22221 301
484.76624 -35.13121 168.07982 459
269.51376 -6.79505 203.50661 314
398.38043 -22.73327 171.79747 313
410.94241 -24.33929 171.88631 309
425.37756 -26.12521 172.03912 305
441.97791 -28.12859 172.18686 301
485.99359 -33.62206 167.89868 458
269.54291 -6.49234 203.50459 314
398.50409 -21.65978 171.76726 313
411.09225 -23.13776 171.87364 309
425.49451 -24.83341 172.02061 305
442.17444 -26.81430 172.17812 301
487.18939 -32.10090 167.66351 457
269.57828 -6.20541 203.50441 314
398.63123 -20.58752 171.79791 313
411.21771 -21.97984 171.88486 309
425.65549 -23.62064 172.01060 305
442.27789 -25.41932 172.22021 301
488.39859 -30.57464 167.50414 457
269.59982 -5.91218 203.49724 314
398.69522 -19.51179 171.75859 313
411.34631 -20.83083 171.92206 309
425.76868 -22.33353 172.01230 305
442.43243 -24.10651 172.17279 301
489.68372 -29.07843 167.28079 456
269.63034 -5.61021 203.50134 314
398.80286 -18.39569 171.79068 313
411.45486 -19.64396 171.91342 309
425.87634 -21.08689 172.04662 305
442.58099 -22.74040 172.20328 301
490.93793 -27.54490 167.13208 455
269.65765 -5.32329 203.50420 314
398.93362 -17.29536 171.76083 313
411.53113 -18.49862 171.90118 309
426.01178 -19.84795 172.06126 305
442.67014 -21.40089 172.18912 301
492.15598 -25.99904 166.91684 454
269.67462 -5.02862 203.49829 314
399.01895 -16.21552 171.79474 313
411.62411 -17.31791 171.92128 309
426.07626 -18.60242 172.05305 305
442.78159 -19.99860 172.18004 301
493.45261 -24.39098 166.72649 453
269.69208 -4.73027 203.50996 314
399.07657 -15.15980 171.79906 313
411.73083 -16.14980 171.90717 309
426.17578 -17.31858 172.06404 305
442.94238 -18.64938 172.20563 301
494.74109 -22.81951 166.50343 452
269.71573 -4.42853 203.49992 314
399.17511 -14.03166 171.77669 313
411.85101 -14.99336 171.92743 309
426.30978 -16.05890 172.07054 305
442.98666 -17.30655 172.19348 301
496.00662 -21.26046 166.26030 452
269.73380 -4.12951 203.50237 314
399.25952 -12.97303 171.77974 313
411.89148 -13.84277 171.91251 309
426.40091 -14.82333 172.03258 305
443.11139 -15.97323 172.19183 301
497.02344 -19.65212 166.09694 483
269.74344 -3.83481 203.50725 314
399.31097 -11.88855 171.75772 313
411.96085 -12.66691 171.90945 309
426.48199 -13.53967 172.03494 305
443.18948 -14.55494 172.21808 301
462.78293 -15.77591 172.41798 297
269.75195 -3.53763 203.50612 314
399.35269 -10.77526 171.79504 313
412.01654 -11.49184 171.89882 309
426.54068 -12.28207 172.03189 305
443.25220 -13.23527 172.21924 301
462.84506 -14.28148 172.37192 297
269.76544 -3.25069 203.50854 314
399.45496 -9.66442 171.79721 313
412.10687 -10.32136 171.90164 309
426.59985 -11.00702 172.04919 305
443.34384 -11.87379 172.20464 301
462.94919 -12.83155 172.37802 297
269.77887 -2.94801 203.49974 314
399.46625 -8.60615 171.79610 313
412.14618 -9.15214 171.89693 309
426.62903 -9.77322 172.07060 305
443.42010 -10.49793 172.19522 301
462.99515 -11.33037 172.38214 297
269.78308 -2.65410 203.49945 314
399.51123 -7.49970 171.80249 313
412.21906 -7.95264 171.92361 309
426.67639 -8.53463 172.04001 305
443.47079 -9.14658 172.19144 301
463.04449 -9.89204 172.37917 297
269.79660 -2.35392 203.50832 314
399.56934 -6.41827 171.78171 313
412.23688 -6.81805 171.92628 309
426.70889 -7.22839 172.06854 305
443.48108 -7.79000 172.21257 301
463.08020 -8.39323 172.40569 297
269.79678 -2.05517 203.50810 314
399.55487 -5.31468 171.80264 313
412.25546 -5.65148 171.92958 309
426.76230 -6.00588 172.04022 305
443.51218 -6.38507 172.18158 301
463.16299 -6.92264 172.36646 297
269.79391 -1.76070 203.49980 314
399.61819 -4.23783 171.76892 313
412.28281 -4.44855 171.91028 309
426.80835 -4.71034 172.03841 305
443.54407 -5.05047 172.22066 301
463.14468 -5.42975 172.38260 297
269.80255 -1.46491 203.49799 314
399.61865 -3.10394 171.80528 313
412.28345 -3.30485 171.92880 309
426.77780 -3.47755 172.03979 305
443.55585 -3.65724 172.22949 301
463.17709 -3.96606 172.37813 297
269.79565 -1.17230 203.50212 314
399.64886 -2.03924 171.77196 313
412.29538 -2.12901 171.89685 309
426.82712 -2.23163 172.04089 305
443.57556 -2.29093 172.19794 301
451.55630 -2.36409 174.50432 425
512.66003 -2.79949 168.30289 288
269.78824 -0.86835 203.50000 314
399.60678 -0.92543 171.76715 313
412.31390 -0.95061 171.88971 309
426.84366 -0.94679 172.04208 305
443.57703 -0.96057 172.20354 301
463.20300 -0.96744 172.41243 297
512.56818 -1.01967 168.34447 288
269.78241 -0.58010 203.50392 314
399.62805 0.14045 171.80246 313
412.28653 0.21286 171.88690 309
426.80670 0.29554 172.01585 305
443.61929 0.43335 172.20580 301
463.17487 0.49247 172.38354 297
512.58557 0.82316 168.26729 288
269.78024 -0.27918 203.50900 314
273.21872 -0.24128 203.47791 281
412.28040 1.41524 171.90025 309
426.80722 1.54691 172.02956 305
443.55328 1.78353 172.19597 301
451.73306 1.84058 174.49271 422
512.61969 2.60449 168.29724 288
269.76407 0.01949 203.50281 314
273.17578 0.08486 203.48618 281
412.26111 2.59695 171.88687 309
426.76114 2.85594 172.03523 305
443.53876 3.12643 172.22720 301
463.17828 3.49657 172.42758 297
269.75867 0.31496 203.50204 314
273.19510 0.40540 203.48204 281
412.26184 3.76722 171.89046 309
426.77933 4.12539 172.06779 305
443.50101 4.50207 172.17975 301
463.14755 4.97072 172.39450 297
269.74899 0.61542 203.50644 314
399.52951 4.53096 171.77861 313
412.20334 4.92773 171.92456 309
426.71671 5.35530 172.07037 305
443.50012 5.86999 172.17926 301
463.08231 6.48582 172.40680 297
269.73691 0.90505 203.50336 314
399.47610 5.62523 171.77704 313
412.15430 6.10714 171.91576 309
426.66074 6.64461 172.05827 305
443.45090 7.24899 172.19714 301
463.06735 7.96751 172.41685 297
269.71860 1.20617 203.49905 314
399.47058 6.71099 171.76129 313
412.14642 7.24175 171.92316 309
426.64566 7.88800 172.01328 305
443.38126 8.61794 172.18626 301
462.97577 9.40863 172.38527 297
269.70352 1.49863 203.50908 314
399.42377 7.81222 171.76001 313
412.10434 8.41542 171.92154 309
426.56830 9.15999 172.03465 305
443.36893 9.97085 172.19945 301
462.92316 10.93049 172.41576 297
269.68420 1.79753 203.50424 314
399.32892 8.90907 171.75754 313
412.02441 9.62764 171.89140 309
426.53598 10.40410 172.05826 305
443.28256 11.33593 172.22856 301
462.87018 12.37337 172.36145 297
269.65863 2.09842 203.50246 314
399.30124 9.99241 171.77190 313
411.94354 10.77437 171.88672 309
426.46695 11.67826 172.04245 305
443.18375 12.69744 172.18019 301
462.78845 13.88886 172.42300 297
269.63885 2.38764 203.50392 314
399.19873 11.07607 171.77440 313
411.90787 11.93028 171.88425 309
426.34320 12.89756 172.01163 305
443.14746 14.02005 172.17638 301
462.67905 15.34853 172.40979 297
269.61386 2.69364 203.50494 314
399.15802 12.18151 171.76880 313
411.78564 13.11574 171.87120 309
426.28680 14.16038 172.04126 305
442.99606 15.40780 172.22324 301
496.85361 19.35102 166.15015 483
269.58643 2.98484 203.50467 314
399.05856 13.29907 171.75241 313
411.72400 14.28636 171.90674 309
426.21259 15.45544 172.01857 305
442.90561 16.76036 172.19933 301
495.65366 20.97141 166.33600 452
4925.70312 372.89801 291.91867 366
269.55377 3.28422 203.50079 314
398.99478 14.38697 171.79492 313
411.63776 15.43549 171.87125 309
426.07483 16.67470 172.01744 305
442.82297 18.12932 172.19682 301
494.40012 22.57011 166.50595 453
4939.61084 403.02756 215.32434 437
4911.73145 401.52759 291.47516 377
269.51938 3.58255 203.50113 314
398.89166 15.48320 171.74568 313
411.52426 16.60301 171.89659 309
425.99490 17.93787 172.06091 305
442.73141 19.50915 172.18318 301
493.15091 24.09816 166.74467 454
4915.22021 429.76910 215.14748 414
269.49142 3.87991 203.50235 314
398.77731 16.57241 171.74422 313
411.38983 17.78677 171.87578 309
425.89487 19.22109 172.00937 305
442.60675 20.87539 172.20186 301
491.89886 25.68089 166.92674 455
4894.06494 457.47348 215.23172 478
269.44931 4.17641 203.50781 314
398.65405 17.64432 171.78766 313
411.27014 18.95186 171.91174 309
425.72906 20.44044 172.01459 305
442.46481 22.22129 172.16333 301
490.62277 27.21674 167.10042 456
4879.03125 484.84583 214.82700 478
269.41400 4.46728 203.50395 314
398.53116 18.71572 171.74593 313
411.18604 20.13345 171.87814 309
425.61691 21.69695 172.02405 305
442.32910 23.56744 172.21709 301
489.32788 28.74442 167.35201 457
4867.92383 511.79471 215.73938 491
269.38248 4.76130 203.50148 314
398.44278 19.80845 171.75255 313
411.05093 21.27316 171.87154 309
425.46866 22.98804 172.04771 305
442.13394 24.91801 172.21495 301
488.11877 30.28695 167.52443 457
4858.27441 540.42719 214.71216 491
269.33469 5.05502 203.50293 314
398.29639 20.91211 171.75938 313
410.92014 22.45042 171.86195 309
425.34094 24.20896 172.03696 305
442.03339 26.29686 172.16652 301
486.88715 31.77079 167.68861 458
4848.29980 568.39325 215.08139 347
269.30374 5.35430 203.50444 314
398.14636 21.98616 171.74507 313
410.76819 23.61934 171.87860 309
425.19669 25.48664 172.04584 305
441.81409 27.65237 172.21098 301
485.68021 33.26356 167.86272 459
4836.38232 594.81531 214.98056 347
269.25095 5.64115 203.50742 314
398.02783 23.08198 171.77174 313
410.61703 24.79864 171.87724 309
425.01483 26.73304 172.01921 305
441.67920 29.01182 172.20573 301
484.46112 34.77221 168.08493 460
4824.47900 622.11261 215.74590 348
4885.02881 630.16998 292.79611 499
269.21082 5.93690 203.50731 314
397.86099 24.18795 171.75493 313
410.46710 25.93365 171.87997 309
424.84738 27.98118 171.99078 305
441.48599 30.32142 172.20985 301
484.05865 36.38962 168.13034 294
4813.81836 649.81354 215.31638 350
4882.96533 659.18146 292.70523 499
269.16360 6.23157 203.50380 314
397.71603 25.23702 171.75613 313
410.31909 27.13605 171.85490 309
424.70572 29.25111 172.00970 305
476.48407 36.91539 165.06372 300
483.92740 38.02787 168.06642 294
4805.68848 676.95691 215.84280 448
269.11105 6.53690 203.50104 314
397.54968 26.35779 171.77887 313
410.11472 28.25632 171.85800 309
424.51047 30.46624 171.99046 305
476.22678 38.46138 165.11702 300
483.75717 39.59780 168.08249 293
4800.42139 705.01801 215.83687 448
269.06290 6.81978 203.50920 314
397.39056 27.44263 171.76303 313
409.93967 29.44764 171.86517 309
424.31537 31.74718 172.01939 305
476.04688 40.01101 165.06529 300
483.63950 41.28602 168.06734 293
4796.81299 733.06274 215.72906 448
269.01654 7.11185 203.50221 314
397.22342 28.50661 171.76675 313
409.76303 30.61792 171.84676 309
424.09906 33.01475 172.01047 305
475.77859 41.57132 165.05376 300
483.44321 42.90524 168.01828 293
4793.90918 762.03186 215.54239 447
4874.07227 774.56940 292.95923 498
268.95404 7.41020 203.50238 314
397.07718 29.58045 171.73122 313
409.57034 31.73489 171.85698 309
423.91556 34.25887 172.03311 305
475.49005 43.17892 165.07097 300
483.20020 44.47403 168.05452 293
4792.52100 790.46753 215.92946 447
268.89801 7.70426 203.50896 314
396.85382 30.66235 171.76384 313
409.41135 32.91460 171.88293 309
423.72647 35.49271 172.00929 305
474.62076 44.58714 165.19492 446
483.01071 46.10762 168.00598 293
4790.27490 819.31427 215.30870 446
268.84567 7.99528 203.50879 314
396.69067 31.74536 171.72302 313
409.15982 34.05163 171.87186 309
423.48972 36.74860 172.02905 305
473.15604 45.99203 165.46358 447
482.84363 47.72055 168.00838 293
4788.58740 847.22980 215.74127 446
5021.56152 890.42279 294.72946 392
268.78372 8.28385 203.50584 314
396.47021 32.85366 171.75723 313
408.94757 35.20158 171.87640 309
423.26312 37.94761 172.00148 305
471.79684 47.28908 165.69057 448
4785.37744 875.99762 214.98753 446
4834.01514 884.82556 291.61023 497
268.71841 8.58236 203.49884 314
396.26239 33.92104 171.75966 313
408.73178 36.40688 171.87138 309
423.05569 39.20289 172.00963 305
470.32791 48.64345 165.91806 449
4783.38574 905.40833 215.53923 446
268.65512 8.87091 203.50371 314
396.05435 34.96255 171.74525 313
408.52789 37.50884 171.88133 309
422.80923 40.42952 171.97571 305
468.95990 49.90565 166.14650 450
4782.05762 933.38080 215.16449 446
268.59381 9.16230 203.50883 314
395.82684 36.04615 171.74400 313
408.29102 38.68224 171.85304 309
422.54498 41.70987 171.98837 305
467.59280 51.21354 166.30324 450
4779.20117 961.70740 215.98497 446
268.52139 9.45491 203.50255 314
395.62482 37.14266 171.72571 313
408.05328 39.85054 171.82848 309
422.26227 42.94696 172.01614 305
466.20526 52.50817 166.58607 451
4777.18604 991.53851 214.72859 445
268.45291 9.74739 203.50797 314
395.37997 38.21771 171.72812 313
407.80551 40.97504 171.84062 309
453.79526 51.30261 164.95055 303
464.82413 53.77266 166.74641 452
4775.27637 1019.97858 215.49025 445
268.39410 10.03449 203.49985 314
395.13608 39.30169 171.74658 313
407.55835 42.11430 171.85872 309
453.46857 52.71551 164.97653 303
463.51675 54.99899 166.98930 453
4773.43945 1049.32336 215.44092 445
268.31247 10.32561 203.50322 314
394.92786 40.33834 171.72896 313
407.32669 43.28760 171.85754 309
453.14499 54.15428 164.96768 303
462.09497 56.23989 167.20763 421
4772.13428 1077.38623 214.89299 445
268.23740 10.62245 203.50876 314
394.68628 41.40817 171.71051 313
407.04880 44.45151 171.85144 309
452.80222 55.56142 164.97545 303
460.21967 57.41841 167.51855 422
4769.12695 1106.91101 215.51416 445
268.16074 10.90599 203.51003 314
394.41324 42.49942 171.74489 313
406.74564 45.55132 171.83965 309
452.41586 56.96569 164.96152 303
458.37387 58.47485 167.78203 423
4767.48682 1136.73022 215.22374 445
4910.02686 1171.53223 294.04102 411
268.08350 11.20075 203.50462 314
394.13950 43.56409 171.71304 313
406.49710 46.71603 171.85507 309
452.07495 58.41504 164.96974 303
457.30637 59.77260 167.93565 298
4765.88818 1164.64404 215.47041 444
268.01254 11.47884 203.50133 314
393.87167 44.61872 171.70845 313
406.22058 47.88286 171.84909 309
451.68646 59.81011 164.95270 303
457.02579 61.25976 167.94429 298
4763.28613 1194.14075 216.01920 444
267.92639 11.77767 203.50319 314
393.62970 45.68536 171.71130 313
405.90176 49.01277 171.82887 309
451.37000 61.27721 164.95120 303
456.71408 62.70379 167.88376 298
4769.19287 1225.39893 215.09724 421
267.84628 12.05543 203.50229 314
393.30438 46.76168 171.73238 313
405.61951 50.11015 171.80003 309
450.98712 62.67985 164.93361 303
456.37808 64.15806 167.88660 297
267.76648 12.35222 203.49881 314
393.02606 47.79391 171.70178 313
405.32895 51.28542 171.82338 309
449.56845 63.82018 165.17799 428
456.00342 65.64903 167.86882 297
267.67746 12.62736 203.50029 314
392.77316 48.86498 171.68782 313
405.00818 52.42183 171.84039 309
447.86212 64.80724 165.44766 429
455.62350 67.06110 167.89204 297
57400.51953 16557.29297 12044.41309 1000
267.58347 12.91988 203.50269 314
392.46600 49.89658 171.69615 313
404.66080 53.52456 171.81882 309
446.14182 65.83446 165.74808 430
455.26520 68.55949 167.88710 297
267.50308 13.20232 203.50023 314
392.15842 50.98538 171.70357 313
432.93781 63.34690 164.85356 308
444.49628 66.85144 166.05411 431
454.90668 69.99175 167.85350 297
267.40448 13.49094 203.50723 314
391.84274 52.04752 171.69272 313
432.51694 64.64705 164.82211 308
442.85599 67.84513 166.28087 432
267.37939 13.79796 203.48270 288
391.52719 53.09789 171.67096 313
432.11105 65.93841 164.82047 308
441.20267 68.81519 166.58022 433
380.49258 50.68831 171.56456 316
391.16611 54.14788 171.66978 313
431.72626 67.21974 164.83636 308
439.62872 69.78649 166.87648 434
380.18362 51.67163 171.58514 316
390.86179 55.17820 171.66188 313
431.25568 68.49880 164.86871 308
437.82996 70.69059 167.16766 420
379.86520 52.63547 171.56097 316
390.50586 56.23370 171.67670 313
430.85657 69.81575 164.86493 308
436.07596 71.53634 167.44252 421
379.54880 53.58806 171.59169 316
390.17545 57.28371 171.65097 312
430.40186 71.09259 164.83710 308
434.30188 72.44403 167.73152 422
379.21765 54.59068 171.56978 316
389.84766 58.32055 171.67076 312
429.95132 72.39329 164.81981 308
433.50943 73.61308 167.86742 301
378.87387 55.55495 171.58325 316
389.48071 59.37542 171.64728 312
429.45694 73.66592 164.86693 308
433.09845 74.96056 167.83101 301
378.50653 56.51325 171.57455 316
389.13123 60.41502 171.66898 312
429.01721 74.93389 164.86458 308
432.67188 76.25199 167.84554 301
378.16330 57.49976 171.55550 316
388.73538 61.43459 171.65579 312
427.36801 75.76363 165.14336 426
432.21600 77.58538 167.79991 301
377.84259 58.48712 171.56821 316
414.07068 72.20387 164.79166 312
425.69092 76.57935 165.41682 427
431.75638 78.87347 167.77034 301
377.46210 59.45778 171.56621 316
413.62805 73.35314 164.77768 312
424.05032 77.38721 165.71533 428
431.31473 80.18211 167.75996 301
377.11725 60.41122 171.53699 316
413.16080 74.52928 164.75102 312
422.44815 78.20252 165.99751 429
430.90482 81.50241 167.77425 301
376.73376 61.37610 171.55345 316
412.64822 75.69953 164.75995 312
420.80289 78.98534 166.26781 430
430.42972 82.84868 167.78937 301
376.34460 62.34911 171.53163 316
412.19354 76.90802 164.76320 312
419.19833 79.77255 166.57486 431
375.98010 63.31043 171.52866 316
411.67291 78.07111 164.77698 312
417.65674 80.51015 166.83043 432
375.57709 64.26476 171.51852 316
411.18307 79.25711 164.76628 312
416.07147 81.32780 167.08783 433
375.22394 65.18565 171.54874 316
410.64993 80.37383 164.75700 312
414.53577 82.04237 167.34885 434
374.80405 66.13651 171.54720 316
410.18393 81.55254 164.76248 312
413.04471 82.80427 167.63904 435
374.42191 67.12795 171.53545 316
409.60678 82.70076 164.76665 312
411.92548 83.74546 167.74609 305
374.02112 68.03287 171.50650 316
409.10043 83.88447 164.78947 312
411.44836 84.92851 167.76038 305
396.74750 79.61182 164.65161 317
408.49799 84.99580 164.82925 437
410.98312 86.12761 167.72815 305
396.25720 80.66705 164.68753 317
407.06110 85.68763 165.06436 438
410.48166 87.27230 167.77493 305
395.75232 81.76178 164.67554 317
405.36996 86.29853 165.40010 419
409.92682 88.47565 167.74158 305
395.24561 82.84464 164.69298 317
403.70612 86.92301 165.70689 420
409.42059 89.62644 167.70937 305
394.70938 83.91659 164.70834 317
402.01886 87.45221 166.01347 422
408.89383 90.85409 167.73700 305
394.12405 84.94364 164.66263 317
400.38843 88.03237 166.33217 423
408.40939 92.01519 167.70297 305
393.62003 85.99610 164.71411 317
398.76025 88.61486 166.63000 424
407.83463 93.18404 167.66318 305
393.02182 87.04710 164.71373 317
397.14297 89.18097 166.91559 425
392.46899 88.12769 164.72704 317
395.57388 89.70560 167.22191 426
391.93027 89.17297 164.73167 317
393.98801 90.27886 167.50813 427
391.33411 90.17181 164.71342 317
392.72528 90.90343 167.68900 311
390.77579 91.26385 164.70512 317
392.12787 91.98611 167.68875 311
3765.98730 1921.30969 216.30626 389
389.40475 91.86085 164.97556 429
391.60300 93.03474 167.70265 311
24071.94141 13118.60840 1104.14844 1000
387.92401 92.36186 165.26089 430
391.02713 94.12424 167.68509 311
386.41574 92.88516 165.53294 431
390.48190 95.14552 167.66649 309
384.94662 93.40385 165.78635 432
389.90628 96.19432 167.67496 309
383.51840 93.89648 166.03055 433
389.32184 97.30153 167.68034 309
382.07251 94.41825 166.33876 434
388.75998 98.32197 167.63139 309
380.64499 94.89565 166.57730 435
388.16708 99.38229 167.63043 309
379.27975 95.37928 166.83646 436
387.59201 100.40602 167.63794 309
377.86801 95.84450 167.10921 437
376.49924 96.34845 167.34631 438
375.15112 96.80264 167.56657 439
374.39014 97.67503 167.62312 315
373.80606 98.64595 167.60825 315
373.18353 99.56743 167.60477 315
21358.24414 13928.57324 5681.20020 1000
372.58582 100.49866 167.60120 315
371.96167 101.46906 167.58800 315
371.35724 102.38581 167.59612 315
370.70319 103.31830 167.56754 315
370.06616 104.24883 167.58075 315
369.42932 105.18559 167.56978 315
368.76556 106.09554 167.60292 315
368.11609 107.02399 167.59137 313
367.50900 107.95256 167.54021 313
4690.84912 4694.75244 215.47874 475
4670.23291 4728.83838 216.27231 447
4648.01855 4764.28467 216.00198 442
4628.39893 4801.18457 216.81381 442
4607.50098 4839.18848 216.41545 430
4589.81592 4878.99658 216.29637 426
4575.69434 4923.53223 217.11441 416
3572.80347 3836.78882 215.85616 483
4559.48242 5028.95557 215.57332 391
4559.24707 5090.38525 216.62694 390
4556.51807 5152.18018 216.68553 403
4555.45361 5215.53564 215.97055 402
4553.69092 5278.80176 216.73093 401
4553.23242 5343.27344 216.62624 403
21965.10156 40591.73828 -2797.82666 1000
760.27545 1026.00806 235.39871 326
759.60541 1024.97900 254.25024 326
759.47028 1024.73267 273.51892 395
759.29364 1024.19849 292.30301 395
758.93890 1023.89575 311.34805 450
758.99463 1023.68475 330.41895 450
751.12445 1024.59949 102.36510 486
751.19226 1024.50806 121.51231 487
751.25323 1024.70239 140.45540 499
751.36505 1024.79358 159.45052 499
751.52466 1024.94739 178.42784 499
751.58142 1025.08704 197.42477 499
751.65491 1025.27600 216.24451 499
751.70123 1025.30103 235.29538 487
751.67883 1025.63184 254.33849 487
751.83563 1025.73987 273.25641 487
752.16699 1026.09473 292.43723 486
752.36157 1026.15015 311.46951 486
752.39447 1026.54675 330.46783 450
746.21411 1030.45532 102.24759 395
746.44733 1031.22595 121.21490 325
747.25909 1032.38940 140.16150 325
3115.13135 5828.52344 217.32350 432
3064.47754 5816.81494 217.51537 441
3016.26733 5807.36084 217.55597 451
2967.22729 5794.37646 217.72946 451
2919.42920 5789.75732 216.69716 439
2874.93481 5786.25781 216.40222 413
2832.38623 5784.34570 216.69878 417
2789.55005 5786.16357 217.15965 395
2804.72485 5818.10303 321.95779 485
2748.54907 5787.30420 217.06090 397
2762.98511 5820.83643 321.35855 485
2706.33398 5790.79736 217.02759 399
2718.38916 5818.77344 320.90738 486
2666.08838 5793.00781 217.17918 401
2678.96460 5822.82861 321.08151 486
2626.86450 5797.87354 217.30205 339
2637.58496 5824.96338 320.54745 487
2587.25928 5801.83398 216.61858 339
2600.17090 5833.29688 320.27167 487
2547.55371 5806.79248 217.29852 348
2558.53711 5837.67334 319.47141 488
2507.59204 5810.85889 217.37074 348
2518.26685 5839.81787 319.47800 488
2551.65063 5921.27295 425.49835 323
2468.65210 5816.39795 217.67253 348
2516.44751 5938.28662 321.68402 322
2516.90674 5938.42383 426.54718 478
1425.62207 3177.37598 161.15672 297
2429.89331 5822.09717 216.87129 293
2526.18237 6075.41553 324.42093 307
1374.21643 3099.25903 162.53116 313
1448.36279 3299.51660 217.27483 468
2451.06885 5987.56787 426.86945 495
1374.24854 3160.07300 107.13058 296
1337.69434 3058.74438 163.21700 417
1426.21399 3301.71021 216.98853 468
1351.80444 3158.56421 107.26630 296
1322.42249 3077.05225 163.21909 414
1404.11023 3302.60645 217.18501 469
1329.78284 3157.39502 107.14389 296
1309.38672 3100.39404 162.94788 416
1381.23914 3304.33813 216.82669 469
1307.18787 3155.93213 107.37849 296
1297.15454 3125.52612 162.70760 411
1359.45972 3306.83374 217.32393 469
1295.05737 3181.97485 107.20854 380
1284.66223 3152.80371 162.44922 411
1337.51074 3308.19775 216.54787 469
1283.34167 3213.54590 106.51275 357
1272.36096 3180.26294 162.61276 410
1315.69263 3310.44531 217.45068 470
1273.62732 3251.21899 104.70219 349
1259.75146 3208.90796 161.93073 402
1293.15674 3311.64209 217.01970 470
1264.05322 3290.34180 104.37668 344
1249.22351 3242.93628 161.73546 389
1271.50208 3314.03760 216.96669 471
1238.77405 3281.13062 160.68552 376
1251.03577 3319.81079 217.16998 460
1229.96729 3323.63428 160.49791 353
1235.18384 3339.92993 216.65828 351
1226.63428 3385.43970 159.07831 314
1233.79541 3487.99219 158.12134 302
1240.72876 3596.36841 155.57434 260
1244.33301 3695.22046 154.48906 299
239.15608 1538.33716 90.78467 359
238.94624 1539.07849 116.11724 285
229.50096 1535.32947 90.98402 472
229.49257 1534.48877 116.42998 472
229.62076 1533.84363 141.53384 473
229.70636 1533.22681 166.75658 473
229.49594 1532.35608 191.80470 473
229.72049 1531.56921 217.10980 473
229.65837 1530.99658 242.13467 497
229.72849 1530.10510 267.18887 497
229.82085 1529.54626 291.94366 497
229.68709 1529.01233 317.34421 497
-263.65195 2039.85486 79.67721 463
-263.77756 2040.68811 114.04911 463
-263.91568 2042.08691 148.24925 463
-264.33035 2043.46558 182.81354 413
-264.96561 2044.98181 217.27470 413
-265.07816 2046.58850 251.48199 346
-265.39783 2048.25391 286.29974 346
127.42110 148.20659 169.41618 485
-7501.24316 12205.27832 -3647.80493 1000
124.56659 148.78018 168.87065 489
120.48915 149.05923 168.20645 489
117.93129 150.86357 167.40160 316
117.02781 150.20384 167.42961 316
116.12753 149.60168 167.42075 316
115.22495 148.91951 167.41376 316
112.06361 151.46187 166.36757 314
111.14899 150.78255 166.40285 314
110.21380 150.10548 166.38638 314
109.30426 149.44899 166.37076 314
108.42029 148.75900 166.41266 314
107.51460 148.06281 166.38931 314
106.59811 147.34302 166.37585 314
105.70116 146.65933 166.39154 314
104.37764 146.54901 166.18871 423
96.73466 156.24524 166.35782 309
102.79903 146.69928 165.90446 422
95.75044 155.46071 166.36255 309
101.17132 146.82468 165.61412 421
94.82598 154.73344 166.37859 309
99.55149 146.99292 165.29749 420
93.87195 153.93274 166.36034 309
97.92908 147.16887 164.98293 419
92.89157 153.17479 166.37488 309
96.26794 147.29045 164.63712 428
91.98474 152.40134 166.37325 309
94.69524 147.37405 164.36334 427
91.06116 151.64890 166.36345 309
93.07468 147.45148 164.06836 426
90.09975 150.86345 166.33517 309
91.42546 147.49542 163.74976 425
89.16692 150.06755 166.34111 309
89.77254 147.56250 163.46507 424
88.24982 149.25949 166.34862 309
88.76143 146.90805 163.37724 307
87.36198 148.43871 166.35612 309
87.92817 146.01329 163.46147 307
86.40183 147.69989 166.33363 423
87.12223 145.09521 163.47736 307
84.70332 147.74570 166.05276 422
86.34045 144.18840 163.50183 307
82.98054 147.82419 165.71858 421
74.29502 157.10883 166.27350 305
85.51176 143.27679 163.50613 307
81.23387 147.89388 165.42960 420
73.35638 156.24873 166.29134 305
84.76125 142.39272 163.53813 307
79.43871 147.98781 165.10100 419
72.42472 155.32603 166.28018 305
83.96490 141.44119 163.56616 307
77.61826 148.03258 164.76447 418
71.48489 154.39345 166.28723 305
103.82917 119.40239 171.50888 315
75.83138 148.11588 164.44911 416
70.55619 153.51062 166.27141 305
103.10845 118.64897 171.55431 316
73.93128 148.18767 164.11066 415
69.61633 152.61404 166.25853 305
102.40397 117.91599 171.52162 316
72.06928 148.27058 163.75385 414
68.63352 151.68176 166.25800 305
101.69824 117.15357 171.54593 316
70.20337 148.29530 163.36642 413
67.71926 150.73549 166.27185 305
101.03574 116.44292 171.54317 316
69.08973 147.60959 163.32286 303
66.78996 149.83882 166.27643 305
100.32455 115.68496 171.54776 316
68.28539 146.54378 163.37303 303
65.85799 148.90228 166.27228 305
99.64741 114.92514 171.54498 316
67.50916 145.50261 163.37323 303
64.30521 148.55598 166.07216 411
98.96268 114.14816 171.56422 316
66.75311 144.49577 163.44046 304
62.30129 148.60033 165.68776 409
98.27077 113.38938 171.59557 316
65.96467 143.43939 163.44337 304
60.28559 148.68381 165.31320 408
50.30166 157.99538 166.18578 301
-44984.96094 42025.41406 12513.70410 1000
97.64264 112.62342 171.58333 316
89.18633 120.35156 171.64368 312
58.24970 148.76468 164.93118 407
49.34174 156.96558 166.18741 301
96.98219 111.86465 171.57698 316
88.47157 119.54397 171.66586 312
56.12314 148.86836 164.56577 406
48.39310 155.93391 166.14323 301
96.28191 111.07016 171.57312 316
87.76921 118.70503 171.66241 312
54.01999 148.94789 164.18379 405
47.41800 154.88252 166.17105 301
95.65708 110.28761 171.60732 316
87.09482 117.84719 171.64252 312
51.84514 149.01744 163.84366 404
46.50826 153.81767 166.17662 301
94.99964 109.51273 171.59633 316
86.36894 117.02269 171.66296 312
49.67645 149.09735 163.42433 403
45.55606 152.71878 166.16536 301
94.33737 108.72295 171.60263 316
85.71729 116.16031 171.68739 312
48.13590 148.62981 163.20386 300
44.63344 151.62805 166.18210 301
93.71969 107.94168 171.59293 316
85.01110 115.35143 171.70445 312
47.34800 147.46123 163.27113 300
43.71748 150.57593 166.16031 301
93.05927 107.11337 171.61357 316
84.34438 114.47521 171.71373 312
46.62867 146.28973 163.29681 300
42.75904 149.49132 166.11662 301
92.44307 106.34921 171.61482 316
83.65626 113.63944 171.66946 312
73.72512 121.91982 171.80182 308
40.58401 149.48543 165.81122 398
-22103.68945 18564.26562 3084.62524 1000
91.80550 105.51705 171.64456 316
82.99451 112.74419 171.71124 312
73.00706 121.00375 171.80611 308
38.18625 149.55786 165.38792 397
91.21011 104.71886 171.61960 316
82.31690 111.88795 171.72153 312
72.28475 120.08012 171.81244 308
35.80053 149.66255 164.94490 396
90.59593 103.92661 171.64859 316
81.65992 111.03540 171.68681 312
71.54483 119.13036 171.78883 308
33.34559 149.74854 164.51012 395
23.07301 158.01091 166.05437 297
89.97791 103.10722 171.63545 316
81.02728 110.16075 171.69318 312
70.87444 118.17336 171.79530 308
30.87685 149.82666 164.10866 394
22.12776 156.73671 166.02214 297
89.35927 102.27292 171.66577 316
80.36796 109.30280 171.71077 312
70.19248 117.25325 171.78630 308
28.34478 149.91498 163.67586 392
21.18220 155.51736 166.03308 297
88.76678 101.43059 171.66010 316
79.74932 108.43324 171.73877 312
69.48143 116.33154 171.79619 308
25.77489 150.01396 163.21428 391
20.23994 154.34564 166.00343 295
88.17507 100.64291 171.68370 316
79.09703 107.54435 171.73492 312
68.83500 115.38844 171.83591 308
24.62290 149.00519 163.12201 296
19.23246 153.07283 165.99295 295
87.58067 99.79947 171.65266 316
78.49622 106.64758 171.76401 312
68.12765 114.43372 171.80133 308
56.29807 123.36071 171.94370 304
18.28716 151.88805 165.98955 295
87.01280 98.98759 171.68716 316
77.83004 105.76839 171.74466 312
67.43618 113.47095 171.84920 308
55.53186 122.31438 171.93913 304
17.34421 150.69441 165.97804 295
86.43778 98.14279 171.66762 316
77.24999 104.86455 171.73451 312
66.77103 112.51163 171.86092 308
54.84257 121.29387 171.94511 304
15.09007 150.38870 165.63965 389
85.82867 97.30460 171.67001 316
76.61468 103.93900 171.76878 312
66.15878 111.51395 171.81560 308
54.13614 120.20029 171.96516 304
12.30989 150.43706 165.18581 388
-193.28154 299.17139 336.00793 1000
85.29246 96.45921 171.69460 316
76.02969 103.06469 171.75027 312
65.46517 110.57307 171.83997 308
53.45104 119.17356 171.96291 304
9.53068 150.52133 164.77725 387
84.69857 95.61008 171.70801 316
75.38007 102.13135 171.75909 312
64.86640 109.59912 171.83429 308
52.71023 118.14543 171.97235 304
6.69406 150.59123 164.27710 386
84.12480 94.77142 171.67119 316
74.81599 101.25130 171.79724 312
64.20020 108.63478 171.85478 308
52.02054 117.08582 171.94421 304
3.78492 150.68661 163.77298 385
-8.37954 159.13989 165.63023 290
83.57907 93.90094 171.71666 316
74.22657 100.35440 171.77797 312
63.57963 107.64363 171.83943 308
51.32941 116.00896 171.98178 304
0.81940 150.73415 163.28604 383
-9.40149 157.69174 165.60416 290
83.04180 93.04720 171.68123 316
73.64890 99.43234 171.76035 312
62.95414 106.68163 171.89380 308
50.66204 114.93723 171.97009 304
-2.25308 150.83279 162.78557 382
-10.30562 156.26836 165.59747 290
82.49747 92.19818 171.69998 316
73.04095 98.48401 171.79932 312
62.30585 105.66504 171.87148 308
50.00128 113.92046 171.97166 304
35.76139 123.44051 172.11563 300
-11.26794 154.91226 165.59204 291
81.97780 91.34011 171.72110 316
72.48185 97.55281 171.78699 312
61.69419 104.69501 171.90344 308
49.36863 112.86018 171.96606 304
35.00716 122.27657 172.11314 300
-12.27974 153.45609 165.57722 291
81.42946 90.45860 171.69757 316
71.91416 96.66244 171.82037 312
61.07417 103.68864 171.88133 308
48.66685 111.78460 172.00063 304
34.29867 121.08028 172.12712 300
-13.21964 152.07671 165.59706 291
80.88244 89.58894 171.72658 316
71.31694 95.71685 171.78693 312
60.46227 102.68280 171.88203 308
48.00866 110.71385 171.99077 304
33.64153 119.93727 172.08168 300
-14.90508 151.13728 165.39098 377
80.36551 88.72864 171.72012 316
70.75730 94.79599 171.78113 312
59.87825 101.70004 171.88893 308
47.36495 109.63229 172.01642 304
32.94234 118.79186 172.08841 300
-18.25550 151.20529 164.86906 376
79.86337 87.85003 171.74266 316
70.23177 93.83062 171.82893 312
59.30288 100.67635 171.87976 308
46.72424 108.55114 171.99408 304
32.23870 117.61958 172.15065 300
-21.67483 151.26447 164.37042 375
79.32027 86.94139 171.72820 316
69.66988 92.91710 171.80234 312
58.70570 99.65569 171.90503 308
46.10351 107.41994 171.99068 304
31.53053 116.43060 172.12289 300
-25.14267 151.34486 163.77373 373
78.81945 86.06264 171.75514 316
69.11180 91.97688 171.81616 312
58.09694 98.69077 171.89507 308
45.48754 106.34645 172.01392 304
30.86323 115.23852 172.12309 300
-28.73388 151.48289 163.28333 372
78.34335 85.20837 171.72220 316
68.61176 91.01601 171.83333 312
57.53333 97.66711 171.93263 308
44.85308 105.22470 172.02417 304
30.21993 114.02864 172.16911 300
13.00965 124.33674 172.26547 296
-45.81779 159.62096 165.07573 286
77.80892 84.31709 171.73961 316
68.08768 90.06996 171.81534 312
56.98480 96.62434 171.94798 308
44.29228 104.16612 172.01569 304
29.56242 112.84924 172.15552 300
12.30030 123.04366 172.29008 296
-46.82104 157.96759 165.08133 286
77.35824 83.40375 171.76605 316
67.54414 89.14071 171.85182 312
56.43328 95.60721 171.93970 308
43.65958 103.07986 172.05873 304
