# .PCD v.7 - Point Cloud Data file format
VERSION .7
FIELDS x y z rgb
SIZE 4 4 4 4
TYPE F F F U
COUNT 1 1 1 1
WIDTH 1411
HEIGHT 1
VIEWPOINT 4302.480469 -4099.440430 121.884529 0.002427 -0.107312 -0.003583 0.994216
POINTS 1411
DATA ascii
408.08218 39.01858 171.83044 309
422.39551 42.09386 171.99713 305
467.22150 51.53038 166.43448 451
5049.82080 1021.35712 378.07620 439
268.10086 9.71951 203.51028 314
395.37650 37.47677 171.74307 313
407.84879 40.19649 171.85736 309
422.19214 43.29932 171.96040 305
465.84335 52.85963 166.64923 451
5043.98291 1051.76648 378.95053 432
4985.20264 1038.27649 456.06589 322
268.04871 10.02293 203.50980 314
395.17831 38.57234 171.72673 313
407.63763 41.36256 171.82008 309
453.73108 51.67472 164.92973 303
464.47955 54.11012 166.82504 452
5032.14844 1079.77197 378.24954 449
268.00299 10.31341 203.49762 314
394.98019 39.62350 171.75177 313
407.43240 42.53507 171.85704 309
453.40997 53.13155 164.96941 303
463.12274 55.41418 167.02043 453
5030.60059 1110.39563 377.76495 460
267.96381 10.60951 203.50082 314
394.72229 40.72963 171.72842 313
407.19067 43.65677 171.81882 309
453.14166 54.57776 164.92986 303
461.54855 56.59998 167.32925 421
5030.55176 1141.77197 378.13525 376
267.90512 10.91062 203.50064 314
394.52869 41.78944 171.73979 313
406.92102 44.84835 171.82964 309
452.82117 56.03834 164.97749 303
459.70547 57.68893 167.58452 422
5034.05566 1174.47229 379.39301 429
267.85754 11.20202 203.50909 314
394.25854 42.88117 171.69949 313
406.69507 45.98477 171.83614 309
452.46542 57.46775 164.96875 303
457.90921 58.78681 167.95726 423
5031.40527 1204.56580 379.70236 428
267.80768 11.50867 203.50235 314
394.05148 43.93858 171.70720 312
406.41687 47.13735 171.80861 309
452.13818 58.90103 164.94836 303
457.46310 60.27248 167.92775 297
5034.55322 1236.46021 379.23895 304
267.74362 11.80751 203.50887 314
393.78714 45.02672 171.72043 312
406.15317 48.30333 171.84149 309
451.78326 60.29496 164.95773 303
457.20383 61.73852 167.89603 297
267.69525 12.09291 203.50871 314
393.54495 46.09540 171.72173 312
405.92233 49.42463 171.80669 309
451.48041 61.70019 164.95296 303
456.89365 63.23824 167.88792 297
267.62750 12.39450 203.49763 314
393.28702 47.17856 171.70889 312
405.64865 50.59300 171.82095 309
450.74579 63.08431 164.98987 427
456.57971 64.70267 167.90631 297
267.57028 12.68870 203.49826 314
393.02505 48.25031 171.70538 312
405.35385 51.70057 171.81024 309
449.05804 64.10152 165.30879 428
456.27826 66.17500 167.87975 297
267.51532 12.97998 203.49872 314
392.73950 49.29012 171.68513 312
405.05090 52.88913 171.79716 309
447.30728 65.13487 165.64207 429
455.97369 67.60091 167.88907 297
267.44489 13.27453 203.50862 314
392.47549 50.34314 171.71797 312
433.42020 62.47834 164.85219 308
445.66931 66.14261 165.93684 430
455.62128 69.10612 167.85382 297
267.38129 13.57790 203.50346 314
392.19336 51.44729 171.68878 312
433.04251 63.83470 164.82188 308
444.00821 67.13597 166.17775 431
53970.28125 16301.96875 -7176.95947 1000
381.07471 49.14016 171.59874 316
391.89990 52.50619 171.69930 312
432.69601 65.15836 164.83516 308
442.32794 68.09853 166.44981 432
380.78595 50.11813 171.56560 316
391.59952 53.53143 171.66849 312
432.31934 66.45800 164.83543 308
440.74680 69.11951 166.76701 433
380.50256 51.14241 171.59648 316
391.29065 54.59046 171.70776 312
431.91351 67.75303 164.85757 308
439.06735 70.09534 167.05315 419
380.25262 52.14469 171.58368 316
390.96078 55.67129 171.68346 312
431.52750 69.07367 164.85535 308
437.26245 70.95385 167.38826 420
379.92175 53.11346 171.56032 316
390.68777 56.70760 171.70163 312
431.06418 70.35509 164.81831 308
435.48489 71.82629 167.65358 421
379.63419 54.08794 171.58885 316
390.34070 57.80931 171.68204 312
430.62592 71.64722 164.87766 308
434.29977 72.92635 167.82510 301
379.34381 55.08347 171.55606 316
390.04074 58.83535 171.64946 312
430.22446 72.95252 164.82974 308
433.91159 74.21307 167.79994 301
379.02618 56.06498 171.54553 316
389.68265 59.86956 171.66940 312
429.75601 74.23327 164.86928 308
433.51309 75.58714 167.79889 301
378.67545 57.06034 171.56850 316
389.36606 60.95792 171.65567 312
428.48816 75.25385 165.08195 425
433.10953 76.90620 167.82007 301
378.37967 58.04265 171.55580 316
414.76279 71.58632 164.78931 312
426.79706 76.08006 165.35191 426
432.71371 78.21629 167.79675 301
378.01816 59.03325 171.53484 316
414.35849 72.75855 164.76707 312
425.18182 76.87882 165.65134 427
432.30652 79.58831 167.79041 301
377.67767 60.01057 171.53194 316
413.92209 73.98381 164.76216 312
423.50455 77.67137 165.98929 428
431.90213 80.89935 167.78763 301
377.35123 60.95665 171.56140 316
413.44214 75.13362 164.77113 312
421.90863 78.48157 166.26503 429
431.46631 82.23719 167.75929 301
376.97830 61.95652 171.54774 316
412.98459 76.36893 164.78809 312
420.29199 79.23517 166.53877 430
376.63342 62.92960 171.54170 316
412.54660 77.52260 164.80396 312
418.69824 80.06168 166.80043 431
376.29965 63.88546 171.53801 316
412.05014 78.70596 164.77374 312
417.07632 80.82945 167.11443 432
375.90244 64.86166 171.54016 316
411.61163 79.91978 164.79697 312
415.52759 81.59280 167.36908 433
375.56567 65.83659 171.52023 316
411.10452 81.05618 164.77110 312
414.02029 82.30920 167.63345 434
375.15207 66.80986 171.51306 316
410.58893 82.26069 164.79712 312
412.97638 83.32318 167.75304 305
374.80246 67.77007 171.52925 316
410.07941 83.41582 164.78070 312
412.57169 84.51035 167.77393 305
16132.99609 7053.15527 2508.22290 1000
397.65427 79.18060 164.69040 317
409.47449 84.53528 164.84140 436
412.08823 85.72794 167.72760 305
397.19684 80.32378 164.66632 317
407.95630 85.22695 165.09782 437
411.57803 86.89214 167.76068 305
396.70071 81.37922 164.68874 317
406.48541 85.92370 165.35599 418
411.13974 88.09200 167.74051 305
396.22211 82.46131 164.68547 317
404.73950 86.53346 165.68756 419
410.64343 89.31582 167.70348 305
395.71185 83.55651 164.68268 317
403.08002 87.08402 166.02458 421
410.17032 90.48518 167.73073 305
395.18204 84.62891 164.70407 317
401.41068 87.66489 166.33667 422
409.66724 91.69714 167.72488 305
394.62518 85.68307 164.67297 317
399.75363 88.24266 166.68350 423
409.12030 92.90800 167.68419 305
394.13742 86.76159 164.68056 317
398.15192 88.79072 166.93816 424
393.58783 87.83076 164.71909 317
396.59381 89.39117 167.26866 425
393.05927 88.91454 164.73602 317
394.96332 89.90376 167.53897 426
392.47400 89.95259 164.73579 317
393.92081 90.73530 167.69676 311
391.85092 90.97782 164.76245 427
393.43073 91.80640 167.69418 311
390.33109 91.50270 165.02757 428
392.89590 92.88852 167.71913 311
388.82938 92.03143 165.35464 429
392.35284 93.99153 167.69537 309
3762.28198 1948.44775 283.25305 487
3768.71826 1952.83179 349.38263 497
387.32678 92.59446 165.59633 430
391.82288 95.07176 167.69518 309
385.87552 93.07493 165.88461 431
391.26230 96.12265 167.68286 309
384.38065 93.57195 166.20352 432
390.74597 97.22977 167.66426 309
382.98029 94.07559 166.46793 433
390.19858 98.27908 167.66347 309
381.53931 94.60900 166.72787 434
389.60968 99.34247 167.62872 309
380.12387 95.10452 166.99275 435
389.04276 100.42137 167.60246 309
378.74051 95.57870 167.24713 436
377.32663 96.03227 167.52853 437
376.38260 96.77718 167.60854 315
375.78409 97.76424 167.62703 315
375.20786 98.71348 167.61940 315
374.65161 99.72039 167.62334 315
374.04474 100.67240 167.61415 315
373.44724 101.59857 167.61702 315
372.83865 102.56037 167.59430 315
372.24728 103.53503 167.62239 315
371.61383 104.49527 167.58939 315
370.99210 105.42877 167.58829 313
370.40384 106.37038 167.55450 313
369.79343 107.33210 167.58485 313
4679.24902 4740.33398 323.01700 383
4653.43408 4771.31982 323.86621 466
4632.00635 4807.16992 324.00012 469
4613.31445 4844.62500 323.32495 474
37285.61328 40895.19141 11194.36719 1000
4592.65430 4882.93652 324.96829 476
4576.27490 4924.84033 323.89050 465
4562.29688 4970.96826 324.71976 458
4549.28857 5018.33594 325.20776 448
4544.56641 5075.00684 326.70245 410
4545.71680 5138.84473 327.24088 408
4545.83789 5205.47314 326.99966 407
4546.77979 5271.79443 329.54602 406
4547.13818 5338.26025 329.10797 405
4548.46582 5406.70557 330.60907 404
31746.75000 49784.92188 -2678.04468 1000
9012.22852 14267.68164 -3402.45850 1000
3197.40747 4966.78857 216.76208 487
758.94385 1037.23718 119.70023 450
759.22198 1037.83606 138.94685 450
759.44049 1038.24707 157.89122 394
760.02576 1039.36694 177.26804 324
752.81891 1040.93323 119.79342 451
752.52112 1040.23132 138.86946 452
752.40430 1039.92896 158.06152 487
752.10059 1039.29163 177.40466 487
751.78271 1039.06519 196.54228 499
751.76306 1038.99854 215.46352 499
751.83008 1038.80261 234.50842 499
751.89471 1038.70667 253.88310 487
751.67328 1038.66724 272.83426 487
751.71417 1038.99536 292.22751 450
752.15997 1039.16199 311.28162 450
752.26062 1039.97241 330.72623 394
752.89539 1040.67456 350.24689 324
746.71478 1044.58557 253.86986 396
746.08240 1043.49756 272.98849 397
745.75574 1042.58044 292.07617 452
745.40814 1042.17517 311.37939 452
745.20544 1041.48206 330.62167 487
744.87366 1041.14429 349.69757 486
3072.14160 5931.28760 213.42142 290
3010.83032 5897.62451 212.83214 366
2957.46118 5877.95898 214.22459 438
2908.38330 5865.09033 213.41220 445
2861.54834 5858.40430 214.55928 452
2814.08301 5848.27490 213.93538 461
2769.32935 5845.71533 213.90649 465
2784.97559 5880.52588 318.15359 478
2722.90063 5837.71338 213.53691 471
2742.31470 5881.12842 318.50342 479
2789.79199 5991.24902 426.45999 474
2680.48047 5836.02393 213.59961 475
2696.17285 5874.09473 318.72125 499
2637.50952 5834.64209 213.85666 479
2654.79834 5875.26514 318.37698 480
2595.85767 5835.78809 214.11818 460
2614.65723 5879.77979 317.24503 480
2554.22070 5835.31494 213.78348 461
2572.90552 5879.82275 317.04175 481
1475.01819 3192.76636 -409.42178 1000
2512.82837 5835.42334 214.17693 461
2530.03271 5878.41748 318.07208 481
2473.38525 5836.37012 213.23486 433
2490.51514 5883.03418 317.59158 341
2544.48096 6021.47363 424.83725 433
2431.93213 5837.26416 213.70767 433
2490.45874 5990.68945 318.87924 340
2476.23999 5956.27783 421.93851 446
13431.88867 34880.10547 6360.89551 1000
2391.17920 5840.93701 214.71439 312
2488.34106 6101.34863 321.17404 338
2436.23999 5957.49023 421.45978 497
1354.41528 3108.08105 161.25726 288
1427.74561 3307.95776 215.23659 369
2419.26660 6027.66602 424.56073 318
2409.53320 5998.53613 527.84497 487
1315.10620 3057.50708 161.44817 405
1405.56628 3310.24731 215.05701 468
1300.00549 3075.66724 161.45097 370
1382.60754 3312.33643 214.83330 469
1287.07947 3098.71460 161.17117 366
1360.82141 3313.33740 214.72198 469
1273.82739 3124.10278 161.43498 359
1338.54712 3314.68481 214.87152 469
1262.37805 3151.44556 160.28188 416
1316.11987 3316.97070 215.02415 470
1249.42468 3180.22632 160.33043 415
1294.54004 3317.82007 215.21713 471
1237.05322 3208.40039 159.70244 342
1272.36902 3319.83521 214.97266 470
1226.37988 3241.96558 159.38571 329
1250.23975 3321.84204 215.51692 471
1215.13867 3278.79224 158.71378 342
1229.15259 3323.93359 214.67642 454
2013.45337 5908.16309 316.00272 454
1206.70288 3322.36523 158.03282 338
1212.64307 3342.75610 215.02174 349
1201.04565 3380.72949 157.75642 313
1207.16882 3402.00464 215.41815 308
1208.44910 3483.72656 155.61597 291
1214.23779 3590.90552 154.26291 295
1223.65942 3711.21899 151.77170 296
863.91455 13088.57520 427.37540 1000
239.20587 1537.30261 89.93340 496
239.43706 1537.51782 115.30578 497
239.34669 1538.07800 140.79266 496
239.38647 1538.20679 165.81317 496
239.14160 1538.62988 190.89113 496
239.53444 1539.34021 216.22917 470
239.36670 1539.97046 241.40910 470
239.43372 1540.81140 266.54135 423
239.24832 1541.69531 291.72406 423
239.25101 1543.17163 317.57007 359
230.11404 1545.04114 241.64299 291
229.87181 1542.95715 266.61206 365
230.10788 1542.02356 292.02042 428
229.90973 1541.64636 317.38568 428
-759.40540 7947.29541 2220.74146 1000
-277.16870 2039.61279 113.57150 439
-277.38425 2038.84705 147.99313 480
-277.43549 2038.79639 182.23164 493
-277.37195 2040.48682 216.55438 462
-278.11807 2043.17017 250.69562 345
-290.74786 2040.07678 285.52347 379
-6106.70361 20404.95898 -4401.15771 1000
127.33921 148.19034 170.27411 472
126.13805 148.03261 170.12822 441
124.80035 148.12463 169.95155 440
123.39455 148.25583 169.72433 439
122.05298 148.39497 169.51363 438
-35705.84375 54492.28125 8803.59570 1000
120.33831 148.93297 169.12946 489
110.73254 154.85323 166.39410 314
109.77776 154.22868 166.39539 314
108.79671 153.55177 166.39450 314
107.85660 152.91287 166.41122 314
106.89987 152.23175 166.40593 314
105.91560 151.54895 166.38626 314
104.97276 150.90710 166.41269 314
104.01069 150.20769 166.36671 314
103.07360 149.52539 166.40610 314
102.15686 148.80214 166.40332 314
101.24415 148.12697 166.39946 314
100.28732 147.42647 166.37590 314
99.08443 147.07164 166.28259 420
97.39008 147.20972 165.96954 419
89.87276 156.31110 166.33072 309
95.75431 147.30730 165.64731 428
88.86140 155.50293 166.33907 310
94.15802 147.39264 165.35843 427
87.90283 154.78139 166.36769 310
92.53282 147.43509 165.09895 426
86.87193 153.99574 166.33269 310
90.85656 147.52350 164.79356 425
85.88422 153.22086 166.35991 310
89.22808 147.61484 164.49855 424
84.95872 152.40840 166.33162 309
87.50095 147.66855 164.19571 423
83.97521 151.61095 166.33904 309
85.81179 147.71904 163.87390 422
83.02051 150.82140 166.31261 309
84.09750 147.80769 163.54764 421
82.02595 150.01115 166.32837 309
82.63263 147.47353 163.34033 307
81.11221 149.21159 166.32771 309
81.79107 146.56686 163.37410 307
80.14072 148.38870 166.31645 309
80.97736 145.64815 163.44753 307
78.76476 147.96812 166.14062 419
80.12424 144.76897 163.42867 307
76.95859 148.07944 165.82845 417
79.29151 143.84895 163.46474 307
75.10736 148.13458 165.48592 416
66.49025 156.93129 166.23543 305
78.47735 142.90979 163.54338 307
73.25761 148.21346 165.15474 415
65.49976 156.01518 166.26236 305
77.63911 141.95793 163.55154 307
71.32626 148.30695 164.82127 414
64.54362 155.09691 166.22769 305
98.08334 120.08025 171.56451 316
69.41481 148.33499 164.48489 413
63.56931 154.16348 166.22444 305
97.32182 119.32285 171.58943 316
67.46902 148.43370 164.14194 412
62.59090 153.20779 166.25926 305
96.57839 118.55024 171.60558 316
65.54916 148.51071 163.77849 411
61.57692 152.30684 166.20296 305
95.84058 117.83727 171.57014 316
63.51262 148.59323 163.44339 410
60.60646 151.33894 166.20171 305
95.08814 117.04225 171.57506 316
62.20557 147.98224 163.30688 304
59.67895 150.38429 166.23264 305
94.37177 116.27514 171.58754 316
61.37236 146.97551 163.30792 304
58.66638 149.42294 166.22725 305
93.65424 115.52016 171.60420 316
60.53367 145.88158 163.34746 304
57.35545 148.80168 166.11188 407
92.95937 114.77003 171.61984 316
59.75958 144.85231 163.40010 304
55.23507 148.93118 165.71611 406
92.21660 113.98647 171.60519 316
58.91469 143.76862 163.44211 304
53.11509 148.98218 165.38622 405
91.55236 113.16826 171.61380 316
82.78716 120.94757 171.70494 312
50.97477 149.05962 164.97026 404
41.46947 157.47966 166.13737 301
90.80844 112.39237 171.63190 316
82.00800 120.09631 171.71672 312
48.76047 149.16924 164.58104 402
40.41981 156.41147 166.13635 301
90.14697 111.60424 171.65425 316
81.30033 119.25024 171.70782 312
46.52021 149.21233 164.15089 401
39.48766 155.28740 166.09935 301
89.44762 110.83099 171.63818 316
80.51551 118.40154 171.73076 312
44.20886 149.35262 163.77345 400
38.46618 154.22156 166.13686 301
88.72886 110.01497 171.63774 316
79.79141 117.53237 171.70551 312
41.94798 149.42249 163.38510 399
37.49574 153.13950 166.11761 301
-25667.25391 21783.24805 5235.07324 1000
88.08736 109.22497 171.64734 316
79.08591 116.65975 171.70810 312
40.40129 148.83598 163.16977 300
36.52783 152.04332 166.08791 301
87.40958 108.40589 171.64471 316
78.36021 115.82203 171.74467 312
39.58298 147.60144 163.19725 300
35.55797 150.92757 166.08351 301
86.69174 107.58202 171.66060 316
77.65462 114.96323 171.74133 312
38.81516 146.39304 163.29121 300
34.56731 149.85703 166.10590 301
86.01929 106.76563 171.66435 316
76.93845 114.08241 171.77649 312
66.57819 122.36181 171.83260 308
32.31057 149.80791 165.71202 395
85.35561 105.96408 171.66699 316
76.22054 113.22075 171.74492 312
65.80943 121.42107 171.83488 308
29.79333 149.88931 165.29016 394
84.71074 105.13618 171.66736 316
75.53085 112.33005 171.74055 312
65.03359 120.47849 171.83128 308
27.22792 149.96274 164.86659 392
84.07944 104.29335 171.71059 316
74.81098 111.43831 171.74727 312
64.30190 119.55286 171.85159 308
24.66950 150.06038 164.40718 391
13.83513 158.44513 165.94110 295
83.41795 103.48759 171.68390 316
74.11642 110.56057 171.77693 312
63.55875 118.58556 171.84789 308
22.04715 150.18365 163.94904 390
12.81319 157.20000 165.93289 295
82.76270 102.61469 171.70357 316
73.43797 109.65455 171.78889 312
62.84148 117.60715 171.85915 308
19.32273 150.26620 163.53177 391
11.73682 155.99548 165.87035 295
82.11099 101.78246 171.69972 316
72.77633 108.73426 171.78387 312
62.08764 116.63103 171.87933 308
16.65831 150.31668 163.01906 390
10.72008 154.73132 165.87627 295
81.49487 100.96677 171.71945 316
72.07360 107.82812 171.79863 312
61.35069 115.67280 171.89546 308
16.03567 148.84853 163.14926 288
9.69938 153.53827 165.88626 295
80.85696 100.11285 171.71680 316
71.40443 106.96631 171.79317 312
60.67297 114.71724 171.87082 308
48.31631 123.64645 171.99287 304
8.68298 152.25444 165.84024 295
80.23859 99.24300 171.71208 316
70.75380 106.04577 171.80165 312
59.95339 113.73852 171.91362 308
47.58228 122.58685 172.02208 304
7.69476 150.99644 165.84830 295
79.61370 98.38997 171.74164 316
70.06055 105.11028 171.82101 312
59.22327 112.75415 171.89037 308
46.79524 121.49680 172.01794 304
5.45306 150.61986 165.58739 386
79.00024 97.56059 171.73410 316
69.44345 104.18835 171.81355 312
58.56266 111.78470 171.89090 308
46.07063 120.46948 172.02892 304
2.57340 150.67439 165.08289 384
78.41161 96.69572 171.73428 316
68.76321 103.30917 171.83473 312
57.84314 110.79717 171.89748 308
45.34181 119.35666 171.99207 304
-0.42607 150.72678 164.59695 383
77.79414 95.82365 171.73607 316
68.12592 102.34666 171.81721 312
57.16396 109.76437 171.91161 308
44.59364 118.30927 172.02052 304
-3.45920 150.87442 164.10550 382
77.17673 94.96530 171.75763 316
67.47229 101.43335 171.83607 312
56.47641 108.80235 171.92526 308
43.84449 117.24467 172.00610 304
-6.59528 150.89995 163.57956 381
-19.20723 159.35585 165.48132 290
76.59583 94.05741 171.75410 316
66.83814 100.46857 171.84552 312
55.80366 107.78968 171.91414 308
43.10653 116.18160 172.00388 304
-9.70945 151.02235 163.03970 379
-20.16175 157.88010 165.44269 290
76.02242 93.21667 171.77815 316
66.21484 99.57751 171.84120 312
55.09643 106.77804 171.92537 308
42.38095 115.04654 172.02422 304
27.62117 124.68589 172.15942 300
-21.20023 156.47391 165.47267 290
75.45127 92.31984 171.75948 316
65.60610 98.60783 171.85689 312
54.44342 105.80114 171.94952 308
41.66194 113.97964 172.04256 304
26.84976 123.48531 172.18300 300
-22.16911 154.96400 165.48985 290
74.84805 91.43557 171.76111 316
64.99090 97.67307 171.86253 312
53.77657 104.77991 171.91704 308
40.96510 112.89540 172.07654 304
26.09889 122.29413 172.16435 300
-23.17803 153.49651 165.41243 291
74.28281 90.55099 171.76421 316
64.39547 96.72567 171.86601 312
53.13511 103.75507 171.93858 308
40.26538 111.79035 172.04616 304
25.34007 121.13092 172.20946 300
-24.21452 152.04884 165.41615 291
73.71419 89.66277 171.76369 316
63.80462 95.77297 171.85837 312
52.50107 102.74543 171.95837 308
39.58910 110.67934 172.07304 304
24.60744 119.89868 172.18127 300
-26.51534 151.38541 165.15123 373
73.14249 88.77621 171.78636 316
63.17036 94.81303 171.87830 312
51.86300 101.69701 171.98207 308
38.90737 109.60050 172.05502 304
23.87561 118.71291 172.21873 300
-30.10846 151.51498 164.60451 372
-10041.04785 6235.60840 -1563.45911 1000
72.57713 87.87497 171.80722 316
62.58097 93.87532 171.90051 312
51.21586 100.66878 171.94685 308
38.22820 108.44941 172.05341 304
23.08994 117.49857 172.17244 300
-33.72856 151.56238 164.06944 371
72.03399 86.95236 171.81802 316
62.00900 92.88808 171.90163 312
50.58332 99.61446 171.96992 308
37.52672 107.36561 172.07838 304
22.41321 116.28473 172.23468 300
-37.49944 151.64590 163.41313 369
71.47493 86.06068 171.78487 316
61.43228 91.93144 171.86597 312
49.96678 98.62311 171.97078 308
36.84666 106.27056 172.05968 304
21.66444 115.12401 172.24113 300
3.83849 125.43818 172.38094 296
-56.79159 160.80423 164.94513 288
70.97362 85.12506 171.82632 316
60.82110 90.96967 171.86363 312
49.36095 97.54936 171.96391 308
36.17184 105.11354 172.11610 304
20.91806 113.85624 172.24699 300
3.11726 124.14852 172.33997 296
-57.77563 159.07370 165.00833 288
70.41457 84.23332 171.79350 316
60.29433 89.97621 171.87746 312
48.73296 96.50736 171.98773 308
38.47588 102.32985 172.83281 318
22.52136 111.37247 172.73512 269
2.28484 122.80582 172.38513 296
-58.72161 157.40913 164.96420 288
69.88610 83.33906 171.80049 316
59.71896 89.02337 171.92735 312
48.15281 95.44329 171.98793 308
41.08393 99.42628 173.61212 319
33.90640 103.38009 175.49730 271
14.22653 114.38825 175.04994 270
-59.64959 155.66673 165.01122 288
-29931.72656 16837.20508 782.68414 1000
69.36008 82.41853 171.82901 316
59.14890 88.01305 171.89635 312
49.24895 93.47866 172.47281 322
43.58572 96.56577 174.43538 320
37.83147 99.72898 176.57211 319
25.96369 106.30997 177.60799 272
-60.61481 153.93147 165.00182 288
68.87179 81.48956 171.80479 316
58.59727 87.05351 171.88670 312
51.51722 90.89607 173.24133 323
46.06077 93.83789 175.14589 321
40.41702 96.86245 177.26956 320
34.53501 100.08027 179.52991 318
18.27668 108.94093 180.04083 292
68.34708 80.53315 171.80687 316
58.72019 85.68083 172.12576 326
53.69310 88.40277 173.96269 324
48.36968 91.21703 175.91127 322
42.97111 94.13453 177.98302 321
35.66798 98.01317 179.86855 296
17.62383 107.68202 180.03322 292
67.82540 79.64691 171.82751 316
60.69723 83.40553 172.80246 327
55.81870 85.97787 174.63759 325
50.65454 88.68371 176.61783 323
45.38796 91.41999 178.69450 322
35.02662 96.88088 179.89285 296
16.90821 106.47023 180.04636 292
-5.01043 117.99454 180.20615 288
67.30502 78.68494 171.82759 316
61.49201 81.71965 173.18953 385
57.86168 83.59206 175.35628 327
52.88387 86.18317 177.26468 325
47.75521 88.86890 179.35551 324
34.42822 95.75512 179.90572 296
16.28449 105.21626 180.04732 292
-5.68708 116.58064 180.24889 288
66.85081 77.77066 171.84279 316
62.14094 80.13148 173.53574 386
59.20437 81.65530 175.84793 384
55.03696 83.81644 177.90866 326
49.14814 86.78590 179.80377 300
33.83310 94.61423 179.93190 296
2.71605 110.49196 177.67567 293
-6.45804 115.22006 180.22192 288
66.32991 76.81597 171.83746 316
62.84078 78.59560 173.88922 387
59.95316 80.05531 176.18221 385
56.95183 81.57346 178.51779 383
48.56777 85.76224 179.79604 300
33.24618 93.50423 179.94295 296
-5.64855 113.03996 176.25995 292
-7.15675 113.83769 180.23785 288
66.89128 75.38976 172.18925 378
63.48363 77.04411 174.21141 388
60.61695 78.47095 176.49489 386
57.67770 79.93017 178.83481 384
48.04021 84.71558 179.79575 300
14.57876 101.33108 176.25438 285
-13.89885 115.45291 174.88319 347
-13.92161 115.44465 179.21913 348
67.58296 73.86455 172.49367 379
64.17472 75.55251 174.50301 389
61.35021 76.90209 176.80394 387
58.39312 78.33076 179.14906 385
47.53217 83.65044 179.78738 300
20.89981 96.68625 177.66505 286
6.47420 103.68834 178.77267 283
-18.03136 115.65263 178.70372 346
68.23954 72.40237 172.83151 380
64.82031 74.03866 174.86533 390
61.99902 75.39619 177.12814 388
59.12427 76.79873 179.44666 386
46.96606 82.60812 179.80679 300
24.24712 93.51632 178.47458 315
13.30684 98.81621 180.11594 285
-22.26474 115.90503 178.13246 345
-36.79459 122.88245 180.47685 284
68.86364 70.96277 173.20111 381
65.49808 72.56328 175.16640 379
62.70938 73.86971 177.39348 389
59.70908 75.28560 179.71046 304
46.44773 81.56308 179.82590 300
26.52389 90.96901 179.02434 332
18.98591 94.54897 181.31444 314
5.18201 101.03494 182.78261 283
-37.54550 121.25291 180.48340 284
69.49711 69.54813 173.49849 382
66.17834 71.07538 175.48082 380
63.35883 72.37569 177.71451 390
59.25593 74.29804 179.69391 304
34.42079 85.87744 177.30983 335
28.52571 88.62151 179.56705 333
21.88666 91.69031 181.94299 315
12.07763 96.25130 184.01385 285
-7.78499 105.51943 184.92314 265
70.11329 68.13063 173.84401 383
66.82767 69.62761 175.80733 381
64.03281 70.91967 178.01419 391
58.77205 73.32932 179.68884 304
36.27352 83.63604 177.82738 337
30.50117 86.25673 180.06146 334
24.38693 89.03842 182.49831 332
16.68472 92.59674 184.86404 314
3.99896 98.36923 186.77454 284
70.76700 66.74343 174.12469 384
67.52310 68.19702 176.11519 381
64.65346 69.45203 178.30289 392
58.30249 72.33865 179.71486 304
38.05000 81.48851 178.33453 338
32.42322 84.01476 180.56348 335
26.47424 86.67314 183.00777 333
19.61022 89.75893 185.42325 315
10.89467 93.71070 187.84834 285
-8.58364 102.47914 189.17113 265
71.37912 65.36446 174.45290 385
68.14803 66.79193 176.42555 382
69.33090 66.24756 175.69458 380
57.83751 71.36996 179.70139 304
39.82340 79.34330 178.81062 339
34.29987 81.79518 181.06496 336
28.48146 84.33648 183.45921 334
22.35380 87.10749 185.95827 332
14.28971 90.65826 188.43813 314
2.96284 95.68089 190.71915 284
72.00436 63.99015 174.73431 386
68.78983 65.39525 176.71710 383
65.95038 66.62128 178.84746 394
57.39135 70.33456 179.71420 304
41.41113 77.31605 179.30002 373
36.11703 79.65305 181.51102 338
30.42378 82.12079 183.92825 335
24.46101 84.69579 186.40125 333
17.35929 87.81068 188.95674 315
8.83745 91.52599 191.56160 312
-9.24928 99.39147 193.39072 265
72.57761 62.65239 175.06441 387
69.44559 64.00517 177.01555 384
66.56598 65.20914 179.11105 395
56.94170 69.34390 179.70749 304
42.30868 75.63817 179.56317 374
37.90027 77.54272 181.98691 339
32.36130 79.90925 184.33940 336
26.47568 82.39886 186.80113 334
20.23286 85.06633 189.41475 316
11.97915 88.64542 192.03625 313
1.89303 92.97705 194.70143 284
73.19254 61.34787 175.35022 388
70.06062 62.65177 177.27409 385
67.18339 63.83339 179.36690 396
56.49608 68.38486 179.70761 304
43.17829 73.99526 179.86043 375
39.06104 75.71976 182.34044 372
34.22641 77.75607 184.75687 337
28.52245 80.17311 187.20688 335
22.45841 82.71013 189.82921 333
15.09852 85.81947 192.48743 315
6.45602 89.46366 195.23232 312
-9.76351 96.28702 197.61624 265
73.78185 60.04023 175.62408 388
70.68595 61.31287 177.55635 386
67.77376 62.54100 179.62242 308
47.55387 70.91292 177.73334 389
43.94324 72.36169 180.18140 386
39.95441 74.03623 182.58026 373
35.76114 75.75990 185.13699 371
30.43894 78.00543 187.65047 336
24.53284 80.45870 190.19704 334
18.07586 83.09815 192.91025 316
9.70488 86.56078 195.64119 313
0.62437 90.30686 198.59355 311
74.11285 58.82528 175.85704 419
71.29050 59.99930 177.85745 387
67.37078 61.57990 179.62746 308
48.20680 69.37547 178.01465 390
44.67633 70.83256 180.41154 387
40.85230 72.39416 182.88904 374
36.70570 74.04613 185.41252 372
32.37149 75.83166 188.00069 337
26.54341 78.21088 190.57706 335
20.42329 80.67004 193.28011 332
12.87151 83.78551 196.03677 314
4.08517 87.32185 198.99167 312
-10.17654 93.12666 201.79883 265
74.36854 57.68538 176.03233 419
71.78644 58.74657 178.08902 417
66.99516 60.66180 179.62070 308
48.86233 67.90720 178.27869 390
45.38777 69.31339 180.64772 388
41.77812 70.73299 183.12863 386
37.65824 72.37158 185.68224 372
33.34894 74.07642 188.28668 370
28.54143 76.01897 190.93362 336
22.55734 78.40730 193.62193 333
15.89137 81.11150 196.46664 315
7.43124 84.47906 199.34822 313
-1.76579 88.14365 202.42035 310
74.65702 56.55159 176.22551 420
72.08083 57.57602 178.24416 418
66.60262 59.73009 179.62114 308
49.54437 66.43314 178.51346 391
46.08077 67.76884 180.91498 389
42.50497 69.19825 183.38313 387
38.58330 70.69786 185.92093 373
34.35042 72.36504 188.51590 371
29.93214 74.09551 191.22412 368
24.63912 76.22137 193.94585 335
18.45191 78.64809 196.74866 332
10.60367 81.68700 199.67799 314
1.72252 85.18346 202.72530 311
74.89581 55.44921 176.39461 421
72.36481 56.40390 178.42204 419
66.19997 58.76428 179.65503 308
50.18212 64.95940 178.76436 392
46.77966 66.27370 181.13455 390
43.21151 67.64851 183.60376 387
39.47979 69.06590 186.15977 374
35.30667 70.71751 188.73659 372
30.98111 72.37083 191.43013 369
26.41366 74.14847 194.22791 367
20.60899 76.38282 197.04752 333
13.69955 79.02080 199.97659 315
5.11289 82.36254 202.99187 313
75.14076 54.32737 176.59258 422
72.63908 55.26651 178.60303 419
65.80791 57.82456 179.63826 308
50.83932 63.51447 179.03519 393
47.42072 64.80342 181.37801 391
43.94695 66.15963 183.85274 388
40.30773 67.52446 186.40683 386
36.29435 69.06497 188.96619 373
31.99559 70.64410 191.63806 370
27.45310 72.39300 194.45351 368
22.72546 74.16296 197.36147 334
16.45934 76.56596 200.30318 332
8.38762 79.57143 203.31778 314
-57907.13672 22013.11133 -2835.29736 1000
75.40279 53.20360 176.77989 422
72.90719 54.13602 178.78342 420
65.42758 56.92751 179.63100 308
51.46917 62.08398 179.26665 394
48.09871 63.35421 181.62296 392
44.63170 64.65761 184.06458 389
41.02069 65.94913 186.59100 387
37.18633 67.41113 189.20767 374
32.95952 68.99786 191.84575 371
28.51878 70.64091 194.63252 369
23.93644 72.36170 197.53961 366
18.67992 74.29355 200.54364 333
11.55331 76.95614 203.54016 315
75.66830 52.08856 176.93491 423
73.19305 53.00642 178.98288 421
65.08698 55.95974 179.63626 308
52.09374 60.67718 179.48994 395
48.75996 61.90861 181.87332 393
45.33366 63.14484 184.27431 390
41.80141 64.43662 186.79909 388
38.09435 65.78275 189.38019 385
33.92776 67.31738 192.03622 372
29.59292 68.93668 194.81711 369
25.02475 70.57896 197.71837 367
20.25295 72.33037 200.70660 364
14.50741 74.39709 203.80853 331
5.45288 77.71098 206.89845 293
75.94576 50.98881 177.10530 424
73.47658 51.86488 179.14986 421
64.70086 55.03614 179.67679 308
52.73754 59.32510 179.76732 396
49.45155 60.46882 182.11613 393
46.01014 61.70222 184.49207 391
42.51268 62.98244 187.00868 389
38.86554 64.27105 189.59282 386
34.93447 65.65817 192.24036 373
30.62946 67.22094 195.00978 370
26.08104 68.82812 197.88591 368
21.40998 70.50858 200.86192 365
16.47451 72.26955 203.96391 363
9.04167 74.95024 207.14600 297
76.20484 49.90175 177.26620 424
73.74473 50.78310 179.28140 422
64.36765 54.06227 179.64900 308
53.32966 57.94606 179.98654 397
50.09538 59.08377 182.29234 394
46.73129 60.26298 184.73189 392
43.24105 61.46790 187.22868 389
39.64700 62.74889 189.80174 387
35.87494 64.04292 192.47403 374
31.62703 65.58057 195.16661 371
27.18755 67.10286 198.02075 369
22.53743 68.74073 201.00700 366
17.68799 70.44214 204.12888 363
12.49226 72.27863 207.37901 316
76.44003 48.85185 177.46881 425
74.01048 49.65825 179.44513 423
57.02407 55.52994 177.92876 412
53.95937 56.56485 180.22910 397
50.75215 57.67913 182.55067 395
47.41272 58.83728 184.95198 393
43.96943 59.99702 187.38776 390
40.38556 61.22477 189.96870 388
36.67871 62.52415 192.64441 385
32.63559 63.90269 195.35991 372
28.22415 65.40852 198.20815 370
23.66473 66.98907 201.13301 367
18.85804 68.62834 204.24652 364
13.86002 70.35073 207.45024 362
76.72466 47.74596 177.61145 426
74.13751 48.64058 179.56767 312
57.46745 54.25357 178.12862 413
54.53647 55.26113 180.43184 411
51.37268 56.30839 182.72699 396
48.04836 57.40704 185.13795 394
44.67458 58.56733 187.62897 391
41.12347 59.75402 190.16736 389
37.48294 60.98550 192.82491 386
33.61300 62.30246 195.51775 373
29.28604 63.73787 198.31804 371
24.76029 65.30873 201.27309 368
20.00784 66.90245 204.33315 365
15.06820 68.56240 207.53043 363
76.98286 46.67720 177.77075 426
73.80912 47.73731 179.59758 312
57.87265 53.01104 178.31987 414
54.98549 53.98719 180.59776 412
51.95842 54.98133 182.96979 409
48.73644 56.04539 185.32588 394
45.37062 57.16533 187.78943 392
41.85995 58.29197 190.35756 390
38.21360 59.50682 192.98528 387
34.50685 60.73039 195.71118 385
30.31031 62.13104 198.50064 371
25.82070 63.58160 201.38893 369
21.17718 65.11359 204.44400 366
16.30407 66.75256 207.62135 364
77.24041 45.64616 177.96503 427
73.52653 46.82668 179.57985 312
58.30038 51.78459 178.52156 415
55.41019 52.69236 180.80399 412
52.44829 53.66762 183.12137 410
49.35690 54.67386 185.55502 408
46.03588 55.74842 187.97209 393
42.58718 56.85289 190.51573 391
38.97640 57.98791 193.14510 388
35.30034 59.24000 195.83107 386
31.34040 60.47471 198.64087 372
26.93495 61.92808 201.55659 370
22.29095 63.42871 204.58821 367
17.49647 64.96951 207.75116 364
77.49194 44.60081 178.11572 428
73.20033 45.96995 179.57953 312
58.61251 50.56773 178.68852 422
55.81054 51.47136 180.98322 413
52.85626 52.39074 183.28883 411
49.84188 53.37528 185.67574 408
46.68630 54.33507 188.15533 406
43.29849 55.40156 190.66374 391
39.73922 56.57098 193.26988 389
36.05771 57.71113 195.99812 386
32.27119 58.89994 198.78336 384
27.98197 60.25650 201.67798 371
23.41502 61.69888 204.69885 368
18.69421 63.22534 207.82945 365
77.76435 43.53981 178.24701 429
72.90179 45.07236 179.58902 312
58.96181 49.37917 178.84886 423
56.25565 50.21773 181.14165 414
53.29718 51.14042 183.47955 412
50.31227 52.07127 185.85063 409
47.20168 52.99733 188.34323 407
44.00543 54.02371 190.88049 404
40.51645 55.08542 193.43593 390
36.84536 56.24036 196.13297 387
33.09147 57.40794 198.91560 385
29.00548 58.68402 201.80840 372
24.52286 60.06499 204.78255 369
19.84416 61.52083 207.92175 366
77.97952 42.52509 178.43390 429
72.60453 44.17335 179.59439 312
59.32259 48.16660 179.01994 424
56.63211 48.99076 181.32382 422
53.77621 49.89374 183.63768 412
50.79401 50.77229 185.99191 410
47.70708 51.73706 188.45177 408
44.49374 52.69279 191.00099 405
41.24533 53.67878 193.58580 403
37.65555 54.74450 196.29750 388
33.93102 55.90096 199.06432 386
30.00816 57.06282 201.92104 372
25.62731 58.43995 204.92175 370
20.97087 59.81497 208.00464 367
78.25301 41.50512 178.57201 430
72.28632 43.26750 179.58070 312
59.64574 47.02187 179.20074 425
56.99716 47.78843 181.47971 422
54.19758 48.64565 183.78635 413
51.24234 49.52441 186.17012 411
48.19386 50.39043 188.62982 408
45.03080 51.34570 191.13303 406
41.78395 52.29169 193.75085 403
38.41079 53.31925 196.43221 401
34.74335 54.40961 199.20337 386
30.86600 55.54396 202.06668 384
26.65336 56.81265 204.98450 371
22.07697 58.17174 208.07355 368
78.50955 40.46251 178.71327 431
72.03709 42.37371 179.58913 312
59.98926 45.84372 179.35164 425
57.34855 46.61103 181.61400 423
54.61504 47.37978 183.96230 421
51.71310 48.27309 186.32123 411
48.63122 49.13183 188.75861 409
45.52697 50.03845 191.26469 407
42.29306 50.95071 193.87633 404
38.96046 51.91799 196.55449 402
35.49550 52.92456 199.29097 399
31.72742 54.05075 202.15662 385
27.74663 55.19158 205.08693 372
23.24011 56.52260 208.18755 369
78.77483 39.47682 178.87914 431
71.73105 41.44280 179.59302 312
60.33626 44.68993 179.51299 426
57.70196 45.44437 181.78279 424
54.98770 46.19397 184.11707 421
52.13701 47.02415 186.45276 412
49.12968 47.84891 188.91818 410
46.04449 48.72349 191.38660 407
42.79995 49.62504 194.00471 405
39.50593 50.55669 196.65991 402
36.06278 51.55730 199.42264 400
32.53084 52.54291 202.27092 397
28.64757 53.64078 205.20721 383
24.30099 54.89140 208.25340 370
79.00510 38.46857 179.00803 432
71.44212 40.52293 179.58934 312
60.67091 43.54382 179.66983 427
58.04025 44.24376 181.93036 424
55.38994 44.98661 184.25897 422
52.59118 45.76696 186.61571 413
49.62422 46.57923 189.05963 411
46.51788 47.46936 191.54805 408
43.36651 48.33209 194.12152 406
40.06404 49.25434 196.76917 403
36.68297 50.16445 199.51155 400
33.12719 51.12546 202.34468 398
29.50384 52.15391 205.28549 395
25.41254 53.27025 208.34242 371
-187.96634 112.30427 204.39998 483
79.24182 37.43661 179.16841 432
71.19368 39.65916 179.62398 312
61.03790 42.38601 179.81816 427
58.42471 43.09513 182.06125 425
55.73102 43.82502 184.36900 423
52.99644 44.54620 186.77611 421
50.06163 45.35247 189.19739 411
47.03299 46.16598 191.66512 409
43.86889 47.02466 194.24062 406
40.59075 47.88356 196.87444 404
37.21696 48.82067 199.62642 401
33.73777 49.73400 202.44833 399
30.12731 50.75473 205.38609 396
26.36214 51.77007 208.38440 393
-187.95825 109.66869 204.42322 483
79.50417 36.48058 179.29472 433
70.92529 38.73687 179.61012 312
61.36329 41.23392 179.99873 428
58.78263 41.93002 182.22041 426
56.13262 42.62975 184.52716 424
53.39845 43.34127 186.91029 421
50.55194 44.07341 189.31361 412
47.50766 44.89936 191.76218 410
44.37846 45.72474 194.33891 407
41.11563 46.57236 196.97185 404
37.80702 47.46149 199.69443 402
34.33614 48.35329 202.51559 399
30.76690 49.30495 205.41238 397
27.04537 50.29958 208.47229 394
-187.98215 107.00906 204.43414 483
79.76428 35.47026 179.44936 434
64.21523 39.48943 177.93532 431
61.66681 40.13635 180.11037 429
59.13058 40.78019 182.35580 426
56.48712 41.48557 184.66949 424
53.74598 42.14275 187.00812 422
51.00470 42.85959 189.42886 420
47.97830 43.66689 191.89247 410
44.86795 44.42015 194.46739 408
41.64877 45.25450 197.06635 405
38.36727 46.13729 199.80202 403
34.93918 46.97773 202.58440 400
31.38598 47.92432 205.50237 397
27.65124 48.88023 208.49411 395
-188.03877 104.30709 204.45461 484
79.86196 34.52710 179.54829 316
64.50061 38.36916 178.11171 432
62.02948 38.99720 180.27309 429
59.46487 39.66639 182.53050 427
56.85960 40.28918 184.78796 425
54.14319 40.99432 187.12260 423
51.38276 41.68195 189.56311 420
48.50218 42.39606 192.01900 411
45.39526 43.18237 194.57050 408
42.22692 43.98952 197.18314 406
38.91043 44.80014 199.90753 403
35.52837 45.67442 202.70078 401
31.97717 46.51077 205.54649 398
28.30850 47.46023 208.57642 395
-188.34688 101.73483 204.53061 483
-190.06657 102.16469 211.41393 295
79.64149 33.68206 179.54691 316
64.82820 37.27109 178.24875 432
62.34663 37.88436 180.43849 430
59.82174 38.50925 182.66545 428
57.20721 39.15086 184.90974 426
54.53318 39.78048 187.26915 423
51.76219 40.46136 189.69051 421
48.96114 41.18399 192.16020 418
45.87229 41.93137 194.68002 409
42.73676 42.68345 197.29234 407
39.44204 43.45562 199.96518 404
36.06822 44.27927 202.76736 401
32.58058 45.16597 205.62614 399
28.95575 46.02265 208.60503 396
-208.00481 103.84983 203.85295 286
-186.52437 98.58059 211.45015 484
79.40668 32.80154 179.55800 316
65.14308 36.19086 178.41113 433
62.67230 36.81113 180.55463 431
60.13538 37.37157 182.77238 428
57.57593 38.00260 185.04410 426
54.89834 38.64537 187.37376 424
52.18826 39.28967 189.81808 422
49.37175 39.95654 192.24771 419
46.41650 40.66084 194.79782 410
43.26516 41.41827 197.38101 407
39.98496 42.18134 200.07701 405
36.65776 42.99298 202.81796 402
33.16183 43.79418 205.68501 400
29.59497 44.62691 208.66266 397
-186.71997 95.97099 211.51836 435
-46039.12500 10985.54102 996.65283 1000
79.18334 31.96516 179.53508 316
65.47729 35.13980 178.53125 433
63.02188 35.70441 180.70128 431
60.51785 36.26970 182.90823 429
57.93623 36.88832 185.19215 427
55.29557 37.48394 187.53679 425
52.53829 38.12199 189.89539 422
49.76442 38.74918 192.34804 420
46.88181 39.40929 194.89496 411
43.76499 40.15393 197.48694 408
40.53650 40.90827 200.15102 405
37.24550 41.65908 202.92264 403
33.77245 42.46475 205.78572 400
30.21871 43.26550 208.75279 398
-186.82198 93.44852 211.47685 435
78.98741 31.09957 179.56079 316
65.75973 34.04345 178.70476 434
63.32746 34.58999 180.83401 432
60.84946 35.15625 183.04909 430
58.25898 35.74583 185.31331 428
55.62580 36.31367 187.64526 425
52.97024 36.94755 190.02142 423
50.15180 37.57580 192.47968 420
47.32856 38.22704 195.00414 418
44.26404 38.89835 197.58771 409
41.08847 39.61123 200.23442 406
37.80175 40.34669 203.00102 404
34.34746 41.13817 205.84393 401
30.82065 41.90934 208.78659 398
-186.91029 90.85220 211.46429 435
-192.51817 92.10998 218.28047 296
78.76472 30.25244 179.55957 316
66.11433 32.98975 178.81203 435
63.65047 33.51323 180.99104 433
61.20249 34.05204 183.16664 430
58.61108 34.60806 185.45038 428
56.00206 35.17691 187.73930 426
53.32380 35.78033 190.11353 424
50.56410 36.39108 192.59811 421
47.75763 37.00010 195.08794 419
44.80902 37.64939 197.68250 409
41.61809 38.35348 200.33499 407
38.33475 39.06110 203.07524 404
34.97520 39.79359 205.90114 402
31.45482 40.56284 208.85582 399
-186.91393 88.17904 211.49585 436
-185.99666 88.01648 218.33025 296
78.53352 29.35356 179.53349 316
66.38697 31.95587 178.97456 435
63.97248 32.44550 181.13429 433
61.49975 32.99055 183.29060 431
58.98077 33.50083 185.57399 429
56.41270 34.06312 187.85463 426
53.73187 34.63739 190.22609 424
50.97338 35.22883 192.66414 422
48.18416 35.80607 195.18643 419
45.26505 36.40539 197.76755 417
42.16688 37.06024 200.42772 408
38.90033 37.77796 203.15289 405
35.51083 38.49470 205.94020 402
32.03326 39.20506 208.89452 400
-181.97960 84.55210 218.35205 325
78.36485 28.50311 179.55804 316
66.70398 30.91270 179.12167 436
64.30923 31.40858 181.26480 434
61.86850 31.90647 183.45497 432
59.35981 32.40327 185.71103 429
56.75898 32.95753 187.98724 427
54.09612 33.46789 190.36127 425
51.37158 34.02697 192.80681 422
48.55875 34.63436 195.27284 420
45.70189 35.20931 197.86067 417
42.66312 35.85408 200.52156 408
39.43254 36.51701 203.21770 406
36.10673 37.18356 206.03975 403
32.66574 37.88825 208.94208 400
-185.17023 82.57248 213.97722 439
78.16698 27.66042 179.53751 316
67.01769 29.83824 179.26173 437
64.62424 30.33241 181.36995 434
62.20193 30.82859 183.57196 432
59.71467 31.31454 185.79433 430
57.12553 31.84598 188.09033 428
54.48103 32.35775 190.44705 425
51.80323 32.88445 192.88481 423
48.98191 33.43810 195.35512 421
46.12750 34.01297 197.94652 418
43.20574 34.61597 200.57224 416
39.99754 35.21581 203.30482 406
36.68458 35.86885 206.10260 404
33.25701 36.58647 208.99983 401
-181.15842 79.26179 218.36647 424
77.94470 26.77713 179.55098 316
67.14980 28.87400 179.33292 457
64.92478 29.26535 181.49474 455
62.53977 29.74424 183.68974 433
60.04811 30.23542 185.94383 431
57.50814 30.72942 188.21191 428
54.87420 31.23218 190.58134 426
52.19781 31.74973 193.00111 424
49.38477 32.27034 195.48239 421
46.58276 32.84261 198.00343 419
43.63705 33.40360 200.65910 416
40.55440 33.96877 203.38223 407
37.23786 34.60780 206.13478 404
33.84693 35.24944 209.02295 402
-181.12672 76.71321 218.31059 424
77.77203 25.92367 179.57259 316
67.18468 27.87245 179.40541 457
64.98087 28.28908 181.57652 455
62.74266 28.68703 183.80309 453
60.39928 29.12284 186.01929 431
57.83527 29.63177 188.32053 429
55.25661 30.11516 190.65717 427
52.58366 30.59421 193.08609 424
49.82362 31.11946 195.53214 422
46.99477 31.65444 198.11182 419
44.06733 32.18461 200.71715 417
41.07347 32.75186 203.42108 414
37.82837 33.36200 206.22549 405
34.42498 33.98367 209.06879 402
-181.16888 74.09259 218.33551 424
77.59873 25.02061 179.55508 316
67.22441 26.89367 179.47665 457
65.05220 27.28478 181.63698 455
62.79573 27.69155 183.83575 453
60.45968 28.12575 186.11185 451
58.12377 28.54542 188.43561 448
55.62458 28.98047 190.75145 427
52.96350 29.45671 193.16774 425
50.24625 29.94731 195.65175 422
47.42635 30.48160 198.16216 420
44.49614 31.00005 200.77557 417
41.55433 31.50281 203.47218 415
38.39532 32.09090 206.24709 406
35.03315 32.67536 209.11108 403
-181.18539 71.59575 218.34622 425
-188.58934 72.88860 225.11627 323
77.38728 24.17188 179.56029 316
67.29539 25.91500 179.49855 458
65.08607 26.28437 181.67462 455
62.80935 26.70675 183.88705 453
60.54165 27.08260 186.13426 451
58.14903 27.50809 188.45172 449
55.76212 27.91007 190.84750 446
53.26609 28.35182 193.28157 444
50.63800 28.82816 195.74530 423
47.83025 29.27874 198.25505 421
44.94816 29.81520 200.88429 418
41.96639 30.30137 203.57892 416
38.91211 30.83420 206.35020 406
35.56536 31.43645 209.16751 404
-181.19707 69.03242 218.39650 425
-186.16255 69.92059 225.10135 323
77.24113 23.27319 179.56261 316
67.32664 24.94148 179.56229 458
65.15726 25.33243 181.72467 456
62.87074 25.70194 183.95598 454
60.59092 26.08865 186.21422 451
58.24602 26.46347 188.53363 449
55.81930 26.85585 190.89897 447
53.36304 27.27501 193.31918 444
50.80411 27.70449 195.80687 442
48.24680 28.13190 198.34509 439
45.38845 28.62751 200.95264 419
42.43190 29.09200 203.61224 416
39.39180 29.62748 206.37804 414
36.15487 30.17255 209.24919 404
-181.24426 66.52628 218.34528 420
-184.92557 67.09866 225.09125 361
77.06009 22.43106 179.54941 316
67.40714 23.98753 179.63055 458
65.17361 24.30960 181.82205 456
62.95145 24.70432 183.98778 454
60.66757 25.04542 186.24445 452
58.27751 25.45949 188.57117 449
55.89579 25.81786 190.92043 447
53.42962 26.22132 193.35716 444
50.90766 26.62946 195.82256 442
48.32851 27.04348 198.38255 439
45.66766 27.45460 201.00279 437
42.88180 27.91356 203.69821 417
39.87595 28.40212 206.43398 414
36.74757 28.93292 209.24817 405
-181.15875 63.99962 218.42429 420
-184.41589 64.50251 225.08482 361
76.91338 21.52433 179.55820 316
67.43469 23.00787 179.70610 458
65.23177 23.33795 181.87268 456
62.97783 23.70215 184.05859 454
60.71275 24.05097 186.29842 452
58.37251 24.41445 188.60309 450
55.96155 24.79037 190.99854 447
53.51136 25.14405 193.39981 445
50.96317 25.53679 195.87604 442
48.41595 25.97042 198.40431 440
45.72272 26.37106 201.02180 437
43.02594 26.78671 203.69266 435
40.18174 27.24198 206.46971 432
37.24776 27.65137 209.31406 412
-181.23245 61.46164 218.44550 420
-183.78366 61.79670 225.09677 361
76.75632 20.66778 179.58252 316
67.49866 22.05734 179.77620 459
65.27473 22.38521 181.90863 457
63.06261 22.69052 184.12125 454
60.76095 23.05016 186.35980 452
58.42155 23.36691 188.66168 450
56.02334 23.72748 191.03635 447
53.60297 24.11394 193.41772 445
51.05471 24.46428 195.92807 443
48.49147 24.86919 198.45493 440
45.84134 25.24545 201.05583 437
43.12899 25.63835 203.73659 435
40.28814 26.04937 206.48228 432
37.39246 26.50769 209.31595 429
-181.16130 58.89669 218.39479 420
-183.23521 59.24783 225.10455 361
76.60378 19.78642 179.58694 316
67.51736 21.05630 179.79416 459
65.33305 21.38752 181.97966 457
63.09065 21.72226 184.16443 455
60.80707 22.01982 186.41074 452
58.48077 22.36065 188.69032 450
56.09258 22.67975 191.04822 448
53.65199 23.03429 193.49113 445
51.16202 23.41042 195.96275 443
48.58466 23.77313 198.49548 440
45.93954 24.15630 201.09753 438
43.21342 24.52116 203.74982 435
40.42882 24.94496 206.51253 432
37.52936 25.33204 209.37926 430
-181.23163 56.37138 218.39783 420
-182.57288 56.64265 225.09796 361
76.46117 18.90705 179.56413 316
67.59084 20.10728 179.84349 459
65.38421 20.41381 182.00806 457
63.17701 20.72704 184.20738 455
60.88770 21.04372 186.47995 453
58.57417 21.36315 188.76259 450
56.18313 21.66973 191.10532 448
53.74019 21.97930 193.53012 446
51.24166 22.31611 195.96732 443
48.65169 22.67650 198.51680 441
46.02250 23.04220 201.14297 438
43.31774 23.41656 203.79692 435
40.52536 23.78729 206.55511 433
37.67610 24.20470 209.38953 430
-181.21931 53.92492 218.47368 420
-182.50337 54.11587 225.11652 383
76.31178 18.01508 179.58084 316
67.64139 19.15665 179.90877 459
65.44416 19.43675 182.07742 457
63.22901 19.73391 184.28476 455
