# .PCD v.7 - Point Cloud Data file format
VERSION .7
FIELDS x y z rgb
SIZE 4 4 4 4
TYPE F F F U
COUNT 1 1 1 1
WIDTH 1378
HEIGHT 1
VIEWPOINT 4691.981445 -4060.660645 151.050568 -0.037319 -0.139350 -0.001300 0.989539
POINTS 1378
DATA ascii
66.98430 -27.69575 179.66660 455
64.69152 -28.08297 181.85657 453
62.41782 -28.49673 184.16312 451
60.01992 -28.88616 186.45697 448
57.55512 -29.31887 188.83122 428
54.87493 -29.78057 191.22913 425
52.17116 -30.23672 193.67699 423
49.38149 -30.72930 196.21613 420
46.47194 -31.21590 198.82356 418
43.48345 -31.72877 201.54837 415
40.40881 -32.25371 204.32222 413
37.05774 -32.87214 207.17960 403
33.61604 -33.44624 210.13889 401
-182.88643 -70.80929 216.62817 425
-182.70082 -70.71395 223.38481 360
83.09630 -25.83083 178.51164 460
77.60443 -26.80971 179.58484 312
66.94124 -28.72316 179.57497 455
64.64821 -29.12595 181.81438 453
62.30445 -29.54311 184.08733 432
59.77337 -29.98023 186.35039 429
57.17255 -30.45850 188.70854 427
54.49043 -30.92748 191.13078 425
51.77119 -31.43605 193.60835 422
48.95152 -31.94297 196.15576 420
46.03793 -32.42945 198.79518 417
43.01775 -32.97844 201.50995 415
39.85823 -33.53652 204.25961 405
36.47653 -34.14853 207.14853 403
32.97779 -34.75399 210.11150 400
-182.86391 -73.34057 216.63683 425
-185.00462 -73.77695 223.44247 322
83.09060 -26.72130 178.41971 459
77.82685 -27.69582 179.57178 312
66.87704 -29.71329 179.52885 436
64.43320 -30.15492 181.70627 433
61.94489 -30.61012 183.97279 431
59.42772 -31.10059 186.26262 429
56.77946 -31.59640 188.59467 427
54.11055 -32.06411 191.04108 424
51.32175 -32.59723 193.53008 422
48.50038 -33.11607 196.07407 419
45.58592 -33.67790 198.70718 417
42.54396 -34.22275 201.44363 414
39.29519 -34.80753 204.22235 405
35.85645 -35.42560 207.09537 402
32.32252 -36.09475 210.08000 399
-182.92070 -75.93598 216.59145 425
-187.57271 -76.81327 223.45110 322
83.06348 -27.63096 178.36566 459
78.07710 -28.56752 179.57469 312
66.57327 -30.80679 179.41505 435
64.11832 -31.23481 181.58192 433
61.59815 -31.74976 183.80934 431
59.04171 -32.22834 186.11597 428
56.43386 -32.72322 188.49580 426
53.68858 -33.23618 190.93452 424
50.92150 -33.79234 193.41229 421
48.05985 -34.34224 195.96631 419
45.10960 -34.90291 198.62537 416
42.04424 -35.45402 201.34840 407
38.69401 -36.10244 204.15114 404
35.25610 -36.75344 207.06680 401
31.72211 -37.44041 210.05147 399
-182.89993 -78.57076 216.65619 425
-190.19536 -79.97391 223.49097 321
83.02330 -28.53170 178.30508 459
78.27925 -29.46966 179.57982 312
66.25003 -31.84939 179.25525 434
63.77621 -32.35587 181.45619 432
61.26139 -32.84556 183.71103 430
58.68167 -33.33761 186.00395 428
-75.70454 -14.98471 -12.66452 425
53.31179 -34.41163 190.81261 423
50.48037 -34.94665 193.33858 420
47.62966 -35.55252 195.88675 418
44.62875 -36.14000 198.57780 415
41.43790 -36.73449 201.29825 406
38.09528 -37.38183 204.09300 403
34.63164 -38.06993 207.00996 401
31.06083 -38.77855 210.06273 398
-182.89700 -81.13686 216.64420 424
82.97926 -29.43040 178.21324 458
78.52830 -30.35897 179.55377 312
65.91857 -32.93375 179.11031 434
63.44156 -33.45999 181.34201 432
60.91973 -33.95782 183.56174 429
58.29818 -34.48724 185.90356 427
55.65771 -35.02853 188.28436 425
52.91493 -35.61219 190.71216 422
50.09398 -36.14553 193.23422 420
47.17440 -36.73532 195.80099 417
44.17212 -37.36623 198.46442 408
40.87283 -38.02777 201.20966 405
37.50647 -38.69651 204.05629 403
34.04291 -39.44660 206.95207 400
30.42172 -40.17966 210.02400 363
-182.89394 -83.66764 216.66937 424
82.97393 -30.35006 178.13387 458
78.78475 -31.23482 179.57288 312
65.59837 -34.03829 178.98840 433
63.07628 -34.56875 181.17917 431
60.55528 -35.07344 183.45279 429
57.91813 -35.64632 185.77872 426
55.26928 -36.17737 188.16183 424
52.50110 -36.77859 190.59990 422
49.67216 -37.38114 193.12158 419
46.73208 -37.98492 195.75951 417
43.59560 -38.61951 198.42400 407
40.34035 -39.32475 201.16194 405
36.92608 -40.06898 203.96199 402
33.39798 -40.76982 206.91737 399
29.73172 -41.55352 209.96826 362
-182.75620 -86.28607 216.70009 439
82.94334 -31.28500 178.06140 458
79.02380 -32.12826 179.54530 312
65.25473 -35.13968 178.82425 433
62.76683 -35.67790 181.07501 430
60.20096 -36.22315 183.30316 428
57.57369 -36.78320 185.66837 426
54.84412 -37.38740 188.04753 423
52.08733 -37.96439 190.51120 421
49.23210 -38.60128 193.04306 419
46.26523 -39.21478 195.63274 409
43.08623 -39.94941 198.31914 407
39.77477 -40.65901 201.09940 404
36.33066 -41.35987 203.94957 401
32.77543 -42.15899 206.86404 399
29.03289 -42.96349 209.95155 362
-182.98474 -88.98835 216.69205 297
82.70949 -32.22979 177.95073 438
79.28482 -33.02989 179.56026 312
64.92003 -36.22089 178.70763 432
62.41980 -36.78643 180.93129 430
59.83300 -37.35777 183.19589 427
57.16743 -37.93805 185.53625 425
54.47498 -38.55005 187.91333 423
51.66969 -39.20062 190.41107 420
48.78175 -39.81184 192.96037 418
45.72613 -40.50663 195.53712 408
42.51403 -41.23376 198.25114 406
39.18800 -41.97002 201.01233 403
35.74291 -42.75658 203.86673 401
32.18199 -43.53037 206.84630 398
28.30387 -44.37814 209.93080 358
-188.16743 -92.82413 209.81230 485
-189.76630 -93.08891 216.70822 296
82.46761 -33.22930 177.77048 438
79.54602 -33.88232 179.55962 312
64.61325 -37.34687 178.53322 431
62.05617 -37.93382 180.77359 429
59.45992 -38.52667 183.06404 427
56.79011 -39.10457 185.40146 424
54.06926 -39.76165 187.81892 422
51.27305 -40.42344 190.32037 420
48.34959 -41.04457 192.85213 417
45.18868 -41.77337 195.44379 408
41.93673 -42.54617 198.13188 405
38.58912 -43.31510 200.92233 403
35.12490 -44.12226 203.79388 400
31.51831 -44.93065 206.79874 397
27.59184 -45.82070 209.85455 357
-187.69017 -95.34551 209.76973 485
-196.81702 -97.47823 216.63730 294
82.22373 -34.19313 177.64491 437
79.81679 -34.76933 179.56822 312
64.24871 -38.46236 178.41386 431
61.73592 -39.05909 180.61911 428
59.12476 -39.67110 182.91251 426
56.43538 -40.30585 185.27948 424
53.65897 -40.94075 187.70987 421
50.82167 -41.63778 190.19431 419
47.83749 -42.31578 192.72371 410
44.65634 -43.06042 195.37495 407
41.38747 -43.83747 198.04221 404
38.02400 -44.65873 200.82297 402
34.52695 -45.46944 203.73073 399
30.86851 -46.35929 206.74643 397
26.86437 -47.28484 209.85381 357
-187.25002 -97.85364 209.79300 485
81.97598 -35.20555 177.52104 437
79.73225 -35.74889 179.43967 433
63.94778 -39.58669 178.22974 430
61.36946 -40.22579 180.46393 428
58.75551 -40.85546 182.77821 425
56.05401 -41.47549 185.16989 423
53.26061 -42.16358 187.57144 421
50.39697 -42.85298 190.08281 418
47.33237 -43.63136 192.60252 409
44.13227 -44.37992 195.24257 406
40.85633 -45.16837 197.97729 404
37.40110 -46.03674 200.76759 401
33.86796 -46.85081 203.67102 399
30.20812 -47.76606 206.68352 396
26.13058 -48.76335 209.82129 356
-186.72581 -100.42130 209.75430 486
81.74670 -36.19719 177.36162 436
79.45018 -36.76935 179.31627 432
63.61766 -40.70229 178.07964 429
61.00692 -41.34457 180.35736 427
58.35720 -42.04420 182.66948 425
55.67788 -42.69516 185.00352 422
52.86575 -43.38457 187.47899 420
49.96457 -44.11285 189.96790 411
46.82548 -44.88643 192.51251 408
43.62313 -45.68710 195.16342 406
40.28821 -46.55244 197.85583 403
36.80130 -47.37310 200.69328 400
33.26185 -48.25759 203.62447 398
29.53214 -49.22116 206.63931 395
25.43157 -50.24789 209.74982 356
-187.61392 -103.34397 209.71446 295
81.48739 -37.20493 177.21832 435
79.19016 -37.78800 179.17450 431
70.35545 -40.06486 179.62201 308
60.68559 -42.55474 180.18103 426
58.00125 -43.19884 182.51234 424
55.29111 -43.92676 184.90022 422
52.45620 -44.61561 187.34718 419
49.45178 -45.37517 189.83357 410
46.32272 -46.19530 192.40317 407
43.02967 -47.03089 195.01938 405
39.66555 -47.91243 197.80396 402
36.21189 -48.76734 200.60083 400
32.64188 -49.71143 203.55374 397
28.90550 -50.64059 206.56741 394
24.65898 -51.75239 209.75743 341
81.23915 -38.19770 177.05531 435
78.95477 -38.83469 179.02342 431
70.65977 -40.99004 179.64154 308
60.31855 -43.69900 180.04152 426
57.64355 -44.40213 182.34262 423
54.89854 -45.14402 184.74405 421
52.02021 -45.90327 187.19579 412
48.96541 -46.68858 189.71881 409
45.75578 -47.52592 192.29546 407
42.52129 -48.39594 194.93205 404
39.11572 -49.29172 197.67596 402
35.59097 -50.18670 200.50653 399
31.97115 -51.13650 203.47987 396
28.23736 -52.09997 206.52168 394
-188.35812 -109.02243 202.71021 483
80.97679 -39.22212 176.92595 434
78.66426 -39.85260 178.87598 430
70.98302 -41.92397 179.62975 308
59.96067 -44.86944 179.87732 425
57.28505 -45.60150 182.20624 423
54.50791 -46.37454 184.63368 420
51.53494 -47.17636 187.04588 411
48.46029 -48.00286 189.56454 409
45.24008 -48.86847 192.14145 406
41.92390 -49.70974 194.79947 403
38.54884 -50.66775 197.58875 401
35.00138 -51.59169 200.46797 398
31.31632 -52.59667 203.43695 396
27.32851 -53.65282 206.46646 382
-187.85397 -111.54153 202.75623 495
80.73801 -40.26046 176.74010 433
78.40321 -40.91359 178.73558 430
71.30343 -42.88221 179.62129 308
59.59769 -46.10070 179.74867 424
56.90479 -46.85151 182.04874 422
54.07149 -47.60649 184.46204 413
51.07297 -48.44564 186.89935 410
47.94469 -49.28463 189.42163 408
44.68207 -50.18153 192.03773 405
41.37315 -51.11412 194.71187 403
37.91506 -52.06691 197.47862 400
34.37998 -53.01649 200.35255 398
30.47885 -54.10137 203.31860 384
26.25915 -55.25267 206.38806 370
-187.29515 -114.06623 202.72366 495
80.48669 -41.28545 176.61819 433
78.15855 -41.95799 178.58815 429
71.60637 -43.82007 179.63522 308
59.22290 -47.29747 179.57922 424
56.52691 -48.09016 181.89871 421
53.63230 -48.85938 184.33670 412
50.55832 -49.75248 186.76897 410
47.41651 -50.60426 189.27632 407
44.17862 -51.56424 191.88817 405
40.79382 -52.48744 194.61150 402
37.31482 -53.47497 197.36794 388
33.53486 -54.52428 200.26906 385
29.56247 -55.62970 203.21660 383
25.14658 -56.94202 206.29633 369
80.21628 -42.35279 176.44534 432
77.88718 -43.00628 178.44255 428
71.94160 -44.75655 179.63057 308
58.90633 -48.50200 179.43204 423
56.11395 -49.29205 181.76350 421
53.15158 -50.15104 184.16855 411
50.08849 -51.07749 186.61682 409
46.88879 -51.94381 189.14583 406
43.64248 -52.93902 191.80048 404
40.22295 -53.86652 194.47310 390
36.52938 -54.94106 197.25436 387
32.65629 -56.05403 200.16634 385
28.54384 -57.26672 203.16858 371
23.98983 -58.55294 206.25352 369
79.98541 -43.41214 176.27855 431
77.59013 -44.07810 178.25459 428
72.25507 -45.64682 179.63458 308
58.49678 -49.73438 179.24783 422
55.66440 -50.59378 181.59576 413
52.65588 -51.46416 183.99487 410
49.56838 -52.38120 186.45659 408
46.37779 -53.30901 189.01485 406
43.05722 -54.31735 191.64323 391
39.46551 -55.36028 194.35649 389
35.69606 -56.48255 197.12556 386
31.81714 -57.59594 200.03545 384
27.49231 -58.88594 203.05492 370
22.84194 -60.29799 206.15529 368
79.71151 -44.43269 176.09993 429
77.33577 -45.16639 178.12985 427
72.62403 -46.62505 179.61682 308
58.17009 -50.95828 179.07097 422
55.23041 -51.85386 181.41908 412
52.17820 -52.74722 183.81679 410
49.08397 -53.70121 186.33762 407
45.84453 -54.67163 188.85117 393
42.29570 -55.77115 191.47009 390
38.66167 -56.87032 194.19907 388
34.85485 -58.02480 197.03293 385
30.84809 -59.19982 199.91866 372
26.36145 -60.59346 202.94032 369
21.64802 -61.96582 206.10344 367
79.48167 -45.51788 175.94815 428
77.04140 -46.28186 177.95622 426
72.96183 -47.53120 179.62053 308
57.73077 -52.24340 178.92931 414
54.77002 -53.15797 181.25269 411
51.71212 -54.09660 183.69310 409
48.55780 -55.06555 186.17056 395
45.12247 -56.12627 188.67757 392
41.56399 -57.25776 191.35373 390
37.85647 -58.35400 194.06248 387
34.04184 -59.57792 196.90714 385
29.80607 -60.86867 199.78683 371
25.26556 -62.24660 202.84271 369
20.45486 -63.72033 206.02261 366
79.19953 -46.59863 175.77359 428
76.80559 -47.34494 177.79333 426
73.30112 -48.47719 179.62332 308
57.32688 -53.49135 178.74342 413
54.31757 -54.46345 181.06477 411
51.20714 -55.41912 183.48444 396
47.85777 -56.47248 185.96193 394
44.35363 -57.59269 188.52962 391
40.77722 -58.74733 191.17674 389
37.01346 -59.90594 193.89902 386
33.17678 -61.12455 196.76462 373
28.74214 -62.54402 199.67461 370
24.06305 -63.99924 202.71367 368
19.22794 -65.50236 205.94525 365
78.94286 -47.69011 175.59137 427
76.51869 -48.45546 177.63327 425
73.65884 -49.39940 179.60864 308
56.86535 -54.80897 178.54230 412
53.82131 -55.79080 180.87027 398
50.52861 -56.84402 183.29633 395
47.15163 -57.95498 185.79660 393
43.64109 -59.09041 188.32962 390
39.98948 -60.21388 191.02460 388
36.21727 -61.45167 193.74255 385
32.09675 -62.75360 196.61249 372
27.63213 -64.20854 199.52666 369
22.93270 -65.72012 202.60803 367
18.03528 -67.31999 205.85966 364
78.71574 -48.75096 175.41824 426
76.23546 -49.59233 177.48273 424
73.74074 -50.41156 179.51591 422
56.42307 -56.10295 178.35345 399
53.18467 -57.16399 180.68388 397
49.86546 -58.26224 183.09467 394
46.42398 -59.38804 185.59157 392
42.85605 -60.54400 188.14067 390
39.21009 -61.77977 190.81917 387
35.35810 -63.03473 193.58478 385
31.03358 -64.44903 196.45120 371
26.49682 -65.95074 199.41476 368
21.72258 -67.51598 202.53296 366
16.76943 -69.15793 205.75470 363
78.43930 -49.86025 175.24760 426
75.96397 -50.69516 177.30792 424
73.41881 -51.54924 179.38795 421
55.81322 -57.48820 178.08643 398
52.54747 -58.59528 180.45512 396
49.16595 -59.71072 182.88777 394
45.68983 -60.85119 185.37431 391
42.13447 -62.07314 187.95993 389
38.38488 -63.32056 190.67650 386
34.41023 -64.69045 193.41763 373
29.95719 -66.14688 196.27074 370
25.37335 -67.72449 199.26419 368
20.52144 -69.34106 202.36722 365
15.52061 -71.01111 205.65697 362
78.18981 -50.99085 175.09950 425
75.70934 -51.85579 177.13910 423
73.13089 -52.70858 179.20808 421
55.18517 -58.85934 177.87802 397
51.87531 -59.99884 180.20433 395
48.51044 -61.16396 182.63658 393
44.98566 -62.38980 185.15657 390
41.37185 -63.63101 187.76961 388
37.59217 -64.87606 190.46542 385
33.39968 -66.33065 193.27458 372
28.91008 -67.87614 196.15572 369
24.21373 -69.49706 199.10628 367
19.34239 -71.18281 202.24870 364
14.01931 -72.98535 205.57196 332
77.91076 -52.12081 174.92125 424
75.41295 -52.99343 176.95094 422
72.84369 -53.87592 179.04050 420
63.63815 -57.07619 179.71628 304
51.22178 -61.42444 179.96887 394
47.76793 -62.62808 182.45828 392
44.24331 -63.85756 184.95807 389
40.56779 -65.17896 187.61790 387
36.68361 -66.53059 190.30746 374
32.31025 -68.06777 193.06444 371
27.78621 -69.60183 195.95853 368
23.03341 -71.31558 198.96794 366
18.09334 -72.99448 202.14000 363
11.07921 -75.46421 205.36385 315
77.64971 -53.24917 174.72137 424
75.14565 -54.10807 176.78397 421
72.53120 -55.05310 178.85588 419
64.05428 -58.11067 179.68726 304
50.52433 -62.92184 179.76126 393
47.10134 -64.13660 182.21956 391
43.47670 -65.39700 184.74467 388
39.81560 -66.72192 187.37216 386
35.68576 -68.18195 190.09026 373
31.26382 -69.79366 192.89874 370
26.68110 -71.41285 195.81421 367
21.87993 -73.10863 198.86055 365
15.94713 -75.22878 201.96724 332
7.76485 -78.11915 205.21227 314
77.38058 -54.38470 174.53143 423
74.86864 -55.27543 176.60875 421
72.25261 -56.25384 178.70889 418
64.46347 -59.09558 179.69901 304
49.84658 -64.35829 179.50160 392
46.37393 -65.63800 181.96738 390
42.72076 -66.97428 184.57487 388
38.93551 -68.32257 187.16725 374
34.66032 -69.90163 189.89023 372
30.21830 -71.52204 192.67818 369
25.53958 -73.24910 195.65367 367
20.10893 -75.20513 198.64032 334
13.14179 -77.71324 201.76851 316
4.35899 -80.91702 204.98331 313
77.13007 -55.51325 174.36327 422
74.57773 -56.46192 176.40154 420
71.95220 -57.41655 178.50041 418
64.84203 -60.07760 179.70891 304
49.17715 -65.85532 179.26593 392
45.62372 -67.16262 181.75737 389
41.98965 -68.56672 184.31093 387
37.99277 -70.00470 186.96449 373
33.64459 -71.60706 189.70085 371
29.13038 -73.31897 192.50851 368
24.12044 -75.15437 195.44057 335
17.83269 -77.51548 198.43217 333
9.86759 -80.43668 201.50890 314
0.88866 -83.80566 204.78137 312
76.88452 -56.69496 174.16737 422
74.28318 -57.64518 176.21007 419
71.67250 -58.65256 178.35585 417
65.28187 -61.04361 179.67566 304
48.47813 -67.38657 179.02361 391
44.90507 -68.73933 181.53020 388
41.21204 -70.11415 184.09828 386
37.00986 -71.73825 186.75378 372
32.61113 -73.40701 189.46510 370
27.99359 -75.13299 192.28090 367
21.94113 -77.41771 195.14684 334
15.15729 -79.97969 198.13814 316
6.58643 -83.19142 201.22443 313
-2.77666 -86.73321 204.56857 311
76.61636 -57.82324 173.97501 421
74.01741 -58.81877 176.04517 419
71.18916 -59.90044 178.13657 387
65.71471 -62.01676 179.66539 304
47.77666 -68.90406 178.78302 390
44.15932 -70.30874 181.30994 387
40.25110 -71.81527 183.87111 374
36.01290 -73.48119 186.51569 371
31.55464 -75.16495 189.25586 369
25.99204 -77.32010 192.00084 335
19.71357 -79.72573 194.85999 333
12.02399 -82.68756 197.83464 315
3.11112 -86.07996 200.92432 312
-8.90368 -90.70886 204.23744 266
76.31979 -59.03512 173.75841 420
73.70647 -60.04421 175.84654 389
70.53030 -61.29953 177.86821 387
66.12112 -63.02668 179.68507 304
47.06651 -70.46491 178.55151 389
43.42049 -71.90739 181.05969 386
39.32161 -73.50219 183.58598 373
35.01266 -75.20013 186.27084 371
29.83365 -77.22198 188.91629 337
23.81290 -79.54763 191.63225 334
17.26499 -82.18343 194.55481 316
8.76413 -85.48200 197.47995 314
-0.47331 -89.09439 200.62364 311
76.04192 -60.19785 173.57628 419
73.08553 -61.41271 175.55449 388
69.87376 -62.65714 177.55139 386
66.56072 -63.96274 179.66302 304
46.32778 -72.04413 178.28546 388
42.56317 -73.55823 180.75661 375
38.34900 -75.26119 183.34122 372
33.66470 -77.13474 185.96605 338
27.84694 -79.43577 188.55811 336
21.67205 -81.89783 191.34430 333
14.16406 -84.87469 194.16695 315
5.32250 -88.40401 197.14665 312
-9.11578 -94.18385 200.00426 266
75.53088 -61.47919 173.28029 389
72.43267 -62.77832 175.25465 387
69.22240 -64.07919 177.31134 385
66.36633 -65.23000 179.53815 396
45.64212 -73.64629 177.99063 387
41.65001 -75.24391 180.52362 374
37.32091 -77.01382 183.06310 339
31.72599 -79.32085 185.55577 337
25.74256 -81.69619 188.19429 335
19.32212 -84.28436 190.98914 316
10.92138 -87.74725 193.75816 314
1.50050 -91.55157 196.73833 285
74.92552 -62.85878 172.97107 388
71.79749 -64.14990 174.95540 386
68.51258 -65.49075 176.98672 384
65.71916 -66.69318 179.23856 395
54.43911 -71.33015 179.76921 300
40.67605 -77.00671 180.21228 373
35.45990 -79.14400 182.63426 338
29.72032 -81.56678 185.13475 336
23.58349 -84.06736 187.79695 334
16.28380 -87.04923 190.53978 315
7.62304 -90.68606 193.30394 313
-9.24842 -97.60590 195.72478 266
74.33318 -64.21107 172.69749 387
71.13371 -65.57963 174.66090 385
67.85029 -66.93990 176.72366 383
65.02615 -68.14996 178.97038 394
54.91943 -72.37369 179.78270 300
39.15806 -79.00848 179.79678 340
33.56516 -81.32522 182.17143 337
27.64244 -83.85854 184.73376 335
21.39751 -86.43655 187.38245 332
13.12608 -89.91406 190.04538 314
2.26267 -94.54326 192.69562 285
73.73328 -65.59159 172.38332 387
70.50655 -66.96207 174.36008 384
67.14407 -68.38699 176.40952 382
64.36388 -69.60786 178.70352 393
55.39187 -73.44712 179.75737 300
37.35434 -81.16753 179.35736 339
31.61189 -83.58097 181.75514 336
25.53691 -86.21760 184.28329 334
18.47379 -89.22955 186.91495 316
9.84930 -92.91881 189.57571 313
-9.22342 -101.03883 191.38609 266
73.08794 -67.02609 172.05809 386
69.80323 -68.43279 174.02333 383
66.44440 -69.90807 176.10873 381
63.66473 -71.11998 178.43196 392
55.93294 -74.47443 179.75060 300
35.48485 -83.35300 178.85590 337
29.57378 -85.92430 181.30161 335
23.37860 -88.61752 183.87842 333
15.33315 -92.11528 186.39760 314
3.08128 -97.47948 188.64166 285
72.82882 -68.24846 171.82404 316
69.15675 -69.90474 173.71864 382
65.76146 -71.41590 175.83745 393
62.93364 -72.65012 178.15497 391
56.42817 -75.49819 179.78203 300
33.54625 -85.65798 178.32629 336
27.54370 -88.32237 180.79616 334
20.62420 -91.32553 183.30731 316
10.87187 -95.66617 185.66783 286
-9.06228 -104.47836 187.03793 266
73.30510 -69.18368 171.84167 316
68.45918 -71.36135 173.41110 381
65.08263 -72.89655 175.51471 392
62.24302 -74.16951 177.85374 390
56.92313 -76.54640 179.75459 300
31.53315 -87.97278 177.85921 335
25.40899 -90.70576 180.32417 333
17.59657 -94.24302 182.72423 315
3.91219 -100.37722 184.58604 285
73.77634 -70.12280 171.82352 316
67.77199 -72.86221 173.06889 380
64.40701 -74.45176 175.19028 391
61.50182 -75.73781 177.54793 389
57.43114 -77.62175 179.74509 300
29.51451 -90.37859 177.34962 334
22.89311 -93.39678 179.76532 316
11.82271 -98.48691 181.71001 286
-27.03092 -116.22685 180.00246 341
74.28819 -71.06499 171.79735 316
67.09516 -74.39832 172.73470 380
63.70882 -75.96593 174.91693 390
60.80836 -77.32632 177.25673 388
57.80148 -78.70059 179.73349 386
42.91550 -85.60730 179.89458 296
19.25011 -96.60307 178.97459 287
4.88679 -103.26043 180.43887 285
-23.33955 -116.39320 180.40959 284
74.73832 -71.99419 171.80135 316
66.39111 -75.97972 172.39551 379
62.96902 -77.55419 174.57405 389
60.06081 -78.96559 176.96284 387
57.05231 -80.34901 179.42700 385
43.51125 -86.75806 179.85783 296
12.84811 -101.24859 177.66498 286
-17.94559 -115.73024 176.58961 344
-22.52670 -117.91102 180.41803 284
75.26875 -72.91978 171.79936 316
65.66579 -77.54903 172.04010 378
62.29515 -79.13844 174.25150 388
59.29612 -80.59965 176.64679 386
56.02718 -82.13275 179.05801 329
44.06843 -87.84799 179.88785 296
5.95809 -106.14545 176.34755 285
-13.62939 -115.56944 177.19701 345
-21.78847 -119.45129 180.43680 284
75.73972 -73.88383 171.79645 316
65.58774 -78.80247 171.91191 312
61.57852 -80.79754 173.90718 387
58.56034 -82.22149 176.36086 385
53.84171 -84.55319 178.48969 327
44.65311 -89.01949 179.85158 296
-3.82606 -112.61960 174.41965 289
-3.86603 -112.66982 178.68645 289
-21.04676 -120.99794 180.44333 284
76.26042 -74.80177 171.80298 316
66.10432 -79.78369 171.86456 312
60.84908 -82.41576 173.56477 386
56.69564 -84.48939 175.74573 328
51.61328 -86.97137 177.83922 326
45.29329 -90.12616 179.86865 296
27.57498 -98.85969 180.02347 292
6.20826 -109.45335 180.19632 288
76.75432 -75.71536 171.79915 316
66.68450 -80.80753 171.87267 312
59.46651 -84.40956 173.10539 329
54.54376 -86.86760 175.09793 327
49.28484 -89.53516 177.20071 326
44.01397 -92.18032 179.48244 324
28.25604 -100.06444 179.98793 292
6.90206 -110.79334 180.16045 288
77.27309 -76.63457 171.79477 316
67.24001 -81.76714 171.89977 312
57.40031 -86.76257 172.39233 328
52.29956 -89.39037 174.38554 326
46.95346 -92.12776 176.51862 325
41.41788 -94.92814 178.80008 323
28.87360 -101.28548 180.02368 292
7.57699 -112.18507 180.17322 288
77.80674 -77.55792 171.78162 316
67.77632 -82.73508 171.86433 312
56.36814 -88.63734 171.95750 308
49.97527 -91.93736 173.70003 324
44.44852 -94.81913 175.87775 323
38.82112 -97.73415 178.16130 321
29.54738 -102.53439 179.96112 292
8.32787 -113.51450 180.19940 288
78.35030 -78.44772 171.78125 316
68.33215 -83.70434 171.89261 312
56.96933 -89.70426 171.96101 308
47.63089 -94.62775 172.94774 323
41.92026 -97.62273 175.14981 322
36.11935 -100.64562 177.46158 320
22.58251 -107.76344 178.58768 274
78.89835 -79.38853 171.78479 316
68.87772 -84.72004 171.87866 312
57.55798 -90.74413 171.96336 308
45.16695 -97.38722 172.18832 322
39.31994 -100.45993 174.37242 321
29.06484 -105.95193 175.87955 273
11.23528 -115.46871 176.32355 272
79.40155 -80.30493 171.76215 316
69.44498 -85.67828 171.84871 312
58.18379 -91.78648 171.97375 308
45.22707 -98.83236 172.05841 304
36.17025 -103.69309 173.52266 273
17.70754 -113.71271 173.39011 271
-52.86364 -151.88599 164.22981 371
79.97298 -81.18047 171.77124 316
70.06052 -86.65016 171.87825 312
58.79381 -92.80820 171.94852 308
45.84546 -99.90186 172.05602 304
30.88991 -108.13943 172.17162 300
13.32832 -117.79105 172.33476 296
-49.38051 -151.94127 164.76414 373
80.53552 -82.11594 171.74782 316
70.61926 -87.61926 171.85291 312
59.39709 -93.88760 171.93573 308
46.51009 -101.02348 172.04544 304
31.62547 -109.32864 172.21150 300
14.12938 -119.07297 172.30478 296
-45.41581 -152.32497 165.20792 286
81.07245 -82.98264 171.76080 316
71.19487 -88.58707 171.86308 312
59.99931 -94.88346 171.94121 308
47.16386 -102.17461 172.06963 304
32.34166 -110.54891 172.17859 300
14.86210 -120.38154 172.31726 296
-44.42419 -154.00871 165.21161 286
81.64066 -83.90791 171.76538 316
71.79242 -89.51168 171.83946 312
60.63345 -95.93208 171.94408 308
47.84092 -103.24402 172.04254 304
33.01732 -111.73347 172.17395 300
15.66122 -121.74045 172.28488 296
-43.43441 -155.62483 165.24083 286
82.19571 -84.80617 171.74321 316
72.41881 -90.47671 171.82213 312
61.28728 -96.96899 171.92139 308
48.56822 -104.37400 172.06419 304
33.77871 -112.98585 172.16998 300
16.46119 -123.03104 172.30643 296
-42.42340 -157.30022 165.19643 286
82.77738 -85.68394 171.75691 316
72.99207 -91.45110 171.81078 312
61.90932 -97.98751 171.91042 308
49.22326 -105.47639 172.04173 304
34.49994 -114.14474 172.15149 300
17.21472 -124.33392 172.29019 296
-41.41150 -158.94911 165.21852 286
83.37083 -86.57230 171.73430 316
73.64568 -92.39795 171.84216 312
62.55806 -98.98317 171.91470 308
49.93412 -106.55907 172.01321 304
35.25891 -115.34270 172.13197 300
-25.18955 -151.47806 163.19865 371
-40.36678 -160.55452 165.23297 286
83.94396 -87.47535 171.75075 316
74.22646 -93.34638 171.82552 312
63.24619 -100.00424 171.92607 308
50.59976 -107.67871 172.02686 304
36.01721 -116.54892 172.13127 300
-21.50180 -151.39671 163.73007 372
84.52444 -88.34248 171.73799 316
74.87423 -94.28233 171.81216 312
63.91047 -101.02460 171.91254 308
51.30063 -108.74474 172.04510 304
36.78415 -117.71527 172.15794 300
-17.89355 -151.28940 164.28915 373
85.10233 -89.21585 171.72765 316
75.48049 -95.20766 171.83333 312
64.57927 -102.02686 171.89555 308
52.06569 -109.84325 172.03595 304
37.55180 -118.87579 172.11674 300
-14.34810 -151.23967 164.84885 375
85.72288 -90.11341 171.70799 316
76.13792 -96.14085 171.81474 312
65.26473 -103.03827 171.87799 308
52.78368 -110.93978 171.98267 304
38.31421 -120.05127 172.11067 300
-10.90630 -151.15204 165.37830 376
86.31145 -90.96489 171.70863 316
76.78092 -97.07685 171.80453 312
65.90668 -104.05234 171.87250 308
53.46761 -111.98986 171.99826 304
39.09005 -121.21289 172.10754 300
-8.26583 -151.54562 165.74112 291
86.93446 -91.83202 171.69867 316
77.40334 -98.00224 171.77643 312
66.59815 -105.01598 171.90076 308
54.21695 -113.08756 171.97125 304
39.87947 -122.39320 172.09886 300
-7.22145 -152.98982 165.70860 291
87.55704 -92.71220 171.71277 316
78.07698 -98.96737 171.81522 312
67.32176 -106.03664 171.86801 308
54.97276 -114.17098 171.99390 304
40.65149 -123.58291 172.11676 300
-6.11595 -154.40640 165.72978 291
88.17044 -93.55460 171.70451 316
78.72749 -99.86733 171.78970 312
68.01716 -107.03638 171.87689 308
55.69879 -115.22167 171.98988 304
2.94324 -150.41057 162.92702 285
-5.07158 -155.75616 165.75415 291
88.77301 -94.41529 171.69330 316
79.40101 -100.78331 171.79770 312
68.70213 -108.00954 171.88638 308
56.45556 -116.29811 171.97708 304
5.42067 -150.79674 163.26541 382
-4.00013 -157.16412 165.77303 290
89.42857 -95.31112 171.69447 316
80.03931 -101.68111 171.76483 312
69.39587 -109.00878 171.87074 308
57.19516 -117.35993 171.97849 304
8.50028 -150.71130 163.83504 383
-3.01265 -158.62187 165.75342 290
90.06722 -96.13254 171.70937 316
80.71623 -102.60800 171.77689 312
70.13229 -109.97833 171.85150 308
57.99039 -118.40562 171.96097 304
11.54005 -150.58861 164.32741 385
90.71789 -96.98465 171.70052 316
81.40501 -103.54385 171.77757 312
70.84626 -110.95663 171.83858 308
58.72381 -119.47574 171.94893 304
14.52793 -150.52733 164.77202 386
91.33623 -97.84522 171.66759 316
82.10332 -104.44884 171.74387 312
71.60780 -111.93790 171.87054 308
59.55844 -120.49528 171.96109 304
17.48489 -150.47684 165.22455 387
91.98265 -98.66528 171.69835 316
82.80605 -105.35857 171.74406 312
72.34593 -112.88528 171.83661 308
60.32937 -121.55646 171.96655 304
20.33790 -150.39467 165.72308 388
92.63766 -99.54866 171.68816 316
83.49177 -106.23120 171.73694 312
73.03548 -113.87763 171.85793 308
61.08657 -122.58617 171.91481 304
23.05787 -150.37201 166.10176 297
93.31838 -100.37511 171.65829 316
84.17149 -107.13039 171.72969 312
73.79462 -114.84095 171.81737 308
29.54082 -147.60165 163.29953 296
24.08475 -151.62025 166.12543 297
93.99564 -101.19472 171.66286 316
84.87720 -108.02344 171.75713 312
74.57536 -115.75153 171.84949 308
30.34669 -148.92400 163.23154 296
25.05785 -152.86763 166.15102 297
94.64610 -102.01793 171.66985 316
85.61948 -108.89047 171.72060 312
75.32413 -116.72475 171.80424 308
31.51937 -149.98213 163.29741 390
26.06145 -154.12843 166.12749 297
95.31313 -102.85263 171.66345 316
86.29893 -109.78952 171.73642 312
76.05459 -117.68665 171.81958 308
34.19020 -149.86742 163.75995 391
27.09123 -155.35861 166.12177 297
96.02654 -103.68515 171.62207 316
87.05705 -110.69660 171.71768 312
76.82281 -118.62920 171.82578 308
36.81834 -149.78691 164.16385 392
28.10891 -156.54701 166.13626 297
96.68669 -104.50768 171.62407 316
87.77510 -111.54581 171.69302 312
77.63142 -119.54758 171.78516 308
39.44694 -149.70462 164.60623 394
29.16468 -157.78729 166.15186 297
97.37399 -105.31171 171.61142 316
88.51363 -112.40508 171.68292 312
78.41054 -120.51858 171.76607 308
41.95061 -149.62584 165.06104 395
30.20706 -158.97757 166.13058 297
98.08069 -106.12804 171.60725 316
89.24973 -113.31185 171.71092 312
79.19028 -121.43718 171.78868 308
44.52593 -149.52066 165.49977 396
98.78468 -106.92960 171.62711 316
90.01023 -114.18432 171.68118 312
52.16941 -145.16486 163.41776 300
46.99334 -149.38734 165.88008 397
99.50571 -107.76756 171.62811 316
90.71531 -115.02891 171.67812 312
53.00574 -146.30156 163.36433 300
49.20339 -149.48645 166.26212 301
100.19501 -108.55936 171.59677 316
91.48052 -115.86674 171.68268 312
53.87142 -147.52664 163.33029 300
50.20509 -150.56551 166.23631 301
100.93202 -109.34689 171.59406 316
92.24181 -116.75245 171.68091 312
54.70709 -148.70706 163.30165 300
51.22361 -151.61719 166.23183 301
101.66518 -110.14624 171.58514 316
93.02731 -117.60091 171.64795 312
56.49049 -149.05989 163.54395 401
52.27137 -152.69659 166.25607 301
102.39470 -110.94144 171.59116 316
93.78678 -118.41689 171.67313 312
58.74086 -148.95972 163.95457 403
53.27104 -153.76654 166.28255 301
103.11839 -111.72541 171.56998 316
94.57925 -119.25995 171.67708 312
60.99931 -148.87305 164.38799 404
54.27513 -154.82198 166.24011 301
103.86422 -112.51154 171.59566 316
95.35609 -120.11829 171.65637 312
63.22160 -148.79591 164.76482 405
55.29231 -155.90651 166.28278 301
104.57349 -113.28354 171.59499 316
72.19342 -142.56770 163.59857 304
65.40551 -148.70262 165.10533 406
56.36831 -156.92181 166.27705 301
105.33137 -114.07034 171.54950 316
73.03619 -143.64429 163.52551 304
67.62061 -148.65462 165.51439 407
57.39994 -158.01018 166.26030 301
106.06866 -114.81134 171.54532 316
73.90167 -144.67764 163.54155 304
69.71859 -148.57172 165.83269 408
106.86177 -115.58744 171.56836 316
74.73449 -145.77228 163.49683 303
71.80152 -148.47006 166.19272 409
107.61398 -116.33542 171.54961 316
75.61489 -146.77086 163.41614 303
73.21172 -149.02977 166.38016 305
108.38094 -117.12299 171.56175 316
76.44247 -147.83705 163.43599 303
74.21508 -149.98711 166.37399 305
109.11141 -117.84678 171.55679 316
77.93816 -148.27371 163.60637 412
75.24821 -150.88622 166.35742 305
109.89310 -118.59605 171.53140 315
79.94250 -148.18190 163.92596 413
76.23367 -151.83894 166.34126 305
110.67284 -119.37254 171.50127 315
81.90807 -148.12433 164.27913 414
77.24271 -152.76559 166.34837 305
90.79887 -141.01538 163.67523 311
83.83098 -148.05028 164.62915 415
78.27197 -153.67229 166.34523 305
91.67361 -141.90009 163.66557 311
85.76173 -147.95680 164.94804 416
79.31704 -154.55252 166.35229 305
92.52119 -142.85144 163.60844 311
87.68172 -147.89568 165.30624 418
80.30275 -155.46268 166.38321 305
93.41589 -143.73506 163.59898 311
89.55209 -147.84082 165.64433 419
81.38618 -156.40672 166.37598 305
94.29480 -144.64307 163.54474 311
91.39536 -147.74484 165.95309 420
95.18668 -145.52101 163.55919 311
93.17123 -147.67915 166.25873 421
96.09165 -146.42461 163.51988 311
94.69569 -147.92491 166.43025 309
96.97986 -147.28633 163.47290 311
95.68171 -148.75998 166.44713 309
98.63326 -147.33511 163.73976 413
96.65267 -149.57541 166.46548 310
100.50444 -147.17126 164.09531 414
97.68571 -150.34636 166.46240 310
102.31252 -146.97609 164.44255 415
98.68025 -151.19395 166.42958 310
104.14668 -146.80112 164.82077 416
99.64192 -151.96060 166.46713 310
105.87536 -146.63835 165.12489 417
100.66145 -152.76045 166.46236 310
107.65959 -146.46254 165.47041 418
101.66872 -153.57202 166.46352 310
109.35738 -146.26817 165.80367 419
102.68097 -154.31651 166.47305 310
111.09485 -146.12558 166.07185 420
103.68119 -155.11664 166.46422 310
112.81068 -145.95366 166.40419 421
113.87776 -146.49713 166.43942 314
114.84029 -147.21341 166.45877 314
115.82514 -147.91759 166.45963 314
117.16045 -148.13364 166.61494 427
118.77425 -147.99556 166.88596 428
118.01482 -149.02757 169.79190 429
120.32390 -147.93071 167.12769 438
119.59420 -148.86385 170.07750 430
121.77689 -147.95401 167.38033 439
121.18234 -148.74451 170.32147 438
122.82507 -148.51665 167.39655 316
122.56479 -148.83601 170.47470 312
124.14667 -148.72479 167.53099 490
123.54546 -149.51907 170.47049 312
124.74418 -149.87218 167.40102 316
124.49697 -150.22365 170.50549 312
125.74454 -150.51039 167.40318 316
-776.60278 -1914.85571 75.59742 379
-760.99420 -1913.19470 76.34920 498
-762.42017 -1916.34082 111.54463 498
-763.84583 -1919.89172 146.89836 498
-750.52863 -1922.58411 76.18607 463
-754.28052 -1929.09229 111.27061 347
-253.38522 -1475.11499 63.81978 356
-241.23167 -1469.77612 65.04967 468
-242.81917 -1474.44507 89.81677 468
-244.28792 -1478.71448 114.92878 401
-246.21616 -1484.95105 140.36880 356
-232.08749 -1471.55420 65.06546 497
-233.38962 -1475.54883 90.05289 497
-234.70584 -1480.02551 115.08192 498
-235.77843 -1483.42590 140.54846 497
-223.94208 -1478.31750 64.44765 430
-225.46921 -1483.55957 89.58072 430
-12968.76660 -51295.92578 9874.09473 1000
-5203.32227 -67803.57031 6932.70264 1000
292.98343 -987.67200 69.96998 442
293.25406 -992.15131 85.73058 384
298.86493 -983.33771 70.61372 482
299.12851 -985.87878 86.66101 482
299.16360 -989.18610 102.73849 443
299.57541 -992.80377 118.60712 437
305.01517 -981.66888 70.70062 499
305.13956 -984.13306 86.68935 499
305.23688 -986.09906 102.74817 499
305.50122 -988.55103 119.05701 499
305.43008 -991.06757 135.05835 481
305.80630 -993.54889 151.25461 481
311.04160 -982.21680 70.53204 491
311.32227 -984.48181 86.75797 491
311.33701 -986.34094 102.74382 491
311.64630 -988.60358 118.79219 487
311.79807 -990.57062 135.19565 491
311.93854 -992.84399 151.39365 465
317.51630 -985.60681 69.86407 407
317.66147 -988.26422 86.12551 407
318.02902 -990.74048 102.14734 407
318.31119 -994.47577 118.20734 341
352.35767 -1021.42419 420.64499 1000
8679.01953 -14132.82031 -1672.76270 1000
39943.17969 -33470.46484 5326.59180 1000
378.15076 -104.47160 167.66972 313
378.73746 -103.57742 167.65858 313
379.30847 -102.60257 167.66335 313
379.88156 -101.67429 167.67409 313
380.39664 -100.73082 167.67244 313
381.00015 -99.79922 167.68730 315
381.56271 -98.87408 167.71007 315
382.08026 -97.90890 167.69907 315
382.65295 -96.99316 167.69737 315
383.16205 -96.02697 167.71144 315
383.74530 -95.08224 167.69035 315
384.35864 -94.18930 167.67973 435
385.68661 -93.71098 167.41161 434
387.04623 -93.22763 167.17593 433
388.44739 -92.77045 166.91690 432
396.77502 -97.52945 167.68240 309
389.86084 -92.24385 166.64325 431
397.29156 -96.47179 167.68887 309
391.24756 -91.76245 166.34396 430
397.79959 -95.43263 167.73982 309
392.68439 -91.30080 166.10147 429
398.28708 -94.34118 167.74419 309
8052.20850 -4316.63770 -1411.93274 1000
394.12616 -90.80226 165.81117 428
398.78708 -93.32787 167.74434 309
395.63297 -90.28506 165.52477 427
399.30869 -92.25474 167.74089 309
397.07355 -89.74916 165.20703 426
399.77823 -91.18204 167.77171 309
398.56924 -89.22999 164.88814 425
400.29993 -90.11642 167.76198 309
399.45984 -88.37826 164.78348 317
400.80164 -89.05220 167.80043 311
400.00641 -87.34650 164.78505 317
401.67447 -88.18034 167.64920 424
400.48599 -86.32900 164.77333 317
403.21381 -87.66533 167.36203 423
401.02884 -85.27114 164.78951 317
404.77756 -87.08508 167.09859 422
401.49338 -84.20855 164.78029 317
406.38715 -86.56139 166.78999 420
415.76788 -91.03049 167.76001 305
401.99805 -83.13445 164.78537 317
407.83231 -85.90054 166.50514 439
416.24112 -89.88342 167.73692 305
402.47391 -82.05386 164.78799 317
409.19604 -85.24828 166.24207 438
416.68546 -88.69981 167.76196 305
402.93738 -81.01859 164.75963 317
410.61685 -84.52361 165.99600 437
417.15601 -87.53107 167.75630 305
403.36206 -79.94827 164.74332 317
412.03452 -83.84291 165.74200 436
417.64575 -86.40025 167.78241 305
403.85098 -78.88736 164.77930 317
413.48285 -83.18047 165.49869 435
418.06030 -85.17718 167.80775 305
404.29578 -77.79497 164.75154 317
414.93494 -82.44417 165.19800 434
418.50854 -83.99998 167.77939 305
404.74344 -76.69578 164.79161 317
416.38132 -81.72226 164.90810 433
418.97491 -82.80569 167.83995 305
405.13657 -75.61726 164.76074 317
417.11758 -80.67236 164.83972 312
419.40268 -81.64478 167.80974 305
381.95511 -64.75537 171.64598 316
417.56158 -79.53578 164.84782 312
419.79593 -80.47118 167.81580 305
382.32587 -63.81232 171.63231 316
418.05536 -78.35042 164.82047 312
420.93460 -79.55705 167.68362 431
382.63742 -62.85582 171.64030 316
418.49432 -77.20236 164.85927 312
422.42508 -78.81022 167.42105 430
382.97174 -61.89415 171.64317 316
418.96597 -76.01982 164.81815 312
423.97171 -78.05723 167.14412 429
383.31744 -60.93035 171.64323 316
419.39456 -74.85661 164.86087 312
425.56125 -77.23965 166.84450 428
3194.88965 -1147.66968 6.45423 439
3204.07129 -1150.98889 58.60550 386
383.66394 -59.99504 171.64771 316
419.82852 -73.72800 164.83455 312
427.14709 -76.49207 166.54233 427
437.46497 -80.42529 167.80345 301
3199.09717 -1129.05054 6.47884 491
3212.42236 -1134.10779 57.98851 342
383.95435 -59.01239 171.63177 317
420.25775 -72.52411 164.84409 312
428.78278 -75.69320 166.23721 426
437.93399 -79.09052 167.80327 301
38204.16016 -14142.11523 7574.72510 1000
384.27414 -58.07958 171.66124 317
420.65549 -71.33617 164.81715 312
430.37042 -74.93418 165.93184 425
438.27423 -77.82018 167.81721 301
384.59641 -57.10675 171.64815 317
421.03665 -70.18013 164.83919 312
432.02866 -74.13870 165.66727 424
438.71481 -76.48014 167.86911 301
384.89267 -56.13192 171.63922 317
421.46378 -69.01757 164.84758 312
433.69916 -73.31903 165.35159 423
439.06189 -75.19968 167.83830 301
385.15466 -55.18292 171.65385 317
395.71848 -58.79155 171.74603 313
435.41562 -72.47847 165.02425 422
439.47876 -73.87508 167.85783 301
385.44022 -54.19617 171.65199 317
396.01334 -57.77731 171.73769 313
436.23691 -71.39279 164.92336 308
439.78574 -72.56073 167.90761 301
385.75836 -53.21780 171.67743 317
396.34741 -56.71328 171.75713 313
436.70087 -70.11974 164.92949 308
440.15222 -71.25408 167.90181 301
386.02426 -52.25417 171.64745 317
396.64117 -55.69071 171.78445 313
437.03577 -68.82910 164.88426 308
440.53613 -69.92931 167.88754 301
386.29178 -51.29493 171.68625 317
396.91415 -54.65866 171.76193 313
437.41714 -67.54400 164.91731 308
441.96042 -68.98447 167.65765 433
386.57159 -50.28696 171.68265 317
397.19580 -53.61577 171.75008 313
437.80948 -66.20230 164.91972 308
443.56424 -68.03665 167.41209 432
386.84552 -49.33466 171.66168 317
397.49344 -52.58030 171.78624 313
438.14148 -64.93875 164.88731 308
445.13345 -67.06488 167.09241 431
387.09543 -48.35481 171.65573 317
397.75385 -51.53894 171.75368 313
438.52478 -63.67450 164.89084 308
446.75940 -66.07996 166.85652 430
387.32098 -47.35104 171.65199 317
398.04999 -50.47184 171.76086 313
438.85553 -62.37870 164.89255 308
448.37283 -65.09231 166.55635 429
387.56952 -46.35905 171.65193 317
398.30130 -49.43499 171.79918 313
439.20932 -61.06568 164.89967 308
450.02170 -64.14043 166.25487 428
387.79861 -45.37940 171.68129 317
398.55161 -48.38945 171.79645 313
439.56247 -59.73647 164.91656 308
451.68027 -63.11023 165.96661 427
461.47165 -65.81929 167.88245 297
388.05859 -44.38824 171.68225 317
398.81970 -47.30776 171.80025 313
410.99814 -50.63241 171.92683 309
453.41068 -62.15239 165.65593 426
461.72482 -64.37525 167.92313 297
388.28250 -43.42455 171.67552 317
399.01489 -46.24683 171.80594 313
411.26981 -49.49282 171.91971 309
455.11591 -61.10740 165.32477 425
462.01999 -62.94839 167.96655 297
388.50238 -42.41373 171.68663 317
399.25684 -45.19513 171.79317 313
411.48108 -48.35722 171.92123 309
456.80481 -60.04683 165.01675 424
462.34219 -61.47599 167.94679 298
388.67627 -41.45004 171.70454 317
399.48352 -44.15183 171.77292 313
411.76486 -47.23663 171.90993 309
457.33163 -58.71697 164.96632 304
462.59628 -59.98162 167.93309 298
388.92737 -40.47303 171.68445 317
399.73257 -43.10703 171.79321 313
411.98218 -46.08974 171.88490 309
457.66089 -57.30229 165.01233 304
462.84497 -58.55326 167.98331 298
389.10580 -39.46243 171.69446 317
399.93271 -42.04842 171.80832 313
412.21942 -44.98224 171.90013 309
457.95190 -55.88733 164.97014 304
463.08823 -57.08920 167.98071 298
389.28506 -38.44270 171.67215 317
400.15454 -40.95582 171.77272 313
412.43164 -43.80321 171.89563 309
458.24582 -54.47246 164.99393 304
463.53152 -55.63079 167.99944 453
389.50586 -37.47564 171.66861 317
400.33679 -39.93289 171.80373 313
412.69089 -42.67698 171.92528 309
458.54065 -53.00673 165.00343 304
464.78632 -54.42997 167.77011 452
389.67630 -36.46014 171.69077 317
400.54251 -38.87516 171.77376 313
412.88116 -41.57316 171.91850 309
458.80954 -51.63329 165.02271 304
466.13300 -53.16957 167.52325 451
389.84442 -35.46278 171.68936 317
400.74332 -37.80636 171.80144 313
413.10641 -40.40279 171.89986 309
459.08231 -50.20579 165.01399 304
467.43164 -51.97338 167.32573 451
390.05692 -34.45754 171.68492 317
400.91672 -36.72897 171.79713 313
413.27563 -39.28232 171.93758 309
459.39297 -48.77359 164.97762 304
468.78143 -50.69481 167.11998 450
390.18640 -33.47916 171.71892 317
401.14212 -35.65950 171.81171 313
413.50296 -38.14175 171.93494 309
459.59946 -47.32462 165.02237 304
470.13992 -49.45942 166.90105 449
390.36349 -32.49406 171.71460 317
401.30310 -34.59637 171.80373 313
413.67337 -36.95419 171.94363 309
427.83908 -39.70111 172.07434 305
471.51147 -48.12470 166.64699 448
390.51523 -31.45954 171.67850 317
401.47766 -33.50410 171.83083 313
413.83807 -35.85637 171.92081 309
428.04120 -38.45966 172.04625 305
472.91318 -46.83867 166.45958 447
390.68631 -30.47630 171.68927 317
401.61737 -32.43615 171.81248 313
414.04071 -34.70533 171.93686 309
428.23972 -37.26024 172.04735 305
474.29428 -45.56955 166.25099 446
390.81525 -29.46844 171.68860 317
401.75641 -31.37819 171.80811 313
414.21182 -33.52473 171.92943 309
428.40952 -35.98379 172.04922 305
475.69113 -44.22728 166.00095 445
390.92407 -28.46528 171.71419 317
401.94016 -30.30682 171.79440 313
414.37589 -32.39287 171.94664 309
428.58286 -34.79171 172.08533 305
477.17334 -42.92363 165.75494 444
487.94531 -44.74891 168.04271 293
391.05905 -27.46837 171.68011 317
402.08463 -29.19971 171.83414 313
414.54282 -31.22120 171.92580 309
428.75626 -33.52454 172.06453 305
478.54077 -41.60942 165.51489 443
488.06833 -43.08181 168.09685 293
391.21774 -26.43581 171.71504 317
402.17776 -28.13702 171.83456 313
414.65414 -30.07885 171.90974 309
428.93500 -32.28004 172.07462 305
480.02350 -40.20250 165.24350 442
488.19672 -41.49890 168.04178 294
391.31302 -25.41256 171.72112 317
402.35062 -27.09383 171.81635 313
414.79849 -28.91988 171.93025 309
429.10263 -31.04230 172.08972 305
480.75214 -38.75824 165.12244 300
488.31314 -39.88018 168.07384 294
391.41791 -24.43935 171.69421 317
402.44498 -25.96803 171.82423 313
414.96594 -27.79277 171.93660 309
429.23001 -29.82320 172.08652 305
480.96487 -37.16761 165.13719 300
488.43878 -38.28293 168.09979 294
391.52362 -23.39236 171.71234 317
402.56894 -24.90919 171.79706 313
415.06506 -26.62259 171.94476 309
429.34076 -28.59054 172.08733 305
481.17096 -35.67636 165.15094 300
488.52759 -36.67765 168.12552 294
391.63263 -22.42001 171.71036 317
402.70734 -23.81311 171.83249 313
415.17874 -25.48944 171.91512 309
429.52222 -27.30601 172.08725 305
481.28537 -34.10810 165.12184 300
488.59549 -35.01971 168.17532 294
391.76141 -21.37654 171.68713 317
402.80731 -22.73361 171.82893 313
415.32333 -24.32845 171.95100 309
429.60468 -26.09294 172.05055 305
446.20642 -28.13867 172.23410 301
488.72675 -33.43650 168.17471 294
391.85568 -20.36205 171.70776 317
402.88794 -21.66701 171.79341 313
415.39386 -23.15624 171.95753 309
429.75693 -24.85220 172.10179 305
176.49773 -20.79761 -35.43221 301
488.77731 -31.76954 168.19818 294
391.91153 -19.38146 171.69376 317
402.99997 -20.59237 171.83823 313
415.51376 -21.98208 171.95782 309
429.84369 -23.58533 172.07115 305
446.40414 -25.40793 172.25620 301
488.86688 -30.15008 168.23224 294
392.00406 -18.34939 171.70436 317
403.04391 -19.52957 171.84045 313
415.60736 -20.82527 171.92540 309
429.93793 -22.34278 172.05946 305
446.51416 -24.07543 172.25333 301
490.02319 -28.65793 168.02199 456
392.06967 -17.32367 171.68938 317
403.15344 -18.45223 171.81851 313
415.71542 -19.67272 171.95537 309
430.03201 -21.07509 172.05757 305
446.64175 -22.76321 172.21788 301
491.25507 -27.17682 167.80252 455
392.15479 -16.29358 171.71587 317
403.23257 -17.32578 171.82970 313
415.77887 -18.53424 171.91811 309
430.14914 -19.86405 172.05804 305
446.74887 -21.38553 172.25681 301
492.48196 -25.67119 167.58037 454
392.19940 -15.27689 171.71454 317
403.26010 -16.27262 171.83554 313
415.87122 -17.36533 171.95264 309
430.24866 -18.57107 172.10368 305
446.86011 -20.03267 172.24837 301
493.67538 -24.06636 167.44194 453
392.24500 -14.27275 171.73500 317
403.34772 -15.14906 171.81343 313
415.93353 -16.19778 171.92549 309
430.30569 -17.34652 172.06886 305
446.90869 -18.67354 172.24191 301
494.96988 -22.57422 167.17867 452
392.28293 -13.28452 171.72745 317
403.40048 -14.06833 171.83752 313
415.96698 -15.04738 171.94789 309
430.36560 -16.11307 172.10394 305
446.96219 -17.31963 172.27512 301
496.23044 -20.96804 166.94781 452
392.35681 -12.25435 171.72597 317
403.44067 -13.02625 171.81232 313
416.03232 -13.88767 171.96425 309
430.41147 -14.84925 172.08063 305
447.08356 -15.97136 172.26541 301
497.14175 -19.36751 166.84387 483
392.35178 -11.21591 171.73599 317
403.46887 -11.91775 171.84529 313
416.07141 -12.68771 171.94684 309
430.46124 -13.58117 172.05435 305
447.11453 -14.61000 172.27370 301
497.80756 -17.76715 166.69926 482
392.37854 -10.22563 171.71098 317
403.51089 -10.80707 171.83791 313
416.10220 -11.54319 171.96356 309
430.52557 -12.31135 172.07544 305
447.13428 -13.28331 172.25911 301
498.46594 -16.11332 166.62146 482
392.43347 -9.19875 171.73451 317
403.55386 -9.74545 171.83008 313
416.13586 -10.39299 171.92084 309
430.53632 -11.08376 172.07831 305
447.20667 -11.88255 172.23988 301
466.69864 -12.87592 172.42976 297
