# .PCD v.7 - Point Cloud Data file format
VERSION .7
FIELDS x y z rgb
SIZE 4 4 4 4
TYPE F F F U
COUNT 1 1 1 1
WIDTH 1433
HEIGHT 1
VIEWPOINT 4620.197266 -4065.677002 148.817474 -0.034073 -0.136840 0.001118 0.990006
POINTS 1433
DATA ascii
517.14612 980.62140 131.96677 497
516.93158 980.26233 148.87132 498
516.99084 979.59503 166.00882 498
516.86157 979.22266 182.60866 498
516.63940 978.74084 199.56824 499
516.50238 978.27618 216.41460 499
516.45490 977.80853 233.11507 499
516.36121 977.55103 249.94527 499
516.27362 977.15259 266.60715 499
516.10577 976.66656 283.38443 499
515.93091 976.07391 300.29968 498
512.48145 986.47186 182.67911 266
511.94769 985.00476 199.58931 343
511.79926 984.19000 216.36197 343
511.60431 983.45197 233.10822 343
511.36005 982.88507 249.87497 343
511.19159 981.94653 266.94980 343
510.99228 981.28772 283.53708 343
510.75348 980.52771 300.54315 410
1159.27039 3179.15430 107.73341 338
1154.49695 3163.11987 161.92201 353
1152.91992 3230.23682 106.23524 322
1145.25073 3203.37646 161.62343 354
1155.02527 3314.25171 103.67942 280
1138.15649 3252.74072 161.30176 338
1172.84119 3453.90356 98.85110 285
1142.01819 3345.21704 160.02718 283
1164.43604 3506.98975 156.49252 282
-2921.03711 42990.46094 -10569.84570 1000
38.61768 1526.11353 90.62727 453
38.70729 1525.90527 115.96233 453
38.63110 1524.97253 141.44818 453
38.86765 1524.81714 166.49876 399
38.74803 1524.23804 191.44136 399
38.90407 1524.11133 216.82434 399
38.75983 1523.66040 241.79695 399
38.80955 1523.60315 267.18542 330
39.04051 1523.91663 292.16876 330
28.95678 1528.97607 90.42218 321
29.15355 1526.78760 115.70008 321
29.13781 1525.71619 141.40366 392
29.43015 1524.35779 166.54399 392
29.55281 1523.21826 191.52864 392
29.67702 1522.04102 216.66135 449
29.82074 1520.94287 241.93944 449
29.92214 1520.12634 266.83237 449
30.02187 1519.16663 292.06915 449
30.36587 1518.19238 317.17673 449
-413.57376 2042.88806 251.80412 375
-412.48505 2039.06262 286.78162 436
-411.27621 2035.57324 321.51233 436
-428.61633 2046.55750 111.86436 463
-428.21713 2044.84473 146.89200 414
-427.86456 2043.80151 182.13065 349
-3894.08325 11744.99316 -2467.09302 1000
124.78626 148.95667 168.73285 489
123.71375 148.71568 168.63170 278
120.80176 149.34534 168.04779 489
119.76995 148.96227 167.94896 274
117.70856 150.07515 167.42186 316
117.47623 150.40640 170.52696 312
116.88531 149.42056 167.42476 316
116.02974 148.73665 167.40637 316
115.08057 148.27417 167.36853 442
112.07771 150.56927 166.37482 314
111.23849 149.90912 166.39758 314
110.34817 149.25922 166.37791 314
109.53051 148.54189 166.41064 314
108.66837 147.84026 166.37018 314
107.82101 147.17953 166.40640 314
106.93884 146.44986 166.40468 314
105.62413 146.42336 166.18680 423
98.03564 156.03008 166.37808 310
104.09146 146.53264 165.87111 422
97.12267 155.23236 166.38980 310
102.55644 146.69093 165.54123 421
96.23278 154.51884 166.40060 309
100.95346 146.84438 165.25548 420
95.34293 153.71234 166.35339 309
99.34367 147.01881 164.95503 419
94.41924 152.96289 166.39146 309
97.76792 147.20540 164.63568 418
93.56699 152.20493 166.35210 309
96.16079 147.30336 164.33253 427
92.66167 151.37769 166.39134 309
94.58709 147.39104 164.02351 426
91.79648 150.59183 166.36235 309
93.03504 147.44978 163.72992 425
90.94718 149.84151 166.34616 309
91.40601 147.51813 163.40302 424
90.08018 149.03897 166.38268 309
90.61934 146.63890 163.39516 307
89.20764 148.22052 166.35002 309
89.84048 145.75574 163.47514 307
88.16318 147.60474 166.29694 423
89.06858 144.83516 163.50346 307
86.48645 147.68602 165.97688 422
88.35050 143.96967 163.49207 307
84.80759 147.73599 165.65312 421
76.37446 156.84799 166.30101 305
87.61044 143.03331 163.53293 307
83.08076 147.80695 165.33376 420
75.46409 155.98129 166.26086 305
86.87487 142.12901 163.58983 307
81.37434 147.90326 165.03847 419
74.56293 155.03381 166.29358 305
86.15143 141.20148 163.59749 307
79.60109 147.98090 164.72394 418
73.65990 154.14818 166.26018 305
105.94637 119.20317 171.49344 315
77.86397 148.00917 164.38098 417
72.75101 153.26727 166.28329 305
105.26520 118.49635 171.49077 316
76.05760 148.08777 164.04153 415
71.86917 152.32663 166.24875 305
104.63743 117.74968 171.53522 316
74.20029 148.14433 163.68446 414
70.99845 151.37885 166.27498 305
103.95894 116.98438 171.51105 316
72.36923 148.26160 163.32576 413
70.11823 150.49875 166.28505 305
103.36102 116.25920 171.55113 316
71.50925 147.32047 163.35289 303
69.22990 149.54910 166.24826 305
102.72358 115.46661 171.52638 316
70.81689 146.27776 163.38753 303
68.36748 148.59729 166.26758 305
102.08709 114.74613 171.54643 316
70.05577 145.25464 163.40654 303
66.67769 148.44643 165.98503 411
101.46423 113.97662 171.56197 316
69.31049 144.20599 163.45807 304
64.71416 148.55731 165.65251 409
100.80127 113.22358 171.55574 316
68.60555 143.16605 163.47136 304
62.73808 148.64139 165.26683 408
52.92968 157.72224 166.14619 301
100.21050 112.45132 171.54854 316
91.77681 120.15019 171.61403 312
60.71058 148.67175 164.91646 407
52.02513 156.66512 166.19455 301
99.60446 111.64882 171.55853 316
91.11604 119.35105 171.65198 312
58.65857 148.77878 164.51945 406
51.14466 155.60022 166.18468 301
98.99978 110.86417 171.58948 316
90.46761 118.51658 171.61806 312
56.60353 148.86450 164.16287 405
50.25905 154.53116 166.17401 301
98.35503 110.12743 171.57869 316
89.81609 117.68865 171.65749 312
54.50423 148.92639 163.77109 404
49.38989 153.43929 166.20166 301
97.78163 109.32004 171.58472 316
89.19946 116.83360 171.65150 312
52.33696 148.98933 163.33528 403
48.51095 152.36296 166.14160 301
97.16419 108.53802 171.60295 316
88.53661 115.99460 171.65756 312
51.12404 148.31310 163.22951 300
47.60001 151.29471 166.15465 301
96.59522 107.71508 171.56831 316
87.93012 115.16022 171.66718 312
50.40737 147.09637 163.26445 300
46.76089 150.27289 166.19099 301
96.01414 106.92248 171.60320 316
87.30117 114.26882 171.65321 312
49.72748 145.97096 163.35132 300
45.76185 149.24806 166.10330 400
95.42155 106.13001 171.61258 316
86.66663 113.45724 171.68724 312
76.69714 121.70877 171.73163 308
43.44790 149.34596 165.71729 398
94.86795 105.31848 171.60403 316
86.02448 112.56059 171.67665 312
76.05444 120.76778 171.75732 308
41.12391 149.45558 165.29137 397
94.27328 104.55376 171.59338 316
85.42461 111.69400 171.70277 312
75.39293 119.86729 171.75464 308
38.81535 149.54536 164.87158 396
27.32699 158.82207 166.06850 297
93.73405 103.71320 171.61789 316
84.81952 110.83438 171.66719 312
74.70330 118.94155 171.75722 308
36.37158 149.64049 164.46349 395
26.42317 157.65501 166.06676 297
93.16544 102.89856 171.62334 316
84.24780 109.97133 171.70233 312
74.05254 117.98418 171.78459 308
33.95922 149.73097 164.00603 394
25.51460 156.40637 166.00890 297
92.59438 102.09887 171.61752 316
83.61311 109.12003 171.69420 312
73.42069 117.04173 171.78571 308
31.45319 149.83890 163.57811 392
24.59941 155.17667 166.07625 297
92.03045 101.26996 171.62965 316
83.04070 108.21638 171.71646 312
72.82146 116.10365 171.80258 308
28.96206 149.94832 163.13254 391
23.71420 153.98112 166.04176 297
91.50059 100.41756 171.61879 316
82.44556 107.33485 171.71623 312
72.15938 115.17633 171.77403 308
28.15567 148.69724 163.18529 296
22.83114 152.68282 166.05602 297
90.96816 99.61700 171.62019 316
81.89765 106.46429 171.73618 312
71.52450 114.23956 171.79407 308
59.69136 123.12476 171.87532 304
21.99610 151.49194 166.06969 297
90.42255 98.78936 171.63312 316
81.29327 105.55511 171.70566 312
70.89896 113.26250 171.80284 308
59.01646 122.09638 171.90587 304
21.13236 150.19290 166.06851 388
89.92503 97.95641 171.66054 316
80.73461 104.66610 171.72577 312
70.29633 112.29579 171.80853 308
58.37167 121.05295 171.90742 304
18.43129 150.31865 165.62509 390
89.38902 97.09511 171.63895 316
80.17194 103.77255 171.74274 312
69.68643 111.35403 171.82191 308
57.69558 120.01080 171.91245 304
15.71682 150.33939 165.12917 388
88.87467 96.24905 171.63283 316
79.58227 102.87370 171.73534 312
69.07183 110.37909 171.82172 308
57.05626 118.99126 171.89189 304
13.01207 150.41359 164.65860 387
88.35710 95.41834 171.66435 316
79.06519 101.94649 171.71902 312
68.52301 109.37169 171.80487 308
56.38253 117.90990 171.91975 304
10.17249 150.52933 164.21838 386
87.82339 94.56086 171.64296 316
78.50577 101.05869 171.73318 312
67.91177 108.41586 171.80154 308
55.79025 116.87439 171.91560 304
7.33959 150.57927 163.72751 385
-4.20985 158.60991 165.63641 290
87.32921 93.69995 171.64624 316
77.94813 100.12611 171.73895 312
67.32347 107.45911 171.84485 308
55.11735 115.81660 171.92963 304
4.39903 150.64198 163.19281 383
-5.10289 157.20624 165.63614 290
86.81142 92.82267 171.66994 316
77.42766 99.23984 171.75517 312
66.74645 106.45486 171.81760 308
54.48510 114.74534 171.94548 304
1.99653 150.31877 162.83266 285
-6.06062 155.75003 165.62820 291
-12575.22266 8673.63281 2773.63379 1000
86.34330 91.98815 171.67918 316
76.91166 98.28008 171.77101 312
66.18913 105.49109 171.86775 308
53.86514 113.71284 171.94225 304
39.66047 123.19312 172.04318 300
-6.93466 154.40147 165.63892 291
85.84439 91.11005 171.66304 316
76.38120 97.35398 171.76215 312
65.60296 104.45425 171.86159 308
53.29137 112.63847 171.95677 304
38.95835 122.05688 172.07634 300
-7.87227 152.98387 165.67929 291
85.36616 90.27324 171.70169 316
75.83117 96.44421 171.75729 312
65.07390 103.48373 171.85330 308
52.64153 111.53589 171.95657 304
38.31021 120.91312 172.07806 300
-8.75336 151.58221 165.65051 291
84.89049 89.37277 171.67274 316
75.32498 95.52511 171.77715 312
64.49497 102.48898 171.86514 308
52.08646 110.44177 171.96053 304
37.65854 119.69904 172.09486 300
-11.07541 150.99092 165.30899 377
84.43700 88.51420 171.69406 316
74.83472 94.58092 171.75246 312
63.97395 101.50610 171.85831 308
51.44731 109.40321 171.93855 304
37.03671 118.53078 172.05948 300
-14.34338 151.13606 164.80804 376
83.95393 87.63720 171.71175 316
74.31398 93.62443 171.76495 312
63.42411 100.46056 171.85832 308
50.90986 108.29288 171.94221 304
36.35386 117.38281 172.10155 300
-17.71683 151.21716 164.26242 375
83.48054 86.76967 171.70955 316
73.83897 92.72838 171.80391 312
62.87046 99.46512 171.86098 308
50.31548 107.21761 171.98894 304
35.76411 116.16846 172.06912 300
-21.12839 151.24358 163.72586 373
83.02000 85.85773 171.68575 316
73.34444 91.73976 171.78748 312
62.31838 98.43620 171.87405 308
49.72967 106.11765 172.00502 304
35.11658 114.98661 172.13043 300
-24.63298 151.39334 163.20624 372
-40.04764 160.72906 165.12392 286
82.57171 84.97701 171.72464 316
72.85354 90.82482 171.77071 312
61.81739 97.44061 171.86327 308
49.14851 105.04438 171.99321 304
34.50237 113.83231 172.11911 300
17.31823 124.10783 172.23326 296
-40.92581 159.09677 165.18596 286
82.13552 84.08897 171.69969 316
72.39484 89.86069 171.81544 312
61.30056 96.41741 171.90233 308
48.60775 103.91918 171.99554 304
33.88979 112.65793 172.12979 300
16.63427 122.83695 172.26152 296
-41.78811 157.45026 165.14020 286
81.68179 83.21322 171.70641 316
71.89653 88.89495 171.77528 312
60.78090 95.39864 171.87894 308
48.03562 102.84150 172.00954 304
33.31130 111.44818 172.10870 300
15.95436 121.51389 172.27023 296
-42.69486 155.75536 165.14783 286
81.26875 82.29072 171.71407 316
71.43340 87.97988 171.80493 312
60.27490 94.35594 171.89966 308
47.51751 101.75045 171.98050 304
32.69970 110.22659 172.11011 300
15.31243 120.20644 172.23155 296
-43.59971 154.08345 165.13750 286
80.82665 81.43723 171.74724 316
70.97641 87.01845 171.82381 312
59.78150 93.37173 171.91705 308
46.95882 100.61823 171.99300 304
32.12834 109.04475 172.12973 300
14.69852 118.89162 172.23723 296
-44.43707 152.43138 165.19463 286
80.40738 80.51498 171.70813 316
70.50815 86.03179 171.80888 312
59.30057 92.30418 171.91826 308
46.39676 99.51382 172.03781 304
31.51253 107.85057 172.13261 300
14.07958 117.57017 172.30385 296
-47.37728 151.89552 164.78601 364
79.95564 79.60524 171.72441 316
70.04604 85.08549 171.80000 312
58.79598 91.28442 171.92038 308
45.89519 98.41651 172.02672 304
35.53455 104.08302 173.17459 272
15.82155 114.99387 172.80252 270
-51.22671 151.90501 164.18787 373
79.58213 78.69135 171.75551 316
69.61159 84.08235 171.83389 312
58.32924 90.26006 171.90668 308
45.38013 97.27797 172.01254 304
39.18329 100.60157 174.12047 320
27.54639 106.94651 175.33461 271
-55.08338 151.74878 163.66704 371
79.14479 77.78066 171.72180 316
69.15604 83.15211 171.81972 312
57.85298 89.21550 171.89171 308
47.60783 94.69772 172.66278 322
41.75706 97.80217 174.85864 321
35.83789 100.97284 177.14238 319
20.28374 109.25069 177.90002 272
78.77477 76.90881 171.75378 316
68.72700 82.16068 171.83063 312
57.35609 88.18075 171.91151 308
49.95125 92.07514 173.38464 323
44.26687 95.03585 175.53896 322
38.50572 98.08253 177.80496 320
30.58500 102.24195 179.92143 292
9.49083 113.42226 180.13174 288
78.35724 75.98362 171.76950 316
68.32315 81.17365 171.85069 312
57.45224 86.81939 172.04262 326
52.20532 89.55490 174.08009 324
46.70613 92.41389 176.17267 323
41.09539 95.32501 178.44878 321
30.04669 101.02713 179.94493 292
8.90418 112.07539 180.08348 288
77.97895 75.06860 171.73380 316
67.88423 80.19100 171.84882 312
59.47084 84.47827 172.73380 328
54.41773 87.11870 174.72873 326
49.09775 89.84460 176.81973 324
43.61801 92.59553 179.11778 323
29.50121 99.83275 179.93747 292
8.30238 110.69896 180.08562 288
77.58314 74.11460 171.76257 316
67.48297 79.20388 171.85226 312
60.98709 82.50401 173.19829 385
56.58596 84.72427 175.33310 327
51.39378 87.33026 177.43689 325
46.04438 90.02665 179.67976 324
29.02994 98.62138 179.96365 292
7.70597 109.31704 180.12483 288
77.18346 73.23896 171.73599 316
67.07575 78.21558 171.82466 312
61.67882 80.93058 173.54732 386
58.62276 82.43472 175.95377 384
53.61782 84.89647 178.06482 326
46.12833 88.62109 179.82516 296
28.46461 97.36746 179.93341 292
0.80892 111.13237 179.06499 290
-19.25821 121.03405 180.34085 284
76.81467 72.30896 171.73804 316
66.66866 77.22990 171.83279 312
62.43912 79.32763 173.81413 387
59.40350 80.79103 176.27222 385
55.78153 82.57465 178.61282 327
45.72026 87.52136 179.80579 296
4.24477 107.41106 175.79655 283
-8.30165 113.89191 177.67924 289
-19.87147 119.55470 180.36055 284
76.43696 71.35988 171.75671 316
66.64894 76.07574 171.96921 378
63.11173 77.76266 174.10905 388
60.15928 79.19603 176.52615 386
57.08537 80.70473 179.00648 384
45.22516 86.38943 179.81366 296
10.43273 103.11340 176.82961 285
-15.37591 115.48589 176.60083 345
-20.52778 118.03197 180.39442 284
76.09419 70.42432 171.76576 316
67.36826 74.55769 172.24867 379
63.80618 76.24514 174.42537 389
60.89078 77.63250 176.83014 387
57.84232 79.07197 179.29811 385
44.78823 85.27522 179.84387 296
17.02035 98.41119 178.14954 286
1.20182 105.88057 179.47421 266
-21.17862 116.46852 180.32500 284
75.73167 69.48100 171.79263 316
68.08156 73.07116 172.56355 380
64.53770 74.72260 174.70061 390
61.62008 76.09798 177.06441 388
58.62554 77.45998 179.51149 386
44.36159 84.11226 179.80553 296
21.99054 94.57124 179.11896 315
9.00871 100.58944 180.80771 285
-23.97432 115.93934 180.01465 342
75.38296 68.56586 171.77437 316
68.76867 71.61598 172.88089 380
65.22462 73.21555 174.96626 378
62.31006 74.53953 177.32635 389
58.96127 76.09871 179.72072 300
31.11646 88.87872 177.23946 334
24.78628 91.76039 179.77388 332
15.64284 95.94124 181.99916 286
-0.14669 103.17705 183.57603 266
75.04125 67.62578 171.79929 316
69.47191 70.15176 173.14952 381
66.00311 71.73402 175.27481 379
63.05748 73.04073 177.58643 390
58.58112 75.03756 179.72063 300
33.04899 86.58528 177.72606 335
26.92720 89.34008 180.24910 333
19.52815 92.62551 182.69855 315
7.71646 97.97677 184.83307 285
74.68644 66.69575 171.75685 316
70.12359 68.71995 173.44928 382
66.71643 70.23633 175.56229 380
63.73123 71.55235 177.86198 391
58.21932 74.00029 179.72499 300
35.02341 84.29407 178.22549 336
29.00029 86.96503 180.67662 334
22.52090 89.80911 183.27118 316
14.04577 93.57500 185.81219 314
-1.25342 100.34832 187.72443 266
74.35330 65.74445 171.80640 316
70.83846 67.28893 173.71593 383
67.43428 68.76702 175.81265 381
64.42900 70.09177 178.12199 392
57.84300 72.94492 179.72845 300
36.87934 82.10053 178.67714 337
30.99269 84.67043 181.13782 335
24.79208 87.35197 183.74673 333
17.15294 90.68962 186.33081 315
6.48866 95.33643 188.75288 285
74.74663 64.50773 171.99544 387
71.47920 65.88322 174.01440 384
68.11559 67.31963 176.07425 382
65.13387 68.63062 178.34448 393
57.45474 71.91404 179.71623 300
38.71964 79.94753 179.12032 339
32.98048 82.40721 181.58093 336
26.89996 84.99059 184.15266 334
20.15491 87.91622 186.79642 316
11.59277 91.58067 189.49478 313
-2.23060 97.52306 191.86163 266
75.38306 63.17521 172.29202 387
72.14582 64.49026 174.27464 385
68.83535 65.91192 176.33733 383
65.80574 67.20163 178.63000 394
57.11172 70.85509 179.72868 300
40.50400 77.86944 179.60521 340
34.91140 80.21766 182.01997 337
28.99652 82.74218 184.54100 335
22.71749 85.39043 187.25020 332
14.79722 88.70770 189.96059 314
5.34716 92.68382 192.73685 285
76.00264 61.82281 172.53076 388
72.79177 63.13712 174.55377 386
69.50669 64.50274 176.59744 384
66.49702 65.76091 178.85812 395
56.76181 69.82236 179.71738 300
41.65137 76.07310 179.85568 373
36.80877 78.09595 182.40034 338
30.96512 80.50326 184.90559 336
24.86236 83.04941 187.58759 334
17.86921 85.89606 190.40959 316
9.19373 89.52963 193.22772 313
-3.04932 94.63136 196.03049 267
76.61399 60.53542 172.82732 389
73.44946 61.80130 174.81181 387
70.18358 63.15274 176.85051 385
67.14697 64.35556 179.08774 396
56.37230 68.77045 179.73436 300
42.56596 74.40958 180.14259 374
38.26974 76.10770 182.74677 371
32.97195 78.29874 185.34453 337
26.92074 80.72531 187.97112 335
20.57731 83.34132 190.76393 332
12.40114 86.68013 193.59941 314
3.29527 90.34382 196.61324 312
-20.98480 100.28715 198.86095 265
76.89511 59.36268 172.98935 419
74.12533 60.48600 175.05647 388
70.89310 61.77943 177.10997 386
67.81351 62.97326 179.29617 397
56.04964 67.68013 179.75092 300
43.51606 72.72993 180.42589 386
39.22153 74.42008 182.96387 372
34.80994 76.21699 185.69243 370
29.03242 78.49866 188.34679 336
22.76907 80.97601 191.13429 333
15.54737 83.87557 193.96457 315
6.73717 87.44028 196.98785 313
-4.14626 91.75838 200.12642 284
77.18143 58.17751 173.16643 420
74.55579 59.23148 175.29012 418
71.55487 60.41530 177.38586 387
68.45081 61.62652 179.55252 398
47.97316 69.65649 178.07207 389
44.25796 71.15799 180.60735 387
40.20593 72.69938 183.24010 373
35.83575 74.47059 185.93178 371
31.02352 76.32198 188.68069 337
24.93154 78.75128 191.42863 334
18.52818 81.26719 194.31696 332
10.06335 84.60372 197.28989 314
0.81151 88.20091 200.51274 311
77.46910 57.03573 173.32133 421
74.83987 58.03753 175.41551 419
72.14776 59.08565 177.57970 416
68.54219 60.50136 179.61485 304
48.67343 68.14485 178.31233 390
45.00742 69.57414 180.83330 387
41.17684 71.07030 183.44034 374
36.84578 72.69815 186.14201 372
32.33967 74.45212 188.92670 369
27.03415 76.54236 191.72255 336
20.72399 78.97089 194.63260 333
13.24091 81.82724 197.63608 315
4.30557 85.28639 200.80457 313
-5.35311 89.05487 204.21115 310
77.75661 55.91603 173.48837 422
75.16276 56.89364 175.57411 419
72.49754 57.88496 177.75606 417
68.23069 59.51972 179.60632 304
49.36217 66.68296 178.55688 391
45.74714 68.00993 181.06108 388
41.99089 69.44512 183.68990 386
37.82335 71.05479 186.32890 373
33.36801 72.69258 189.13069 370
28.74611 74.50270 191.99049 368
22.93861 76.70785 194.89867 334
16.33598 79.16720 197.94951 316
7.70816 82.45174 201.05759 314
-1.69687 86.03072 204.43681 311
78.04815 54.75235 173.65564 422
75.48098 55.70880 175.76221 420
72.78578 56.70648 177.92737 418
67.93631 58.53065 179.61726 304
50.05957 65.18227 178.74261 392
46.47126 66.51888 181.28653 389
42.78624 67.89663 183.87250 387
38.80707 69.37886 186.54463 374
34.44001 70.98707 189.29301 371
29.86078 72.67886 192.15375 368
25.07515 74.48579 195.16209 335
18.72921 76.84814 198.21062 333
10.92756 79.73644 201.32710 315
1.90602 83.10707 204.66621 312
78.35984 53.62209 173.82056 423
75.78205 54.57236 175.92578 421
73.09924 55.54192 178.06926 418
67.65092 57.52600 179.61101 304
50.75367 63.72588 178.95758 392
47.20615 64.98624 181.48055 390
43.52774 66.32729 184.08189 388
39.73806 67.72992 186.78986 385
35.46620 69.28466 189.51180 372
30.96259 70.96707 192.32599 369
26.24535 72.64254 195.34352 367
20.91143 74.57215 198.44162 334
14.10575 77.05741 201.54930 316
5.29871 80.26858 204.85223 313
78.65338 52.53272 173.99658 424
76.08641 53.44696 176.07477 421
73.41431 54.36847 178.18379 419
67.41344 56.55541 179.63538 304
51.48195 62.26844 179.20641 393
47.96314 63.53351 181.66185 391
44.32671 64.83136 184.28618 389
40.51973 66.17471 186.94656 386
36.47963 67.64203 189.71750 373
32.01393 69.24786 192.50537 370
27.34577 70.87103 195.49908 368
22.48835 72.65337 198.57298 365
16.67887 74.72488 201.77066 332
8.64343 77.58417 205.05458 315
78.91151 51.41748 174.11319 426
76.36934 52.30579 176.22572 422
73.74619 53.22336 178.34061 420
67.10630 55.58040 179.61584 304
52.14003 60.82199 179.40477 394
48.66089 62.03938 181.87775 392
45.03999 63.29837 184.44809 389
41.32623 64.59129 187.12517 387
37.44444 65.98320 189.89894 374
33.04707 67.50674 192.67584 371
28.48246 69.12608 195.65848 369
23.61828 70.79932 198.70293 366
18.60155 72.57731 201.91605 363
11.84916 74.95026 205.20782 316
79.20429 50.32685 174.29865 427
76.68226 51.19301 176.36856 423
74.05040 52.09288 178.50633 421
66.85644 54.55968 179.65871 304
52.84983 59.37368 179.62256 395
49.38226 60.60376 182.08968 393
45.80744 61.81335 184.64635 390
42.13980 63.08078 187.29718 388
38.31939 64.40437 190.03537 385
34.09269 65.83779 192.87769 372
29.57734 67.41460 195.77730 370
24.79882 69.04132 198.82826 367
19.85620 70.73183 202.01031 364
14.60473 72.57697 205.38539 332
79.49661 49.23359 174.44542 427
76.95077 50.09434 176.50006 424
74.38345 50.95035 178.61475 421
66.60789 53.58812 179.66058 304
53.50879 57.98005 179.82997 396
50.09258 59.16589 182.25266 394
46.55991 60.32475 184.82173 391
42.90665 61.59140 187.46205 389
39.13635 62.84681 190.17862 386
35.12881 64.17621 193.03644 373
30.65310 65.70988 195.93205 371
25.94758 67.26215 198.94612 368
21.04101 68.91679 202.17575 365
15.94963 70.68560 205.46042 363
79.75800 48.12148 174.58423 428
77.27688 48.96001 176.66539 424
74.67852 49.83350 178.78535 422
66.34054 52.59611 179.62695 304
54.13920 56.58288 179.99731 397
50.80781 57.73887 182.49396 394
47.29130 58.86107 185.00893 392
43.67724 60.08873 187.62985 390
39.91244 61.30823 190.36223 387
36.04745 62.56717 193.18652 385
31.69071 64.05167 196.08617 371
27.06322 65.57981 199.07961 369
22.24952 67.12405 202.22766 366
17.19194 68.80727 205.57851 363
80.02075 47.08062 174.73946 429
77.57487 47.84604 176.76602 425
74.98897 48.69923 178.90761 423
66.07101 51.55852 179.63763 304
54.79972 55.24191 180.19586 410
51.48196 56.33194 182.67735 395
47.98051 57.43964 185.17648 393
44.40978 58.56864 187.82816 390
40.72779 59.77085 190.52908 388
36.84536 61.06122 193.32639 385
32.75172 62.35252 196.23758 372
28.18763 63.86231 199.21649 370
23.42400 65.36770 202.35619 367
18.40340 67.00697 205.65193 364
80.32978 45.97001 174.85458 429
77.86864 46.79115 176.93246 426
75.29797 47.57891 179.03174 423
65.86160 50.58049 179.65723 304
55.25660 53.94464 180.33475 411
52.13482 54.93721 182.83652 408
48.72493 55.97871 185.37772 394
45.19455 57.12884 187.94576 391
41.52329 58.31905 190.67714 389
37.69667 59.52187 193.46194 386
33.75226 60.76689 196.37312 384
29.26831 62.18973 199.37337 371
24.58127 63.65172 202.44632 368
19.63619 65.23237 205.71384 365
80.58602 44.91655 174.99646 430
78.14481 45.67281 177.07823 426
75.61209 46.48777 179.14427 424
58.73822 51.72344 178.10399 421
55.71371 52.62708 180.52621 412
52.61953 53.59425 182.98363 409
49.38531 54.58546 185.52293 407
45.92655 55.69339 188.15416 392
42.29524 56.81973 190.79680 390
38.50406 57.95818 193.62447 387
34.62197 59.18007 196.47952 385
30.35815 60.49814 199.47942 372
25.68474 61.94941 202.54651 369
20.85251 63.48928 205.77777 366
80.87144 43.88932 175.13153 431
78.42289 44.62268 177.19595 427
75.91772 45.35891 179.30420 425
59.14652 50.47034 178.24413 422
56.18638 51.34766 180.68196 412
53.09363 52.28753 183.13206 410
49.91777 53.25263 185.68344 408
46.61516 54.28064 188.29872 405
43.05491 55.33548 190.98146 391
39.31081 56.49864 193.71806 388
35.43200 57.67565 196.60599 386
31.44346 58.87457 199.57034 372
26.84494 60.26191 202.65442 370
22.03110 61.71476 205.84903 367
81.16042 42.81867 175.27687 431
78.73142 43.53304 177.31992 428
76.22955 44.29518 179.43301 425
59.54366 49.25167 178.40358 422
56.68499 50.10272 180.82449 413
53.61462 50.98206 183.26974 411
50.42348 51.91653 185.78625 408
47.15361 52.88381 188.39850 406
43.77289 53.93241 191.10779 403
40.14425 55.00753 193.88182 389
36.30808 56.11144 196.73654 386
32.34321 57.33830 199.66747 384
27.94396 58.63227 202.77518 371
23.20536 60.02220 205.96054 368
81.42560 41.75894 175.42400 432
79.03825 42.45422 177.43867 428
76.55280 43.18435 179.55162 426
59.92451 48.02491 178.50580 423
57.09504 48.82399 180.96902 421
54.06564 49.71329 183.38348 411
50.92022 50.63785 185.92789 409
47.69314 51.54684 188.50333 407
44.37860 52.53488 191.19978 404
40.89810 53.54433 193.99809 402
37.14034 54.61978 196.81938 387
33.17322 55.78164 199.75725 385
29.03532 56.98144 202.84830 372
24.33518 58.34797 206.02913 369
81.70087 40.75674 175.54070 433
79.31629 41.39615 177.56059 429
76.38763 42.24263 179.55620 308
60.30264 46.81075 178.68727 424
57.49705 47.60046 181.07063 421
54.55480 48.45484 183.52342 412
51.46490 49.33517 186.05736 410
48.20987 50.22258 188.62495 407
44.92944 51.15339 191.34058 405
41.48716 52.13514 194.09511 402
37.93358 53.16946 196.96437 400
34.04729 54.22792 199.87605 385
30.01423 55.36972 202.93390 383
25.47500 56.66455 206.11548 370
81.99640 39.71053 175.65312 433
79.60747 40.37004 177.70740 430
76.21042 41.30270 179.55359 308
60.67863 45.62342 178.79886 424
57.89458 46.36538 181.19734 422
55.01558 47.17903 183.69206 420
51.97938 48.03503 186.19086 410
48.77797 48.89280 188.75331 408
45.43877 49.84015 191.42509 406
42.03138 50.76701 194.18884 403
38.52032 51.75209 197.02463 400
34.89106 52.74598 199.98228 398
30.88320 53.86534 203.00064 384
26.61240 55.01360 206.18547 371
-187.18958 114.24603 202.33965 495
82.25876 38.69158 175.78072 434
79.92027 39.29440 177.84625 430
76.03754 40.35542 179.58067 308
61.04914 44.42925 178.91875 425
58.29585 45.18060 181.31940 423
55.41673 45.93338 183.79248 421
52.44894 46.71657 186.32756 411
49.29906 47.61791 188.87801 409
45.98154 48.48817 191.54047 406
42.62031 49.38008 194.28232 404
39.10264 50.34796 197.09642 401
35.51047 51.31520 200.03488 399
31.76764 52.30243 203.09113 396
27.65476 53.44267 206.24944 382
22.33336 54.90836 209.46582 263
82.54060 37.64558 175.90739 435
80.21185 38.27966 177.95709 431
75.86771 39.42036 179.59045 308
61.42604 43.20719 179.06392 426
58.65464 43.95634 181.45943 423
55.84260 44.70761 183.89923 421
52.93666 45.47150 186.42322 419
49.78958 46.28275 189.00946 409
46.53320 47.16784 191.66434 407
43.21580 48.02131 194.35185 404
39.74196 48.92799 197.19025 402
36.12659 49.87295 200.11086 399
32.43911 50.86094 203.12560 397
28.52963 51.89169 206.29811 394
23.84979 53.12847 209.53186 340
82.82337 36.64825 176.05571 435
80.50523 37.23016 178.08855 432
75.70089 38.46732 179.58948 308
61.82370 42.06394 179.19756 426
59.04993 42.77050 181.56827 424
56.27171 43.48314 184.01283 422
53.39042 44.19750 186.52800 420
50.30466 45.01968 189.12845 410
47.09674 45.81255 191.73317 408
43.76188 46.67817 194.44807 405
40.31754 47.56392 197.26576 403
36.77546 48.48983 200.17796 400
33.04624 49.46484 203.22867 397
29.24057 50.43584 206.34938 395
25.05338 51.52836 209.60097 355
83.09474 35.62462 176.15234 436
80.78700 36.23688 178.19847 432
75.54187 37.54434 179.58989 308
62.17679 40.88430 179.32945 427
59.47640 41.54375 181.69627 425
56.65324 42.27497 184.15277 423
53.77980 42.99311 186.64476 420
50.84101 43.69902 189.21625 411
47.61318 44.53902 191.84937 408
44.33647 45.37601 194.56538 406
40.90144 46.22770 197.35942 403
37.34232 47.08649 200.27898 401
33.71311 48.00579 203.29532 398
29.89584 48.95100 206.37296 395
25.81271 50.01447 209.62073 356
-186.79599 103.30731 209.53244 485
83.35438 34.65089 176.29961 437
81.05554 35.20207 178.30484 434
75.38381 36.59708 179.59361 308
62.56934 39.72192 179.42870 428
59.82523 40.36227 181.80382 426
57.07246 41.07091 184.27081 423
54.22817 41.75159 186.77435 421
51.30367 42.47330 189.33862 418
48.16578 43.21227 191.93369 409
44.88944 44.02296 194.66496 407
41.49473 44.88766 197.42549 404
37.97164 45.73457 200.34578 401
34.35670 46.58831 203.32481 399
30.57376 47.50903 206.45255 396
26.52929 48.51616 209.62799 356
-186.81367 100.62270 209.43251 484
83.62820 33.66088 176.38824 437
81.36805 34.17585 178.39870 435
75.20577 35.63314 179.56097 308
62.93969 38.55373 179.57603 428
60.25074 39.20530 181.94835 426
57.47025 39.84503 184.38641 424
54.65303 40.55918 186.84308 422
51.72226 41.24436 189.40430 419
48.67577 41.93251 192.02362 410
45.44235 42.73857 194.72887 407
42.05735 43.50488 197.54807 405
38.58652 44.34476 200.39310 402
34.95718 45.20250 203.40019 399
31.23401 46.08696 206.49101 397
27.25367 47.02166 209.65695 357
-187.34807 97.98473 209.51039 485
83.91180 32.63829 176.50745 438
81.65175 33.16250 178.53012 436
75.05282 34.67920 179.56117 308
63.31673 37.39595 179.66745 429
60.64409 38.01679 182.04358 427
57.86078 38.67149 184.47777 425
55.07628 39.32353 186.93623 422
52.15505 39.97213 189.52921 420
49.19343 40.67255 192.12503 417
45.96600 41.41715 194.81250 408
42.65355 42.18794 197.58778 405
39.14766 43.02417 200.45207 403
35.59597 43.82549 203.42763 400
31.88614 44.68493 206.49405 397
27.96726 45.57638 209.73035 360
-187.75163 95.44171 209.48891 485
-196.28667 97.41766 216.50615 294
84.18980 31.66138 176.64651 438
81.93624 32.18674 178.63470 436
74.91944 33.76176 179.55916 308
63.68240 36.25956 179.80817 430
60.99992 36.88359 182.18492 427
58.25853 37.50611 184.56572 425
55.46215 38.14088 187.08008 423
52.59043 38.75899 189.62462 420
49.59991 39.43925 192.20975 418
46.52676 40.11396 194.93930 409
43.20054 40.86029 197.69299 406
39.74122 41.65219 200.53893 404
36.19397 42.42362 203.51712 401
32.53494 43.30072 206.58340 398
28.72873 44.14978 209.71069 395
-188.24643 92.87719 209.54466 485
-189.12708 93.08981 216.54373 296
84.31857 30.70372 176.71304 458
82.19717 31.17059 178.74168 437
74.75790 32.80523 179.57556 308
64.03862 35.12834 179.94527 430
61.37280 35.70000 182.29823 428
58.68959 36.29864 184.68265 426
55.86548 36.90171 187.13261 423
53.02667 37.57401 189.70964 421
50.06671 38.18189 192.31467 419
47.05120 38.85444 194.99741 416
43.78479 39.57866 197.78207 407
40.32807 40.31114 200.60820 404
36.80109 41.11075 203.54099 402
33.17709 41.87090 206.58676 399
29.39793 42.69720 209.78944 396
-182.82291 89.02785 216.52351 438
84.38573 29.80412 176.73398 458
82.29679 30.25214 178.78091 456
74.62428 31.87012 179.60185 308
64.43284 34.03102 180.04063 431
61.80098 34.58614 182.39659 429
59.06076 35.13400 184.77710 426
56.28955 35.73639 187.26846 424
53.43958 36.36441 189.78720 422
50.50324 36.98126 192.37103 419
47.51478 37.62572 195.08553 417
44.32112 38.28801 197.82034 408
40.94362 38.99324 200.65561 405
37.42572 39.75479 203.61143 402
33.81814 40.48527 206.64250 400
30.07562 41.32004 209.81007 397
-182.88309 86.36820 216.52087 439
84.44674 28.85946 176.81184 458
82.37124 29.30836 178.84459 456
74.51756 30.87897 179.59534 308
64.77486 32.89241 180.13490 432
62.18084 33.45803 182.50812 429
59.47166 33.97643 184.90929 427
56.69470 34.57787 187.32620 425
53.87618 35.16153 189.87944 422
50.97094 35.72387 192.45410 420
47.96193 36.33540 195.13626 417
44.87732 36.97497 197.91071 415
41.52149 37.68580 200.73114 406
38.04596 38.38704 203.63731 403
34.46728 39.15448 206.67548 400
30.69577 39.88942 209.80397 398
-182.94193 83.82720 216.51314 439
84.49914 27.94944 176.85620 459
82.39337 28.35211 178.87141 457
67.70103 31.28578 177.97487 434
65.15652 31.79746 180.25626 432
62.55837 32.30357 182.59096 430
59.85493 32.83504 185.00916 428
57.11176 33.39083 187.45399 425
54.31167 33.94869 189.98375 423
51.40188 34.54118 192.57649 421
48.41254 35.12933 195.20155 418
45.36847 35.72813 197.97475 416
42.10063 36.39855 200.81906 406
38.63414 37.04004 203.69620 404
35.05470 37.76394 206.72479 401
31.37942 38.50074 209.83537 398
-183.00919 81.15115 216.50546 424
84.56475 27.02571 176.89655 459
82.45908 27.43363 178.95605 457
68.02469 30.21379 178.12375 435
65.50706 30.68857 180.37482 433
62.91415 31.19272 182.71057 431
60.26548 31.67292 185.09807 428
57.55477 32.22113 187.54805 426
54.71339 32.74742 190.03128 424
51.86625 33.29396 192.63097 421
48.87360 33.90331 195.29668 419
45.85146 34.45092 198.02884 416
42.69107 35.07910 200.87157 407
39.23774 35.76923 203.73370 404
35.72290 36.41935 206.78235 402
32.01452 37.16180 209.87675 399
-183.06792 78.58681 216.43484 424
-190.06728 79.93315 223.43788 321
84.61062 26.09743 176.92525 459
82.55513 26.48333 178.98729 457
68.25510 29.15525 178.17574 455
65.88345 29.58885 180.50577 433
63.29886 30.07580 182.79477 431
60.65096 30.56355 185.17078 429
57.93634 31.07615 187.62703 427
55.13784 31.59377 190.14198 424
52.29440 32.09325 192.69319 422
49.35441 32.68135 195.33885 419
46.30019 33.23752 198.08447 417
43.18205 33.79194 200.88568 414
39.83340 34.44180 203.82228 405
36.30288 35.11195 206.81874 402
32.67606 35.79777 209.89465 400
-183.04564 75.97223 216.42931 424
-187.43842 76.79260 223.43045 322
84.67227 25.16871 176.97922 460
82.61343 25.54492 179.00175 458
68.34841 28.11033 178.20851 455
65.98860 28.52452 180.54597 453
63.58205 28.94560 182.87311 451
61.03139 29.42709 185.29750 430
58.36495 29.89340 187.71553 427
55.58459 30.40461 190.19756 425
52.73742 30.92568 192.80844 422
49.80366 31.44596 195.45479 420
46.75884 31.99318 198.13589 417
43.65271 32.54623 200.94479 415
40.41669 33.15850 203.88419 406
36.90521 33.74526 206.84055 403
33.32726 34.40271 209.93929 400
-183.05521 73.32200 216.44843 425
-184.90059 73.69033 223.37051 323
84.72446 24.24507 177.00058 460
82.65508 24.63667 179.04677 458
68.40511 27.10642 178.27962 455
66.07539 27.50737 180.58864 453
63.67204 27.91725 182.92787 451
61.21373 28.32686 185.34598 449
58.67937 28.76869 187.79016 446
55.97688 29.27099 190.31335 425
53.13900 29.74360 192.87833 423
50.24406 30.25575 195.50179 421
47.27542 30.74634 198.24046 418
44.14342 31.31679 201.00536 416
40.98500 31.85268 203.91928 413
37.54567 32.47331 206.85172 404
33.93802 33.06369 209.95830 401
-183.01973 70.74395 216.45634 425
-182.56436 70.62457 223.36227 361
84.79459 23.35765 177.06412 460
82.72522 23.69586 179.08357 458
68.50037 26.06102 178.30936 456
66.13249 26.44487 180.62335 453
63.72494 26.87095 182.94836 451
61.30710 27.28885 185.39085 449
58.80529 27.71005 187.81331 447
56.23634 28.13616 190.33539 444
53.58926 28.57320 192.91656 442
50.69773 29.05431 195.57721 421
47.69862 29.55648 198.26782 419
44.62531 30.05571 201.05115 416
41.46484 30.56436 203.91959 414
38.15783 31.15743 206.92603 404
34.55561 31.73212 209.97595 402
-181.94987 67.99928 223.25629 361
84.88191 22.40805 177.10899 461
82.81008 22.76507 179.14589 458
68.55079 25.04681 178.35086 456
66.22369 25.44094 180.65311 454
63.82809 25.80127 182.98044 452
61.39528 26.19236 185.38396 449
58.85352 26.63109 187.86615 447
56.32457 27.02975 190.35707 444
53.69836 27.44453 192.96077 442
50.99450 27.90403 195.58987 439
48.19841 28.33004 198.33113 419
45.12300 28.82767 201.10156 417
41.95517 29.35873 203.99001 414
38.72229 29.87447 206.95987 411
35.18155 30.40419 210.00557 402
-181.29079 65.22686 223.31776 361
84.94099 21.53047 177.15176 461
82.88023 21.81407 179.19299 459
68.62607 24.01569 178.40300 456
66.27909 24.41179 180.71115 454
63.92802 24.78853 183.02136 452
61.45432 25.12969 185.41443 449
58.94955 25.51296 187.89749 447
56.38635 25.92008 190.38914 445
53.75283 26.31072 192.99150 442
51.10645 26.72915 195.62914 440
48.29457 27.16907 198.35686 437
45.48688 27.60263 201.15704 435
42.48679 28.09360 204.02576 415
39.23665 28.59628 206.98184 412
35.80286 29.08898 210.02727 403
-180.68669 62.60415 223.29263 361
84.97836 20.59466 177.16789 461
82.94817 20.90958 179.19522 459
68.69706 23.01389 178.44841 457
66.35352 23.34605 180.72276 454
63.97923 23.72685 183.05296 452
61.55637 24.06400 185.48952 450
59.05069 24.43241 187.93509 447
56.48455 24.83032 190.42950 445
53.88379 25.24129 192.99165 443
51.17044 25.62079 195.67586 440
48.43787 26.03756 198.38789 437
45.58903 26.46778 201.17075 435
42.64706 26.90839 204.03300 432
39.65930 27.35565 207.01935 429
36.40771 27.83360 210.07837 410
-180.08977 59.99060 223.23318 361
85.05583 19.70045 177.20653 461
83.01743 19.97157 179.25847 459
68.78105 22.00201 178.47183 457
66.45874 22.33924 180.76720 455
64.05860 22.66213 183.11137 452
61.61132 23.04178 185.52069 450
59.12120 23.39966 187.94760 448
56.57161 23.76594 190.46992 445
53.96973 24.12825 193.05389 443
51.26990 24.47113 195.68126 440
48.52903 24.89369 198.38957 438
45.68908 25.30981 201.20209 435
42.77613 25.67979 204.05270 432
39.78805 26.13070 206.99835 430
36.69399 26.57932 210.05971 427
-179.74442 57.33232 223.23982 383
85.11903 18.76618 177.22986 462
83.06522 19.06992 179.26309 460
68.84877 21.00552 178.48184 457
66.52420 21.29929 180.80165 455
64.14288 21.65034 183.11877 453
61.69727 21.97634 185.52890 450
59.22467 22.31901 187.96396 448
56.69230 22.66937 190.50055 446
54.08020 23.02487 193.05325 443
51.39021 23.37079 195.68338 441
48.63348 23.76172 198.42570 438
45.78503 24.11175 201.20816 435
42.90101 24.54767 204.05322 433
39.89830 24.91592 207.03926 430
36.80487 25.33097 210.08708 428
-179.72655 54.75506 223.21461 383
85.19512 17.88293 177.28670 462
83.15555 18.12687 179.31268 460
68.90868 19.97787 178.53938 457
66.59479 20.27519 180.83472 455
64.22765 20.58171 183.17558 453
61.79505 20.91914 185.54095 451
59.32988 21.24499 187.98898 448
56.77950 21.55543 190.49353 446
54.18505 21.90770 193.07631 443
51.50787 22.24976 195.74640 441
48.75366 22.59367 198.42555 438
45.91936 22.96354 201.23784 436
43.01270 23.32327 204.06575 433
40.01863 23.71559 207.01393 431
36.99679 24.12684 210.09895 428
-179.70396 52.18881 223.27266 383
85.27438 16.99007 177.30408 462
83.24097 17.20915 179.35510 460
69.01506 18.99581 178.56192 458
66.69376 19.27826 180.85857 455
64.32208 19.55119 183.18593 453
61.90875 19.84851 185.59177 451
59.43124 20.15228 188.05269 448
56.85647 20.48046 190.54732 446
54.28626 20.78695 193.12985 444
51.57904 21.13175 195.75398 441
48.86737 21.46575 198.46880 438
46.01072 21.82327 201.25490 436
43.14043 22.18740 204.08929 434
40.19682 22.51919 207.04727 431
37.10616 22.92556 210.06578 428
-179.64827 49.63528 223.25214 383
85.32377 16.08258 177.32469 462
83.28793 16.33105 179.38570 460
69.08067 17.97193 178.62003 458
66.76447 18.24413 180.90286 456
64.41597 18.53717 183.21709 453
62.00026 18.79147 185.61745 451
59.50325 19.09704 188.04617 449
56.97601 19.41007 190.56879 446
54.37813 19.70658 193.15047 444
51.69399 20.03162 195.74391 441
48.94709 20.35957 198.49113 439
46.13473 20.67210 201.25850 436
43.28820 20.99281 204.11008 434
40.30405 21.35951 207.05183 431
37.25936 21.69936 210.09441 428
-179.68791 47.12059 223.19508 383
85.40623 15.18528 177.35638 463
83.37530 15.37628 179.40573 461
69.18477 16.97348 178.61336 458
66.83811 17.20612 180.93433 456
64.47801 17.50197 183.24254 454
62.08459 17.77979 185.61998 451
59.58040 18.02329 188.10094 449
57.07007 18.32211 190.60895 447
54.45788 18.60426 193.13565 444
51.79102 18.89766 195.79944 442
49.05741 19.22248 198.48534 439
46.28108 19.53059 201.27863 437
43.39927 19.81819 204.15002 434
40.43266 20.16184 207.09647 431
37.38518 20.49546 210.09929 429
-179.60692 44.60590 223.18698 383
85.49900 14.28357 177.40132 463
83.45163 14.47686 179.44023 461
69.23058 15.95508 178.64153 458
66.92458 16.23243 180.96501 456
64.58114 16.46681 183.26735 454
62.17363 16.71438 185.67076 452
59.67162 16.97190 188.09795 449
57.17386 17.23629 190.62608 447
54.58166 17.49252 193.17998 444
51.93111 17.76731 195.78360 442
49.16412 18.06193 198.50905 440
46.39745 18.33832 201.26707 437
43.55948 18.64081 204.16380 434
40.58252 18.97413 207.07678 432
37.52963 19.28361 210.09526 429
-179.66714 42.07213 223.25525 384
85.56271 13.36945 177.42355 463
83.50980 13.55904 179.43652 461
69.33509 14.96284 178.69051 458
67.04504 15.19330 180.98593 456
64.67847 15.41880 183.32251 454
62.25568 15.66168 185.66742 452
59.78117 15.91001 188.12776 449
57.25451 16.17754 190.62422 447
54.66803 16.43365 193.20381 445
52.03516 16.68957 195.81044 442
49.29428 16.96390 198.52203 440
46.54338 17.19765 201.28528 437
43.65461 17.51509 204.13155 435
40.74220 17.80564 207.10397 432
37.68248 18.07852 210.13246 429
-179.62300 39.44754 223.23622 384
85.65824 12.45230 177.44691 463
83.58771 12.64037 179.47414 461
69.43727 13.94905 178.70274 459
67.13386 14.18227 181.00198 457
64.74508 14.37899 183.31017 454
62.36581 14.62968 185.73300 452
59.88786 14.82873 188.15862 450
57.37018 15.06387 190.63757 447
54.75215 15.31796 193.21851 445
52.15397 15.58002 195.84625 443
49.43107 15.82499 198.53188 440
46.63349 16.08512 201.31221 437
43.81926 16.31836 204.14574 435
40.88562 16.60900 207.10136 432
37.81113 16.89181 210.10292 429
-179.66504 36.92649 223.22728 384
85.71848 11.56004 177.48953 464
83.68796 11.74397 179.47845 461
69.51916 12.98000 178.75175 459
67.18483 13.17716 181.03436 457
64.86206 13.36589 183.34717 454
62.43029 13.59051 185.74115 452
59.96817 13.79918 188.16722 450
57.47826 14.00957 190.68871 447
54.90478 14.20117 193.22552 445
52.23363 14.45931 195.85918 443
49.56153 14.68468 198.52827 440
46.77316 14.94021 201.33331 438
43.95081 15.19137 204.17258 435
41.00901 15.41132 207.10349 432
37.99047 15.66321 210.14029 430
-179.62764 34.48795 223.24115 384
85.79225 10.66591 177.50688 464
83.71178 10.84455 179.52739 312
69.60937 11.95375 178.73730 459
67.30678 12.14535 181.06024 457
64.92939 12.32830 183.36661 455
62.51794 12.52441 185.75929 452
60.07316 12.75118 188.21028 450
57.55565 12.92560 190.70465 448
55.02280 13.15607 193.25455 446
52.35540 13.37000 195.88057 443
49.66793 13.56889 198.58752 440
46.90961 13.78615 201.33374 438
44.06546 14.02036 204.19368 435
41.14840 14.24880 207.11938 433
38.12765 14.49574 210.14285 430
-179.63542 31.92663 223.16652 384
85.86348 9.78487 177.53479 464
83.74155 9.94989 179.51569 312
69.69621 10.95999 178.76208 459
67.38144 11.11796 181.04524 457
65.01529 11.29445 183.38264 455
62.64314 11.50643 185.77580 453
60.19534 11.67779 188.19867 450
57.66198 11.84069 190.69470 448
55.12441 12.06954 193.25421 446
52.50011 12.22770 195.88261 443
49.78996 12.44438 198.59973 441
47.07003 12.64755 201.35765 438
44.17791 12.84635 204.21117 435
41.29631 13.07604 207.11945 433
38.25144 13.27692 210.14902 430
-179.59644 29.38497 223.15672 384
85.95617 8.87920 177.51721 464
83.72064 9.01837 179.51456 312
69.75199 9.99757 178.81177 460
67.46726 10.12712 181.06583 457
65.10143 10.28570 183.40749 455
62.74912 10.47153 185.77199 453
60.30521 10.63306 188.20909 451
57.81475 10.77235 190.73183 448
55.22538 10.94411 193.27751 446
52.60096 11.13835 195.89317 443
49.92154 11.32656 198.60568 441
47.16528 11.52482 201.34575 438
44.33826 11.66996 204.19731 436
41.42558 11.88214 207.11440 433
38.39171 12.09663 210.13857 430
-179.61044 26.89995 223.25284 384
86.02803 7.99254 177.54927 464
83.73770 8.11759 179.52298 312
69.85638 8.98885 178.83141 460
67.55194 9.13771 181.09921 457
65.20647 9.27841 183.42873 455
62.84154 9.40389 185.82767 453
60.37790 9.58595 188.26811 451
57.88539 9.72085 190.75916 449
55.36508 9.89254 193.28772 446
52.72837 10.05650 195.94218 444
50.04262 10.19708 198.61768 441
47.32360 10.37007 201.38951 439
44.46223 10.56146 204.21582 436
41.54215 10.73828 207.12984 433
38.54614 10.93179 210.17189 430
-179.61324 24.28855 223.22897 384
-187.66125 24.75408 271.66956 305
-186.74426 24.73465 278.57901 497
-186.78616 24.79666 285.54456 496
-186.66498 24.72775 292.65863 495
86.11388 7.11039 177.57303 466
83.76601 7.23514 179.51816 312
69.93939 7.97843 178.85110 460
67.64003 8.09385 181.13797 458
65.31831 8.25837 183.46490 455
62.92309 8.39543 185.83144 454
60.52078 8.51459 188.27982 451
58.01859 8.64317 190.74603 449
55.48674 8.76293 193.29012 446
52.85567 8.92309 195.92131 444
50.18684 9.07465 198.63174 441
47.43974 9.24142 201.39859 439
44.58562 9.40983 204.24596 436
41.71561 9.55461 207.11652 433
38.69537 9.74034 210.16461 431
-179.56192 21.82579 223.21082 384
86.18973 6.18121 177.58824 466
83.77742 6.30898 179.50938 312
70.05845 7.00476 178.84984 460
67.75096 7.10294 181.14105 458
65.42389 7.21212 183.45764 456
63.03319 7.31757 185.82768 454
60.60777 7.45630 188.26163 451
58.15662 7.59573 190.79369 449
55.58278 7.70282 193.34869 447
52.98677 7.82521 195.95601 444
50.31667 7.98704 198.60951 442
47.58160 8.12215 201.39536 439
44.76699 8.25996 204.22925 436
41.84230 8.39485 207.15262 434
38.84590 8.54046 210.15984 431
-179.63655 19.29936 223.14049 384
86.27962 5.30288 177.60010 466
83.80395 5.39974 179.49452 312
70.14073 6.00817 178.89410 460
67.86839 6.08562 181.14081 458
65.53246 6.20283 183.48981 456
63.17758 6.27873 185.88600 454
60.72827 6.39662 188.27516 452
58.24276 6.49533 190.78365 449
55.70579 6.60981 193.36200 447
53.09704 6.71622 195.96788 444
50.44105 6.86027 198.63472 442
47.68367 6.96062 201.37833 439
44.85266 7.08273 204.23495 436
41.98914 7.23750 207.17519 434
38.96617 7.32760 210.15288 431
-179.59927 16.78216 223.17039 384
86.36231 4.41924 177.61464 466
83.81331 4.50502 179.52205 312
70.21915 5.02965 178.87883 460
67.95403 5.08261 181.17169 459
65.64175 5.17825 183.48747 456
63.28276 5.26389 185.88707 454
60.85605 5.35706 188.29358 452
58.36549 5.46220 190.78474 449
55.84546 5.56186 193.35313 447
53.24052 5.62554 195.97545 444
50.59121 5.72957 198.63132 442
47.82191 5.85804 201.39777 439
44.99366 5.96311 204.26935 437
42.08921 6.02879 207.13669 434
39.13420 6.16383 210.16051 431
-179.53769 14.21524 223.24361 384
86.46358 3.51775 177.61662 466
83.84507 3.59964 179.49150 312
70.34216 4.03907 178.92171 461
68.07623 4.09891 181.20706 459
65.73140 4.14576 183.51390 457
63.39275 4.25473 185.87408 454
60.99252 4.30677 188.30855 452
58.48930 4.38095 190.81767 450
55.96122 4.47941 193.35091 447
53.35315 4.54319 195.98766 445
50.68442 4.63882 198.65149 442
47.94999 4.73085 201.43082 439
45.15676 4.81951 204.23920 437
42.24296 4.86132 207.16379 434
39.27741 4.99073 210.14345 431
-179.59053 11.68744 223.18472 384
86.54187 2.63722 177.62831 467
83.88097 2.68115 179.49953 312
70.41518 3.02371 178.93529 461
68.19045 3.09132 181.20990 459
65.87595 3.12405 183.50911 457
63.48129 3.21607 185.93069 454
61.10459 3.24650 188.35742 452
