# .PCD v.7 - Point Cloud Data file format
VERSION .7
FIELDS x y z rgb
SIZE 4 4 4 4
TYPE F F F U
COUNT 1 1 1 1
WIDTH 1377
HEIGHT 1
VIEWPOINT 4525.248047 -4074.574707 145.507309 -0.027056 -0.131848 0.000602 0.990900
POINTS 1377
DATA ascii
75.44144 -61.26563 173.51260 389
72.34779 -62.51236 175.50201 387
69.17506 -63.80844 177.51894 385
66.15316 -65.00584 179.69492 304
45.61958 -73.32727 178.16266 387
41.65769 -74.96566 180.65262 374
37.43395 -76.64984 183.21381 371
31.97255 -78.86519 185.69366 337
26.07663 -81.27641 188.33397 335
19.77534 -83.82297 191.08928 332
11.51464 -87.22039 193.87366 314
2.46349 -90.88721 196.81006 311
74.82423 -62.56407 173.22742 389
71.71033 -63.88628 175.19060 386
68.46658 -65.19839 177.21681 384
65.72807 -66.34614 179.47527 396
44.90077 -74.92857 177.89261 375
40.73977 -76.63837 180.37518 373
35.74970 -78.73391 182.79944 339
29.99468 -81.10791 185.30655 336
23.94830 -83.59019 187.95537 334
16.84925 -86.52494 190.63765 315
8.22925 -90.06808 193.46632 313
-6.01576 -95.95335 196.03487 266
74.25556 -63.91366 172.95714 388
71.09682 -65.26705 174.90300 385
67.81541 -66.65813 176.96509 383
65.03756 -67.78711 179.18880 395
54.05253 -72.38886 179.76823 300
39.41227 -78.57692 180.01332 340
33.86206 -80.87397 182.36906 337
27.99515 -83.33847 184.88985 335
21.80903 -85.96695 187.54391 333
13.73723 -89.32886 190.21089 314
3.62803 -93.56844 192.90129 285
73.60597 -65.30364 172.61406 387
70.41590 -66.64413 174.62006 384
67.10414 -68.08601 176.66043 382
64.37564 -69.25208 178.92274 394
54.56358 -73.45568 179.78745 300
37.56514 -80.69945 179.57767 339
31.93446 -83.12403 181.95209 336
25.88638 -85.68256 184.49083 334
18.99272 -88.62135 187.05148 316
10.47212 -92.27199 189.69156 313
-5.83225 -99.24704 191.80148 266
73.01172 -66.68556 172.32860 386
69.75992 -68.08643 174.31403 383
66.43813 -69.54675 176.38338 395
63.68984 -70.74426 178.65752 393
55.01358 -74.50565 179.77173 300
35.73458 -82.85752 179.04890 338
29.92455 -85.38336 181.49422 335
23.78016 -88.09431 184.05440 333
15.97576 -91.44379 186.52757 315
4.56591 -96.40199 188.88710 285
72.39267 -68.06789 172.02570 385
69.09718 -69.53334 174.02147 383
65.78113 -70.99228 176.09770 394
63.01289 -72.20816 178.36845 392
55.49560 -75.54333 179.76053 300
33.81760 -85.10816 178.61574 336
27.89732 -87.70824 181.03784 334
21.19538 -90.66413 183.52167 316
12.30466 -94.65658 185.97450 286
-5.44815 -102.47836 187.57333 266
72.26664 -69.28030 171.82407 316
68.44406 -70.99643 173.70248 382
65.08730 -72.47228 175.80243 393
62.28316 -73.75849 178.12625 391
56.01239 -76.55028 179.78737 300
31.92749 -87.38676 178.07750 335
25.80554 -90.15762 180.56807 333
18.26009 -93.50600 182.93530 315
5.52233 -99.21518 184.87917 285
72.69752 -70.20810 171.83904 316
67.77000 -72.45573 173.34332 381
64.44608 -73.97998 175.48000 392
61.57792 -75.26335 177.82729 390
56.52163 -77.61555 179.74161 300
29.88578 -89.72518 177.60051 334
23.45271 -92.66375 180.03362 316
13.31028 -97.34809 182.06250 286
-4.86409 -105.66395 183.26237 266
73.18887 -71.14959 171.83694 316
67.06634 -73.97369 173.02406 380
63.75436 -75.50883 175.16304 391
60.86157 -76.87199 177.54483 389
57.00780 -78.61826 179.74939 300
42.05520 -85.60439 179.90492 296
20.52063 -95.55569 179.38132 315
6.56242 -102.03227 180.83620 285
-23.95752 -116.16267 180.46967 284
73.63930 -72.05563 171.84164 316
66.34723 -75.49258 172.72737 379
63.03352 -77.04636 174.86450 390
60.11576 -78.44334 177.25195 388
57.13836 -79.85571 179.65688 386
42.56017 -86.71229 179.87529 296
14.39488 -99.99281 178.13364 286
-19.19901 -115.78107 176.49622 343
-23.15995 -117.71059 180.41017 284
74.10312 -72.98054 171.79478 316
65.63599 -77.06393 172.35982 378
62.35595 -78.61946 174.57448 389
59.37886 -80.04567 176.95314 387
56.35620 -81.47932 179.36961 385
43.15885 -87.83286 179.84787 296
7.74045 -104.76486 176.77834 285
-14.83822 -115.57404 177.08153 345
-22.44744 -119.23433 180.40503 284
74.59403 -73.93224 171.81615 316
64.95657 -78.61128 172.03125 377
61.61157 -80.22819 174.21509 388
58.64985 -81.68574 176.61087 386
54.38817 -83.76244 178.80945 327
43.70610 -88.93314 179.84929 296
-6.84443 -113.55447 174.00519 289
-6.88778 -113.53848 178.32399 289
-21.72764 -120.79484 180.44554 284
75.08347 -74.83604 171.81717 316
64.97650 -79.81251 171.91075 312
60.92525 -81.81903 173.91196 386
57.21068 -83.63258 176.17403 328
52.21414 -86.15788 178.21135 327
44.25629 -90.06134 179.84909 296
26.69337 -98.78504 180.00037 292
2.40693 -110.70801 179.73317 290
75.56676 -75.74460 171.79805 316
65.52001 -80.82810 171.90817 312
59.99459 -83.57842 173.52507 329
55.12114 -86.02685 175.52307 327
49.94529 -88.63361 177.58884 326
44.70964 -91.22845 179.81305 324
27.30027 -100.01636 180.00302 292
6.08111 -110.62793 180.16568 288
76.07921 -76.65001 171.80508 316
66.03635 -81.78201 171.88963 312
57.98856 -85.89175 172.87625 328
52.90364 -88.44582 174.84967 326
47.64664 -91.16850 176.95396 325
42.22742 -93.89616 179.17723 323
27.91926 -101.21228 180.02171 292
6.73169 -112.01295 180.20589 288
76.56905 -77.58819 171.81766 316
66.55429 -82.75716 171.87070 312
55.87512 -88.32139 172.12718 327
50.68997 -91.01266 174.14651 325
45.24777 -93.82793 176.28870 324
39.65518 -96.67506 178.57072 322
28.54662 -102.42063 179.98373 292
7.47906 -113.35897 180.16151 288
77.09011 -78.50657 171.77965 316
67.12502 -83.74579 171.86641 312
55.79119 -89.66659 171.97290 308
48.36150 -93.57239 173.41484 323
42.72346 -96.54699 175.57008 322
36.97070 -99.56520 177.86906 320
26.27606 -105.14938 179.45621 274
8.15418 -114.71102 180.15987 288
77.62910 -79.38258 171.79564 316
67.67419 -84.71905 171.88333 312
56.33689 -90.70135 171.98715 308
45.95088 -96.28387 172.72182 322
40.18156 -99.33510 174.87483 321
32.77334 -103.28809 176.83566 273
15.36211 -112.60216 177.29306 273
78.14015 -80.29612 171.77887 316
68.22121 -85.66795 171.85956 312
56.91083 -91.76252 171.96265 308
44.03410 -98.75517 172.04965 304
37.50069 -102.23872 174.09146 320
21.88645 -110.72185 174.49321 271
-54.23442 -151.89723 164.09749 371
78.63450 -81.20224 171.76996 316
68.74275 -86.61484 171.88168 312
57.55180 -92.82627 171.98636 308
44.68024 -99.84285 172.08821 304
29.78049 -108.01867 172.19099 300
12.25613 -117.66457 172.36539 296
-50.26952 -151.92827 164.68805 373
-9936.22852 -5577.85303 1173.46875 1000
79.17252 -82.10896 171.75786 316
69.32450 -87.57889 171.88438 312
58.13324 -93.82388 171.96989 308
45.30045 -100.95187 172.07567 304
30.44588 -109.22777 172.17212 300
13.00373 -118.92104 172.33963 296
-46.51827 -152.06160 165.21672 287
79.69950 -83.02444 171.75383 316
69.89545 -88.55407 171.85202 312
58.71581 -94.85766 171.96484 308
45.94525 -102.07563 172.07120 304
31.15175 -110.46702 172.16812 300
13.76538 -120.26740 172.30220 296
-45.56786 -153.72269 165.21078 286
80.27010 -83.91637 171.76842 316
70.48869 -89.52067 171.84665 312
59.32922 -95.88663 171.97348 308
46.60116 -103.20446 172.03900 304
31.80862 -111.64246 172.15195 300
14.50622 -121.58223 172.31657 296
-44.50014 -155.41101 165.20630 286
80.80150 -84.81279 171.76584 316
71.02320 -90.45526 171.83467 312
59.96529 -96.90423 171.94925 308
47.27492 -104.27614 172.05191 304
32.57420 -112.85587 172.15179 300
15.30640 -122.87675 172.32561 296
-43.55522 -157.08598 165.23335 286
81.33991 -85.66704 171.77936 316
71.64547 -91.43160 171.83916 312
60.56485 -97.90799 171.91197 308
47.93089 -105.41348 172.06711 304
33.24791 -114.04667 172.19194 300
16.09973 -124.14757 172.29286 296
-42.50275 -158.72017 165.17409 286
81.92448 -86.55269 171.76434 316
72.21656 -92.34716 171.81914 312
61.21954 -98.96392 171.95403 308
48.57006 -106.50572 172.06206 304
33.98154 -115.21964 172.14700 300
-26.81284 -151.51784 163.09322 371
-41.53539 -160.35571 165.16138 286
82.49560 -87.45238 171.74734 316
72.79921 -93.33253 171.81308 312
61.86338 -99.96576 171.94531 308
49.26781 -107.58914 172.03009 304
34.73596 -116.38541 172.15842 300
-23.12118 -151.41550 163.69334 372
83.05364 -88.35140 171.74219 316
73.41019 -94.24285 171.84715 312
62.48344 -100.94271 171.91287 308
49.94686 -108.65903 172.03333 304
35.43885 -117.60846 172.15517 300
-19.50447 -151.31439 164.22304 373
83.62991 -89.21965 171.76411 316
74.02606 -95.18685 171.84618 312
63.14825 -101.96304 171.92328 308
50.65147 -109.73566 172.01363 304
36.17048 -118.75991 172.11812 300
-15.97938 -151.28726 164.78360 375
84.17658 -90.06731 171.74567 316
74.63552 -96.09995 171.80287 312
63.76961 -102.98593 171.91016 308
51.35661 -110.83124 171.99644 304
36.93941 -119.95523 172.16043 300
-12.57470 -151.15912 165.26976 376
84.80463 -90.96584 171.72011 316
75.28697 -97.07233 171.79274 312
64.47568 -103.95784 171.93207 308
52.07805 -111.89122 172.00645 304
37.70815 -121.09234 172.13483 300
-9.63498 -151.36052 165.71425 291
85.39408 -91.83328 171.74695 316
75.88467 -97.97826 171.82620 312
65.12119 -104.99586 171.87827 308
52.80150 -112.98123 172.00696 304
38.49315 -122.23798 172.14841 300
-8.57971 -152.76820 165.69685 291
85.94926 -92.71384 171.71967 316
76.53545 -98.92388 171.79619 312
65.80577 -105.96601 171.89590 308
53.51881 -114.05913 172.02252 304
39.26194 -123.40517 172.09909 300
-7.53903 -154.20912 165.68935 291
86.56085 -93.54179 171.70403 316
77.15216 -99.82396 171.81609 312
66.45551 -106.92245 171.91685 308
54.21241 -115.11937 171.99036 304
1.51162 -150.23418 162.96059 285
-6.55185 -155.56801 165.73218 291
87.16004 -94.42883 171.72884 316
77.79759 -100.72228 171.79085 312
67.13547 -107.91982 171.86176 308
54.94325 -116.17965 171.99547 304
3.65233 -150.83525 163.22540 382
-5.45274 -156.96887 165.77594 290
87.75972 -95.28067 171.72107 316
78.46603 -101.66076 171.77116 312
67.81791 -108.92693 171.89256 308
55.66360 -117.26046 172.00125 304
6.68698 -150.72189 163.68697 383
-4.48793 -158.35361 165.71767 290
88.41558 -96.11555 171.69868 316
79.07748 -102.59273 171.75922 312
68.52151 -109.88039 171.86237 308
56.45371 -118.25877 171.99553 304
9.71626 -150.66632 164.17090 384
-3.44158 -159.83305 165.76630 290
88.99378 -96.94884 171.71675 316
79.74991 -103.46388 171.76942 312
69.23164 -110.88631 171.87378 308
57.19239 -119.33619 171.94493 304
12.71331 -150.55931 164.70020 386
89.62466 -97.82752 171.67776 316
80.40119 -104.39474 171.75290 312
69.92841 -111.85353 171.86775 308
57.96184 -120.40002 171.94531 304
15.57876 -150.48796 165.15582 387
90.25118 -98.66241 171.69833 316
81.10747 -105.26107 171.74469 312
70.67432 -112.78719 171.84616 308
58.71522 -121.44888 171.93275 304
18.40082 -150.47148 165.58342 388
90.92382 -99.51329 171.69847 316
81.74339 -106.17774 171.74107 312
71.35982 -113.74706 171.84647 308
59.46758 -122.43755 171.97443 304
21.24965 -150.39511 166.03964 387
91.54024 -100.33425 171.65894 316
82.43742 -107.09241 171.74519 312
72.10022 -114.72668 171.85336 308
60.25205 -123.51539 171.93468 304
22.44865 -151.43961 166.10051 297
92.18001 -101.15287 171.65117 316
83.15055 -107.94678 171.76424 312
72.84183 -115.68874 171.82471 308
28.69448 -148.73814 163.23405 296
23.45070 -152.72841 166.14285 297
92.83116 -101.98203 171.67404 316
83.79860 -108.83654 171.76604 312
73.57732 -116.63684 171.84711 308
29.50599 -150.08817 163.17397 390
24.42619 -153.89523 166.12575 297
93.49075 -102.81951 171.65144 316
-28.44985 -21.85999 -8.97211 312
74.29799 -117.57278 171.82500 308
32.14071 -149.99509 163.66817 391
25.43435 -155.17726 166.09160 297
94.18154 -103.63171 171.65540 316
85.20543 -110.61568 171.70999 312
75.05229 -118.52904 171.83217 308
34.75813 -149.87131 164.10364 392
26.37864 -156.37480 166.10539 297
94.82937 -104.45784 171.63080 316
85.91028 -111.48074 171.71198 312
75.80122 -119.44051 171.81863 308
37.31426 -149.78754 164.53549 393
27.38942 -157.63005 166.08871 297
95.48025 -105.28902 171.66725 316
86.63987 -112.36901 171.70816 312
76.59441 -120.39037 171.79073 308
39.88793 -149.68214 164.98064 395
28.40674 -158.83038 166.12749 297
96.18187 -106.07973 171.62337 316
87.35689 -113.21381 171.70461 312
77.32652 -121.33427 171.79955 308
42.37981 -149.60722 165.41919 396
96.87771 -106.89832 171.63000 316
88.08688 -114.06236 171.72542 312
78.09460 -122.22043 171.78120 308
44.82586 -149.45996 165.80380 397
97.53176 -107.67487 171.63675 316
88.80491 -114.94180 171.70174 312
51.11599 -146.15572 163.37886 300
47.22533 -149.41476 166.18251 398
98.25655 -108.49552 171.61897 316
89.53004 -115.78165 171.68422 312
51.94779 -147.34181 163.35010 300
48.33684 -150.41458 166.24454 301
98.92546 -109.28109 171.61031 316
90.28483 -116.62652 171.71234 312
52.73302 -148.54224 163.30507 300
49.26220 -151.50484 166.22795 301
99.63462 -110.08748 171.62453 316
91.00885 -117.49947 171.66922 312
54.23232 -149.15997 163.46465 401
50.28410 -152.53291 166.22685 301
-38978.14844 -33734.03125 -7438.33252 1000
-6326.36426 -5642.79736 1792.48523 1000
100.34250 -110.88542 171.61487 316
91.77126 -118.33101 171.65590 312
56.53281 -149.07703 163.90559 402
51.24585 -153.64308 166.28300 301
101.02443 -111.64729 171.58939 316
92.53932 -119.20100 171.65215 312
58.74176 -148.99901 164.29134 404
52.24493 -154.65611 166.23357 301
101.76374 -112.45267 171.60075 316
93.28002 -120.03636 171.64543 312
60.93501 -148.87730 164.68399 405
53.28696 -155.76360 166.24635 301
102.46718 -113.23299 171.58794 316
94.03656 -120.84962 171.68587 312
63.09502 -148.80173 165.03848 406
54.24648 -156.82478 166.25340 301
103.21680 -114.00860 171.57083 316
70.88435 -143.57637 163.56667 304
65.28976 -148.70845 165.44128 407
55.28633 -157.86542 166.24228 301
103.93697 -114.78349 171.59828 316
71.72733 -144.60718 163.48416 304
67.37836 -148.62163 165.79352 408
104.66952 -115.50665 171.57585 316
72.58539 -145.63625 163.50655 304
69.45025 -148.53879 166.12607 409
105.40717 -116.27838 171.57837 316
73.38622 -146.66461 163.41525 304
71.02658 -148.92564 166.32495 305
106.15179 -117.02692 171.56985 316
74.22845 -147.68434 163.42038 304
72.01517 -149.86206 166.37500 305
106.88673 -117.81501 171.54129 316
75.50765 -148.31392 163.53870 412
73.01488 -150.77458 166.36790 305
107.62416 -118.57255 171.54422 316
77.51244 -148.29404 163.86064 413
73.97772 -151.71918 166.35603 305
108.42281 -119.27298 171.52362 316
79.42246 -148.18903 164.22437 414
74.98706 -152.63785 166.36366 305
88.48351 -140.92270 163.67386 311
81.34789 -148.08931 164.58504 415
75.98321 -153.57068 166.38347 305
89.34131 -141.82782 163.67535 311
83.23714 -148.02159 164.88652 416
76.95331 -154.49547 166.37094 305
90.20982 -142.73225 163.59772 311
85.09873 -147.94850 165.25299 417
77.96634 -155.34299 166.34186 305
91.04539 -143.60631 163.62860 311
86.96654 -147.88635 165.53169 419
78.98485 -156.26332 166.36006 305
91.91713 -144.51067 163.55899 311
88.80470 -147.84100 165.86163 420
79.97446 -157.15326 166.38933 305
92.77547 -145.43942 163.56750 307
90.62704 -147.78632 166.21526 421
93.61761 -146.35767 163.53633 307
92.20444 -147.85231 166.46216 310
94.50573 -147.23512 163.51262 307
93.18913 -148.66325 166.45486 310
95.87709 -147.55170 163.66190 423
94.18739 -149.47446 166.42241 310
97.68453 -147.45517 163.98799 414
95.16552 -150.31003 166.46422 310
99.45564 -147.23911 164.32390 415
96.13861 -151.10660 166.47620 310
101.23521 -147.06912 164.65961 416
97.12434 -151.90459 166.45926 310
103.02511 -146.89729 165.03833 417
98.10055 -152.67557 166.47894 310
104.72216 -146.72664 165.33789 418
99.08843 -153.50035 166.43513 310
106.45613 -146.54884 165.66426 419
100.04571 -154.25513 166.43289 310
108.12968 -146.38570 165.95998 420
101.06869 -155.05635 166.45465 310
109.81709 -146.20830 166.25998 421
102.05444 -155.82111 166.45627 310
111.16678 -146.42973 166.44194 314
112.10345 -147.15018 166.47948 314
113.08755 -147.88036 166.43735 314
114.00730 -148.55333 166.44337 314
115.75057 -148.29123 166.81285 428
117.30658 -148.15575 167.07428 438
118.78122 -148.14601 167.26724 439
118.11596 -149.01373 170.20711 431
120.00943 -148.40947 167.43068 316
119.60645 -148.96936 170.43062 439
120.93311 -149.12180 167.39149 316
120.70438 -149.41145 170.49190 312
121.87199 -149.77646 167.41220 316
121.67811 -150.06783 170.51424 312
124.08766 -148.69829 167.99693 490
124.97933 -149.44913 167.94987 490
-28063.43750 -47788.90625 9385.59863 1000
-572.88776 -1935.01099 78.67395 336
-556.99567 -1930.83667 79.39557 489
-559.27582 -1936.98511 113.53835 486
-561.78375 -1943.10388 147.38498 400
-546.26569 -1939.31750 79.16333 444
-549.26862 -1945.57654 113.56680 385
-12233.56543 -46023.54297 -1351.44080 1000
-52.56187 -1474.03918 68.53519 472
-53.46095 -1478.15320 93.03119 425
-54.70628 -1484.06348 117.33155 415
-43.30755 -1472.55920 68.70457 496
-43.85237 -1476.85876 93.10480 496
-44.65565 -1481.23865 117.64268 497
-45.52552 -1484.86011 141.83716 495
-34.31894 -1476.74695 68.40592 471
-35.38452 -1481.33777 92.95448 425
-36.50966 -1488.44360 117.11620 362
-27.34274 -1490.07153 67.50096 287
-1246.18701 -34037.75391 -2022.96948 1000
469.15173 -986.61011 66.07321 344
473.08249 -976.92413 67.55933 462
474.13324 -981.12439 83.62740 411
475.44986 -986.11456 99.93298 344
478.53281 -972.47675 67.79981 492
479.20837 -975.44897 84.23389 492
480.12891 -978.98291 100.42642 462
481.00098 -982.72058 116.62459 462
482.13156 -986.86993 133.04604 410
484.21918 -970.12646 68.02363 498
484.90405 -973.10638 84.37649 498
485.71802 -976.27844 100.63905 498
486.47256 -979.01892 117.08984 498
487.30872 -982.25024 133.30960 491
488.14008 -985.51624 149.76898 489
490.00256 -992.93225 166.00140 313
490.48541 -969.85242 67.70229 479
491.50027 -972.88934 84.22468 479
492.10583 -976.05707 100.52479 479
493.03500 -979.10461 116.88171 479
493.69611 -981.95935 133.37679 472
494.82516 -985.46533 149.80402 437
497.69370 -972.07422 67.33228 437
498.58707 -975.58740 83.46511 437
499.66187 -980.09381 99.71839 377
501.35550 -986.34320 116.05303 305
26250.30469 -56806.16797 2258.35620 1000
6944.06299 -7909.07080 -136.88885 1000
373.84833 -106.34337 167.63910 313
374.42932 -105.46101 167.62933 313
375.03421 -104.52476 167.62325 313
375.61499 -103.57608 167.65817 313
376.20917 -102.68031 167.67136 315
376.79001 -101.73553 167.64818 315
377.35352 -100.81593 167.66541 315
377.94339 -99.89767 167.65659 315
378.51355 -98.97087 167.66501 315
379.09848 -98.02160 167.66055 315
379.66245 -97.08612 167.70049 315
380.22672 -96.11248 167.70258 315
381.01947 -95.33390 167.61859 436
382.36484 -94.85023 167.37149 435
383.74200 -94.35889 167.12796 434
392.62939 -99.66890 167.71423 309
385.12936 -93.91495 166.85699 433
393.20187 -98.61584 167.69659 309
386.49695 -93.42774 166.61133 432
393.72644 -97.58390 167.68912 309
387.90015 -92.94619 166.32080 431
394.26465 -96.55627 167.71136 309
389.35532 -92.41611 166.04749 430
394.82504 -95.50906 167.73570 309
390.76654 -91.95801 165.77069 429
395.32697 -94.47275 167.75505 309
392.24963 -91.40569 165.45903 428
395.89282 -93.41161 167.73904 309
393.73264 -90.90446 165.19691 427
396.38544 -92.36169 167.75188 309
395.20801 -90.38878 164.87396 426
396.87567 -91.30558 167.73032 311
396.16397 -89.58608 164.76576 317
397.44131 -90.22977 167.74046 311
396.68555 -88.53487 164.75652 317
398.25027 -89.34682 167.68665 425
397.22473 -87.49011 164.76537 317
399.80615 -88.79247 167.38225 424
397.74884 -86.44838 164.77557 317
401.37448 -88.26445 167.06606 423
398.29062 -85.41551 164.77258 317
403.00156 -87.74673 166.76830 422
412.33881 -92.28040 167.74991 306
398.77893 -84.37939 164.73553 317
404.57379 -87.19392 166.45949 420
412.81985 -91.15273 167.73773 305
399.25635 -83.30216 164.73322 317
406.20346 -86.59808 166.14671 419
413.36520 -89.98859 167.77249 305
399.74612 -82.24152 164.75508 317
407.72000 -85.95166 165.88428 438
413.84882 -88.79349 167.77322 305
400.24741 -81.20880 164.74591 317
409.12341 -85.26782 165.65350 437
414.33838 -87.67366 167.75627 305
400.70450 -80.14600 164.74620 317
410.54401 -84.57318 165.37297 436
414.77527 -86.49934 167.79968 305
401.21890 -79.02988 164.77077 317
412.02304 -83.84734 165.08287 435
415.25162 -85.32430 167.78987 305
401.65366 -77.99165 164.74651 317
413.45425 -83.16898 164.86462 312
415.74240 -84.14104 167.83615 305
402.11426 -76.91045 164.75792 317
413.97427 -81.98342 164.85434 312
416.18881 -82.94318 167.84711 306
379.08859 -65.89304 171.58415 317
414.46939 -80.82971 164.85861 312
416.62320 -81.77351 167.84065 306
379.45654 -64.96212 171.57924 317
414.91617 -79.69193 164.83763 312
417.98477 -80.97220 167.63293 432
379.81357 -64.02673 171.59264 317
415.37839 -78.52117 164.83255 312
419.48868 -80.22367 167.33952 431
380.16302 -63.06432 171.60667 317
415.87466 -77.40768 164.82761 312
421.06656 -79.49078 167.05873 430
380.52979 -62.12093 171.59055 317
416.30103 -76.21434 164.85765 312
422.63440 -78.71400 166.78624 429
380.88004 -61.16986 171.62204 317
416.76309 -75.05411 164.82346 312
424.17874 -77.93318 166.48578 428
434.32373 -81.82787 167.78532 301
381.21783 -60.19170 171.63869 317
417.19547 -73.89659 164.80112 312
425.79919 -77.12819 166.19939 427
434.74335 -80.55579 167.83931 301
381.54828 -59.23334 171.64157 317
417.66367 -72.71380 164.81367 312
427.43097 -76.34538 165.94260 426
435.15237 -79.22139 167.84489 302
381.84540 -58.26861 171.63417 317
418.07718 -71.55279 164.80281 312
429.05087 -75.55824 165.62175 425
435.59756 -77.94088 167.84605 302
382.19257 -57.32362 171.60542 317
418.49911 -70.39083 164.81721 312
430.72830 -74.75708 165.33441 424
436.01242 -76.62908 167.86528 302
382.48920 -56.37762 171.63237 317
392.96609 -60.06754 171.74921 313
432.38101 -73.92752 165.03008 423
436.39227 -75.32842 167.85744 302
382.81931 -55.37501 171.60837 317
393.30353 -59.04610 171.73721 313
433.26599 -72.79269 164.91881 308
436.78790 -74.02221 167.87248 302
383.12476 -54.41838 171.65454 317
393.65720 -58.01520 171.72873 313
433.71246 -71.56905 164.89821 308
437.14456 -72.74160 167.86104 302
3389.84033 -1071.76123 104.21496 483
3400.64185 -1075.72363 158.30652 398
383.39310 -53.47158 171.62195 317
393.95132 -56.94847 171.75597 313
434.12152 -70.30908 164.90445 308
437.59515 -71.43826 167.90570 420
383.69000 -52.46918 171.63182 317
394.28735 -55.90965 171.71953 313
434.53079 -69.02155 164.90387 308
439.36081 -70.55145 167.58940 434
383.96786 -51.49148 171.62062 317
394.54962 -54.88935 171.75150 313
434.92169 -67.75217 164.91205 308
440.92163 -69.61482 167.29550 433
384.26968 -50.54599 171.66257 317
394.87811 -53.86958 171.72832 313
435.30701 -66.44006 164.90280 308
442.50543 -68.65659 167.00949 432
384.51984 -49.57172 171.66498 317
395.18002 -52.82370 171.73401 313
435.73178 -65.13156 164.91928 308
444.09695 -67.72765 166.75151 431
29801.28320 -9009.03906 5812.66797 1000
384.79199 -48.58337 171.64929 317
395.45535 -51.77806 171.76764 313
436.08029 -63.88327 164.89615 308
445.71179 -66.69741 166.48398 430
385.06433 -47.62391 171.64410 317
395.72833 -50.71634 171.73055 313
436.45667 -62.57484 164.87328 308
447.33286 -65.74083 166.18030 429
458.21588 -68.92332 167.88515 298
385.30292 -46.62992 171.67612 317
396.03513 -49.66700 171.76448 313
436.82367 -61.25619 164.88344 308
449.01004 -64.75622 165.93463 428
458.53958 -67.47453 167.90921 298
385.59525 -45.62622 171.66165 317
396.28445 -48.59461 171.75237 313
408.41714 -52.00623 171.85081 309
450.66852 -63.70604 165.64056 427
458.89328 -65.99740 167.91440 298
385.80447 -44.63500 171.64557 317
396.52939 -47.55398 171.76172 313
408.70505 -50.85468 171.89749 309
452.36954 -62.70460 165.28786 426
459.19525 -64.56175 167.93355 298
386.05066 -43.66636 171.67786 317
396.80545 -46.53587 171.78246 313
408.98389 -49.71383 171.87167 309
454.09293 -61.69647 164.98726 425
459.51956 -63.09460 167.93823 298
386.30750 -42.66941 171.64384 317
397.07355 -45.44405 171.75880 313
409.26257 -48.62596 171.85822 309
133.52623 -34.45749 -29.90941 304
459.79758 -61.67075 167.92081 298
386.50174 -41.67130 171.64198 317
397.30652 -44.42442 171.76068 313
409.49277 -47.45381 171.88766 309
454.91998 -58.93550 164.98749 304
460.08453 -60.19133 167.96663 298
386.76340 -40.69831 171.67258 317
397.53986 -43.36043 171.75429 313
409.79437 -46.34178 171.90833 309
455.29239 -57.52717 164.96106 304
460.40845 -58.74677 168.00287 298
386.95547 -39.68852 171.66899 317
397.76410 -42.30579 171.75931 313
410.00024 -45.18707 171.89435 309
455.61118 -56.11134 164.96973 304
461.23477 -57.45326 167.85640 421
387.15088 -38.68821 171.69028 317
397.99612 -41.24760 171.77277 313
410.27170 -44.08733 171.87537 309
455.94522 -54.69226 164.99223 304
462.84946 -56.29230 167.58594 453
387.38770 -37.74028 171.68330 317
398.20349 -40.14983 171.79890 313
410.47961 -42.94571 171.87668 309
456.24573 -53.24086 165.00552 304
464.18079 -55.07470 167.41772 452
387.59192 -36.70076 171.68839 317
398.40338 -39.09237 171.78914 313
410.74603 -41.80811 171.90771 309
456.57333 -51.81336 165.00526 304
465.48822 -53.77506 167.17357 451
387.74341 -35.72924 171.67209 317
398.63919 -38.05165 171.78891 313
410.92841 -40.63216 171.89392 309
456.79095 -50.41168 164.96666 304
466.84839 -52.52930 166.98912 451
387.96799 -34.71658 171.65353 317
398.83200 -36.95752 171.79111 313
411.17838 -39.52145 171.89383 309
457.08334 -48.99395 164.97958 304
468.18945 -51.29457 166.77892 450
388.14929 -33.74006 171.65718 317
399.05179 -35.88184 171.79224 313
411.39874 -38.39103 171.90370 309
425.52737 -41.17269 172.05338 305
469.54025 -50.00182 166.54985 449
388.32126 -32.70242 171.67839 317
399.24042 -34.82624 171.77510 313
411.57990 -37.21087 171.92535 309
425.70154 -39.94183 172.05678 305
470.91153 -48.68229 166.32083 448
388.49176 -31.73255 171.67819 317
399.42026 -33.73914 171.77724 313
411.76825 -36.06070 171.91643 309
425.96213 -38.70709 172.06635 305
472.36472 -47.44164 166.10428 447
388.65353 -30.72449 171.70276 317
399.57748 -32.71262 171.80991 313
411.94504 -34.90865 171.90488 309
426.16434 -37.47353 172.04138 305
473.71912 -46.06677 165.88657 446
388.78281 -29.68789 171.67921 317
399.76620 -31.64183 171.76389 313
412.16586 -33.75658 171.89214 309
426.33234 -36.26872 172.02567 305
475.17075 -44.80893 165.66115 445
485.38885 -46.57225 168.03731 293
388.96191 -28.67989 171.68716 317
399.90472 -30.53736 171.81343 313
412.34311 -32.60951 171.91539 309
426.54886 -35.02806 172.03220 305
476.62100 -43.47391 165.38814 444
485.55157 -44.91700 168.06792 293
389.09906 -27.68130 171.69543 317
400.08347 -29.45019 171.79106 313
412.50308 -31.46847 171.91483 309
426.74487 -33.81001 172.04330 305
478.05209 -42.05720 165.14148 443
485.72491 -43.34609 168.06331 293
389.22958 -26.68960 171.70120 317
400.23294 -28.40593 171.79843 313
412.65622 -30.32357 171.91995 309
426.90564 -32.54295 172.06171 305
478.39313 -40.54371 165.16002 300
485.91083 -41.75581 168.10666 294
389.37726 -25.66117 171.70840 317
400.33499 -27.30083 171.78148 313
412.83551 -29.17873 171.90775 309
427.04309 -31.31832 172.03094 305
478.59195 -39.00755 165.13992 300
486.10138 -40.13071 168.07838 294
389.50223 -24.68546 171.66417 317
400.51688 -26.25371 171.80843 313
412.97382 -28.04583 171.92305 309
427.23392 -30.04074 172.04639 305
478.82593 -37.45759 165.13657 300
486.24286 -38.52809 168.11829 294
389.61517 -23.63143 171.71126 317
400.64999 -25.15867 171.80519 313
413.10623 -26.84124 171.90230 309
427.37994 -28.80534 172.04010 305
479.03012 -35.84569 165.16066 300
486.33774 -36.90110 168.13187 294
389.74268 -22.63823 171.67027 317
400.74396 -24.10425 171.80544 313
413.25534 -25.70672 171.89641 309
427.49936 -27.59487 172.06242 305
444.05170 -29.69940 172.20422 301
486.40842 -35.27786 168.16138 294
389.84564 -21.64339 171.67531 317
400.85822 -22.97567 171.78632 313
413.38968 -24.55583 171.90874 309
427.68515 -26.35321 172.08160 305
444.19534 -28.37856 172.21858 301
486.53317 -33.64368 168.19321 294
389.94028 -20.62622 171.69762 317
400.97137 -21.93044 171.79257 313
413.48819 -23.40793 171.92758 309
427.82193 -25.09415 172.03191 305
444.32080 -27.01598 172.19971 301
487.17212 -32.07732 168.08597 457
390.01761 -19.60532 171.70535 317
401.09064 -20.82728 171.82217 313
413.62161 -22.22743 171.93880 309
427.93890 -23.85250 172.06625 305
444.46677 -25.71439 172.19714 301
488.39304 -30.57703 167.85480 457
390.13489 -18.57662 171.68459 317
401.20554 -19.77745 171.77516 313
413.69217 -21.06286 171.91780 309
428.04868 -22.57909 172.05644 305
444.61166 -24.31792 172.24097 301
489.61588 -29.09623 167.69267 456
390.21176 -17.58362 171.69093 317
401.29999 -18.69144 171.82117 313
413.79492 -19.92998 171.90186 309
428.17880 -21.31857 172.03528 305
444.70102 -22.95984 172.21535 301
490.87549 -27.55430 167.52715 455
390.28088 -16.54025 171.68726 317
401.34473 -17.58814 171.78226 313
413.91971 -18.76627 171.92023 309
428.26025 -20.08774 172.04254 305
444.80743 -21.66170 172.20546 301
492.08960 -26.00486 167.28963 454
390.36179 -15.54327 171.70195 317
401.45071 -16.48393 171.81184 313
414.01935 -17.58494 171.92574 309
428.36536 -18.82301 172.05289 305
444.95215 -20.28257 172.22974 301
493.35870 -24.52523 167.06035 453
390.42978 -14.50060 171.70551 317
401.51669 -15.42542 171.80573 313
414.06931 -16.40964 171.93680 309
428.42838 -17.61228 172.05301 305
445.02771 -18.91268 172.21629 301
494.66489 -22.91838 166.85881 452
272.52374 -4.70149 203.48410 285
401.58798 -14.30303 171.80595 313
414.16068 -15.26361 171.90028 309
428.51324 -16.33103 172.08981 305
445.14047 -17.57685 172.23122 301
495.88055 -21.33255 166.63960 452
272.48633 -4.39889 203.49423 285
401.66666 -13.22068 171.79697 313
414.21625 -14.07534 171.93298 309
428.59866 -15.06509 172.07028 305
445.21539 -16.19638 172.20758 301
496.99493 -19.78068 166.47670 483
272.44974 -4.11289 203.49678 285
401.69119 -12.15315 171.77823 313
414.26590 -12.90862 171.90205 309
428.64972 -13.83332 172.08611 305
445.28671 -14.84967 172.24576 301
497.65701 -18.14883 166.41176 482
272.44891 -3.81889 203.49789 314
401.76987 -11.07226 171.78337 313
414.34778 -11.77302 171.92892 309
428.72049 -12.54955 172.04399 305
445.32635 -13.52485 172.21744 301
464.77457 -14.59330 172.44670 297
272.43927 -3.52387 203.50763 314
401.78876 -9.99417 171.81177 313
414.36111 -10.58709 171.94246 309
428.79602 -11.31026 172.04707 305
445.44287 -12.15853 172.22830 301
464.85980 -13.12826 172.42038 297
272.43869 -3.22292 203.50917 314
401.83218 -8.89993 171.80125 313
414.42413 -9.46261 171.92804 309
428.83304 -10.09065 172.07365 305
445.46887 -10.78623 172.23105 301
464.90265 -11.62826 172.41473 297
272.42651 -2.93175 203.50378 314
401.86429 -7.81818 171.80997 313
414.44266 -8.28060 171.93372 309
428.85574 -8.83409 172.05280 305
445.49774 -9.42062 172.20673 301
464.98724 -10.17050 172.41193 297
272.41989 -2.63201 203.50201 314
401.87125 -6.71684 171.79482 313
414.46231 -7.08949 171.94374 309
428.89099 -7.58322 172.07033 305
445.51532 -8.09200 172.20235 301
465.02365 -8.70238 172.44292 297
272.41092 -2.33697 203.49782 314
401.88159 -5.61594 171.78429 313
414.47873 -5.91804 171.90115 309
428.92349 -6.30232 172.07852 305
445.57806 -6.71004 172.22813 301
465.07666 -7.20460 172.40762 297
272.39502 -2.04702 203.50931 314
401.88474 -4.50959 171.82141 313
414.50287 -4.77558 171.93370 309
428.91666 -5.02495 172.08533 305
445.58136 -5.37534 172.23647 301
465.08566 -5.73554 172.38615 297
272.38547 -1.74592 203.50621 314
401.89023 -3.41315 171.80981 313
414.52136 -3.58951 171.93716 309
428.94763 -3.79984 172.06433 305
445.61450 -3.99262 172.19638 301
465.09619 -4.28372 172.39586 297
272.36880 -1.45535 203.50720 314
401.90881 -2.36006 171.79564 313
414.52557 -2.41854 171.92117 309
428.95721 -2.52261 172.06459 305
445.62131 -2.66389 172.21199 301
451.70465 -2.69768 174.82927 423
272.34521 -1.16239 203.50977 314
401.91074 -1.25805 171.82423 313
414.49072 -1.24560 171.92790 309
428.92508 -1.26530 172.06725 305
445.58377 -1.30966 172.24796 301
465.07941 -1.33463 172.44296 297
272.33130 -0.86496 203.50598 314
401.85681 -0.17567 171.78947 313
414.51151 -0.12001 171.92258 309
428.89810 -0.04147 172.05510 305
445.60056 0.05248 172.21233 301
465.05798 0.14646 172.40402 297
272.31216 -0.56487 203.50473 314
401.83823 0.94883 171.78615 313
414.48209 1.07526 171.93311 309
428.87317 1.25999 172.06543 305
445.59702 1.44073 172.24496 301
451.56644 1.49820 174.90338 426
272.27985 -0.26968 203.49870 314
401.84653 2.02413 171.79762 313
414.42462 2.22347 171.90897 309
428.84323 2.49257 172.08380 305
445.54736 2.78511 172.19902 301
465.03836 3.10256 172.42265 297
272.26456 0.02777 203.50787 314
401.78070 3.13182 171.79044 313
414.41534 3.42468 171.92348 309
428.81174 3.76210 172.08414 305
445.51688 4.13907 172.19476 301
465.01682 4.61916 172.41454 297
272.23187 0.32380 203.50894 314
401.75702 4.21831 171.78940 313
414.33289 4.55470 171.90236 309
428.78683 4.98604 172.05736 305
445.46524 5.49268 172.24998 301
464.96881 6.11118 172.43745 297
4740.59375 133.81714 140.32446 436
272.20038 0.61164 203.50444 314
401.71448 5.30613 171.77431 313
414.30197 5.72506 171.94234 309
428.74982 6.27970 172.05214 305
445.37399 6.85915 172.22540 301
464.91855 7.57749 172.43901 297
4723.98877 161.46690 140.04486 458
272.17511 0.90433 203.49745 314
401.66095 6.37043 171.77417 313
414.25531 6.90010 171.90601 309
428.69940 7.54926 172.04964 305
445.35617 8.22958 172.20439 301
464.86548 9.04530 172.38506 297
4711.26367 187.98393 139.94005 454
272.14139 1.20194 203.50592 314
401.58707 7.46637 171.77480 313
414.17926 8.09372 171.93034 309
428.58453 8.76562 172.03641 305
445.25333 9.60411 172.21198 301
464.73978 10.49793 172.38332 297
4701.17920 214.85905 140.72420 397
272.10428 1.49844 203.50174 314
401.52493 8.58012 171.78529 313
414.10425 9.24168 171.93750 309
428.52478 10.01595 172.06972 305
445.18192 10.97018 172.24908 301
464.67111 12.03621 172.40863 297
4695.48340 242.86461 139.96730 394
272.06738 1.79757 203.49854 314
401.42618 9.66400 171.81398 313
414.04825 10.40558 171.91025 309
428.46948 11.26637 172.06706 305
445.14288 12.29524 172.22978 301
464.62592 13.48136 172.38986 297
4693.60889 270.34763 140.16724 304
272.03442 2.09561 203.49881 314
401.36041 10.72626 171.79514 313
413.97977 11.59063 171.90033 309
428.34933 12.53128 172.04706 305
445.04633 13.66628 172.19849 301
497.74860 17.16016 166.29750 483
4855.12256 308.70795 137.18845 370
271.98938 2.38579 203.49951 314
401.29221 11.81006 171.77791 313
413.86493 12.77228 171.93973 309
428.25717 13.81493 172.05348 305
444.90884 15.02471 172.20854 301
497.09323 18.85742 166.42383 483
4864.99023 337.70563 137.96455 372
271.95248 2.68652 203.50999 314
401.19238 12.93367 171.77496 313
413.77841 13.94778 171.89064 309
428.19766 15.06847 172.07430 305
444.81000 16.38561 172.22653 301
496.08374 20.44549 166.61121 452
4874.86035 366.52222 136.79401 321
271.91211 2.97679 203.49823 314
401.07068 14.00382 171.80835 313
413.64636 15.08694 171.89586 309
428.07635 16.29353 172.03329 305
444.67560 17.73469 172.19347 301
494.80539 22.05583 166.74826 453
4751.01416 384.83444 140.06897 499
271.86554 3.27617 203.49939 314
400.99796 15.11679 171.80664 313
413.55853 16.27429 171.90527 309
427.96069 17.58491 172.03107 305
444.56451 19.07659 172.21909 301
493.57938 23.61547 167.01753 454
4718.68799 409.80075 139.48514 498
271.81314 3.56384 203.50494 314
400.85257 16.19872 171.78754 313
413.44370 17.41880 171.93266 309
427.84125 18.84652 172.05185 305
444.43878 20.45341 172.20253 301
492.32538 25.11421 167.15633 455
4718.03809 438.72748 139.48805 498
271.77267 3.86887 203.49831 314
400.72958 17.28335 171.76579 313
413.31131 18.57258 171.88576 309
427.70218 20.05405 172.06323 305
444.32010 21.78804 172.20689 301
491.06848 26.63496 167.39720 456
271.71396 4.16211 203.50687 314
400.60242 18.35598 171.78868 313
413.20392 19.74263 171.88623 309
427.54089 21.32560 172.04387 305
444.16644 23.14872 172.21144 301
489.81461 28.22997 167.59798 456
271.67017 4.45269 203.50496 314
400.49393 19.44780 171.76302 313
413.03671 20.90230 171.91191 309
427.42108 22.58967 172.04807 305
444.00824 24.54341 172.22165 301
488.62100 29.73935 167.79193 457
4721.53320 521.79639 139.42770 498
271.60602 4.74497 203.50850 314
400.33658 20.52330 171.77330 313
412.90396 22.08632 171.88748 309
427.25351 23.85880 172.02795 305
443.85483 25.87152 172.21289 301
487.38919 31.23750 167.93269 458
4714.89600 549.80902 140.10895 498
4775.47363 556.76837 214.10727 398
271.54999 5.04720 203.50456 314
400.22095 21.61749 171.80074 313
412.73947 23.27064 171.88834 309
427.10440 25.08603 172.01811 305
443.64520 27.25492 172.19197 301
486.15292 32.73677 168.10968 459
4788.44287 587.53717 214.47716 498
271.49777 5.33232 203.50964 314
400.06577 22.71781 171.77112 313
412.60416 24.38160 171.90608 309
426.93265 26.31751 172.06302 305
443.47870 28.60759 172.22498 301
485.97256 34.33994 168.13446 294
4903.75244 631.47125 136.37375 459
271.43646 5.62753 203.50804 314
399.87433 23.82390 171.76926 313
412.43985 25.57590 171.88425 309
426.71286 27.56929 172.00821 305
478.47098 34.93560 165.07788 300
485.77783 35.94863 168.14218 294
4808.99463 647.51849 138.26907 282
271.38010 5.92096 203.49779 314
399.73450 24.86659 171.77971 313
412.25613 26.70324 171.87978 309
426.57346 28.83375 172.01967 305
478.23703 36.46041 165.13844 300
485.65637 37.57590 168.10916 294
4680.37256 656.59595 139.91600 497
271.31940 6.21502 203.50180 314
399.57956 25.98999 171.77486 313
412.03729 27.91651 171.87331 309
426.35849 30.09246 172.00621 305
478.04178 38.06051 165.08777 300
485.51120 39.23412 168.05319 294
4695.98145 687.05243 139.81383 497
271.24997 6.51212 203.50287 314
399.35794 27.07239 171.79221 313
411.86630 29.07336 171.87312 309
426.16415 31.32077 172.04285 305
477.79355 39.61545 165.10164 300
485.35883 40.79263 168.04510 293
4895.75000 746.98297 136.09210 326
271.18903 6.81018 203.50475 314
399.18256 28.15560 171.76062 313
411.69955 30.21104 171.91402 309
425.96030 32.59497 172.00531 305
477.56003 41.18295 165.09929 300
485.12601 42.41790 168.06978 293
4893.06738 776.59637 136.99721 326
271.10876 7.10299 203.49763 314
399.02167 29.18988 171.79128 313
411.44958 31.34755 171.87236 309
425.74496 33.85886 172.03224 305
476.74133 42.63406 165.22050 445
484.96011 44.04423 168.01862 293
4890.88574 804.97437 136.01530 326
271.03989 7.39448 203.50366 314
398.80481 30.31288 171.78773 313
411.25742 32.53072 171.86183 309
425.50043 35.06060 172.03316 305
475.26932 43.96175 165.43953 446
484.74585 45.65219 168.03624 293
4889.18115 834.13922 136.11671 326
270.96844 7.68172 203.50331 314
398.62634 31.39223 171.78435 313
411.06708 33.69841 171.88994 309
425.32095 36.32843 172.03777 305
473.89835 45.34349 165.70337 447
484.52902 47.31406 167.98492 293
4887.70703 864.37683 136.80225 326
270.90146 7.97167 203.50990 314
398.41434 32.44667 171.73615 313
410.85693 34.85391 171.86426 309
425.03577 37.58872 171.98962 305
472.43265 46.66648 165.92769 448
4885.84180 893.25702 136.79163 326
270.82886 8.26371 203.50020 314
398.16858 33.50865 171.75235 313
410.62317 35.96594 171.89249 309
424.82187 38.78552 172.02573 305
471.02249 47.99052 166.10864 449
4883.91455 922.63043 136.18748 326
270.74374 8.56479 203.50520 314
397.93915 34.62201 171.76180 313
410.37845 37.12970 171.85646 309
424.59421 40.01734 172.00104 305
469.68701 49.29829 166.34946 450
4882.12598 951.63220 136.80165 381
270.66187 8.85265 203.50934 314
397.70993 35.68099 171.75978 313
410.11789 38.27864 171.85066 309
424.29776 41.30371 172.00853 305
468.23694 50.52831 166.52870 450
4882.05859 981.91199 135.93764 380
270.58011 9.14222 203.50073 314
397.51913 36.76530 171.74864 313
409.87378 39.45680 171.85007 309
455.86438 49.44928 164.98413 304
466.87173 51.82470 166.78203 451
270.55301 9.44342 203.49567 286
397.24817 37.79959 171.75606 313
409.60172 40.57930 171.89339 309
455.54703 50.87600 164.96886 304
465.55655 53.12354 166.94081 452
270.50186 9.73826 203.47551 285
397.02054 38.88471 171.75262 313
409.34369 41.71582 171.86845 309
455.20749 52.29145 164.97971 304
464.17255 54.34053 167.18031 453
385.88379 37.38461 171.62950 317
396.74533 39.93811 171.73712 313
409.07883 42.86750 171.84714 309
454.86325 53.70275 164.98291 304
462.84802 55.62535 167.38281 454
385.60162 38.39642 171.63849 317
396.47156 41.03864 171.76367 313
408.79019 44.02050 171.87291 309
454.53552 55.12112 164.95677 304
461.24930 56.80183 167.63159 422
385.37204 39.38710 171.62529 317
396.20239 42.11693 171.73143 313
408.55688 45.14565 171.84499 309
454.14810 56.60781 164.92300 304
459.43188 57.85063 167.96744 423
385.10419 40.37820 171.64354 317
395.97311 43.15250 171.71219 313
408.25525 46.30910 171.84103 309
453.80197 57.98046 164.93417 304
459.03302 59.34806 167.91042 298
384.84448 41.37652 171.63878 317
395.67157 44.22656 171.72414 313
407.93970 47.46851 171.86646 309
453.39990 59.44561 164.97562 304
458.67404 60.78405 167.94255 297
384.55557 42.37218 171.61343 317
395.39114 45.30103 171.73277 313
407.66220 48.61862 171.82300 309
453.01624 60.84860 164.95992 304
458.34216 62.26076 167.89705 297
384.31143 43.36459 171.63258 317
395.08771 46.35990 171.74457 313
407.32727 49.75903 171.85399 309
452.26724 62.17616 165.04373 427
458.00308 63.69965 167.92558 297
384.00055 44.35553 171.60344 317
394.81265 47.39847 171.70454 313
406.99207 50.87640 171.82906 309
450.59406 63.17690 165.30937 428
457.64328 65.16998 167.88927 297
383.72992 45.37299 171.59760 317
394.46890 48.48160 171.69379 313
406.67636 51.98383 171.82106 309
448.84549 64.21204 165.61443 429
457.28271 66.68098 167.88133 297
383.44727 46.33395 171.62462 317
394.20190 49.52522 171.73462 313
434.97186 61.62545 164.84679 308
447.19449 65.21451 165.90884 430
456.92514 68.07339 167.86821 297
383.14240 47.35273 171.58850 317
393.87881 50.59328 171.70761 313
434.57404 62.91225 164.85298 308
445.54285 66.20092 166.16130 431
382.84824 48.32221 171.60776 317
393.52194 51.63023 171.68802 313
434.22244 64.25230 164.85165 308
443.84570 67.23581 166.49030 432
382.54370 49.31420 171.62424 316
393.21399 52.67099 171.70935 313
433.78278 65.52268 164.82913 308
442.22913 68.22785 166.70859 433
382.21704 50.31624 171.60367 316
392.87076 53.72293 171.68713 313
433.37939 66.84431 164.83101 308
440.59393 69.16091 166.96744 434
381.89551 51.30550 171.58972 316
392.55066 54.80112 171.68491 313
432.94427 68.12765 164.85237 308
439.02014 70.12415 167.24626 420
381.56525 52.26499 171.60806 316
392.18253 55.84846 171.68506 313
432.47345 69.43138 164.82620 308
437.20001 70.99192 167.57571 421
381.22675 53.24574 171.59154 316
391.81082 56.86698 171.67572 313
432.03552 70.68236 164.87442 308
435.53143 71.90974 167.81853 301
380.88428 54.22746 171.57613 316
391.46863 57.93917 171.68607 313
431.53552 71.95621 164.83392 308
435.09518 73.22701 167.86810 301
380.51486 55.19837 171.56491 316
391.11929 58.97725 171.67793 313
431.04889 73.23020 164.86160 308
434.64771 74.56696 167.83980 301
46421.80469 16500.67383 -2208.58081 1000
380.18854 56.19245 171.55505 316
390.70767 60.02050 171.67262 313
430.23602 74.37272 164.95409 425
434.23996 75.84869 167.78548 301
379.83206 57.14029 171.57022 316
416.14090 70.61127 164.76431 312
428.55399 75.20934 165.23528 426
433.80832 77.17268 167.80490 301
379.44058 58.09306 171.56160 316
415.65509 71.83428 164.77119 312
426.87405 76.06616 165.57779 427
433.35596 78.47333 167.77000 301
379.08002 59.10470 171.55853 316
415.19550 73.00429 164.75014 312
425.21686 76.82787 165.83160 428
432.91748 79.79444 167.76552 301
378.70447 60.02784 171.56834 316
414.74600 74.15132 164.79362 312
423.53784 77.63457 166.15256 429
432.40375 81.11206 167.79996 301
378.33313 61.03321 171.57564 316
414.21164 75.32696 164.79765 312
421.95163 78.44065 166.42903 430
431.91458 82.39899 167.76982 301
377.94138 61.98564 171.53513 316
413.70685 76.51741 164.79028 312
420.34436 79.21789 166.66737 431
377.55923 62.92340 171.55162 316
413.25439 77.69763 164.80025 312
418.77640 80.01003 166.92972 432
377.14481 63.87863 171.55879 316
412.72125 78.85707 164.80130 312
417.17395 80.72671 167.23300 433
376.73248 64.84598 171.56474 316
412.20975 80.00625 164.80824 312
415.65585 81.53385 167.46440 434
376.33636 65.79556 171.52129 316
411.66446 81.17317 164.77376 312
414.12665 82.24538 167.71443 435
375.91782 66.77879 171.54436 316
411.12885 82.36150 164.77293 312
413.46176 83.37580 167.79025 305
398.76025 78.17674 164.67659 317
410.61069 83.53488 164.80229 312
412.95724 84.57665 167.78729 305
398.26288 79.29227 164.67331 317
409.59482 84.43790 164.93956 437
412.46039 85.73331 167.76588 305
397.74963 80.33338 164.66985 317
408.13086 85.17642 165.20683 438
411.91541 86.95889 167.75739 305
397.19888 81.44994 164.71375 317
406.61728 85.87543 165.41887 419
411.40051 88.11947 167.71333 305
396.69357 82.48955 164.68864 317
404.95441 86.43450 165.77206 420
410.83643 89.27001 167.70555 305
2746.61426 1210.22693 169.97646 1000
396.13104 83.55384 164.69049 317
403.30060 87.03757 166.05118 421
410.35416 90.47397 167.69980 305
395.59229 84.61669 164.68462 317
401.64276 87.60233 166.36795 423
409.81393 91.67202 167.72769 305
395.03876 85.69799 164.70830 317
399.99243 88.19582 166.65775 424
409.24420 92.82140 167.70978 305
3659.93750 1726.64978 90.13387 490
3672.07568 1732.58472 152.12213 490
394.46875 86.73091 164.72667 317
398.40784 88.71379 166.96695 425
393.89865 87.76352 164.69618 317
396.77451 89.29272 167.27763 426
393.31192 88.83419 164.69685 317
395.23978 89.83351 167.56090 427
392.71167 89.88580 164.73959 317
394.08716 90.62155 167.71342 311
392.12573 90.91489 164.75021 428
393.48953 91.66434 167.70088 311
390.56754 91.41853 165.03287 429
392.89856 92.73832 167.68437 311
389.09808 91.94693 165.27473 430
392.34030 93.76008 167.69110 309
387.56888 92.49535 165.58047 431
391.78812 94.84817 167.69579 309
386.14572 93.01251 165.85588 432
391.18268 95.92805 167.67389 309
384.65823 93.52287 166.12576 433
390.61044 96.95319 167.65648 309
383.20193 94.00541 166.39555 434
390.04990 97.99762 167.64243 309
381.76358 94.47660 166.61388 435
389.42651 99.08990 167.62959 309
380.36905 94.98947 166.86116 436
388.85849 100.14963 167.62704 309
378.99634 95.47504 167.13979 437
377.56305 95.94872 167.39043 438
376.22174 96.41005 167.62917 439
375.58392 97.37961 167.64201 315
374.97235 98.36458 167.63113 315
374.38083 99.28945 167.59473 315
373.72232 100.21793 167.58615 315
373.12137 101.20090 167.61823 315
372.45602 102.11997 167.60039 315
371.82248 103.02521 167.62067 315
371.15594 103.99749 167.59273 315
370.51520 104.92145 167.56587 315
369.84784 105.81387 167.56416 313
369.21091 106.75098 167.56464 313
368.58289 107.68125 167.57779 313
33225.03906 24456.97852 5620.13525 1000
23898.27148 23375.25977 6269.08936 1000
4707.96924 4538.89355 111.52516 282
4679.72559 4565.93994 111.92567 442
4821.09863 4711.27051 216.41905 417
4662.60156 4604.00391 111.36636 430
4766.50195 4713.85693 215.91452 418
4647.45605 4645.26514 111.71355 416
4711.94873 4715.16064 216.91388 418
4632.66797 4688.31396 111.77605 415
4659.50391 4716.86865 217.17699 419
4621.97900 4733.82568 111.05711 401
4615.85352 4729.39697 215.87766 491
4617.58740 4788.16650 110.29510 388
4602.33691 4771.35889 216.56503 423
3547.55371 3667.75342 135.28778 497
