# .PCD v.7 - Point Cloud Data file format
VERSION .7
FIELDS x y z rgb
SIZE 4 4 4 4
TYPE F F F U
COUNT 1 1 1 1
WIDTH 1394
HEIGHT 1
VIEWPOINT 4907.624023 -4043.117188 152.862946 -0.040451 -0.141378 0.000280 0.989129
POINTS 1394
DATA ascii
-160.78648 -5.91857 261.70050 498
-149.31743 -5.69812 266.71725 498
-153.70937 -5.84086 273.70966 497
-126.75223 -5.46367 275.76385 286
-111.35271 -5.26839 279.06000 495
-198.45551 -6.42575 302.30136 495
-198.47020 -6.38571 309.64142 494
-198.31914 -6.33453 317.11984 493
-198.29997 -6.38524 324.57925 492
87.12362 -3.71749 176.94919 467
85.11218 -3.74022 179.00597 463
70.96260 -3.98932 178.29869 461
68.69617 -4.04252 180.56801 459
66.37054 -4.11440 182.94370 457
63.94636 -4.11991 185.33025 455
61.51807 -4.16292 187.82047 452
59.00905 -4.21941 190.32886 450
56.48655 -4.25639 192.90752 447
53.83334 -4.31883 195.55777 445
51.17452 -4.36641 198.28008 442
48.37854 -4.44625 201.04977 440
45.56768 -4.50274 203.92833 437
42.60380 -4.53367 206.86142 434
39.57859 -4.61812 209.89040 432
-159.84528 -8.29565 222.73169 499
-162.20547 -8.33924 229.22682 499
-150.75200 -8.13455 235.19115 497
-184.22910 -8.76628 243.69955 472
-162.73868 -8.32568 248.74724 499
-190.47487 -8.87609 258.08804 468
-160.85233 -8.35833 261.65146 498
-149.21754 -8.14090 266.69821 497
-152.27145 -8.14478 273.59369 378
-134.21091 -7.85800 277.06503 291
-111.11243 -7.40065 279.07477 495
87.04485 -4.58985 176.91023 467
85.02489 -4.65284 178.97954 463
70.89642 -5.02433 178.25372 461
68.59052 -5.03883 180.56735 459
66.22394 -5.12560 182.90631 457
63.83950 -5.16708 185.33032 454
61.41534 -5.23129 187.77019 452
58.93441 -5.28301 190.28687 450
56.36745 -5.37402 192.86385 447
53.70800 -5.41864 195.54314 445
51.03153 -5.52665 198.24556 442
48.24219 -5.55551 201.04781 440
45.41370 -5.63200 203.87964 437
42.49862 -5.69635 206.87508 434
39.45414 -5.81654 209.89175 432
-159.87106 -10.65191 222.74611 499
-178.29774 -11.11978 229.71272 476
-151.31503 -10.46794 235.14679 470
-177.21368 -11.10705 277.28683 287
-136.20700 -10.16412 277.35226 290
86.96438 -5.48774 176.91100 466
84.93068 -5.56000 178.95467 463
70.79764 -6.02734 178.21886 460
68.46489 -6.08626 180.54544 459
66.15305 -6.15618 182.91072 457
63.74020 -6.24584 185.29176 454
61.30635 -6.31944 187.76062 452
58.76547 -6.38477 190.27963 450
56.21320 -6.47009 192.85065 447
53.57736 -6.52295 195.50980 445
50.87903 -6.63292 198.24847 442
48.10435 -6.68619 201.01872 439
45.25811 -6.78635 203.91678 437
42.35323 -6.90092 206.82547 434
39.31699 -6.96106 209.90762 431
-159.87888 -13.10318 222.65916 499
-152.46645 -12.92206 235.27240 469
-179.70053 -13.77582 277.66901 286
86.90301 -6.42009 176.90437 466
84.86614 -6.50243 178.95959 463
70.71696 -6.98839 178.19621 460
68.38292 -7.07329 180.51707 458
66.02156 -7.16548 182.87534 456
63.64767 -7.25455 185.26479 454
61.18427 -7.35088 187.75388 452
58.65762 -7.46669 190.26024 449
56.09699 -7.55755 192.84427 447
53.48328 -7.65336 195.49129 444
50.76896 -7.73630 198.21614 442
47.98678 -7.87205 201.00996 439
45.15482 -7.94253 203.87148 437
42.21079 -8.09553 206.84785 434
39.18333 -8.17327 209.87172 431
-179.34485 -16.27032 223.05989 384
-153.93890 -15.30324 235.27258 398
86.80988 -7.30311 176.86124 466
84.79322 -7.40069 178.92488 463
70.61414 -8.03162 178.18501 460
68.31023 -8.10904 180.50388 458
65.93985 -8.21628 182.83667 456
63.51599 -8.30618 185.24309 454
61.04707 -8.41484 187.75523 452
58.54909 -8.53646 190.26599 449
55.99304 -8.67125 192.85922 447
53.34274 -8.75669 195.48647 444
50.65480 -8.88216 198.18999 442
47.87763 -9.02361 201.02963 439
44.99041 -9.13094 203.87956 436
42.06106 -9.23143 206.85994 434
39.04448 -9.40647 209.87659 431
-179.36896 -18.79430 223.04141 384
-156.96941 -17.77176 235.44470 396
86.73394 -8.20577 176.85144 466
84.68967 -8.32146 178.89407 463
70.49452 -9.03027 178.19006 460
68.19604 -9.13741 180.49564 458
65.82903 -9.24289 182.83644 456
63.38828 -9.36766 185.26117 454
60.96058 -9.47484 187.71361 451
58.45561 -9.61902 190.22028 449
55.83551 -9.74239 192.80373 447
53.23759 -9.87847 195.45921 444
50.50928 -9.98616 198.18982 441
47.73738 -10.15355 200.98479 439
44.87907 -10.29213 203.88347 436
41.93709 -10.43564 206.84698 434
38.90354 -10.56342 209.87251 431
-179.33292 -21.24968 222.99503 384
86.66817 -9.13587 176.84189 466
84.62368 -9.23018 178.86545 462
70.44595 -10.00886 178.13638 460
68.09250 -10.13351 180.45171 458
65.71849 -10.27097 182.81497 455
63.33062 -10.41000 185.24600 453
60.81711 -10.57557 187.66693 451
58.32229 -10.71333 190.22049 449
55.74705 -10.84546 192.81900 446
53.09185 -10.96302 195.45593 444
50.39562 -11.13660 198.16531 441
47.60198 -11.30589 200.96863 439
44.71187 -11.42833 203.84169 436
41.78962 -11.61772 206.79532 433
38.71579 -11.76010 209.84523 431
-179.35104 -23.88012 222.98643 384
86.56986 -10.01443 176.78462 466
84.53806 -10.15385 178.85989 462
70.33834 -11.02933 178.10629 460
68.00430 -11.18669 180.45650 457
65.65825 -11.31850 182.79427 455
63.19181 -11.48935 185.21709 453
60.71995 -11.64431 187.64638 451
58.22842 -11.77507 190.20248 449
55.62947 -11.92033 192.76239 446
52.97240 -12.11701 195.45045 444
50.24910 -12.27996 198.15929 441
47.48396 -12.42284 200.98943 439
44.58352 -12.63127 203.82312 436
41.65734 -12.78348 206.83160 433
38.57728 -12.98084 209.86609 430
-179.29587 -26.34238 223.01581 384
86.49927 -10.95226 176.76602 465
84.46184 -11.08183 178.82382 462
70.23660 -12.00870 178.08971 459
67.94388 -12.19915 180.40294 457
65.57395 -12.36003 182.75099 455
63.14281 -12.52199 185.19464 453
60.65618 -12.69535 187.62881 450
58.09375 -12.85631 190.19957 448
55.50311 -13.04725 192.74512 446
52.85223 -13.19492 195.42763 443
50.14750 -13.40334 198.14380 441
47.35248 -13.59544 200.93593 438
44.47441 -13.79020 203.84390 436
41.47551 -13.98915 206.81021 433
38.42208 -14.20590 209.83522 430
-179.39127 -28.94242 222.97575 384
86.41780 -11.83397 176.76125 464
84.35929 -12.00261 178.79326 462
76.58090 -12.54912 179.56300 308
67.85460 -13.21184 180.36777 457
65.48513 -13.38874 182.73328 455
63.02199 -13.55331 185.17099 453
60.54918 -13.75294 187.64738 450
58.00982 -13.94703 190.14938 448
55.38505 -14.14507 192.76485 446
52.74822 -14.32789 195.41731 443
49.97805 -14.53213 198.13660 441
47.18143 -14.74731 200.94887 438
44.29371 -14.95397 203.80186 435
41.34678 -15.18905 206.81729 433
38.30363 -15.42869 209.83473 430
-179.30560 -31.41056 223.01060 384
86.34952 -12.75858 176.72885 464
84.30108 -12.92298 178.78149 462
76.59853 -13.53191 179.55525 308
67.73604 -14.21626 180.34172 457
65.36458 -14.41875 182.70271 455
62.95139 -14.64672 185.13512 452
60.43018 -14.80739 187.59520 450
57.87028 -15.03526 190.15150 448
55.29037 -15.24056 192.74074 445
52.61215 -15.43920 195.38571 443
49.86265 -15.69208 198.10522 440
47.05211 -15.91023 200.93109 438
44.19345 -16.15634 203.80980 435
41.20180 -16.39014 206.77887 433
38.13386 -16.64177 209.84209 430
-179.41620 -33.94923 223.01819 384
-187.76811 -34.68392 278.92685 391
-187.72664 -34.73150 285.99799 390
-187.77226 -34.73490 293.09473 390
86.29729 -13.66856 176.69658 464
84.21481 -13.83426 178.75443 461
76.68153 -14.50264 179.59135 308
67.67721 -15.26292 180.33826 457
65.26996 -15.47956 182.67513 454
62.83061 -15.68165 185.12665 452
60.33969 -15.92127 187.55914 450
57.79065 -16.11349 190.11017 447
55.18072 -16.33876 192.72382 445
52.47764 -16.57346 195.34412 443
49.74505 -16.83837 198.07918 440
46.94985 -17.04631 200.91869 438
44.03561 -17.32961 203.79698 435
41.07240 -17.54673 206.75496 432
37.98530 -17.85378 209.83897 430
-179.39401 -36.53075 223.03490 384
-187.83936 -37.27186 278.99329 355
-187.72537 -37.34074 286.00571 355
-187.69255 -37.36936 293.13464 354
86.19209 -14.56109 176.67429 463
84.12826 -14.76628 178.72131 461
76.71118 -15.46343 179.59599 308
67.58704 -16.31002 180.30124 456
65.21799 -16.50446 182.68175 454
62.75778 -16.74222 185.10072 452
60.24308 -16.95371 187.55746 450
57.70814 -17.23852 190.06464 447
55.07470 -17.47665 192.68759 445
52.37573 -17.69182 195.35033 442
49.61640 -17.97687 198.08000 440
46.81387 -18.22465 200.89432 437
43.90957 -18.48347 203.81314 435
40.92936 -18.77293 206.74776 432
37.87494 -19.07635 209.82552 429
-179.32071 -39.11484 223.08813 384
86.14052 -15.47311 176.63170 463
84.08716 -15.68467 178.68080 461
76.77250 -16.40455 179.55429 308
67.50339 -17.33052 180.25017 456
65.12607 -17.54310 182.62022 454
62.68658 -17.78399 185.07632 452
60.17019 -18.07563 187.50815 449
57.61784 -18.32083 190.05486 447
54.97121 -18.55108 192.68410 444
52.25799 -18.81829 195.31778 442
49.50824 -19.12776 198.06152 439
46.67336 -19.37759 200.86826 437
43.77669 -19.67756 203.77737 435
40.77423 -19.99068 206.75902 432
37.68632 -20.25253 209.80417 429
-179.35013 -41.68103 223.01385 384
86.04736 -16.42314 176.59875 463
83.98042 -16.63170 178.66731 461
76.82458 -17.36370 179.58577 308
67.39828 -18.36144 180.24529 456
65.02346 -18.63258 182.58778 454
62.59106 -18.89120 185.02306 451
60.08962 -19.13667 187.51045 449
57.51162 -19.41932 190.05251 447
54.85875 -19.69363 192.62357 444
52.16655 -19.94598 195.31750 442
49.38926 -20.25051 198.06905 439
46.53190 -20.54293 200.86638 437
43.65882 -20.84980 203.75105 434
40.62948 -21.16192 206.71678 432
37.55350 -21.50096 209.82774 429
-179.42113 -44.19949 223.10466 384
86.00549 -17.30235 176.55081 463
83.90792 -17.55577 178.64252 461
76.85628 -18.32701 179.58733 308
67.34137 -19.40025 180.18918 456
64.96518 -19.64046 182.57761 454
62.47540 -19.91309 184.97565 451
59.95940 -20.20674 187.46341 449
57.38462 -20.50931 190.00380 446
54.75258 -20.81491 192.60234 444
52.04712 -21.11493 195.29199 441
49.26566 -21.38609 198.05272 439
46.44362 -21.73285 200.84172 436
43.50122 -22.04708 203.75789 434
40.53096 -22.37083 206.73024 431
37.42326 -22.73388 209.82585 429
-179.42647 -46.79933 223.02888 383
85.92509 -18.24841 176.51581 462
83.85335 -18.47863 178.61392 460
76.94384 -19.27964 179.58199 308
67.27736 -20.42445 180.15564 456
64.86664 -20.68522 182.54587 453
62.41582 -21.00531 184.97476 451
59.86522 -21.29256 187.42580 449
57.29155 -21.61845 189.99829 446
54.65493 -21.91254 192.59459 444
51.96856 -22.23487 195.24155 441
49.18171 -22.53037 198.03247 439
46.34403 -22.89969 200.82384 436
43.40468 -23.22008 203.73921 433
40.33926 -23.60605 206.72836 431
37.27140 -23.95209 209.80920 428
-179.37840 -49.38239 223.04683 383
85.84888 -19.16673 176.50252 462
83.79793 -19.41641 178.54939 460
77.00345 -20.24897 179.55302 308
67.16293 -21.44751 180.12920 455
64.76868 -21.76384 182.52919 453
62.29406 -22.07839 184.91762 451
59.77785 -22.37950 187.40668 448
57.21701 -22.67418 189.96867 446
54.55723 -23.03805 192.56374 444
51.83640 -23.33714 195.25366 441
49.05756 -23.70960 198.00745 438
46.20314 -24.04752 200.80336 436
43.26374 -24.44165 203.70726 433
40.23679 -24.82100 206.70216 430
37.10484 -25.18284 209.79568 428
-179.37764 -51.91339 223.07594 383
85.78215 -20.06027 176.46881 462
83.73065 -20.36495 178.53790 460
77.10666 -21.18893 179.56783 308
67.11461 -22.49413 180.11656 455
64.69046 -22.83717 182.45325 453
62.22769 -23.11585 184.90269 451
59.69083 -23.46411 187.38562 448
57.13121 -23.78282 189.91481 446
54.47677 -24.14497 192.53307 443
51.73203 -24.51131 195.20689 441
48.95694 -24.87632 197.95247 438
46.11509 -25.25048 200.79427 436
43.12940 -25.60591 203.68629 433
40.10699 -26.02328 206.71581 430
36.99546 -26.40395 209.79482 428
-179.39749 -54.46582 223.06544 383
85.73795 -21.01152 176.39740 462
83.65971 -21.27211 178.49995 460
77.19524 -22.15882 179.57700 308
67.02365 -23.54095 180.04971 455
64.60576 -23.85662 182.44847 453
62.13425 -24.20634 184.85495 450
59.61257 -24.57247 187.34747 448
57.05429 -24.90974 189.87973 445
54.39022 -25.25330 192.53781 443
51.67078 -25.63394 195.17926 441
48.87407 -26.02542 197.94745 438
45.98506 -26.41609 200.78906 435
43.00442 -26.83199 203.66322 433
39.97641 -27.20945 206.66321 430
36.82684 -27.64396 209.78302 411
-179.42709 -57.03357 223.09853 383
85.64516 -21.90581 176.35797 461
83.56734 -22.21390 178.44664 459
77.26463 -23.09763 179.57718 308
66.93163 -24.59113 180.03804 455
64.54406 -24.93446 182.39288 452
62.06679 -25.29373 184.83688 450
59.54523 -25.65045 187.34103 448
56.94963 -25.98988 189.89554 445
54.29451 -26.41664 192.50406 443
51.56318 -26.79879 195.14685 440
48.74347 -27.20465 197.90486 438
45.86213 -27.56973 200.78220 435
42.92431 -28.00352 203.68805 432
39.66423 -28.49623 206.66537 413
36.28686 -28.94678 209.76613 404
-179.67050 -59.68182 223.09160 361
85.59686 -22.85915 176.33530 461
83.49380 -23.18196 178.41267 459
77.33961 -24.07855 179.58295 308
66.86168 -25.60597 179.96638 454
64.46658 -25.96891 182.38611 452
61.98684 -26.36831 184.79654 450
59.45979 -26.73233 187.27200 447
56.82824 -27.12413 189.84608 445
54.19835 -27.53720 192.45663 442
51.44566 -27.92224 195.15297 440
48.62747 -28.32269 197.92400 437
45.59339 -28.78341 200.73874 418
42.42732 -29.29539 203.61589 415
39.14176 -29.76369 206.61862 413
35.65082 -30.30826 209.73570 403
-180.23184 -62.27225 223.10805 362
85.52696 -23.76632 176.29964 461
83.43693 -24.12515 178.34358 459
77.48199 -25.04702 179.55524 308
66.79053 -26.66126 179.94633 454
64.39577 -27.03126 182.31558 452
61.89883 -27.43099 184.74049 449
59.34061 -27.82689 187.26013 447
56.77946 -28.25700 189.80684 445
54.06971 -28.62482 192.41405 442
51.23843 -29.11196 195.11403 422
48.20222 -29.54154 197.85400 420
45.12917 -30.01936 200.67931 417
41.91807 -30.56063 203.57964 415
38.57948 -31.02553 206.58340 405
35.01392 -31.59221 209.69717 403
-180.90791 -64.96198 223.15485 361
85.47466 -24.70598 176.25182 461
83.37183 -25.02763 178.33939 458
77.58321 -25.97833 179.57886 308
66.73124 -27.70846 179.92351 454
64.31361 -28.11403 182.29530 451
61.83266 -28.53479 184.73026 449
59.26979 -28.91459 187.23903 447
56.58407 -29.36495 189.76047 427
53.71549 -29.82692 192.34027 424
50.78254 -30.32910 195.05348 422
47.72369 -30.77971 197.80862 419
44.62278 -31.28765 200.62363 417
41.40311 -31.80658 203.56030 414
37.99742 -32.34440 206.53610 405
34.38658 -32.96058 209.65094 402
-181.52873 -67.62786 223.06403 361
-54688.98047 -8842.37695 13184.82812 1000
85.43095 -25.64256 176.21518 460
83.31239 -25.97523 178.28477 458
77.68940 -26.95533 179.55493 308
66.66661 -28.77284 179.83942 453
64.23526 -29.20194 182.22296 451
61.67866 -29.60970 184.67982 431
58.92913 -30.08807 187.12654 428
56.13765 -30.52057 189.65833 426
53.25399 -31.03849 192.27252 424
50.30643 -31.52888 194.96426 421
47.29910 -32.03058 197.73477 419
44.15939 -32.53908 200.59145 416
40.89283 -33.12157 203.51146 407
37.38323 -33.67542 206.53221 404
33.70301 -34.31779 209.63847 401
-182.16353 -70.35576 223.17397 361
85.35324 -26.55398 176.16568 460
83.26819 -26.95333 178.24358 458
77.78424 -27.89334 179.55443 308
66.54576 -29.84324 179.79535 435
63.95376 -30.27709 182.15105 432
61.28979 -30.78246 184.59132 430
58.53381 -31.22068 187.06142 428
55.73869 -31.71343 189.59380 425
52.84357 -32.22869 192.19774 423
49.86323 -32.76304 194.89697 421
46.81127 -33.28672 197.68005 418
43.64165 -33.82925 200.49913 415
40.29617 -34.42743 203.43924 406
36.73553 -35.04148 206.50264 403
33.09552 -35.67931 209.63753 401
-183.33885 -73.20479 216.25928 425
-184.13293 -73.33093 223.23210 323
85.27968 -27.52500 176.10750 460
83.17575 -27.88503 178.19711 458
77.92869 -28.82974 179.55733 308
66.15944 -30.96827 179.71008 434
63.56461 -31.41945 182.05103 432
60.87508 -31.88443 184.48204 430
58.14691 -32.41601 186.93549 427
55.27703 -32.91376 189.51053 425
52.40964 -33.42659 192.14008 422
49.39157 -33.96425 194.81586 420
46.31662 -34.55130 197.57288 417
43.16486 -35.12463 200.45638 415
39.72646 -35.74343 203.40053 405
36.12700 -36.37088 206.42769 403
32.41260 -37.03643 209.58548 400
-183.27133 -75.86208 216.20605 425
-186.70667 -76.42899 223.17206 323
85.22269 -28.46163 176.04236 459
83.13650 -28.83836 178.13002 457
78.04304 -29.77264 179.58818 308
65.81399 -32.08361 179.56688 433
63.20377 -32.56686 181.94058 431
60.48688 -33.04978 184.36961 429
57.73039 -33.57640 186.88060 427
54.88456 -34.09105 189.43520 424
51.94297 -34.66896 192.05632 422
48.96192 -35.21552 194.74010 419
45.86055 -35.81288 197.52551 417
42.58459 -36.41318 200.39609 407
39.09467 -37.04824 203.34030 405
35.51392 -37.70017 206.38232 402
31.74228 -38.44487 209.55060 399
-183.28349 -78.42513 216.20895 425
-189.32933 -79.60139 223.29161 322
85.18669 -29.39980 175.99385 459
83.07950 -29.80297 178.10640 457
78.18116 -30.75447 179.57712 308
65.45210 -33.19066 179.44566 433
62.78402 -33.69299 181.85933 431
60.07619 -34.20741 184.25188 428
57.30383 -34.74915 186.76968 426
54.43673 -35.31213 189.34018 424
51.48558 -35.85877 191.94577 421
48.45760 -36.44053 194.69023 419
45.35405 -37.04801 197.46869 416
42.01849 -37.68849 200.34763 407
38.49923 -38.41599 203.28003 404
34.87024 -39.11131 206.37056 401
31.10471 -39.82635 209.54718 399
-183.20645 -81.05611 216.26822 424
85.12482 -30.32153 175.93645 459
83.03104 -30.75535 178.03961 457
78.34972 -31.69424 179.57021 308
65.09785 -34.33108 179.35335 432
62.39396 -34.84515 181.72392 430
59.67415 -35.39661 184.15112 428
56.87799 -35.94567 186.66542 425
54.00464 -36.53458 189.23924 423
51.06417 -37.12000 191.87950 421
48.00414 -37.73132 194.61136 418
44.84250 -38.36423 197.40013 409
41.39973 -39.02707 200.25685 406
37.87070 -39.75958 203.25719 403
34.24286 -40.46538 206.32130 401
30.42447 -41.24469 209.53468 398
-183.13797 -83.75383 216.19905 439
85.06525 -31.27893 175.89615 458
82.87270 -31.73900 177.95125 438
78.46499 -32.61935 179.54749 308
64.71921 -35.47928 179.23906 432
62.01637 -36.00640 181.60713 429
59.28387 -36.54900 184.05821 427
56.44899 -37.15094 186.57584 425
53.55753 -37.74456 189.16776 422
50.58088 -38.35821 191.80389 420
47.53784 -39.00418 194.53572 417
44.24665 -39.67910 197.32848 408
40.80375 -40.38288 200.18504 405
37.28119 -41.10390 203.18962 403
33.59997 -41.84130 206.28635 400
29.76830 -42.62695 209.49515 397
-183.11801 -86.38800 216.20444 439
84.91145 -32.25516 175.81435 440
82.60250 -32.71948 177.84364 437
78.64700 -33.56878 179.58250 308
64.33455 -36.58362 179.12465 431
61.62467 -37.18691 181.48500 429
58.88645 -37.73899 183.96326 426
56.03674 -38.33270 186.48439 424
53.15845 -38.97828 189.05273 422
50.13919 -39.59355 191.70210 419
47.03109 -40.27717 194.44206 410
43.69802 -40.96087 197.22690 407
40.20466 -41.71130 200.15524 405
36.65335 -42.45988 203.11124 402
32.93261 -43.24686 206.22470 399
29.09574 -44.07524 209.43478 397
-183.00928 -88.95893 216.24815 439
84.60877 -33.24755 175.67709 439
82.33117 -33.75185 177.72699 437
78.79976 -34.51676 179.56116 308
63.94606 -37.75631 178.98940 430
61.26648 -38.36263 181.39233 428
58.47585 -38.94118 183.81920 426
55.64413 -39.57502 186.34923 423
52.71457 -40.20917 188.95929 421
49.69145 -40.84915 191.64540 419
46.50856 -41.55585 194.36996 409
43.09472 -42.29888 197.18315 407
39.61494 -43.07492 200.05196 404
36.00100 -43.88558 203.07457 401
32.28506 -44.67777 206.21474 399
28.38898 -45.55156 209.40591 396
-188.33568 -92.83578 209.16180 485
-187.99228 -92.70399 216.27991 297
84.34665 -34.26305 175.56378 438
82.01036 -34.77396 177.62651 436
78.94044 -35.48008 179.58380 308
63.59047 -38.91426 178.87762 430
60.87202 -39.50635 181.26387 427
58.10013 -40.13741 183.71803 425
55.19471 -40.77634 186.24126 423
52.24765 -41.45713 188.85933 420
49.21978 -42.12572 191.51274 411
45.93832 -42.91023 194.26765 409
42.56358 -43.67098 197.08241 406
39.05202 -44.46029 199.97406 403
35.41436 -45.28041 203.00084 401
31.61899 -46.13117 206.12811 398
27.72349 -46.96108 209.40009 395
-187.87440 -95.40742 209.17914 485
-194.88142 -96.91500 216.26521 295
84.09136 -35.24224 175.43593 438
81.73619 -35.82031 177.50456 436
79.10641 -36.41628 179.55161 308
63.19625 -40.10219 178.75906 429
60.46543 -40.68802 181.12936 427
57.66561 -41.38483 183.62770 425
54.77652 -42.00800 186.17612 422
51.80457 -42.73983 188.73834 420
48.72349 -43.42216 191.43277 410
45.35897 -44.20393 194.16927 408
41.93828 -45.02108 196.99976 405
38.40330 -45.83162 199.91322 403
34.75375 -46.65625 202.92995 400
30.94060 -47.54177 206.07832 397
27.01542 -48.46149 209.36653 395
-187.36928 -97.99818 209.14651 485
83.81356 -36.26814 175.32094 437
81.43446 -36.81456 177.38431 435
79.01713 -37.40400 179.49110 431
62.81493 -41.26044 178.63548 428
60.09575 -41.92357 181.02798 426
57.27944 -42.60741 183.51682 424
54.36631 -43.27080 186.04517 422
51.36903 -43.98973 188.64178 419
48.15929 -44.72416 191.31792 410
44.82362 -45.55450 194.06158 407
41.39516 -46.36256 196.89940 405
37.80187 -47.19924 199.84482 402
34.09966 -48.10277 202.91576 399
30.29175 -48.98463 206.06264 397
26.32781 -49.92462 209.29448 394
-186.88857 -100.59676 209.14209 485
83.53741 -37.30406 175.19911 437
81.16192 -37.87486 177.25017 434
78.73272 -38.46748 179.36113 431
62.45127 -42.41647 178.48531 428
59.71402 -43.13834 180.88449 426
56.86359 -43.78470 183.38922 423
53.95948 -44.54568 185.91658 421
50.86560 -45.24210 188.55956 411
47.61205 -46.04103 191.21275 409
44.26871 -46.87977 193.97340 406
40.79567 -47.73771 196.85675 404
37.18073 -48.62104 199.80792 401
33.44915 -49.51738 202.84972 399
29.63761 -50.45448 206.03096 396
25.61214 -51.47237 209.28340 393
-186.91803 -103.24487 209.11952 485
83.24554 -38.31517 175.08929 436
80.85840 -38.93644 177.15396 434
78.42406 -39.52176 179.26337 430
62.09021 -43.60453 178.34427 427
59.27913 -44.33754 180.77681 425
56.45879 -45.05478 183.24747 423
53.50779 -45.79211 185.81705 420
50.33853 -46.56800 188.43478 411
47.07724 -47.40401 191.11394 408
43.68808 -48.24184 193.88991 406
40.19348 -49.12554 196.77480 403
36.56738 -50.04646 199.71994 401
32.78889 -50.97549 202.77513 398
28.93947 -51.92343 205.97540 395
24.50907 -53.07824 209.25739 341
82.95336 -39.37487 174.96107 435
80.60386 -39.98436 177.03255 433
78.09374 -40.62344 179.14275 429
61.67644 -44.83631 178.18842 426
58.92469 -45.54274 180.63699 424
56.02687 -46.30923 183.12906 422
53.02296 -47.04666 185.70836 412
49.85277 -47.88246 188.32076 410
46.50380 -48.72446 191.01146 408
43.09534 -49.63273 193.77771 405
39.57880 -50.50220 196.63541 402
35.91702 -51.43341 199.63191 400
32.17609 -52.40831 202.72086 397
28.03441 -53.48194 205.92192 384
23.24294 -54.74118 209.20380 341
82.68744 -40.39919 174.79375 435
80.31140 -41.02359 176.87085 433
77.79819 -41.69144 179.02628 429
61.32399 -46.04994 178.07785 426
58.52507 -46.75687 180.51460 424
55.61755 -47.55650 183.01402 421
52.51909 -48.37394 185.58904 412
49.32761 -49.18945 188.16580 409
45.98768 -50.06987 190.89398 407
42.53158 -50.97421 193.70753 404
38.95853 -51.95039 196.58441 402
35.31615 -52.91259 199.57449 399
31.29165 -53.98079 202.64888 385
27.07289 -55.08755 205.81244 372
21.98832 -56.42349 209.16147 340
82.41531 -41.42920 174.67445 434
80.00301 -42.07861 176.77800 430
77.48814 -42.77180 178.89789 428
68.58981 -45.20425 179.67404 304
58.08574 -48.03443 180.35715 423
55.16244 -48.82385 182.87907 413
52.02487 -49.68349 185.45871 411
48.76989 -50.56434 188.09631 409
45.39292 -51.47235 190.77071 406
41.92642 -52.39860 193.56783 404
38.36400 -53.32509 196.47099 401
34.48759 -54.41057 199.46437 387
30.43589 -55.51482 202.55396 384
25.93158 -56.74682 205.76288 371
20.75248 -58.13575 209.07494 337
82.10990 -42.48104 174.55692 433
79.71191 -43.16901 176.65028 430
77.17280 -43.89572 178.77771 427
68.82863 -46.17069 179.62585 304
57.69577 -49.26944 180.24538 422
54.70127 -50.12142 182.74310 413
51.51959 -50.99762 185.31525 410
48.22190 -51.88294 187.95195 408
44.84818 -52.82306 190.64244 405
41.35092 -53.78654 193.46976 403
37.55829 -54.83167 196.37485 389
33.64500 -55.96232 199.35860 386
29.47738 -57.08704 202.49130 373
24.79426 -58.41261 205.67758 370
18.99537 -59.97228 209.00890 263
81.85029 -43.56597 174.42383 433
79.42644 -44.23418 176.49890 429
76.87996 -44.96236 178.63264 427
69.05872 -47.19424 179.64499 304
57.28951 -50.51026 180.11995 421
54.17307 -51.42030 182.59389 412
51.00516 -52.33104 185.17709 410
47.68576 -53.24782 187.80983 407
44.29876 -54.21360 190.57213 405
40.57907 -55.23089 193.36154 391
36.76397 -56.34666 196.24463 388
32.75076 -57.49829 199.27299 385
28.39963 -58.71189 202.39041 372
23.62358 -60.07624 205.59178 369
81.55185 -44.64150 174.26636 432
79.12138 -45.35674 176.37233 428
76.54011 -46.07418 178.48056 426
69.30489 -48.18623 179.63307 304
56.84231 -51.81176 179.97406 414
53.67976 -52.72792 182.48479 411
50.48188 -53.66384 185.03372 409
47.17686 -54.60146 187.71919 406
43.53008 -55.68795 190.42606 392
39.81078 -56.76892 193.20416 390
35.89397 -57.88855 196.15549 387
31.86208 -59.05544 199.18861 385
27.27114 -60.38897 202.26872 371
22.41905 -61.80942 205.55444 369
81.27781 -45.72002 174.12814 431
78.81348 -46.41413 176.21643 428
76.26006 -47.20567 178.38451 425
69.53937 -49.20842 179.64061 304
56.33185 -53.09749 179.77904 413
53.18828 -54.04166 182.33221 411
49.95855 -54.99079 184.89064 408
46.42250 -56.03005 187.53922 394
42.77084 -57.12659 190.27953 391
38.95855 -58.25496 193.06654 389
35.04551 -59.44201 196.01508 386
30.80104 -60.71252 199.06296 373
26.11245 -62.08186 202.16913 370
21.27622 -63.53508 205.46967 368
81.00494 -46.78823 173.95741 431
78.52849 -47.55467 176.07382 427
75.93754 -48.33813 178.21730 425
69.76314 -50.19187 179.65225 304
55.86922 -54.40330 179.63411 412
52.72529 -55.38818 182.13777 410
49.27557 -56.41982 184.70081 395
45.67400 -57.48801 187.38885 393
42.00239 -58.62889 190.08748 391
38.14411 -59.76964 192.97543 388
34.20473 -60.99028 195.91785 385
29.73981 -62.37877 198.94577 372
24.98299 -63.81149 202.05887 369
20.07067 -65.32449 205.37520 367
80.71825 -47.86869 173.81680 430
78.24043 -48.63536 175.92168 426
75.63984 -49.46796 178.11220 424
70.02980 -51.16451 179.65862 304
55.38818 -55.73374 179.47876 411
52.00211 -56.79184 181.95709 397
48.55196 -57.86366 184.57220 395
44.91484 -59.00085 187.21381 392
41.20711 -60.14715 189.98730 390
37.33644 -61.35287 192.79817 387
33.20593 -62.62512 195.76622 374
28.62581 -64.03866 198.80701 371
23.82207 -65.53416 201.95738 369
18.79240 -67.08399 205.31245 366
80.44602 -48.96697 173.67557 429
77.92002 -49.76447 175.81432 426
75.31287 -50.59212 177.97162 423
70.30583 -52.20336 179.62878 304
54.74179 -57.12161 179.26102 398
51.35266 -58.21593 181.80101 396
47.80484 -59.32198 184.34372 394
44.19159 -60.44264 187.01456 391
40.39147 -61.63656 189.80070 389
36.47577 -62.88991 192.67622 386
32.16999 -64.24937 195.60071 373
27.51319 -65.75649 198.69334 370
22.63285 -67.30963 201.84526 368
17.56842 -68.87038 205.19543 365
80.14922 -50.08527 173.53055 429
77.62466 -50.88297 175.63809 425
75.01357 -51.73428 177.82997 423
70.57842 -53.16823 179.62383 304
54.06923 -58.50685 179.08246 398
50.61581 -59.64844 181.58104 395
47.08207 -60.80585 184.18925 393
43.39234 -61.96504 186.87260 390
39.56630 -63.22506 189.65851 388
35.61792 -64.48298 192.51498 375
31.07376 -65.93510 195.49571 372
26.38556 -67.45900 198.56252 369
21.45229 -69.05900 201.76254 367
16.27502 -70.76383 205.11478 364
79.86462 -51.18230 173.37476 428
77.33199 -52.01376 175.50700 424
74.69360 -52.91174 177.66824 422
70.84641 -54.14840 179.62180 304
53.39239 -59.90103 178.84900 397
49.89878 -61.09027 181.37791 394
46.33265 -62.25069 183.98355 392
42.61403 -63.51804 186.67714 390
38.78342 -64.75099 189.50278 387
34.53303 -66.15772 192.36951 374
29.98003 -67.68333 195.32558 371
25.24334 -69.21891 198.43492 369
20.22898 -70.90799 201.65732 366
15.00921 -72.62161 205.02522 363
79.62008 -52.31745 173.21970 427
77.04296 -53.18650 175.32292 424
74.36033 -54.06332 177.50208 421
71.12027 -55.18292 179.61064 304
52.72167 -61.37256 178.66530 396
49.20640 -62.54374 181.19191 394
45.57393 -63.74292 183.80334 391
41.81710 -65.05759 186.49043 389
37.92457 -66.35266 189.34534 386
33.51366 -67.82122 192.15651 373
28.89632 -69.42256 195.16103 370
24.03742 -71.05734 198.28477 368
18.99931 -72.73102 201.54228 365
12.42942 -74.95826 204.89868 317
79.30367 -53.41520 173.04082 427
76.71373 -54.31797 175.18129 423
74.04306 -55.22989 177.38657 421
71.32030 -56.19948 179.61093 418
52.01066 -62.79702 178.44156 395
48.49469 -64.02617 180.97798 393
44.83305 -65.31489 183.61708 390
41.04814 -66.60242 186.36194 388
36.92966 -68.01287 189.16081 375
32.43045 -69.53376 192.01540 372
27.74653 -71.14591 195.01607 369
22.88465 -72.85644 198.12500 367
17.13946 -74.82356 201.38391 335
9.29994 -77.56593 204.68141 316
79.00983 -54.56234 172.90488 426
76.44034 -55.48430 175.04820 422
73.71656 -56.42175 177.22675 420
70.97245 -57.38037 179.44901 418
51.34500 -64.27431 178.22234 394
47.75937 -65.54991 180.77654 392
44.05879 -66.85379 183.43695 389
40.24149 -68.16404 186.12617 387
35.91103 -69.68405 188.91606 374
31.40141 -71.26894 191.84195 371
26.66546 -72.96629 194.87537 368
21.36063 -74.77477 198.00452 336
14.65806 -77.12309 201.21114 318
6.01503 -80.18587 204.49219 315
78.76608 -55.72250 172.72534 425
76.12929 -56.61529 174.84891 422
73.43152 -57.61284 177.05759 419
70.66533 -58.62281 179.32645 417
50.63453 -65.73643 178.00829 393
47.03622 -67.03157 180.57489 391
43.28257 -68.41425 183.19473 389
39.34135 -69.81829 185.95549 375
34.90034 -71.39461 188.71332 373
30.29302 -73.04014 191.63283 370
25.45588 -74.79355 194.65936 337
19.12650 -77.02288 197.73138 335
11.54653 -79.77420 200.90544 317
2.58226 -82.92391 204.31187 314
78.46962 -56.82704 172.55153 425
75.82806 -57.83016 174.71602 421
73.08710 -58.78174 176.89542 419
70.07968 -59.92137 179.11606 388
59.14005 -63.90329 179.73532 300
46.28023 -68.59734 180.37361 390
42.52043 -69.95689 183.03166 388
38.31335 -71.51652 185.75220 374
33.86621 -73.14809 188.53525 372
29.19968 -74.81714 191.46555 369
23.35906 -76.98448 194.41507 336
16.87029 -79.29726 197.53195 334
8.35882 -82.41019 200.68140 316
-0.89278 -85.83720 204.12387 313
78.18159 -57.99356 172.41519 424
75.49010 -59.00177 174.54549 420
72.68932 -60.04490 176.70547 389
69.40387 -61.26083 178.88087 387
59.47720 -64.92964 179.72893 300
45.53538 -70.12616 180.14401 389
41.68334 -71.56886 182.78249 376
37.35892 -73.21805 185.50124 373
32.82676 -74.85693 188.33980 371
27.45909 -76.89589 191.16838 338
21.20924 -79.17634 194.11517 335
13.86484 -81.94270 197.18610 317
4.98893 -85.21393 200.41919 314
-4.52852 -88.75578 203.86609 312
77.88966 -59.16089 172.23611 423
75.21297 -60.19022 174.38931 419
72.01999 -61.42058 176.49561 388
68.70071 -62.64081 178.63750 400
59.82773 -66.03648 179.72342 300
44.80147 -71.69244 179.92937 388
40.72742 -73.23888 182.54764 375
36.28921 -74.94003 185.28931 372
31.38026 -76.81194 188.05659 339
25.34129 -79.09556 190.91899 337
18.95172 -81.52386 193.85123 334
10.69412 -84.65096 196.91711 316
1.58221 -88.09690 200.12450 313
-17.96916 -95.50805 203.12337 258
77.61684 -60.37507 172.02776 421
74.58663 -61.51364 174.10194 390
71.34340 -62.76244 176.22246 387
68.05448 -64.03068 178.41833 399
60.18407 -67.05529 179.73511 300
43.99920 -73.28963 179.67535 387
39.72465 -74.97015 182.34451 374
35.25596 -76.68344 185.02396 340
29.42335 -78.93901 187.71785 338
23.24231 -81.32479 190.58710 336
16.14885 -84.07240 193.50504 317
7.41806 -87.46033 196.55725 315
-2.85032 -91.35831 199.78654 286
77.12862 -61.61192 171.81950 391
73.95693 -62.84170 173.85397 389
70.66396 -64.16996 175.94434 387
67.42032 -65.43338 178.19150 398
60.53569 -68.14823 179.71281 300
43.09304 -74.95368 179.41768 376
38.77082 -76.69434 182.04332 373
33.34047 -78.79665 184.64758 339
27.34890 -81.18910 187.40947 337
21.02592 -83.61296 190.24802 334
13.02384 -86.76096 193.10991 316
4.05660 -90.32835 196.19226 314
-16.58811 -98.39202 198.80882 267
77.33479 -62.59343 171.80222 316
73.30681 -64.22547 173.59825 388
69.98138 -65.56484 175.71259 386
66.72651 -66.86848 177.93753 397
60.91264 -69.17881 179.73560 300
42.17141 -76.67020 179.17769 375
37.17589 -78.69767 181.69212 341
31.40765 -80.96386 184.31868 338
25.30463 -83.43453 187.00441 336
18.39735 -86.17430 189.86844 318
9.84010 -89.61520 192.74608 315
-1.72295 -94.23481 195.66338 286
77.69119 -63.54476 171.77679 316
72.63021 -65.58537 173.34158 387
69.27412 -66.96276 175.46443 385
66.03401 -68.30252 177.67252 396
61.28852 -70.21663 179.71448 300
40.89371 -78.51118 178.84012 342
35.32156 -80.81126 181.30940 339
29.37508 -83.19802 183.92468 337
23.10558 -85.75560 186.63503 335
15.39762 -88.90829 189.43576 316
6.27332 -92.60653 192.32605 287
-15.74504 -101.58786 194.38229 267
78.02384 -64.47701 171.79790 316
71.97453 -67.01160 173.03488 386
68.54873 -68.42355 175.19054 384
65.37502 -69.75941 177.42509 395
61.61302 -71.28490 179.71756 300
39.10288 -80.62146 178.38318 341
33.39475 -82.99826 180.86896 338
27.31899 -85.49353 183.48250 336
20.74145 -88.21941 186.24847 318
12.25054 -91.75659 188.98013 315
-0.61607 -97.03080 191.56020 286
78.35489 -65.42545 171.79977 316
71.30153 -68.41798 172.75766 385
67.87589 -69.88603 174.88878 383
64.67028 -71.21929 177.17924 394
61.74830 -72.40761 179.63538 392
37.29121 -82.76272 177.93814 340
31.42298 -85.21411 180.46785 337
25.26134 -87.84210 183.08093 335
17.75147 -90.97651 185.74672 317
7.42621 -95.35584 188.27562 287
78.69853 -66.37068 171.76353 316
70.61246 -69.85208 172.47514 384
67.14851 -71.35156 174.60379 382
63.97633 -72.72268 176.96153 393
60.99974 -73.98019 179.41695 391
35.38577 -84.94431 177.45253 339
29.44917 -87.48895 180.01074 336
23.06113 -90.22073 182.62132 318
14.66275 -93.83784 185.20647 316
0.61139 -99.84824 187.35017 286
79.05035 -67.31165 171.77754 316
69.91612 -71.32275 172.17041 383
66.41647 -72.83839 174.31601 381
63.26223 -74.23508 176.65369 392
60.28503 -75.49151 179.17181 390
47.74564 -80.94493 179.82101 296
27.33687 -89.82355 179.51299 335
20.14349 -93.00348 182.08167 317
8.66187 -98.00220 184.26375 287
79.43078 -68.26138 171.78325 316
69.24544 -72.79267 171.87318 382
65.66137 -74.36234 174.05327 380
62.54528 -75.73775 176.40099 391
59.54926 -77.05415 178.89723 389
48.21029 -82.12408 179.85280 296
25.28708 -92.23917 179.06535 334
16.30481 -96.21056 181.37985 288
1.88076 -102.64581 183.25345 286
79.79311 -69.20766 171.78581 316
69.55267 -73.82059 171.84769 312
64.92554 -75.86713 173.74081 379
61.79047 -77.30957 176.14238 390
58.74467 -78.67678 178.66534 388
48.63756 -83.25502 179.83398 296
22.53817 -94.98800 178.46669 317
9.95991 -100.63356 180.27177 287
-24.26311 -116.11494 179.37209 340
80.18398 -70.10150 171.75665 316
69.96554 -74.77498 171.87430 312
64.16362 -77.44498 173.41945 378
61.07711 -78.85859 175.87932 389
57.97468 -80.25641 178.40190 387
49.06171 -84.36434 179.79991 296
17.61595 -98.75621 177.47392 288
3.23313 -105.37820 179.09543 286
-19.68798 -115.82848 179.93126 341
80.52942 -71.05569 171.74078 316
70.35154 -75.78338 171.86023 312
63.40336 -79.04060 173.13087 377
60.33699 -80.44652 175.57890 388
57.23444 -81.90897 178.08437 386
49.50663 -85.46545 179.83147 296
11.36303 -103.21895 176.24776 287
-15.20077 -115.64655 175.97702 342
-15.94402 -115.97440 180.37190 284
80.93255 -71.98345 171.76880 316
70.75803 -76.77750 171.86223 312
62.61094 -80.60344 172.82817 376
59.55488 -82.08157 175.30748 387
55.22438 -84.13554 177.60255 330
49.96883 -86.59808 179.81775 296
32.35673 -94.96880 179.96089 292
-7.16082 -113.64877 177.12888 286
-15.29910 -117.48987 180.39604 284
81.28610 -72.91839 171.75371 316
71.19299 -77.76940 171.86523 312
61.90804 -82.21646 172.50572 388
58.11267 -84.02166 174.82117 331
53.08918 -86.44460 177.01381 329
47.91973 -88.94373 179.30823 328
32.85605 -96.16984 179.98598 292
11.59368 -106.41328 180.15585 288
-14.66595 -119.04790 180.37959 284
81.70198 -73.83408 171.74742 316
71.62471 -78.72572 171.86388 312
61.01357 -83.94704 172.17493 331
56.07878 -86.33046 174.24084 329
50.84847 -88.87759 176.41884 327
45.54454 -91.47369 178.69267 326
33.40503 -97.37820 179.98587 292
12.13366 -107.79342 180.10306 288
-14.03187 -120.50786 180.37657 284
82.09007 -74.75586 171.77196 316
72.02932 -79.73743 171.85728 312
60.61579 -85.38248 171.93489 308
53.93518 -88.74162 173.58940 328
48.56060 -91.37519 175.75494 326
43.09436 -94.05889 178.13814 325
33.92168 -98.61184 179.97012 292
12.75410 -109.11056 180.16176 288
82.50165 -75.64436 171.73750 316
72.47559 -80.73425 171.83476 312
61.07508 -86.44904 171.94278 308
51.69774 -91.18477 172.93848 327
46.19375 -93.89465 175.14961 325
40.62069 -96.72936 177.50421 324
34.48603 -99.82998 179.96086 292
13.31736 -110.45561 180.09647 288
82.90973 -76.55220 171.72516 316
72.92818 -81.68964 171.84052 312
61.55885 -87.49586 171.93358 308
49.41044 -93.70887 172.27832 326
43.80714 -96.59351 174.48808 324
38.05358 -99.52377 176.83092 323
28.39959 -104.47079 178.73291 276
12.82543 -112.39753 179.89963 275
83.35327 -77.48410 171.76093 316
73.35549 -82.65774 171.84218 312
62.02124 -88.51888 171.91362 308
49.04600 -95.28412 172.02269 304
41.24928 -99.32133 173.77827 323
35.27701 -102.44448 176.19597 275
18.57784 -111.05654 176.78944 275
-76.03604 -160.18680 164.93567 284
83.74528 -78.37522 171.71745 316
73.80254 -83.61952 171.82167 312
62.49727 -89.55960 171.91240 308
49.59511 -96.41791 172.00375 304
38.68751 -102.13258 173.08136 322
25.59453 -109.00352 174.07800 274
-3.78654 -124.50014 172.44443 292
84.19354 -79.29941 171.75272 316
74.25343 -84.62326 171.81090 312
63.01226 -90.61880 171.89870 308
50.08319 -97.53556 172.00543 304
35.19802 -105.49081 172.16963 300
17.67661 -114.84571 172.31303 296
-3.13576 -125.97723 172.51242 292
84.61739 -80.22523 171.72089 316
74.72422 -85.56726 171.79266 312
63.48727 -91.65326 171.93460 308
50.63939 -98.62074 172.03325 304
35.77224 -106.68535 172.16263 300
18.31426 -116.13956 172.27632 296
-47.79436 -152.02693 163.93954 372
85.03111 -81.09714 171.74896 316
75.17097 -86.52962 171.81326 312
64.02712 -92.70998 171.88191 308
51.21091 -99.73470 172.00085 304
36.32760 -107.90288 172.11711 300
18.94918 -117.46457 172.26427 296
-43.59833 -151.90671 164.53374 363
85.46197 -82.02557 171.71320 316
75.68512 -87.49959 171.81332 312
64.50032 -93.69341 171.88489 308
51.73376 -100.84182 171.99919 304
36.97642 -109.13284 172.14000 300
19.64163 -118.76150 172.25870 296
-39.60472 -151.80469 165.15198 365
85.95163 -82.91049 171.72383 316
76.14423 -88.45472 171.82753 312
65.01283 -94.76758 171.87856 308
52.30755 -101.97208 172.02205 304
37.55460 -110.31033 172.11195 300
20.28498 -120.11361 172.28215 296
-37.77916 -153.00349 165.35252 287
86.39829 -83.81768 171.74005 316
76.60366 -89.40485 171.80064 312
65.57815 -95.77357 171.91693 308
52.86386 -103.05576 172.02892 304
38.17008 -111.49408 172.10336 300
20.97142 -121.38004 172.28166 296
-36.91091 -154.58954 165.34882 286
86.82615 -84.66803 171.73416 316
77.11000 -90.33676 171.78705 312
66.08649 -96.76636 171.90500 308
53.43820 -104.17664 172.01901 304
38.80490 -112.67144 172.12305 300
21.65741 -122.70463 172.29118 296
-35.95793 -156.29727 165.29578 286
87.30869 -85.55557 171.70554 316
77.60313 -91.31050 171.79753 312
66.60024 -97.81413 171.87279 308
53.98206 -105.23620 171.96806 304
39.42482 -113.90582 172.13612 300
22.34194 -123.96906 172.24969 296
-35.11742 -157.92046 165.34985 286
87.75945 -86.45280 171.71352 316
78.11407 -92.25157 171.76843 312
67.16432 -98.79874 171.89680 308
54.59739 -106.32024 171.99135 304
40.07918 -115.04694 172.14140 300
-20.54531 -151.36858 163.00677 371
-34.19697 -159.52705 165.29941 286
88.23168 -87.33673 171.70409 316
78.63539 -93.20567 171.79588 312
67.68208 -99.84232 171.87291 308
55.16794 -107.43713 171.99059 304
40.68322 -116.22260 172.11613 300
-16.98081 -151.29564 163.56409 372
88.72842 -88.22910 171.69627 316
79.14178 -94.11562 171.76144 312
68.26193 -100.83292 171.84909 308
55.76456 -108.52408 171.96822 304
41.34369 -117.43374 172.08141 300
-13.50655 -151.23451 164.11172 373
89.20874 -89.08746 171.69661 316
79.66008 -95.04837 171.79323 312
68.81722 -101.84142 171.86728 308
56.37825 -109.60690 171.97821 304
41.96937 -118.57681 172.10977 300
-10.10631 -151.14624 164.70830 375
89.71303 -89.98476 171.66747 316
80.18861 -95.96957 171.77347 312
69.39051 -102.84097 171.86423 308
57.01417 -110.66286 171.95276 304
-19.74692 -12.50100 -4.65398 300
-6.80745 -151.03677 165.18732 376
90.18396 -90.83091 171.69290 316
80.74347 -96.90324 171.76253 312
69.95398 -103.84819 171.87314 308
57.62993 -111.77370 171.95256 304
43.32291 -120.94498 172.09302 300
-3.53736 -150.96436 165.73328 377
90.72012 -91.71394 171.67500 316
81.26860 -97.82691 171.77623 312
70.51025 -104.83659 171.85378 308
58.24017 -112.83899 171.96764 304
43.97407 -122.08349 172.10062 300
-2.19260 -152.16707 165.78316 291
91.22633 -92.56653 171.65887 316
81.80718 -98.77201 171.75824 312
71.13585 -105.79346 171.87331 308
58.85974 -113.89769 171.97115 304
44.67417 -123.26356 172.06235 300
-1.27312 -153.55832 165.79941 291
91.70239 -93.41174 171.69504 316
82.33110 -99.70351 171.75717 312
71.69677 -106.81483 171.86098 308
59.52621 -114.92490 171.95605 304
7.75606 -149.47472 163.10365 285
-0.34817 -154.93672 165.78207 291
92.21404 -94.26845 171.66904 316
82.87659 -100.58883 171.76770 312
72.28160 -107.79253 171.82376 308
60.15902 -116.00927 171.94193 304
8.90359 -150.68590 163.14857 382
0.59343 -156.29340 165.81160 291
92.75323 -95.14427 171.65479 316
83.47508 -101.53899 171.77116 312
72.89832 -108.74128 171.82445 308
60.81516 -117.04443 171.92445 304
11.87079 -150.62971 163.64107 383
1.54988 -157.74718 165.83356 290
93.29179 -95.97807 171.64714 316
84.00424 -102.44225 171.74791 312
73.50566 -109.72267 171.84085 308
61.46308 -118.13131 171.90837 304
14.79906 -150.54784 164.10170 385
2.43742 -159.14862 165.83546 290
93.81020 -96.82246 171.67171 316
84.57504 -103.34984 171.72787 312
74.11595 -110.70274 171.84845 308
62.07568 -119.16779 171.94669 304
17.64271 -150.44998 164.58774 386
94.34906 -97.69525 171.66338 316
85.16918 -104.25511 171.72150 312
74.70313 -111.69775 171.82880 308
62.77177 -120.21876 171.89575 304
20.44725 -150.43668 165.08212 387
94.90314 -98.51675 171.65535 316
85.73510 -105.10901 171.75114 312
75.37397 -112.61346 171.79770 308
63.43169 -121.23672 171.89583 304
23.22320 -150.27753 165.51645 386
95.43736 -99.35155 171.62878 316
86.31992 -106.01090 171.73462 312
75.96339 -113.59695 171.80954 308
64.13461 -122.29458 171.91092 304
25.97935 -150.18852 165.99457 387
96.01544 -100.20446 171.66145 316
86.90662 -106.91529 171.69653 312
76.60013 -114.55378 171.78667 308
64.83334 -123.30692 171.92938 304
27.42934 -151.01291 166.16249 297
96.53123 -101.01743 171.64565 316
87.49187 -107.79465 171.69771 312
77.23711 -115.50688 171.78780 308
33.52441 -148.33554 163.26315 296
28.28170 -152.27837 166.17180 297
97.13235 -101.81898 171.62711 316
88.12990 -108.66652 171.68376 312
77.90221 -116.44657 171.82167 308
34.24171 -149.69391 163.22075 296
29.19640 -153.50247 166.16708 297
97.69460 -102.64339 171.64671 316
88.73357 -109.55345 171.70581 312
78.54530 -117.41883 171.76483 308
36.46041 -149.80289 163.59154 391
30.11872 -154.72411 166.11522 297
98.24300 -103.48614 171.64561 316
89.31732 -110.45954 171.69806 312
79.24284 -118.31932 171.79854 308
38.99473 -149.70061 164.01939 392
30.97613 -155.95181 166.15663 297
98.84936 -104.27825 171.60350 316
89.97655 -111.31760 171.71812 312
79.89205 -119.27821 171.79655 308
41.46220 -149.58789 164.45235 394
31.88939 -157.19064 166.17722 297
99.41637 -105.13042 171.59601 316
90.58668 -112.19817 171.66351 312
80.52810 -120.18906 171.75049 308
43.91310 -149.51208 164.93758 395
32.82257 -158.38036 166.17317 297
99.98176 -105.93021 171.60840 316
91.21861 -113.01831 171.68532 312
81.19724 -121.12527 171.75369 308
46.26682 -149.46768 165.30548 396
100.60107 -106.71405 171.59979 316
91.85352 -113.88498 171.66164 312
54.40607 -144.63902 163.48074 300
48.67292 -149.35153 165.75369 397
101.19021 -107.52779 171.58287 316
92.49409 -114.74899 171.66258 312
55.10433 -145.79262 163.41524 300
50.96462 -149.26285 166.13997 398
101.78049 -108.33130 171.58061 316
93.12611 -115.59126 171.65402 312
55.83795 -146.98053 163.35258 300
52.21412 -150.02345 166.27240 302
102.37817 -109.13475 171.59743 316
93.75557 -116.46141 171.68712 312
56.55713 -148.14450 163.36737 300
53.13451 -151.08879 166.29167 302
103.00916 -109.89514 171.60884 316
94.43851 -117.28688 171.65617 312
57.66593 -148.98196 163.42520 401
53.98086 -152.13979 166.26747 302
103.63810 -110.68590 171.57957 316
95.07851 -118.13066 171.63507 312
59.84637 -148.91931 163.82771 403
54.89857 -153.23360 166.26640 301
104.24796 -111.49203 171.56439 316
95.75617 -119.00732 171.64447 312
61.99798 -148.84560 164.23460 404
55.78553 -154.29204 166.25917 301
104.87263 -112.24860 171.56747 316
96.42941 -119.83730 171.63831 312
64.04799 -148.75125 164.62032 405
56.72640 -155.38495 166.26585 301
105.49043 -113.01856 171.57950 316
97.06785 -120.65416 171.65472 312
66.11539 -148.68221 165.00688 406
57.62637 -156.40901 166.25229 301
106.14089 -113.79284 171.54294 316
74.09136 -143.22459 163.55154 304
68.16256 -148.62665 165.35655 407
58.54093 -157.44519 166.28705 301
106.76328 -114.57742 171.54495 316
74.83727 -144.23729 163.55307 304
70.21650 -148.55077 165.68500 408
107.40858 -115.34677 171.53336 316
75.57100 -145.27640 163.52614 304
72.19104 -148.49242 166.07492 409
108.08645 -116.08536 171.55974 316
76.31693 -146.32610 163.47545 304
73.91299 -148.56898 166.34479 306
108.73161 -116.84024 171.53224 316
77.04884 -147.35110 163.40736 304
74.78339 -149.53204 166.33978 306
109.37464 -117.57038 171.55258 316
77.97919 -148.21954 163.46164 412
75.69096 -150.43445 166.36295 306
110.01713 -118.35523 171.53590 316
79.80330 -148.18643 163.79161 413
76.57317 -151.37099 166.36203 306
110.69209 -119.06909 171.51140 316
81.66104 -148.10741 164.16788 414
77.48605 -152.28796 166.39142 306
90.79928 -140.60999 163.65575 311
83.47484 -148.03969 164.47609 415
78.39903 -153.23495 166.34952 306
91.56760 -141.54314 163.66791 311
85.26798 -147.98561 164.80989 417
79.28767 -154.09430 166.35065 306
92.33777 -142.44846 163.62276 311
87.06427 -147.90875 165.13820 418
80.18672 -155.02625 166.41078 306
93.07085 -143.35764 163.61470 311
88.79619 -147.83841 165.47591 419
81.09424 -155.93488 166.37924 305
93.85058 -144.26297 163.56441 311
90.55898 -147.79073 165.81477 420
82.01933 -156.82210 166.35899 305
94.67117 -145.11880 163.54388 311
92.25019 -147.70412 166.11028 421
95.44200 -146.02971 163.54257 311
93.94694 -147.64279 166.41899 422
96.20326 -146.89198 163.49820 311
94.90055 -148.36182 166.47517 310
97.32069 -147.47359 163.56897 413
95.78165 -149.15143 166.44067 310
99.00247 -147.30064 163.93451 414
96.68112 -149.99673 166.44345 310
100.70072 -147.15436 164.27357 415
97.54179 -150.75282 166.44794 310
102.40810 -146.96921 164.62773 416
98.40249 -151.57700 166.46471 310
104.05616 -146.83391 164.92386 417
99.29740 -152.34984 166.47839 310
105.71194 -146.65154 165.25276 418
100.18809 -153.14351 166.47742 310
107.28216 -146.49759 165.58531 419
101.09027 -153.94154 166.44310 310
108.90430 -146.34470 165.90703 420
102.01613 -154.70009 166.45808 310
