# .PCD v.7 - Point Cloud Data file format
VERSION .7
FIELDS x y z rgb
SIZE 4 4 4 4
TYPE F F F U
COUNT 1 1 1 1
WIDTH 1434
HEIGHT 1
VIEWPOINT 5081.756836 -4032.808105 153.474792 -0.038321 -0.142585 -0.004847 0.989029
POINTS 1434
DATA ascii
-846.41925 2050.48242 215.47552 493
-845.45752 2049.10498 253.13945 493
-844.60101 2047.68359 291.13510 494
-843.78339 2046.01672 328.51440 494
131.15240 152.25578 166.41002 314
130.29630 151.62317 166.41995 314
130.14896 149.99292 166.72856 274
130.23473 147.98567 167.16861 473
129.52824 147.21822 167.22606 470
128.42751 146.94426 167.06013 440
127.50628 148.23639 169.87044 489
127.08016 147.01151 166.79140 430
126.35562 148.01407 169.73297 431
125.66799 147.12236 166.53670 429
124.91316 148.12672 169.45395 430
124.49672 146.90851 166.41045 314
123.67816 146.19673 166.39430 314
122.89406 145.49977 166.41934 314
120.25282 148.88927 168.58141 491
122.05722 144.79849 166.38661 314
120.62302 144.91389 166.12497 422
115.78339 150.94020 167.42174 312
119.11613 145.04233 165.79253 421
114.96745 150.18970 167.43350 312
117.54218 145.21962 165.51474 420
111.44513 152.61761 166.36751 310
115.99095 145.34137 165.17665 419
110.64418 151.85677 166.41589 310
114.43202 145.52174 164.86508 418
109.77096 151.06641 166.36606 310
112.84593 145.68614 164.52573 417
108.94849 150.26291 166.38400 310
111.26090 145.82303 164.20715 416
108.10056 149.49780 166.37801 310
109.60113 145.98186 163.88309 415
107.29366 148.70438 166.36174 310
107.93522 146.17720 163.56743 414
106.45224 147.87250 166.41539 310
106.88634 145.67427 163.44849 312
105.62234 147.07687 166.40779 310
106.10825 144.83694 163.46669 312
104.58829 146.47749 166.31487 412
105.31921 143.96500 163.46367 312
102.83610 146.70407 165.97659 411
93.99338 156.30865 166.34367 305
104.55161 143.09000 163.46512 311
101.11792 146.86421 165.59048 410
93.10936 155.45448 166.34050 306
103.85901 142.18520 163.50243 311
99.32996 147.05968 165.26660 409
92.21856 154.56274 166.34520 306
103.12831 141.28729 163.52998 311
97.50794 147.23950 164.87764 408
91.34196 153.64841 166.36067 306
102.43152 140.40039 163.53049 311
95.72034 147.36354 164.56386 417
90.49994 152.78560 166.33234 306
101.71225 139.47754 163.56033 311
94.01116 147.42000 164.24782 416
89.62705 151.87326 166.36298 306
121.39162 117.96767 171.37450 316
92.20112 147.48920 163.91176 415
88.77163 150.96971 166.33549 306
120.75665 117.20076 171.39905 316
90.43554 147.50890 163.52501 414
87.96142 150.00729 166.33723 306
120.13715 116.46574 171.38647 316
89.20786 147.00912 163.41301 303
87.07121 149.10762 166.33916 306
119.52843 115.74029 171.39444 316
88.49857 146.01427 163.43268 304
86.28547 148.19240 166.35123 305
118.93874 114.99532 171.39133 316
87.78799 144.93854 163.46356 304
84.89923 147.73410 166.19572 412
118.31659 114.22461 171.40916 316
87.10345 143.91125 163.51587 304
83.01045 147.83052 165.80400 410
117.70345 113.44253 171.43259 316
86.42088 142.91385 163.51740 304
81.06232 147.91676 165.48093 409
71.15817 157.17963 166.27010 301
117.15098 112.70309 171.42473 316
85.74430 141.84134 163.59995 304
79.11710 147.99153 165.12790 408
70.31725 156.17856 166.23859 301
116.55022 111.91862 171.39810 316
85.03002 140.79036 163.58740 304
77.16508 148.07220 164.71254 407
69.42123 155.10593 166.28226 301
115.93636 111.13802 171.42632 316
107.55027 118.76421 171.50723 312
75.17598 148.13959 164.38405 406
68.58656 154.10207 166.22701 301
115.37594 110.35665 171.43167 316
106.94424 117.94028 171.48376 312
73.12314 148.23369 163.96104 405
67.73671 153.02344 166.24854 301
114.82403 109.58995 171.44304 316
106.31123 117.08712 171.52240 312
71.03267 148.29665 163.58405 404
66.84386 151.98807 166.23428 301
114.22812 108.82751 171.44908 316
105.69444 116.26712 171.52893 312
69.29420 148.09711 163.27397 300
65.97943 150.93445 166.23340 301
113.65244 108.02728 171.42470 316
105.08413 115.40401 171.49246 312
68.61507 146.92740 163.36333 300
65.17026 149.85579 166.25247 301
-28752.74805 24999.14258 -6756.63623 1000
113.09165 107.24454 171.44281 316
104.49422 114.59290 171.49782 312
67.93399 145.71530 163.39908 300
64.31113 148.78421 166.23228 301
112.53120 106.46210 171.47072 316
103.87702 113.73325 171.53873 312
67.26429 144.54890 163.41942 300
62.37719 148.65831 165.94789 399
112.01934 105.63696 171.45607 316
103.29064 112.89005 171.51041 312
66.57882 143.36290 163.47379 300
60.18158 148.68340 165.54033 398
111.45214 104.84273 171.47546 316
102.73940 112.01646 171.53320 312
92.78037 120.13647 171.63535 308
57.90579 148.79089 165.10123 397
110.91058 104.03555 171.46800 316
102.12616 111.16851 171.54988 312
92.16758 119.21962 171.59653 308
55.54700 148.86774 164.72655 396
45.26183 157.24397 166.10057 297
110.35677 103.22781 171.48282 316
101.55294 110.28284 171.53477 312
91.53774 118.32375 171.64825 308
53.20259 148.95773 164.29259 395
44.39624 156.00923 166.10861 297
109.86027 102.40066 171.46394 316
100.99022 109.39170 171.57024 312
90.93584 117.37726 171.65746 308
50.78248 149.10643 163.84676 393
43.55738 154.79869 166.15477 297
109.31480 101.59444 171.48293 316
100.40162 108.52110 171.53407 312
90.29971 116.43789 171.62270 308
48.35232 149.15660 163.42198 392
42.71505 153.54732 166.10304 297
108.81286 100.80140 171.46933 316
99.85519 107.64737 171.57654 312
89.71044 115.50867 171.61740 308
46.82361 148.53043 163.20485 296
41.84918 152.32481 166.15889 297
108.27958 99.94363 171.49818 316
99.30917 106.76862 171.57697 312
89.07787 114.53110 171.64229 308
46.13744 147.16631 163.26585 296
40.98458 151.11208 166.12399 297
107.74399 99.11490 171.48907 316
98.75928 105.91646 171.56502 312
88.52515 113.57378 171.63681 308
45.54036 145.84720 163.34480 296
40.12799 149.92979 166.11186 297
107.27824 98.30253 171.51793 316
98.18509 105.01102 171.56786 312
87.92053 112.65118 171.63316 308
76.10291 121.37383 171.73529 304
38.12528 149.57526 165.80063 388
106.75742 97.48091 171.50282 316
97.66744 104.12940 171.57857 312
87.32919 111.68597 171.64578 308
75.51133 120.37463 171.78726 304
35.42219 149.64281 165.40521 387
106.25600 96.62334 171.49380 316
97.13641 103.24594 171.56140 312
86.76799 110.70757 171.64935 308
74.83240 119.33213 171.75755 304
32.69761 149.77560 164.90929 385
105.76257 95.79430 171.51210 316
96.59850 102.32062 171.56871 312
86.16644 109.74496 171.64903 308
74.21949 118.26730 171.79416 304
29.93735 149.89680 164.45996 384
17.08198 159.00136 165.97488 290
105.27863 94.93060 171.50160 316
96.08453 101.43233 171.57404 312
85.61372 108.78970 171.69421 308
73.59680 117.21613 171.77245 304
27.08372 150.02669 163.97343 383
16.15511 157.65581 165.94499 291
104.79240 94.08584 171.53996 316
95.55896 100.53770 171.62320 312
85.04774 107.80811 171.66814 308
72.99805 116.18874 171.81087 304
24.18259 150.08185 163.46652 382
15.24806 156.30290 165.95140 291
104.33083 93.26627 171.53691 316
95.06555 99.63180 171.60390 312
84.49133 106.83147 171.69260 308
72.40754 115.16319 171.80952 304
21.91078 149.73907 163.11699 293
14.38053 154.91779 165.97678 291
103.87675 92.39047 171.55095 316
94.54929 98.67535 171.61378 312
83.94843 105.86531 171.69670 308
71.78686 114.06791 171.78856 304
21.42542 148.16057 163.16945 292
13.52158 153.51579 165.96680 291
103.40559 91.54523 171.55539 316
94.04568 97.78742 171.59631 312
83.41651 104.89938 171.72490 308
71.23404 113.01704 171.77510 304
57.12477 122.45907 171.91034 300
12.58803 152.19762 165.93799 291
102.94612 90.65932 171.52609 316
93.55038 96.88976 171.59387 312
82.87772 103.92376 171.69330 308
70.61532 111.98421 171.80869 304
56.47017 121.28156 171.91100 300
11.71780 150.79118 165.96295 291
-51765.74219 34283.13672 3269.33423 1000
102.48450 89.82716 171.55615 316
93.05488 95.95560 171.59560 312
82.33613 102.90136 171.69452 308
70.07642 110.88968 171.81219 304
55.86353 120.14725 171.90518 300
9.11582 150.53391 165.50529 378
102.02607 88.94166 171.55186 316
92.53551 95.02937 171.61240 312
81.83323 101.91125 171.69044 308
69.48914 109.80579 171.81593 304
55.22397 118.97054 171.91396 300
5.94888 150.60655 165.00906 377
101.60423 88.06847 171.53136 316
92.06731 94.07600 171.62024 312
81.28791 100.91791 171.73175 308
68.94496 108.76629 171.83028 304
54.59715 117.84471 171.96385 300
2.71926 150.71817 164.52609 376
101.12145 87.20797 171.54416 316
91.59737 93.16643 171.61623 312
80.79112 99.94614 171.72021 308
68.34480 107.65614 171.82808 304
54.00065 116.61980 171.92043 300
-0.66751 150.74091 163.94815 375
100.72244 86.34148 171.56660 316
91.13291 92.20221 171.63498 312
80.27322 98.89124 171.71548 308
67.81659 106.59414 171.83578 304
53.37273 115.46628 171.96178 300
-4.03018 150.86777 163.40794 373
-18.67664 159.82648 165.48441 286
100.28291 85.43119 171.57034 316
90.65263 91.26801 171.63176 312
79.74562 97.89395 171.74950 308
67.29209 105.51976 171.85330 304
52.81007 114.31818 171.93144 300
-7.49150 150.93709 162.89479 372
-19.52987 158.28656 165.45898 286
99.87389 84.58399 171.54626 316
90.20647 90.35503 171.63609 312
79.30293 96.90788 171.75516 308
66.71320 104.39911 171.84003 304
52.19969 113.13098 171.93205 300
35.17839 123.29741 172.07820 296
-20.41368 156.64713 165.44435 286
99.43408 83.69357 171.58618 316
89.78002 89.40264 171.65576 312
78.78098 95.88976 171.72162 308
66.23010 103.31720 171.82283 304
51.65298 111.95071 171.94341 300
34.54060 122.05761 172.11264 296
-21.25479 154.96654 165.48793 286
99.03352 82.80832 171.57524 316
89.32640 88.46373 171.64163 312
78.30005 94.84326 171.72340 308
65.68002 102.21761 171.85347 304
51.07793 110.75904 171.96732 300
33.93501 120.73039 172.12289 296
-22.11588 153.37125 165.47528 287
98.62470 81.91059 171.57458 316
88.89981 87.49432 171.63763 312
77.83003 93.85382 171.77174 308
65.15752 101.14255 171.86906 304
50.49714 109.55718 171.98619 300
33.28089 119.41435 172.10472 296
-22.98951 151.74440 165.47220 287
98.20990 81.02814 171.56847 316
88.45061 86.54819 171.64282 312
77.36257 92.83083 171.76709 308
64.63573 99.99563 171.87859 304
49.94014 108.34272 171.97850 300
32.67723 118.14832 172.13014 296
-26.10828 151.44057 165.04453 366
97.82163 80.09908 171.59096 316
87.99918 85.59580 171.64102 312
76.91252 91.77400 171.75333 308
64.14199 98.90408 171.84859 304
49.37332 107.13770 171.95726 300
32.06008 116.85387 172.09987 296
-29.99816 151.53372 164.47269 364
97.45640 79.20518 171.58617 316
87.59122 84.63110 171.68904 312
76.42876 90.77573 171.78062 308
63.64935 97.79816 171.87363 304
48.81647 105.94446 172.01357 300
31.44705 115.50669 172.10387 296
-34.07451 151.58070 163.79770 363
97.05234 78.32819 171.60951 316
87.18992 83.67654 171.65147 312
75.98835 89.75616 171.74709 308
63.12522 96.69990 171.87311 304
48.28571 104.76691 172.01302 300
30.85522 114.21944 172.13512 296
10.14196 125.41554 172.30089 292
96.66031 77.41235 171.59488 316
86.77683 82.68487 171.69452 312
75.52287 88.67713 171.74391 308
62.68753 95.55374 171.88695 304
47.76608 103.54675 172.01544 300
30.32834 112.85262 172.15125 296
9.56820 124.00838 172.30199 292
96.30815 76.48210 171.58832 316
86.38676 81.70320 171.67352 312
75.11443 87.68434 171.78018 308
62.21223 94.47137 171.84952 304
47.23940 102.33573 171.97690 300
29.73032 111.56721 172.17322 296
8.88188 122.52514 172.33720 292
-61.29420 159.52078 164.95689 284
95.91815 75.61122 171.58971 316
85.96795 80.73029 171.70706 312
74.64833 86.62965 171.80133 308
61.73893 93.31219 171.90901 304
46.71744 101.13182 171.97888 300
29.17064 110.19054 172.13953 296
8.29116 121.04572 172.30325 292
-62.13206 157.61208 165.01036 284
95.58269 74.65877 171.59265 316
85.59948 79.77996 171.69144 312
74.24538 85.57659 171.80035 308
61.28151 92.21678 171.85924 304
46.22723 99.86574 172.02327 300
28.60514 108.92506 172.12175 296
7.63248 119.58536 172.31993 292
-62.89661 155.69249 165.02060 284
95.20692 73.78046 171.59772 316
85.16800 78.78055 171.70122 312
73.82090 84.52852 171.75697 308
60.79433 91.05215 171.88750 304
45.71514 98.68127 172.03468 300
35.29758 103.93124 173.65309 278
18.66945 112.27528 174.48935 276
-63.69687 153.69539 164.98949 283
94.85408 72.82817 171.62770 316
84.80119 77.84373 171.67520 312
73.39337 83.48353 171.80870 308
60.33477 89.92629 171.87177 304
45.22813 97.41698 172.04211 300
38.89848 100.57582 174.46846 325
28.41866 105.78953 176.36319 277
12.89095 113.48703 177.85225 277
94.50529 71.91230 171.60147 316
84.43315 76.83527 171.69096 312
72.98335 82.43624 171.76627 308
59.87225 88.80563 171.88474 304
47.41160 94.89209 172.61383 327
41.55299 97.76316 175.10458 326
35.47664 100.70908 177.80110 324
22.59185 107.05129 179.55949 279
94.15971 71.02465 171.63103 316
84.07463 75.83396 171.71794 312
72.59055 81.34257 171.78157 308
59.47188 87.66158 171.93004 304
49.78831 92.29939 173.27785 329
44.03405 95.08953 175.76233 328
38.19695 97.85441 178.36546 326
24.71430 104.37011 180.01363 288
-1.46458 116.98584 180.22220 284
93.81200 70.07249 171.62242 316
83.68333 74.88432 171.71797 312
72.19804 80.32755 171.77492 308
59.03336 86.50764 171.93451 304
52.13638 89.81141 173.83971 330
46.55342 92.43591 176.35228 329
40.84946 95.10956 178.94031 327
24.20730 103.04073 179.99155 288
-2.09888 115.44092 180.22516 284
93.50108 69.13146 171.62917 316
83.36281 73.85384 171.70451 312
71.80743 79.25326 171.78067 308
59.59960 84.91809 172.16344 333
54.38535 87.36811 174.46190 331
48.91654 89.92110 176.88408 330
43.36891 92.47649 179.49159 328
23.68077 101.61510 179.98071 288
-2.70013 113.91197 180.20174 284
93.17377 68.21962 171.60959 316
82.98244 72.86440 171.71190 312
71.43964 78.17976 171.78720 308
61.29176 82.84624 172.64693 389
56.57641 84.99395 175.01161 332
51.25714 87.41022 177.45920 330
44.58353 90.45499 179.81334 292
23.16789 100.26698 179.97348 288
-3.26962 112.37059 180.23572 284
92.85124 67.29688 171.65239 316
82.63740 71.87706 171.72778 312
71.03473 77.11287 171.82663 308
62.04445 81.18416 172.91316 390
58.70274 82.69616 175.60777 333
53.53716 84.99429 177.98224 331
44.13653 89.21219 179.83568 292
-14.02000 115.43001 173.99767 339
-14.00722 115.46126 178.74310 339
92.56186 66.34863 171.62881 316
82.28575 70.89449 171.69975 312
70.69768 76.04653 171.79776 308
62.83234 79.53245 173.19966 391
59.63029 80.94730 175.89897 389
55.73914 82.65238 178.55760 333
43.72185 87.98674 179.80200 292
7.60403 103.96648 177.62804 288
-18.74961 115.71791 178.13173 338
92.23446 65.41850 171.63019 316
81.99472 69.91465 171.72325 312
70.31571 74.97703 171.82346 308
63.61718 77.87831 173.48686 379
60.39956 79.26299 176.15536 390
57.13437 80.71743 178.91222 388
43.27459 86.75159 179.82498 292
14.08134 99.49008 178.77600 290
-3.15754 107.03872 180.44791 270
-38.54748 122.41219 180.49867 280
91.91891 64.47076 171.64961 316
81.63477 68.89055 171.71239 312
69.98196 73.87275 171.83482 308
64.46645 76.27640 173.78725 380
61.19299 77.65616 176.42088 391
58.00196 79.01955 179.14471 389
42.90584 85.52473 179.82355 292
20.06755 95.26613 179.79881 318
6.21240 101.19237 181.93816 289
-39.18410 120.67622 180.49297 280
91.62450 63.55916 171.66145 316
81.31092 67.90808 171.70610 312
69.62347 72.82578 171.82986 308
65.29099 74.62544 174.04584 381
61.99108 76.02821 176.65387 392
58.83389 77.38027 179.40172 390
29.90563 89.55146 177.58673 337
23.09055 92.46725 180.40965 320
12.79337 96.74957 182.88661 290
-4.40122 103.99601 184.89680 270
91.32169 62.58813 171.65556 316
81.00702 66.89505 171.71515 312
69.84617 71.48706 171.97598 384
66.09371 73.07856 174.32014 381
62.79486 74.44903 176.93323 393
59.63688 75.75452 179.60406 391
32.03719 87.15676 178.03749 339
25.56671 89.82539 180.85088 336
17.55370 93.18003 183.63982 318
4.91272 98.38551 186.13748 289
91.07092 61.67378 171.66631 316
80.67987 65.84661 171.72113 312
70.59956 69.95500 172.23146 385
66.86806 71.46903 174.59483 382
63.53714 72.85928 177.16776 394
59.64648 74.42377 179.68730 296
34.07290 84.82596 178.48888 340
27.75150 87.41191 181.30360 337
20.61891 90.29507 184.15419 319
11.50643 94.00170 187.01543 290
-5.55576 100.96076 189.41486 270
90.76210 60.72055 171.63190 316
80.37786 64.86102 171.73059 312
71.35576 68.48064 172.52672 386
67.65224 69.94129 174.84187 383
64.30292 71.26768 177.38722 395
59.34618 73.29272 179.69858 296
36.05208 82.57074 178.91710 341
29.88975 85.08910 181.70592 338
23.31686 87.65620 184.61943 336
15.05507 90.94568 187.51938 318
3.64265 95.50949 190.45181 289
90.51849 59.75045 171.64873 316
80.11101 63.85712 171.75267 312
72.07079 66.97129 172.80969 387
68.44128 68.44154 175.10506 384
65.09071 69.72336 177.64302 396
58.97982 72.15215 179.70984 296
38.03186 80.40027 179.30904 342
31.97680 82.75078 182.11537 339
25.60606 85.28515 185.01022 337
18.20382 88.14700 187.97740 319
9.32097 91.64257 191.10051 317
-6.55414 97.84320 193.87610 270
90.24948 58.79813 171.65509 316
79.78901 62.83068 171.71837 312
72.84751 65.53522 173.05029 388
69.24598 66.90488 175.39459 385
65.80240 68.23253 177.85953 397
58.63119 70.97728 179.68941 296
39.90828 78.23896 179.75890 343
33.98889 80.51741 182.49861 340
27.75319 82.93333 185.37811 338
21.12608 85.43432 188.41026 336
12.62927 88.74731 191.44803 318
2.47056 92.66592 194.65558 289
90.00031 57.86564 171.67595 316
79.50837 61.81923 171.73148 312
73.55083 64.09128 173.31966 388
69.98352 65.43509 175.64122 386
66.52628 66.74196 178.06694 398
58.34640 69.85934 179.70074 296
41.26846 76.29270 180.05617 375
35.98038 78.32625 182.86488 342
29.85947 80.64355 185.70587 339
23.40465 83.08698 188.72400 337
15.79644 85.94837 191.81850 319
6.83241 89.35851 195.08115 316
-7.42534 94.75507 198.31587 270
89.71664 56.90981 171.66905 316
79.26180 60.79112 171.74670 312
74.26236 62.64449 173.57420 389
70.76420 63.95844 175.86481 387
67.25642 65.24963 178.30051 399
58.01116 68.70454 179.70340 296
42.30585 74.54436 180.30035 376
37.66798 76.25525 183.19551 374
31.95609 78.34544 186.07393 340
25.62785 80.71817 189.04744 338
18.90656 83.19653 192.25243 320
10.17043 86.50162 195.41603 317
0.76324 89.93454 198.91760 315
-23.17987 98.88759 201.91652 269
89.46572 55.92387 171.65912 316
78.97183 59.74455 171.74185 312
74.99722 61.21332 173.79855 390
71.48289 62.51390 176.10326 388
68.00298 63.75117 178.50395 400
57.70838 67.55306 179.73299 296
43.29881 72.78973 180.52647 377
38.75492 74.43761 183.42886 375
33.94849 76.20139 186.42442 341
27.80110 78.41840 189.37212 339
21.28374 80.84315 192.52948 336
13.39229 83.70827 195.78178 319
4.25642 87.01763 199.16939 316
-8.24800 91.53522 202.71204 270
89.23155 54.96569 171.66081 316
78.68553 58.72906 171.73451 312
75.58485 59.83532 174.02740 419
72.24440 61.05546 176.34639 389
68.69547 62.30912 178.73988 401
57.35777 66.38774 179.70454 296
44.12014 71.14294 180.73874 389
39.80732 72.66960 183.65671 376
35.08231 74.32618 186.59416 373
29.91267 76.18290 189.67079 340
23.50022 78.46787 192.81876 338
16.54217 80.96005 196.04947 320
7.66734 84.13228 199.40450 317
-1.84237 87.56562 203.06987 315
88.97854 54.00717 171.64510 316
78.81629 57.57002 171.84615 424
75.95406 58.61022 174.18254 420
72.99709 59.65298 176.59511 390
69.40903 60.89486 178.96365 402
48.90988 68.10935 178.16692 392
44.95622 69.48315 180.94667 390
40.78847 70.92693 183.85071 376
36.15880 72.54961 186.81516 374
31.38124 74.24273 189.92216 371
25.70609 76.21793 193.09192 339
19.14977 78.53574 196.33830 336
11.02785 81.38721 199.68694 318
1.70759 84.60193 203.26897 316
88.76392 53.04735 171.66875 316
79.13009 56.35906 172.01407 425
76.27748 57.33652 174.34415 421
73.35104 58.35902 176.73303 418
70.22234 59.45598 179.17142 388
49.68906 66.47328 178.37411 393
45.77168 67.85330 181.16881 390
41.71416 69.21769 184.07750 388
37.25769 70.78329 187.03029 375
32.50804 72.37899 190.05270 372
27.79941 73.78023 193.27924 370
21.44857 76.24675 196.55650 337
14.20316 78.67419 199.90605 319
5.19596 81.80420 203.47984 317
88.52656 52.06776 171.67262 316
79.44180 55.16653 172.15605 425
76.63020 56.09541 174.50830 421
73.74358 57.09285 176.89861 419
70.71994 58.09557 179.36128 417
50.45352 64.95751 178.55328 394
46.57812 66.22578 181.36995 391
42.60751 67.56583 184.23000 389
38.31844 69.01075 187.19579 376
33.61224 70.61901 190.25189 373
28.72547 72.23331 193.44612 371
23.56815 73.97635 196.77139 368
16.99390 76.23380 200.18207 336
8.56724 79.00812 203.68932 318
88.30407 51.11257 171.67050 316
79.78593 53.93924 172.32471 426
76.96751 54.83825 174.65533 422
74.10134 55.81467 177.04805 420
71.08759 56.81973 179.49440 417
51.22496 63.34989 178.77130 395
47.40541 64.61061 181.55875 392
43.41214 65.95013 184.42459 390
39.32341 67.32887 187.41109 387
34.69965 68.80820 190.46529 374
29.88272 70.45642 193.62958 371
24.80167 72.09309 196.92424 369
19.33865 73.93565 200.32686 337
11.84764 76.39828 203.89522 319
88.08389 50.13435 171.67691 316
80.13332 52.75026 172.45268 427
77.33225 53.61242 174.76299 423
74.45467 54.59148 177.17430 420
71.47063 55.53579 179.60315 300
51.93999 61.85382 178.97939 395
48.20195 63.05648 181.73306 393
44.23407 64.32940 184.62451 391
40.19381 65.64869 187.57025 388
35.80478 67.09669 190.58266 375
31.00574 68.62230 193.73999 372
26.00841 70.24706 197.00899 370
20.79749 71.91084 200.46399 367
14.84017 73.86127 204.05360 335
87.86662 49.16326 171.66541 316
80.41360 51.56965 172.61049 427
77.65419 52.39827 174.90039 423
74.83105 53.33469 177.31340 421
71.22220 54.44043 179.58612 300
52.73694 60.34318 179.14877 396
48.95808 61.52621 181.94904 394
45.08562 62.75696 184.75322 391
41.07825 64.03555 187.69981 389
36.86411 65.33571 190.76985 376
32.17636 66.80550 193.89099 373
27.19126 68.40201 197.15126 371
22.07005 70.02147 200.56024 368
16.67073 71.75446 204.15709 365
87.65343 48.22472 171.69781 316
80.73610 50.36391 172.76952 428
78.02853 51.19167 175.07626 424
75.18191 52.06794 177.43517 422
70.99600 53.36227 179.61261 300
53.43083 58.80682 179.34235 397
49.76091 59.94807 182.12830 395
45.91931 61.16991 184.94249 392
41.92720 62.42780 187.86168 390
37.80639 63.70078 190.90532 387
33.25852 65.06208 194.07278 374
28.40932 66.57462 197.30350 372
23.32615 68.19679 200.69424 369
18.00517 69.81393 204.25949 366
87.48744 47.25190 171.65784 316
81.08347 49.17177 172.87138 429
78.36724 49.98976 175.19978 425
75.49920 50.86078 177.57861 422
70.78454 52.30486 179.63290 300
54.17556 57.35801 179.57018 398
50.49407 58.46033 182.28192 396
46.68494 59.63603 185.10382 393
42.77430 60.79844 188.04550 391
38.66771 62.06945 191.07635 388
34.37889 63.32340 194.18724 375
29.57566 64.80062 197.43631 372
24.53635 66.34384 200.76706 370
19.25767 67.90897 204.32393 367
13.41201 69.72528 207.98019 333
87.29375 46.27438 171.69473 316
81.38621 48.01348 173.03375 429
78.67884 48.79624 175.34898 425
75.88371 49.65605 177.69875 423
70.55069 51.23975 179.60712 300
54.91471 55.87640 179.71872 399
51.25044 56.92911 182.44049 396
47.50729 58.07372 185.29585 394
43.60365 59.21952 188.18565 391
39.56434 60.43353 191.22879 389
35.39232 61.64711 194.31943 386
30.71288 63.05215 197.57646 373
25.75081 64.51611 200.89601 371
20.58294 66.06605 204.37984 368
14.91866 67.75974 208.07761 333
87.11383 45.28649 171.69919 316
81.70268 46.87119 173.18262 430
79.05841 47.62260 175.45813 426
76.21337 48.45375 177.80194 424
70.35287 50.16223 179.62839 300
55.49634 54.44350 179.89668 411
52.01123 55.47989 182.66013 397
48.28830 56.55886 185.46338 395
44.45451 57.64657 188.32629 392
40.42439 58.84039 191.36450 390
36.26690 60.04747 194.45003 387
31.83958 61.28301 197.65962 374
26.95337 62.75507 201.01015 372
21.83937 64.21798 204.46582 369
16.35958 65.82877 208.10783 337
86.93245 44.29884 171.69945 316
82.04215 45.70079 173.31793 431
79.37092 46.45208 175.59482 427
76.57182 47.24186 177.95145 424
70.13645 49.06908 179.60634 300
56.03748 53.03577 180.05914 412
52.59745 54.02543 182.76096 410
49.07306 55.01846 185.57202 396
45.28265 56.09583 188.46349 393
41.27464 57.24453 191.49048 391
37.18376 58.38501 194.57269 388
32.94912 59.59340 197.78378 386
28.16145 60.95613 201.08562 372
23.05002 62.39880 204.54210 370
17.78224 63.89709 208.18756 338
86.75158 43.33083 171.68785 316
82.36802 44.54561 173.45117 431
79.70274 45.28007 175.73186 429
76.93123 46.03018 178.06242 425
69.92599 47.97809 179.63367 300
56.57126 51.68732 180.19247 413
53.16667 52.62565 182.89034 411
49.69067 53.58062 185.70709 408
46.09461 54.56506 188.64612 394
42.16534 55.65632 191.62964 391
38.05710 56.79374 194.70706 389
33.84087 57.98860 197.91357 386
29.32545 59.22788 201.17242 373
24.29092 60.60025 204.64407 371
19.04396 62.06120 208.21103 368
86.56163 42.36086 171.70238 316
82.66345 43.39713 173.58539 432
80.05379 44.11303 175.86813 430
77.30731 44.85053 178.21101 426
69.76511 46.88202 179.63759 300
57.08386 50.29128 180.33914 414
53.69689 51.24213 183.06587 411
50.28782 52.15220 185.86275 409
46.66476 53.10510 188.75827 406
42.98616 54.14481 191.74913 392
38.97778 55.22778 194.78885 390
34.78807 56.32087 198.00746 387
30.48260 57.50821 201.31023 385
25.49154 58.82833 204.69269 372
20.31905 60.23954 208.27060 369
86.42376 41.37365 171.68102 316
83.00616 42.26506 173.70525 433
80.38464 42.94160 175.99626 430
77.64302 43.67886 178.29930 426
69.58996 45.79026 179.61935 300
57.50715 48.95646 180.47514 421
54.29355 49.85260 183.16934 412
50.85057 50.75727 185.97304 410
47.31422 51.67472 188.87411 407
43.61389 52.64908 191.86171 405
39.82055 53.67438 194.92017 391
35.69015 54.73804 198.10695 388
31.42006 55.85936 201.37157 385
26.68816 57.11996 204.74474 372
21.58677 58.45974 208.31256 370
86.26473 40.40394 171.69572 316
83.32172 41.11956 173.81177 433
80.70518 41.79377 176.07779 431
78.00012 42.50727 178.44624 427
69.37549 44.71265 179.64423 300
57.99952 47.66203 180.59801 422
54.78769 48.48790 183.31653 413
51.41652 49.33402 186.08705 410
47.89897 50.22930 188.99715 408
44.23199 51.16222 191.92175 405
40.49305 52.15591 195.02303 403
36.63615 53.15979 198.16527 400
32.35507 54.21009 201.47099 386
27.89109 55.41323 204.85637 373
22.85262 56.69339 208.37166 371
86.17055 39.38984 171.73399 436
83.64178 39.99857 173.93686 434
81.05567 40.66634 176.20726 432
78.33639 41.35749 178.52242 428
69.23370 43.64896 179.62354 300
58.42522 46.31528 180.71132 423
55.27048 47.10139 183.42285 420
51.98285 47.93670 186.21324 411
48.45532 48.80431 189.10260 408
44.86467 49.75031 192.03444 406
41.11924 50.68622 195.09500 403
37.28279 51.64621 198.22900 401
33.28448 52.60284 201.49942 398
28.95650 53.72860 204.92264 384
24.05747 54.92981 208.38550 371
86.49625 38.26660 171.85141 437
83.95090 38.90454 174.05681 434
81.37502 39.53065 176.33562 432
78.69254 40.18587 178.65044 428
61.89649 44.27762 178.13698 426
58.88854 45.00157 180.82651 423
55.76561 45.79543 183.55605 421
52.53351 46.58435 186.33047 412
49.02235 47.40439 189.16118 409
45.44081 48.28587 192.13419 407
41.76377 49.19518 195.15434 404
37.94990 50.13931 198.35410 401
33.97526 51.07203 201.59943 399
29.87997 52.08633 204.98698 396
25.31673 53.22404 208.44293 372
-187.36682 105.14162 208.63074 296
86.78257 37.21075 171.97025 437
84.28750 37.79832 174.18765 435
81.72192 38.40239 176.44368 433
79.05322 39.03315 178.77013 429
62.30178 42.97972 178.29823 426
59.32125 43.73002 180.92960 424
56.21018 44.43868 183.63367 422
53.07217 45.23049 186.44113 419
49.63805 45.99711 189.29074 410
46.07736 46.86628 192.24799 407
42.41914 47.75603 195.27472 405
38.57924 48.64912 198.37091 402
34.69127 49.59711 201.66771 400
30.60062 50.53049 205.00511 397
26.35100 51.52128 208.50488 394
-187.03346 102.22043 208.61378 486
87.08689 36.09489 172.10570 438
84.57565 36.70914 174.31911 436
82.03616 37.29366 176.54294 434
79.37880 37.88384 178.88338 430
62.76957 41.75052 178.42433 427
59.75816 42.42086 181.05168 425
56.66515 43.15845 183.75833 422
53.54393 43.87467 186.52975 420
50.19025 44.61236 189.38145 411
46.65981 45.45881 192.33527 408
42.99574 46.28783 195.32104 405
39.23842 47.16594 198.47786 403
35.36076 48.08017 201.71123 400
31.28424 49.01670 205.08519 398
27.12645 49.99322 208.51884 395
-187.29245 99.48743 208.66562 485
87.40251 35.00856 172.19312 438
84.92911 35.61236 174.42928 436
82.33764 36.17680 176.65146 434
79.72391 36.75811 178.97614 430
63.19438 40.48406 178.51170 428
60.19282 41.11596 181.15474 425
57.14645 41.81379 183.85214 423
54.01897 42.51512 186.64938 420
50.79425 43.25768 189.51729 418
47.25367 44.06375 192.43077 409
43.66547 44.83222 195.39854 406
39.90586 45.67742 198.52829 404
36.03970 46.56479 201.75380 401
32.00784 47.45431 205.12833 398
27.85940 48.37936 208.59111 395
-187.78946 96.77680 208.66713 485
87.69300 33.93677 172.33929 439
85.23476 34.49372 174.51732 437
82.71244 35.05182 176.75963 435
80.09486 35.64039 179.08800 431
63.62059 39.20034 178.64665 428
60.65395 39.87085 181.28619 426
57.60422 40.51982 183.95056 424
54.45338 41.18281 186.72937 421
51.25248 41.90897 189.60744 419
47.87967 42.67323 192.47424 409
44.26760 43.46248 195.48418 407
40.56764 44.24254 198.58929 404
36.71974 45.07300 201.81372 402
32.69012 45.94632 205.17166 399
28.56248 46.83604 208.59221 396
-188.36803 94.14026 208.66751 485
-189.89938 94.49560 215.87753 297
87.98851 32.89493 172.42830 440
85.53463 33.39447 174.64169 438
83.01981 33.95161 176.87250 435
80.39701 34.50768 179.17790 431
64.01797 37.96754 178.74147 429
61.09766 38.58919 181.38176 426
58.04953 39.21233 184.04742 424
54.93337 39.88294 186.81773 422
51.73626 40.56354 189.66440 419
48.44648 41.25150 192.60849 410
44.84791 42.03817 195.58078 408
41.16761 42.79903 198.65425 405
37.37654 43.63851 201.85089 402
33.39181 44.44080 205.21938 400
29.33494 45.34156 208.60448 397
-183.23775 90.26894 215.92381 439
88.32748 31.84690 172.54410 458
85.85644 32.33480 174.76418 438
83.32874 32.84311 176.99516 436
80.76641 33.37156 179.30307 432
64.42863 36.71410 178.85176 429
61.51007 37.31738 181.48663 427
58.52003 37.95768 184.16927 425
55.43443 38.60149 186.94020 422
52.23458 39.25263 189.77815 420
48.98380 39.89160 192.64133 417
45.49767 40.60779 195.66319 408
41.80677 41.35437 198.76988 406
38.01680 42.16825 201.92986 403
34.07734 42.96192 205.21844 400
30.04240 43.82636 208.64243 398
-183.35524 87.62290 215.92319 439
88.37252 30.82349 172.61252 459
86.10300 31.27985 174.83870 457
83.68159 31.74920 177.09563 437
81.08826 32.29156 179.41649 433
64.85438 35.49548 178.98402 430
61.96562 36.10297 181.61072 428
58.96160 36.66985 184.24333 425
55.90334 37.29916 187.00415 423
52.74026 37.91582 189.82690 421
49.45430 38.56177 192.76772 418
46.11502 39.21327 195.73277 409
42.44587 39.93168 198.77959 406
38.71390 40.69773 201.96446 404
34.81776 41.47505 205.26494 401
30.75077 42.29069 208.67735 398
-183.45471 84.83813 215.86784 439
88.46197 29.83598 172.63831 459
86.19379 30.23783 174.88515 457
83.86679 30.71009 177.15968 455
81.43981 31.16362 179.50743 433
65.24297 34.26083 179.08308 431
62.36017 34.81542 181.69293 428
59.37390 35.40711 184.35820 426
56.34685 36.00491 187.11723 424
53.19036 36.58034 189.91884 421
49.98092 37.19847 192.84184 419
46.63400 37.87216 195.81146 416
43.09771 38.52330 198.88858 407
39.32266 39.25251 202.02052 404
35.48933 40.01859 205.30161 402
31.45543 40.78361 208.71008 399
-183.47913 82.19125 215.95247 439
88.50998 28.83051 172.70787 459
86.25919 29.21636 174.94409 457
83.93513 29.64923 177.21136 455
81.48661 30.09693 179.53813 304
65.70635 33.04567 179.18361 431
62.77818 33.57563 181.80952 429
59.83547 34.16653 184.45108 427
56.82096 34.69454 187.18628 424
53.70188 35.30848 190.01566 422
50.45277 35.89797 192.86909 419
47.18162 36.52329 195.88489 417
43.69044 37.13549 198.91136 408
40.00188 37.85269 202.08182 405
36.16644 38.56171 205.36418 402
32.15489 39.29170 208.74631 400
-183.61034 79.52471 215.86549 425
-189.89153 80.60281 223.19405 324
88.58970 27.79461 172.71495 460
86.29968 28.20558 174.97067 458
84.00824 28.63943 177.26961 455
81.42204 29.09454 179.51755 304
66.11199 31.86100 179.31792 432
63.22887 32.35824 181.88283 430
60.30243 32.90071 184.53479 427
57.25100 33.42984 187.25960 425
54.15192 34.01758 190.07585 422
50.97576 34.55283 192.98605 420
47.66951 35.17721 195.95200 417
44.30059 35.78289 198.98042 415
40.62797 36.42301 202.12746 406
36.83676 37.09633 205.39726 403
32.86967 37.84278 208.77019 400
-183.60640 76.71661 215.84442 425
-187.17232 77.37350 223.15840 323
88.64252 26.78825 172.76302 461
86.41982 27.19014 175.01987 458
84.09272 27.61084 177.28047 456
81.32976 28.06584 179.52174 304
66.53453 30.63595 179.42877 432
63.67440 31.14670 181.97874 430
60.71681 31.63134 184.65819 428
57.73739 32.19431 187.38116 426
54.66915 32.73373 190.17766 423
51.46264 33.23267 193.04530 421
48.18055 33.85498 195.98505 418
44.81175 34.39040 199.03400 416
41.27613 35.01750 202.17648 406
37.51129 35.68643 205.44527 404
33.56980 36.38455 208.81795 401
-183.62178 74.00876 215.86333 425
-184.55139 74.17393 223.01492 323
88.74478 25.79553 172.79985 462
86.47823 26.20554 175.05872 458
84.16679 26.56004 177.31529 456
81.23277 27.03938 179.54506 304
66.89153 29.44008 179.53386 451
64.07960 29.90533 182.08231 431
61.18451 30.42945 184.73227 428
58.16781 30.89055 187.42561 426
55.12664 31.42121 190.26125 424
51.96958 31.96259 193.12654 421
48.73061 32.47289 196.06552 419
45.33640 33.07752 199.10728 416
41.90115 33.62908 202.22430 414
38.15288 34.23635 205.49841 404
34.24295 34.93665 208.82664 402
-182.16084 71.05962 222.98648 361
88.81448 24.78582 172.84833 462
86.57355 25.18369 175.10196 458
84.24319 25.52014 177.37831 456
81.20240 26.01581 179.54155 304
67.02264 28.32517 179.54291 452
64.33483 28.74538 182.12909 449
61.63083 29.19676 184.81302 429
58.66570 29.63740 187.53618 427
55.60333 30.16732 190.30241 424
52.45768 30.63479 193.14557 422
49.22698 31.16488 196.11658 419
45.91049 31.71129 199.14922 417
42.42462 32.29573 202.26790 414
38.80280 32.86702 205.48553 405
34.90662 33.48837 208.87270 402
-181.48361 68.33003 222.98645 361
88.86996 23.79129 172.86455 462
86.62368 24.16037 175.11600 459
84.33572 24.53395 177.39136 457
81.10639 25.02065 179.55318 304
67.06984 27.18202 179.59013 452
64.44811 27.58786 182.18106 450
61.75440 28.03508 184.83420 447
58.94147 28.44424 187.56905 445
56.08978 28.91194 190.36552 425
52.93196 29.37375 193.22049 422
49.70832 29.88006 196.19403 420
46.42749 30.37944 199.17917 417
43.02089 30.90809 202.32388 415
39.47033 31.44028 205.53464 406
35.60649 32.03236 208.87006 403
-180.82635 65.48642 222.93346 361
88.96318 22.80362 172.91560 463
86.71319 23.14611 175.17497 459
84.41532 23.51122 177.44669 457
81.05299 23.98173 179.51276 304
67.19349 26.05213 179.62010 452
64.55414 26.41598 182.22626 450
61.84563 26.84134 184.86392 447
59.05165 27.26395 187.63504 445
56.21299 27.66578 190.43863 443
53.26605 28.08576 193.31105 440
50.21228 28.58591 196.21794 420
46.91495 29.03698 199.27481 418
43.54586 29.53901 202.37102 415
40.00275 30.10406 205.55219 413
36.30640 30.63152 208.87878 403
-180.07593 62.73406 222.94174 362
88.99632 21.83680 172.94891 463
86.77127 22.15623 175.19894 459
84.47668 22.49230 177.45876 457
81.03521 22.98239 179.52333 304
67.25423 24.94078 179.63928 452
64.65678 25.31583 182.23337 450
61.91327 25.66729 184.91716 448
59.16377 26.06767 187.62746 445
56.33294 26.47289 190.45786 443
53.38205 26.88357 193.29095 440
50.37862 27.32914 196.27597 438
47.34346 27.77079 199.26428 435
44.05245 28.21867 202.40381 416
40.60139 28.71745 205.63026 413
36.97832 29.24311 208.92757 404
-179.51213 59.94480 222.95335 361
89.10001 20.83622 172.98965 463
86.87535 21.14219 175.22006 460
84.56263 21.44768 177.51204 457
80.96708 21.94445 179.54501 304
67.37492 23.79458 179.66643 453
64.72152 24.15520 182.28873 450
62.05213 24.49413 184.93781 448
59.24809 24.88819 187.68274 446
56.39960 25.27179 190.46497 443
53.50510 25.66428 193.35803 441
50.53845 26.06878 196.26186 438
47.42122 26.51458 199.31465 435
44.27328 26.90575 202.44456 433
41.00185 27.37445 205.63783 430
37.56621 27.82185 208.94159 411
-179.18880 57.27276 222.99074 383
89.17796 19.84673 173.01114 463
86.95715 20.12759 175.24352 460
84.68515 20.42098 177.52802 458
80.94360 20.92264 179.53883 304
67.47626 22.67007 179.72121 453
64.81039 22.98721 182.31804 451
62.13691 23.37100 184.94234 448
59.38037 23.68057 187.70114 446
56.51876 24.06566 190.46213 443
53.61250 24.46714 193.35089 441
50.63836 24.85172 196.30104 438
47.59320 25.24719 199.31558 436
44.38540 25.65357 202.45703 433
41.17775 26.08897 205.62990 430
37.81747 26.52305 208.93921 427
-179.21021 54.60748 222.98465 383
89.26263 18.83697 173.06389 464
87.06040 19.11227 175.28542 460
84.73038 19.39585 177.53300 458
80.88671 19.89046 179.55211 304
67.53440 21.51460 179.71654 453
64.91191 21.85451 182.31618 451
62.25276 22.19805 184.99908 448
59.48787 22.53734 187.71085 446
56.64865 22.88000 190.51216 444
53.71313 23.23865 193.37517 441
50.74236 23.58297 196.32005 439
47.66641 23.98463 199.34050 436
44.52538 24.36894 202.46603 433
41.29237 24.77654 205.62872 430
37.97781 25.16701 208.97589 428
-179.21156 52.02468 222.92119 383
89.33958 17.88397 173.09216 464
87.14791 18.14217 175.29782 460
84.81938 18.37930 177.57928 458
80.85773 18.88379 179.55374 304
67.64442 20.43289 179.74089 453
65.01390 20.70449 182.33356 451
62.34084 21.00788 184.99625 449
59.59816 21.36457 187.73483 446
56.72964 21.71279 190.53143 444
53.86769 22.00693 193.38350 441
50.85829 22.35900 196.32451 439
47.83936 22.75068 199.37361 436
44.69288 23.09011 202.43092 433
41.41999 23.50090 205.66386 431
38.10238 23.85551 208.93080 428
-179.23972 49.35504 222.92653 383
89.40155 16.90261 173.08737 464
87.19392 17.12372 175.34967 461
84.93985 17.39769 177.58919 458
80.82494 17.83615 179.55283 304
67.75917 19.30707 179.78600 454
65.11316 19.56306 182.38982 451
62.42713 19.88920 185.05295 449
59.69881 20.18134 187.76503 447
56.85743 20.47779 190.53525 444
53.97355 20.83674 193.40314 442
50.99002 21.12252 196.32890 439
47.92006 21.48722 199.37691 436
44.79747 21.82497 202.47397 434
41.57970 22.16535 205.67719 431
38.25938 22.56029 208.94331 429
-179.11940 46.71959 222.89311 383
89.48503 15.90169 173.12895 464
87.31857 16.11050 175.37483 462
85.01881 16.34623 177.64645 459
80.84814 16.82580 179.54886 304
67.86563 18.18598 179.81049 454
65.21412 18.45257 182.39565 452
62.52720 18.70136 185.06619 449
59.79969 19.01545 187.77435 447
56.95798 19.28404 190.54599 444
54.06240 19.63051 193.40958 442
51.14855 19.94183 196.34225 439
48.05590 20.23838 199.35483 437
44.92736 20.56310 202.49915 434
41.74559 20.88877 205.67392 432
38.40894 21.26746 208.94449 429
-179.17923 44.06381 222.93593 384
89.57902 14.89290 173.15587 464
87.37997 15.13947 175.38832 462
85.10090 15.37577 177.62924 459
80.80853 15.79948 179.53976 304
67.93234 17.03144 179.85435 454
65.31744 17.32691 182.43184 452
62.64346 17.55297 185.05945 449
59.91972 17.81789 187.77322 447
57.09367 18.11997 190.55679 445
54.22615 18.39076 193.44684 442
51.26508 18.70013 196.35832 439
48.17597 19.00549 199.38826 437
45.06306 19.28206 202.50584 435
41.90183 19.63671 205.66870 432
38.60244 19.93315 208.94423 429
-179.10777 41.35308 222.94525 384
89.66386 13.92954 173.17566 465
87.44975 14.13803 175.40004 463
85.20574 14.32887 177.65546 459
80.84512 14.76523 179.54771 304
68.06227 15.90729 179.86176 454
65.43205 16.16406 182.44867 452
62.74971 16.40713 185.12207 450
59.99776 16.67441 187.78937 447
57.22071 16.92837 190.59033 445
54.33804 17.19297 193.44646 442
51.33444 17.44239 196.35805 440
48.34365 17.74667 199.39378 437
45.26407 18.01751 202.47009 435
42.05655 18.33052 205.68744 432
38.75273 18.64096 208.99698 429
-179.17891 38.78370 222.91049 384
89.72936 12.95694 173.17439 465
87.54214 13.11958 175.43610 463
85.29602 13.32104 177.71013 459
80.84730 13.73495 179.51057 304
68.14201 14.79548 179.87245 454
65.55719 15.04772 182.46597 452
62.88681 15.28453 185.11591 450
60.13665 15.52345 187.85257 447
57.33891 15.75220 190.58971 445
54.41536 15.99885 193.46748 442
51.48388 16.23361 196.39937 440
48.47750 16.49530 199.39687 438
45.38519 16.79647 202.49103 435
42.21435 17.05154 205.67622 432
38.93608 17.35223 208.99094 430
-179.18684 36.12759 222.91209 384
89.82158 11.95973 173.20520 465
87.66042 12.14310 175.45093 463
85.38071 12.30463 177.72708 460
80.85582 12.66736 179.54135 304
68.26621 13.67939 179.90942 455
65.62766 13.88273 182.49358 452
62.95807 14.13473 185.13503 450
60.24858 14.34820 187.86917 448
57.46251 14.57502 190.64754 445
54.56861 14.76264 193.45892 443
51.62273 15.03652 196.41969 441
48.63097 15.26451 199.44157 438
45.51644 15.52790 202.51312 435
42.37021 15.79197 205.70120 433
39.06171 16.05042 208.99660 430
-179.08127 33.48411 222.83955 384
89.93927 11.00906 173.22765 465
87.73094 11.13475 175.45102 463
85.47723 11.33163 177.74635 460
80.83939 11.64931 179.51932 304
68.37901 12.58853 179.92159 455
65.75143 12.79631 182.49585 453
63.10496 12.95006 185.17099 450
60.35120 13.18209 187.85136 448
57.57096 13.35797 190.66225 445
54.69850 13.58077 193.46774 443
51.79166 13.80321 196.44211 441
48.79573 14.03810 199.40523 438
45.67480 14.26374 202.54335 435
42.52803 14.49536 205.70349 433
39.21884 14.74044 209.00671 430
-179.12984 30.79894 222.83388 384
89.99828 10.01462 173.26735 465
87.80381 10.16947 175.45699 463
85.56435 10.30037 177.72653 460
80.88559 10.64821 179.51799 304
68.45096 11.48640 179.90907 455
65.84948 11.63527 182.51630 453
63.18367 11.83239 185.17876 450
60.46104 12.03425 187.87901 448
57.66845 12.20104 190.66689 446
54.83276 12.36545 193.52827 443
51.93060 12.60616 196.43655 441
48.90405 12.77360 199.46362 438
45.81828 13.02200 202.55362 436
42.66822 13.23078 205.73593 433
39.40546 13.43926 209.01199 430
-179.08713 28.18427 222.84509 384
-187.13202 28.77442 266.08566 276
90.10934 9.03130 173.25185 466
87.91232 9.16368 175.49892 464
85.67623 9.29578 177.76851 460
80.91295 9.60348 179.53329 304
68.57583 10.34899 179.92368 455
65.99337 10.52259 182.52203 453
63.29532 10.65759 185.19586 451
60.58740 10.81927 187.87674 449
57.82750 11.01898 190.66672 446
55.00121 11.19264 193.53732 444
52.06352 11.34478 196.46292 441
49.04088 11.54755 199.43040 439
45.97322 11.74008 202.54884 436
42.82650 11.91814 205.71097 433
39.54716 12.12756 208.98221 430
-179.06526 25.58041 222.81279 384
-187.25674 26.02126 266.13211 276
90.17803 8.06951 173.26372 466
88.01380 8.16834 175.48827 464
85.79305 8.30195 177.75452 460
80.92058 8.55868 179.54858 304
68.70818 9.24408 179.96155 455
66.06538 9.37913 182.56424 453
63.43394 9.55134 185.20883 451
60.70958 9.70448 187.88857 449
57.94744 9.85397 190.71031 446
55.11609 9.99221 193.50752 444
52.19464 10.17256 196.48337 441
49.22103 10.34670 199.45421 439
46.15317 10.46197 202.53058 436
42.96951 10.64492 205.74341 433
39.68560 10.84151 209.02408 431
-179.16171 22.91067 222.82599 384
-187.29712 23.43787 266.15555 276
-186.82603 23.41775 273.35651 386
-186.76596 23.34620 280.58078 385
-186.75015 23.31416 287.90970 385
-186.79581 23.41208 295.21191 385
90.29291 7.08189 173.26923 466
88.08593 7.20034 175.51689 464
85.86114 7.28182 177.80156 460
80.96039 7.54043 179.53160 304
68.76754 8.12020 179.97018 456
66.19373 8.25249 182.57924 453
63.57363 8.36978 185.22380 451
60.84781 8.50926 187.90453 449
58.08937 8.64031 190.71576 447
55.27221 8.81673 193.52791 444
52.34395 8.92217 196.48587 442
49.33837 9.09634 199.45244 439
46.29507 9.21924 202.53009 436
43.12310 9.38008 205.70219 434
39.85536 9.53794 208.97205 431
-179.07927 20.36859 222.91133 384
-187.39722 20.67559 266.06082 276
90.36543 6.09026 173.29729 466
88.19061 6.20427 175.51869 464
85.96402 6.29809 177.78011 462
81.03793 6.50082 179.51770 304
68.92718 7.03906 179.97960 456
66.30240 7.11354 182.55136 454
63.69794 7.22828 185.24167 452
60.95570 7.36475 187.93501 449
58.23922 7.50684 190.71771 447
55.36494 7.61071 193.52829 444
52.47351 7.70812 196.46188 442
49.49964 7.84239 199.49649 439
46.44281 8.00165 202.54472 436
43.28515 8.14938 205.75508 434
39.99805 8.29587 208.98531 431
-179.13644 17.63012 222.85561 384
-187.51463 17.98668 266.09122 276
90.45332 5.14345 173.29756 466
88.30332 5.22395 175.54123 464
86.09636 5.27339 177.82516 462
81.06670 5.46899 179.53558 304
69.02593 5.91651 180.01480 456
66.43444 6.00465 182.57616 454
63.78415 6.11728 185.25441 452
61.12550 6.19395 187.92741 449
58.32693 6.29949 190.70859 447
55.51434 6.40647 193.54153 444
52.64827 6.53493 196.47707 442
49.66312 6.61399 199.49066 439
46.58735 6.73589 202.56107 437
43.44976 6.84376 205.75554 434
40.19858 7.00442 208.98776 431
-179.08014 15.11234 222.85973 384
-187.49532 15.37173 266.11249 276
90.57656 4.13406 173.33983 466
88.41676 4.23123 175.55901 464
86.20091 4.30461 177.82964 462
81.11906 4.43753 179.53600 304
69.13873 4.80887 180.02954 457
66.58199 4.90191 182.60568 454
63.96126 4.98276 185.26358 452
61.23943 5.02579 187.92961 450
58.50750 5.13369 190.70906 447
55.67123 5.21655 193.58080 445
52.75253 5.31550 196.47229 442
49.77388 5.42195 199.46783 439
46.74786 5.47675 202.59406 437
43.55097 5.57879 205.71640 434
40.35093 5.68874 209.02524 431
-179.11504 12.38499 222.86433 384
-187.56879 12.69943 266.12146 276
90.64959 3.17360 173.34213 467
88.50249 3.24455 175.54570 465
86.26181 3.26448 177.85150 463
81.20739 3.38887 179.52563 304
69.27705 3.71082 180.00290 457
66.69952 3.74349 182.60420 454
64.04351 3.81660 185.25464 452
61.38801 3.87287 187.99088 450
58.65053 3.97851 190.74934 447
55.80689 4.00435 193.59111 445
52.91329 4.11699 196.47340 442
49.94730 4.18361 199.50029 440
46.88956 4.27009 202.55774 437
43.72733 4.32588 205.76880 434
40.46299 4.38158 209.00682 432
-179.04257 9.81995 222.87437 384
-187.59637 9.94632 266.17661 276
90.75169 2.20958 173.31822 467
88.57724 2.25355 175.56003 465
86.40016 2.29233 177.82710 463
81.25772 2.35762 179.53506 304
69.36887 2.59643 180.06293 457
66.83815 2.65498 182.63005 455
64.22059 2.70604 185.28145 452
61.50992 2.76473 187.98656 450
58.75690 2.77973 190.76521 447
55.92443 2.85671 193.58025 445
53.02434 2.87710 196.48581 442
50.08503 2.93806 199.47754 440
47.00116 3.00145 202.55869 437
43.89042 3.05349 205.76797 434
40.65281 3.11239 209.00259 432
-179.08301 7.21380 222.80052 384
-162.03717 6.82496 236.06876 302
-187.60435 7.38726 266.15521 276
90.85342 1.24950 173.33902 467
88.69878 1.27458 175.58452 465
86.48225 1.27313 177.82434 463
81.36344 1.33797 179.54756 304
69.52982 1.50773 180.06906 457
66.96752 1.51421 182.65126 455
64.34502 1.53420 185.28554 452
61.63967 1.56233 188.00838 450
58.92521 1.61592 190.72723 448
56.11001 1.63996 193.59100 445
53.21933 1.68591 196.48331 443
50.22074 1.73923 199.50804 440
47.16452 1.78442 202.56244 437
44.02027 1.83116 205.77303 435
40.78642 1.84852 209.01863 432
-179.04356 4.54328 222.87299 384
-155.97592 4.22954 235.71396 403
-187.52765 4.61983 266.16568 276
90.98147 0.27015 173.32616 467
88.81183 0.28427 175.55362 465
86.58901 0.26431 177.83823 463
81.44215 0.30897 179.53333 304
69.62782 0.37563 180.04552 457
67.09432 0.39987 182.65662 455
64.45970 0.43663 185.27142 453
61.80190 0.42771 187.97139 450
59.03032 0.42375 190.75000 448
