# .PCD v.7 - Point Cloud Data file format
VERSION .7
FIELDS x y z rgb
SIZE 4 4 4 4
TYPE F F F U
COUNT 1 1 1 1
WIDTH 1380
HEIGHT 1
VIEWPOINT 5428.455078 -4004.348389 152.644714 -0.043247 -0.141165 -0.010519 0.988985
POINTS 1380
DATA ascii
-415.36630 -1001.29309 118.83165 321
-1457.91968 -4791.25098 466.19623 1000
-6997.66699 -20546.81445 2723.48950 1000
-2202.04468 -10483.56055 393.16748 1000
7610.84277 -11734.66113 2738.59131 1000
13676.36426 -17313.11133 -5664.65332 1000
37661.39844 -47538.58984 -2767.27905 1000
30052.02344 -23949.84180 2090.56616 1000
357.36243 -112.18907 167.59348 316
358.08466 -111.26694 167.56328 316
358.82245 -110.36706 167.59575 316
359.58447 -109.44299 167.58987 315
360.27225 -108.49521 167.61635 315
361.00790 -107.61775 167.61790 315
361.74365 -106.67260 167.60945 315
362.44812 -105.72272 167.60803 315
363.15900 -104.79566 167.63098 315
363.86838 -103.82800 167.63130 315
364.52286 -102.91153 167.62822 315
365.20676 -101.98102 167.59970 315
365.92023 -101.00266 167.63748 315
366.83594 -100.22448 167.56691 439
368.27704 -99.76021 167.31543 439
369.69214 -99.21501 167.06020 438
378.68716 -104.85572 167.66486 309
371.11444 -98.74067 166.83252 437
379.38367 -103.83549 167.65462 309
372.56094 -98.23974 166.60043 436
380.02631 -102.77641 167.64664 309
374.04745 -97.72242 166.32236 435
380.67963 -101.75485 167.68643 309
375.49747 -97.19575 166.07466 434
381.37204 -100.68257 167.67020 309
377.00757 -96.70544 165.84802 433
382.00558 -99.64827 167.71281 311
378.51410 -96.18977 165.55585 432
382.66895 -98.59031 167.71567 311
18185.00977 -10357.01953 -3210.62231 1000
380.03876 -95.66407 165.30734 431
383.34775 -97.52518 167.66980 311
381.57724 -95.14313 165.03003 430
383.98950 -96.44963 167.67412 311
383.16422 -94.58340 164.72847 429
384.66620 -95.39963 167.67766 311
383.87726 -93.57461 164.72191 317
385.28561 -94.33619 167.73561 311
384.51785 -92.54009 164.73360 317
386.27966 -93.47250 167.59608 428
385.19537 -91.49841 164.71500 317
387.93237 -92.91630 167.30707 427
385.82977 -90.43638 164.70857 317
389.51721 -92.34502 167.05342 426
2459.58740 -1169.24622 50.25964 491
2465.34082 -1172.38354 91.36281 491
386.44138 -89.39618 164.72278 317
391.14786 -91.83261 166.79274 425
400.69421 -96.67342 167.69133 305
2471.78442 -1158.45105 49.73032 381
387.11606 -88.36536 164.69832 317
392.80661 -91.24123 166.48245 424
401.30362 -95.52876 167.70268 305
387.73663 -87.27435 164.70844 317
394.51697 -90.64454 166.15479 423
401.95377 -94.32271 167.71690 305
388.34290 -86.19890 164.67657 317
396.22510 -90.09032 165.90660 422
402.56302 -93.15292 167.71671 305
388.94635 -85.11820 164.66891 317
397.91779 -89.46121 165.55836 420
403.12106 -91.97928 167.72987 305
389.54193 -84.08633 164.68420 317
399.65350 -88.87015 165.28935 419
403.71741 -90.82457 167.74211 305
390.15851 -82.97643 164.69478 317
401.42288 -88.26976 164.92465 418
404.33118 -89.61452 167.74623 305
367.68033 -71.31329 171.47733 317
402.54526 -87.35237 164.81529 313
404.90262 -88.40263 167.80875 305
368.13596 -70.38878 171.50125 317
403.14066 -86.17656 164.79739 313
405.42270 -87.25558 167.79561 305
368.62875 -69.39697 171.50269 317
403.76633 -85.03025 164.76926 313
406.78696 -86.40997 167.58363 416
369.10583 -68.46022 171.50157 316
404.35028 -83.89862 164.79170 313
408.38947 -85.65763 167.33861 435
369.59729 -67.48127 171.52728 316
404.94534 -82.69443 164.80974 313
409.94211 -84.84279 167.13020 434
370.02493 -66.55640 171.50917 316
405.51724 -81.56025 164.80229 313
411.58398 -84.10177 166.84956 433
370.48767 -65.60136 171.49489 316
406.11133 -80.34948 164.80829 313
413.17267 -83.28336 166.56772 432
370.95493 -64.61134 171.50746 316
406.64130 -79.17290 164.79219 313
414.79517 -82.49664 166.34616 431
424.39490 -86.43391 167.79280 301
371.41971 -63.66474 171.50455 316
407.19382 -78.02651 164.81274 312
416.41708 -81.70411 166.04578 430
424.97122 -85.11597 167.76355 301
371.82556 -62.70024 171.54604 316
407.76041 -76.84052 164.80383 312
418.11035 -80.88624 165.79028 429
425.52908 -83.85193 167.83105 301
372.30045 -61.69011 171.51994 316
408.31442 -75.63778 164.79880 312
419.78900 -80.07869 165.51480 428
426.02927 -82.48607 167.81548 301
372.70682 -60.73067 171.52608 316
408.84738 -74.47611 164.76086 312
421.49652 -79.27164 165.21991 427
426.59210 -81.18373 167.84396 301
373.14236 -59.74020 171.52362 316
383.72672 -63.73165 171.65131 312
423.18311 -78.39456 164.92543 426
427.09619 -79.90969 167.80656 301
261.62869 -17.82214 203.49049 292
384.16824 -62.67973 171.62396 312
423.91357 -77.22404 164.89444 308
427.61279 -78.53448 167.85077 301
261.76840 -17.52257 203.50641 314
384.62198 -61.61251 171.62947 313
424.50104 -75.94539 164.88402 308
428.10782 -77.24799 167.84904 301
261.94305 -17.24076 203.49960 314
385.05200 -60.57947 171.67619 313
425.04596 -74.67061 164.86601 308
428.59317 -75.92273 167.83537 301
262.11197 -16.94301 203.50362 314
385.45383 -59.54568 171.67764 313
425.58551 -73.35437 164.88876 308
430.27313 -74.99958 167.57849 422
262.28986 -16.66831 203.49777 314
385.88120 -58.48136 171.65594 313
426.09708 -72.11745 164.85323 308
432.08899 -74.13860 167.34358 421
262.46075 -16.37938 203.49791 314
386.27805 -57.44093 171.67110 313
426.60150 -70.80720 164.87271 308
433.91876 -73.23952 167.00204 420
262.62186 -16.08858 203.49883 314
386.70764 -56.38868 171.69095 313
427.12439 -69.53527 164.82610 308
435.78583 -72.33793 166.70604 419
262.79852 -15.79974 203.50539 314
387.09335 -55.33245 171.66556 313
427.65005 -68.20730 164.82837 308
437.64572 -71.41943 166.40819 418
262.95282 -15.51559 203.50783 314
387.50644 -54.26848 171.64926 313
428.11548 -66.92974 164.85429 308
439.49423 -70.46066 166.05533 432
450.15738 -73.77821 167.82146 297
263.12537 -15.22209 203.50259 314
387.89368 -53.18602 171.66525 313
400.11676 -56.94697 171.78194 309
441.19696 -69.41926 165.80580 431
450.62808 -72.33092 167.84673 297
45031.82812 -13647.15918 3282.55542 1000
263.28284 -14.93745 203.50471 314
388.25375 -52.12442 171.67758 313
400.50284 -55.78920 171.78654 309
442.91418 -68.38729 165.52562 430
451.05994 -70.81673 167.87625 297
263.44254 -14.64618 203.50142 314
388.63968 -51.09180 171.70015 313
400.92087 -54.64656 171.82188 309
444.60291 -67.37957 165.25259 429
451.50098 -69.37333 167.92517 297
263.60562 -14.34667 203.50076 314
388.97287 -49.99475 171.67570 313
401.29120 -53.51384 171.79485 309
446.38980 -66.31749 165.00800 428
451.96344 -67.89861 167.88547 297
263.75040 -14.06408 203.50679 314
389.35162 -48.97393 171.68240 313
401.68848 -52.37593 171.81317 309
446.93298 -64.94592 164.98741 303
452.35925 -66.44078 167.91476 297
263.91440 -13.76412 203.50964 314
389.69299 -47.86229 171.67522 313
402.03802 -51.24080 171.83582 309
447.40341 -63.50833 164.92780 303
452.76419 -65.00620 167.91890 297
264.06445 -13.47953 203.49976 314
390.05457 -46.82674 171.70523 313
402.38107 -50.09605 171.84308 309
447.88995 -62.14329 164.96832 303
453.13425 -63.53215 167.97247 298
264.20874 -13.18202 203.50980 314
390.41342 -45.76212 171.67589 313
402.78537 -48.94261 171.80574 309
448.28531 -60.69746 164.96837 303
453.53543 -62.03682 167.97069 298
264.36960 -12.88888 203.50644 314
390.70633 -44.68332 171.67926 313
403.12619 -47.80021 171.79945 309
448.74228 -59.26844 164.93230 303
455.40311 -60.92055 167.65034 423
264.51620 -12.60137 203.50615 314
391.03653 -43.61366 171.69095 313
403.45532 -46.66886 171.80486 309
449.15259 -57.86529 164.98167 303
457.21817 -59.84595 167.38234 422
264.65924 -12.30288 203.50288 314
268.00473 -13.10478 203.48889 285
403.81256 -45.50311 171.85414 309
449.59039 -56.40701 164.96477 303
459.09476 -58.71617 167.04951 421
264.79678 -12.01450 203.50597 314
268.10452 -12.77812 203.50677 310
404.13544 -44.34552 171.84790 309
449.97052 -54.98336 164.96875 303
460.99908 -57.52700 166.78214 420
264.94003 -11.72064 203.50528 314
268.24875 -12.46175 203.49722 310
404.43704 -43.18693 171.85301 309
450.38193 -53.56605 164.98158 303
462.74927 -56.31076 166.54483 452
265.08331 -11.41993 203.50517 314
268.40079 -12.15237 203.49814 310
404.79575 -42.02312 171.85811 309
419.03555 -45.15783 171.98573 305
464.14322 -55.07514 166.32915 451
265.21487 -11.13103 203.50258 314
268.53430 -11.83731 203.50276 310
405.08344 -40.90280 171.83575 309
419.37289 -43.92691 172.01125 305
465.57257 -53.73635 166.11638 451
265.35480 -10.83423 203.49767 314
268.67450 -11.51569 203.51010 310
405.36758 -39.73087 171.85449 309
419.68542 -42.65137 171.96727 305
466.97299 -52.43651 165.87627 450
265.49417 -10.53443 203.50787 314
268.81274 -11.20023 203.49968 310
405.71695 -38.54197 171.85899 309
420.01025 -41.43147 172.00626 305
468.36215 -51.09742 165.72609 449
265.61768 -10.23840 203.50584 314
268.94803 -10.88598 203.50887 310
405.95380 -37.41925 171.85423 309
420.33481 -40.20876 172.01389 305
469.82996 -49.76310 165.50383 448
479.64178 -51.66273 168.01279 293
265.74896 -9.94288 203.49811 314
269.08017 -10.57757 203.49858 310
406.25076 -36.24968 171.87781 309
420.59204 -38.93890 171.99113 305
471.28009 -48.41572 165.29282 447
479.92929 -50.04828 168.01636 293
265.88333 -9.65595 203.50241 314
269.21320 -10.25464 203.50558 310
406.56567 -35.11251 171.88248 309
420.88535 -37.66124 171.97330 305
472.49600 -46.99800 165.05653 300
480.21463 -48.40564 168.05836 293
266.01456 -9.35239 203.49930 314
269.34488 -9.93710 203.49722 310
406.78415 -33.92435 171.87044 309
421.19827 -36.43568 171.98686 305
472.79453 -45.45671 165.09714 300
480.52435 -46.77319 168.06154 293
266.12921 -9.06109 203.50082 314
269.47797 -9.62098 203.50145 310
407.05786 -32.75625 171.83963 309
421.47662 -35.16047 172.02731 305
473.17474 -43.83799 165.11479 300
480.76068 -45.16008 168.05359 293
266.25897 -8.76276 203.50874 314
269.60214 -9.30981 203.49911 310
407.33713 -31.61745 171.86523 309
421.71707 -33.90542 172.02863 305
473.48117 -42.26645 165.05618 300
481.04578 -43.54049 168.06317 293
266.38040 -8.46294 203.50783 314
269.73392 -8.99483 203.50812 310
407.58411 -30.43083 171.88281 309
421.98837 -32.67227 171.99902 305
473.77399 -40.72723 165.12065 300
481.34198 -41.91277 168.10136 293
266.49875 -8.17031 203.50954 314
269.85004 -8.67371 203.49867 310
407.84561 -29.28767 171.89120 309
422.23672 -31.43246 172.00491 305
474.06119 -39.12445 165.09795 300
481.53748 -40.29942 168.13805 293
266.61209 -7.86818 203.50021 314
269.96661 -8.35074 203.50775 310
408.04053 -28.08646 171.87308 309
422.49823 -30.13620 172.01485 305
439.17505 -32.58055 172.16501 301
481.74756 -38.67647 168.09796 294
266.72681 -7.57796 203.49796 314
270.09125 -8.04022 203.51025 310
408.28128 -26.92036 171.86636 309
178.51579 -24.41011 -38.92823 305
439.42947 -31.16434 172.17047 301
483.05280 -37.19499 167.96721 460
266.84247 -7.28361 203.50851 314
270.21243 -7.72142 203.50786 310
408.49960 -25.76940 171.89516 309
422.95892 -27.66541 172.02023 305
439.65198 -29.80668 172.15022 301
484.33987 -35.63340 167.73428 459
266.96536 -6.98574 203.50446 314
270.32645 -7.39208 203.50107 310
408.74738 -24.56967 171.86893 309
423.17645 -26.37924 172.00566 305
439.89978 -28.48183 172.16264 301
485.52264 -34.12304 167.57539 458
267.07065 -6.68783 203.50572 314
270.44019 -7.07358 203.50841 310
408.92294 -23.41123 171.86411 309
423.41299 -25.10943 172.00354 305
440.12683 -27.09969 172.20412 301
486.79221 -32.62803 167.44775 457
267.18542 -6.38505 203.50429 314
270.54434 -6.75928 203.49936 310
409.12537 -22.25101 171.86362 309
423.62811 -23.84654 172.02069 305
440.34302 -25.74392 172.15656 301
488.02014 -31.08847 167.20226 457
267.29251 -6.09010 203.50989 314
270.65112 -6.44399 203.49744 310
409.32452 -21.10178 171.85236 309
423.82104 -22.63262 172.02631 305
440.58548 -24.41066 172.16791 301
489.28992 -29.52714 167.02121 456
267.38733 -5.78949 203.50655 314
270.76047 -6.12898 203.49788 310
409.52643 -19.92323 171.89815 309
424.03043 -21.34796 172.00047 305
440.75150 -23.00500 172.21217 301
490.55057 -27.99068 166.82303 455
267.50232 -5.48591 203.50592 314
270.85934 -5.80958 203.50980 310
409.67661 -18.74306 171.88560 309
424.22794 -20.08255 171.99776 305
441.00244 -21.67754 172.20554 301
491.86340 -26.36230 166.65498 454
267.59689 -5.19082 203.50603 314
270.96774 -5.49104 203.50449 310
409.87164 -17.54556 171.89520 309
424.40134 -18.82777 171.99879 305
441.18311 -20.26663 172.19727 301
493.11127 -24.81004 166.45656 453
267.70264 -4.89226 203.50713 314
271.07425 -5.17202 203.49763 310
157.54269 -12.73009 -36.86436 309
424.58203 -17.60095 172.04037 305
441.34772 -18.95435 172.18936 301
494.39923 -23.23796 166.26149 452
267.79904 -4.59922 203.50732 314
271.17154 -4.85485 203.50551 310
410.19315 -15.24064 171.89127 309
424.69891 -16.29265 172.04079 305
441.52850 -17.54793 172.22124 301
495.70364 -21.60046 166.05379 452
267.89496 -4.29687 203.50366 314
271.26361 -4.52529 203.50337 310
410.35544 -14.02353 171.88356 309
424.89352 -15.03201 172.02414 305
441.65683 -16.17134 172.20967 301
461.33542 -17.56024 172.41695 297
267.98996 -3.99376 203.50775 314
271.36444 -4.21050 203.50310 310
410.48929 -12.86222 171.89297 309
425.05896 -13.76053 172.02838 305
441.86203 -14.85382 172.21570 301
461.52414 -16.08717 172.35132 297
268.08218 -3.70472 203.50778 314
271.45090 -3.89505 203.49913 310
410.61508 -11.72605 171.87068 309
425.16431 -12.51168 172.01517 305
442.00446 -13.47117 172.19933 301
461.61694 -14.59417 172.41605 297
268.16299 -3.40111 203.50096 314
271.53763 -3.56896 203.49973 310
410.78836 -10.54868 171.89406 309
425.32864 -11.26297 172.00723 305
442.11316 -12.11516 172.16621 301
461.82327 -13.11098 172.40062 297
268.26105 -3.10418 203.50194 314
271.63943 -3.24888 203.51013 310
410.91013 -9.35534 171.88385 309
425.44226 -9.99163 172.02054 305
442.28702 -10.75029 172.17511 301
461.93079 -11.61217 172.37820 297
268.34906 -2.80530 203.50743 314
271.72388 -2.93110 203.51022 310
411.03442 -8.16437 171.89218 309
425.54675 -8.74526 172.03181 305
442.37531 -9.33306 172.17697 301
462.07684 -10.08623 172.39102 297
268.42825 -2.51155 203.50159 314
271.80319 -2.61968 203.49721 310
411.13437 -7.03193 171.90463 309
425.66660 -7.48669 172.06393 305
442.47260 -7.98101 172.17555 301
462.15012 -8.64272 172.41829 297
268.50632 -2.21370 203.49770 314
271.88467 -2.29976 203.49855 310
411.20670 -5.85383 171.90237 309
425.76907 -6.20377 172.06355 305
442.58017 -6.60713 172.16739 301
462.27185 -7.10359 172.35966 297
268.59482 -1.90484 203.50876 314
271.96381 -1.97013 203.50745 310
411.34390 -4.64361 171.89706 309
425.90762 -4.94507 172.05006 305
442.70151 -5.25075 172.22565 301
462.40363 -5.66089 172.38086 297
268.67435 -1.61117 203.50337 314
272.05490 -1.65211 203.51025 310
411.38968 -3.47903 171.90199 309
425.99725 -3.69004 172.02095 305
442.79144 -3.89258 172.21053 301
462.49158 -4.16863 172.40091 297
512.07593 -4.79443 168.29428 288
268.75125 -1.31875 203.50937 314
272.12460 -1.34124 203.51071 310
411.48944 -2.28108 171.91829 309
426.05753 -2.41399 172.02296 305
442.90103 -2.51472 172.19652 301
451.58258 -2.56189 174.38516 423
512.09058 -3.00804 168.28377 288
3893.02271 -26.30070 36.23689 260
268.82663 -1.00950 203.50946 314
272.20926 -1.01247 203.50706 310
411.58859 -1.12813 171.90190 309
426.10355 -1.12742 172.05037 305
442.92871 -1.15656 172.18907 301
462.67374 -1.20812 172.39934 297
512.06384 -1.21278 168.34256 288
3856.88379 -3.98030 37.70212 458
268.89468 -0.71790 203.50256 314
272.27026 -0.70211 203.49886 310
411.65024 0.03999 171.91864 309
426.20868 0.12887 172.02682 305
443.04938 0.18963 172.21829 301
462.72290 0.34771 172.40450 297
512.20905 0.57692 168.27380 288
3843.75464 18.31207 37.83387 458
268.96698 -0.41898 203.50060 314
272.34903 -0.38632 203.50323 310
411.69604 1.20212 171.90723 309
426.26508 1.40078 172.05424 305
443.09753 1.56639 172.22443 301
451.53668 1.67712 174.42854 422
512.28656 2.37048 168.32225 288
3829.38403 40.38796 38.52845 459
269.04520 -0.12132 203.50626 314
272.41782 -0.06674 203.50641 310
411.76544 2.41291 171.87654 309
426.32175 2.64601 172.04346 305
443.14169 2.91875 172.22112 301
462.80716 3.26225 172.40752 297
512.39655 4.14351 168.31065 288
3819.30908 62.32595 39.08117 482
68283.28125 1196.79333 5794.61865 1000
67199.92188 1177.09473 13537.94629 1000
269.11197 0.17160 203.50403 314
272.48334 0.26048 203.49971 310
411.80042 3.59306 171.87321 309
426.33340 3.88749 172.01807 305
443.21347 4.28583 172.23235 301
462.83197 4.75075 172.38606 297
3811.69727 83.94570 39.36976 482
269.17499 0.46986 203.50642 314
272.54446 0.58000 203.50525 310
411.83060 4.73175 171.89668 309
426.37619 5.16779 172.01671 305
443.23416 5.64955 172.18916 301
462.89728 6.28432 172.38304 297
3803.51636 105.92889 40.66292 482
269.24161 0.77432 203.50009 314
272.61945 0.88586 203.49986 310
411.88101 5.92732 171.88211 309
426.41086 6.44660 172.04405 305
443.23886 7.02390 172.21420 301
462.94061 7.73048 172.39119 297
3797.72290 128.09862 40.46132 461
269.31204 1.06197 203.50883 314
272.67728 1.20844 203.49870 310
411.92966 7.08712 171.92020 309
426.45538 7.70698 172.02864 305
443.23929 8.43286 172.20741 301
462.90125 9.23213 172.36583 297
3793.10181 150.06830 40.91624 461
269.37027 1.36906 203.50041 314
272.73682 1.52905 203.50464 310
411.94409 8.26823 171.88773 309
426.46381 8.97880 172.05260 305
443.26727 9.78075 172.18736 301
462.90982 10.75559 172.37848 297
3789.00049 171.33046 41.02172 461
269.42752 1.66321 203.49808 314
272.79312 1.84258 203.50638 310
411.96240 9.45091 171.90390 309
426.46545 10.23559 172.04036 305
443.31085 11.13620 172.18372 301
462.92838 12.21253 172.37988 297
3784.98169 192.82156 40.85957 463
269.48331 1.96387 203.50766 314
272.94034 2.16395 203.48323 281
411.95386 10.57823 171.88242 309
426.48499 11.48297 172.02235 305
443.28894 12.49732 172.18680 301
462.92441 13.71521 172.40123 297
3782.42603 214.74907 40.79145 463
269.53882 2.25838 203.49780 314
399.26050 10.94867 171.78891 313
411.96545 11.75192 171.90610 309
426.50186 12.77291 172.01944 305
443.25854 13.87881 172.19785 301
462.88077 15.15829 172.41898 297
3779.39209 236.44321 41.56982 463
3853.83838 242.05241 96.89178 310
269.59253 2.55501 203.50328 314
399.28726 12.00092 171.79311 313
411.93979 12.94166 171.91135 309
426.45609 14.01760 172.04823 305
443.26297 15.25195 172.19652 301
496.90393 19.17640 166.15662 483
3777.06763 258.64194 41.12175 387
269.64813 2.84612 203.49858 314
399.26447 13.10397 171.78821 313
411.93463 14.09469 171.88678 309
426.42148 15.24399 172.02931 305
443.24744 16.60294 172.17404 301
495.88184 20.79376 166.38811 452
3775.89160 280.26059 41.51006 387
27207.50195 2135.67407 -227.70941 1000
269.69534 3.13983 203.50224 314
399.26031 14.17862 171.76471 313
411.92294 15.27173 171.89333 309
426.40115 16.54957 172.02103 305
443.16711 17.98312 172.21661 301
494.58157 22.35941 166.61957 453
3774.76953 302.43445 41.48473 387
269.75214 3.44576 203.50015 314
399.22098 15.31971 171.77553 313
411.88873 16.43354 171.91444 309
426.37558 17.80776 172.05226 305
443.15329 19.28507 172.22749 301
493.29642 23.94620 166.78180 454
3774.76489 324.28033 41.38579 386
269.79224 3.72966 203.50792 314
399.21448 16.39244 171.79088 313
411.84921 17.60611 171.90462 309
426.33356 19.03631 172.05925 305
443.09073 20.70181 172.19807 301
492.05502 25.43561 167.05252 455
3774.33569 346.43106 40.69321 386
269.83356 4.02869 203.50656 314
399.14267 17.46380 171.78339 313
411.80521 18.80473 171.91400 309
426.28616 20.29696 172.05249 305
443.02563 22.02715 172.21545 301
490.80063 27.02437 167.25774 456
3774.94727 368.23215 41.25650 386
269.87701 4.32148 203.50371 314
399.10327 18.55583 171.78635 313
411.79932 19.97554 171.91522 309
426.22647 21.56526 172.01555 305
442.98691 23.38527 172.20483 301
489.55106 28.51778 167.40831 457
3774.64673 390.85947 40.34858 386
3904.23145 404.98981 95.12407 394
269.92618 4.61363 203.50940 314
399.08411 19.63971 171.78780 313
411.72363 21.11644 171.90456 309
426.20114 22.82924 172.01974 305
442.86920 24.72331 172.17488 301
488.30804 30.05693 167.65356 457
3773.30127 411.84052 40.45532 433
3891.61157 426.35077 95.46395 354
269.95782 4.91065 203.50607 314
399.03632 20.73341 171.77692 313
411.64313 22.30354 171.89592 309
426.10724 24.05654 172.05508 305
442.79892 26.13208 172.17458 301
487.12302 31.52857 167.84149 458
3773.64917 434.22049 40.85995 386
3920.38281 452.69440 155.64748 498
3930.21924 453.63077 216.65459 350
270.00089 5.20696 203.50508 314
398.97488 21.85187 171.75203 313
411.59293 23.45902 171.91484 309
426.04883 25.31098 172.05205 305
442.68741 27.45299 172.17740 301
485.89117 33.05762 168.02757 459
3773.51318 456.28040 40.49744 386
270.03323 5.50789 203.49881 314
398.92966 22.89789 171.76605 313
411.50259 24.60489 171.86725 309
425.91177 26.55472 172.01105 305
442.59976 28.80420 172.16426 301
485.24136 34.56412 168.16440 294
3772.68359 478.91867 40.24564 385
270.06665 5.79455 203.50496 314
398.82599 23.97802 171.77748 313
411.42407 25.79238 171.88304 309
425.83594 27.84390 172.01578 305
442.51730 30.15809 172.21257 301
485.17426 36.24189 168.09007 294
3772.27051 501.22446 40.19395 385
270.10229 6.09412 203.50502 314
398.73706 25.08112 171.78500 313
411.36038 26.95751 171.89647 309
425.76120 29.05870 171.99934 305
477.62018 36.74606 165.08740 300
485.11969 37.87055 168.12947 294
3772.32056 523.07257 40.14327 385
270.12729 6.37548 203.50294 314
398.67004 26.15668 171.78662 313
411.25922 28.11866 171.87056 309
425.60834 30.32365 172.04208 305
477.49850 38.28466 165.10358 300
485.02887 39.46643 168.06276 293
3771.98511 545.40582 39.71980 385
270.16058 6.67173 203.50037 314
398.59323 27.24439 171.75792 313
411.11911 29.24967 171.88634 309
425.51785 31.58226 172.05188 305
477.30728 39.89135 165.08405 300
484.98984 41.10667 168.04724 293
3771.07422 567.53131 39.57988 385
270.18329 6.96354 203.49867 314
398.48151 28.31878 171.77864 313
411.03751 30.42722 171.89336 309
425.39102 32.81767 172.00377 305
477.12479 41.39120 165.13332 300
484.82391 42.72102 168.07939 293
3770.71436 589.47968 39.24654 385
3873.99561 607.19873 155.93686 274
270.21979 7.25715 203.50871 314
398.35699 29.39139 171.76688 313
410.90424 31.55225 171.87773 309
425.26553 34.03432 172.00681 305
476.47446 42.92402 165.21767 445
484.74362 44.33780 168.03346 293
3770.38843 611.66840 39.33531 385
270.23727 7.54361 203.49789 314
398.27380 30.49101 171.78285 313
410.77170 32.73898 171.86229 309
425.11435 35.29518 172.00421 305
475.00729 44.22152 165.46060 446
484.57614 45.91698 168.04521 293
3769.25488 634.06677 39.39388 385
270.25595 7.83617 203.50925 314
398.16608 31.53647 171.77516 313
410.65411 33.86882 171.88034 309
424.97522 36.53842 171.98985 305
473.58517 45.53671 165.69839 447
3769.10376 657.04987 38.79729 385
270.27490 8.12326 203.49971 314
398.02765 32.65630 171.78061 313
410.53146 35.03052 171.90263 309
424.83646 37.77387 172.02502 305
472.21857 46.86338 165.95799 448
3768.16650 679.35443 39.40686 384
270.30350 8.42125 203.50127 314
397.87903 33.69454 171.76668 313
410.37668 36.20831 171.89154 309
424.68701 38.98843 172.01976 305
470.84674 48.20008 166.19211 449
3768.14307 701.43042 38.90948 384
270.31592 8.71226 203.50694 314
397.77676 34.77317 171.74251 313
410.23190 37.33695 171.85397 309
424.48840 40.28656 172.00919 305
469.44699 49.45318 166.36592 450
3767.61621 724.13898 38.88147 384
270.33295 8.99293 203.50473 314
397.62784 35.87242 171.77429 313
410.07669 38.47656 171.88631 309
424.34454 41.51966 172.00342 305
468.06314 50.74166 166.61932 450
3766.87402 746.71075 38.49212 384
26.13211 5.68263 -7.16653 314
397.50000 36.93984 171.72632 313
409.91339 39.62186 171.85136 309
456.01709 49.64680 164.98196 304
466.71027 52.00298 166.83563 451
3766.14868 769.57739 38.61617 384
270.35217 9.57427 203.50954 314
397.33691 38.00781 171.76370 313
409.74658 40.76217 171.89574 309
455.77832 51.07807 164.97154 304
465.38715 53.26036 167.08241 452
3765.79297 791.81067 38.21542 384
270.45996 9.88402 203.47903 285
397.17181 39.05243 171.72429 313
409.54626 41.93787 171.86534 309
455.55331 52.51476 164.92612 303
464.07816 54.48394 167.27267 453
3760.75513 813.40375 37.65812 456
386.05231 37.53769 171.63080 316
397.01703 40.13676 171.74763 313
409.38400 43.06585 171.86455 309
455.25320 53.95250 164.98848 303
462.72992 55.69360 167.46710 454
3768.20801 837.86169 37.31762 363
385.89957 38.55560 171.62810 316
396.82239 41.21118 171.74760 313
409.18167 44.20175 171.84251 309
455.04764 55.34808 164.96161 303
461.12628 56.85680 167.76672 422
385.73447 39.52372 171.64754 316
396.64087 42.27224 171.72583 313
408.97745 45.33070 171.88225 309
454.75858 56.79612 164.93399 303
459.94559 58.07592 167.95171 297
385.60471 40.53542 171.61049 316
396.46762 43.31822 171.72461 313
408.78540 46.48444 171.85033 309
454.49741 58.18234 164.94026 303
459.74313 59.52124 167.93829 297
385.38702 41.54086 171.61876 316
396.27661 44.37436 171.71548 313
408.58511 47.62978 171.87358 309
454.17429 59.62297 164.92624 303
459.54166 61.04417 167.92529 297
385.24380 42.50496 171.65004 316
396.04938 45.42643 171.75500 313
408.37650 48.76435 171.87999 309
453.88901 61.02018 164.95976 303
459.27780 62.47341 167.91705 297
385.02979 43.50716 171.60902 316
395.86838 46.50945 171.74066 313
408.14160 49.90570 171.85693 309
452.34000 62.13530 165.23959 427
459.02316 63.90519 167.92834 297
384.86169 44.49165 171.62570 316
395.65204 47.58034 171.74573 312
407.90094 51.02909 171.84865 309
450.71329 63.13259 165.55220 428
458.74792 65.37733 167.90651 297
384.65649 45.47010 171.63068 316
395.44299 48.60307 171.71834 312
436.39816 60.49458 164.88104 308
449.03192 64.11317 165.82904 429
458.43808 66.87822 167.86913 297
384.43881 46.49352 171.63029 316
395.21948 49.65898 171.72375 312
436.14023 61.76314 164.83553 308
447.36197 65.11427 166.13727 430
384.22409 47.46347 171.60435 316
395.00348 50.70074 171.69995 312
435.82089 63.04696 164.86020 308
445.78528 66.07742 166.43674 431
384.01291 48.44586 171.63210 316
394.71851 51.74071 171.71103 312
435.48029 64.38902 164.87213 308
444.14221 67.03789 166.68033 432
383.81375 49.41787 171.61478 316
394.51492 52.83038 171.73228 312
435.18176 65.68859 164.87007 308
442.56564 68.03185 166.97435 433
383.54840 50.41301 171.59328 316
394.26025 53.84288 171.72110 312
434.84305 66.97907 164.83533 308
440.96600 68.96353 167.25601 434
383.31522 51.38031 171.60551 316
393.98715 54.90896 171.71295 312
434.48526 68.25266 164.85596 308
439.46268 69.90426 167.54973 435
383.08322 52.34729 171.62997 316
393.74133 55.93413 171.70392 312
434.11230 69.50002 164.85445 308
437.73938 70.74479 167.81606 421
382.82498 53.30947 171.60309 316
393.47229 56.99604 171.68851 312
433.77737 70.80486 164.88272 308
437.34448 72.02598 167.87021 301
382.57510 54.31824 171.61374 316
393.20755 58.00614 171.68839 312
433.39636 72.07804 164.86299 308
436.99179 73.32149 167.86086 301
382.34790 55.25036 171.60826 316
392.90936 59.04126 171.68777 312
432.63275 73.21593 164.94572 424
436.66028 74.66355 167.85413 301
382.08478 56.22300 171.61575 316
418.59357 69.50459 164.76527 312
430.99228 74.03882 165.29366 425
436.33585 75.95144 167.82011 301
381.80396 57.17618 171.57681 316
418.18988 70.70087 164.76872 312
429.34659 74.84361 165.60738 426
435.92770 77.31583 167.81946 301
381.51913 58.16859 171.59114 316
417.82587 71.88879 164.79161 312
427.70343 75.61172 165.89510 427
435.57614 78.59130 167.77577 301
381.22699 59.11575 171.60326 316
417.47012 73.04044 164.80440 312
426.09363 76.37717 166.16585 428
435.24710 79.89772 167.78946 301
380.97119 60.06476 171.58063 316
417.01990 74.21688 164.79510 312
424.57010 77.14606 166.50932 429
380.65158 61.03316 171.58708 316
416.62054 75.37694 164.79608 312
423.01508 77.91997 166.74010 430
380.37540 61.99807 171.56731 316
416.24179 76.57709 164.79855 312
421.42880 78.66708 167.07994 431
380.09277 62.93984 171.58720 316
415.83759 77.75546 164.79410 312
419.91922 79.42153 167.35936 432
379.75986 63.90107 171.56941 316
415.42310 78.89684 164.83173 312
418.42032 80.13619 167.58922 433
379.42706 64.83858 171.57999 316
414.98309 80.06560 164.81947 312
417.26202 81.04028 167.79886 305
379.14056 65.78471 171.54504 316
414.53604 81.20594 164.80379 312
416.84964 82.24036 167.75893 305
402.16257 77.07158 164.72578 317
413.99921 82.33351 164.84966 435
416.47949 83.40643 167.78943 305
401.77136 78.12578 164.69344 317
412.56436 82.98473 165.10196 436
416.07797 84.56898 167.79059 305
401.36096 79.21724 164.69162 317
411.15762 83.67730 165.38167 437
415.63617 85.73232 167.76259 305
400.91724 80.31335 164.68993 317
409.73788 84.38424 165.64783 438
415.19028 86.94405 167.75145 305
400.69327 81.59606 164.74083 317
408.36765 85.08382 165.88162 439
414.76071 88.09507 167.73729 305
400.08679 82.42509 164.72890 317
406.98846 85.73839 166.15553 440
414.32886 89.27085 167.69992 305
399.62686 83.48441 164.71689 317
405.42441 86.31446 166.47694 421
413.88284 90.43607 167.68900 305
399.17163 84.52744 164.70627 317
403.84271 86.85003 166.78531 423
398.69504 85.59023 164.72031 317
402.26483 87.38302 167.06688 424
398.19699 86.62869 164.74858 317
400.77484 87.93964 167.38042 425
397.72598 87.67860 164.75774 317
399.23209 88.45998 167.66248 426
397.26642 88.68687 164.73512 317
398.59579 89.41061 167.69739 311
396.25009 89.44945 164.92334 427
398.11267 90.46043 167.71489 311
394.81155 90.00056 165.20645 428
397.69312 91.53345 167.72563 309
393.35788 90.45899 165.47836 429
397.18524 92.58498 167.70932 309
391.91730 91.00018 165.77379 430
396.74896 93.63183 167.67905 309
390.51770 91.46694 166.05540 431
396.25842 94.69273 167.66505 309
389.11395 91.97038 166.31273 432
395.77957 95.76828 167.67035 309
387.75320 92.43983 166.58855 433
395.30496 96.80688 167.68362 309
386.39844 92.90284 166.89806 434
394.79349 97.87484 167.67639 309
385.06897 93.37716 167.14049 435
383.75253 93.84290 167.40170 436
382.43839 94.26025 167.61948 437
2845.39404 1610.16467 14.91032 427
381.91623 95.23786 167.65192 315
2831.97583 1624.38489 15.52439 468
2843.28442 1631.55054 64.99780 359
381.40134 96.14850 167.66280 315
380.85825 97.12743 167.63867 315
380.35199 98.08012 167.61629 315
379.82416 98.97308 167.61191 315
379.30350 99.90924 167.63705 315
378.75430 100.86668 167.64691 315
378.27060 101.80850 167.64011 313
377.71051 102.71270 167.63223 313
377.20090 103.63079 167.61601 313
376.62439 104.58192 167.58806 313
2525.10522 2002.51965 -286.71994 1000
4115.75488 4555.95557 19.95268 282
4055.84619 4543.38818 21.76939 433
4011.53296 4545.74951 22.06657 434
3966.69971 4548.39600 22.70686 340
3917.19019 4545.47754 24.47538 297
3882.99072 4560.62305 25.39046 400
3874.00952 4605.97217 23.82647 413
15898.16309 19815.89453 6106.34082 1000
3875.72705 4666.91406 23.12765 386
3879.41797 4731.38232 19.98595 383
3886.01392 4799.56006 18.57095 365
3891.03540 4868.52148 16.37144 381
3895.41895 4936.37646 14.68444 379
2799.72534 3550.11572 0.62235 491
2806.40210 3559.13940 72.18788 480
2538.87695 4654.47754 47.47368 495
2498.68433 5566.08203 21.05273 371
2455.82886 5555.29297 22.35361 442
2412.78979 5548.14355 22.42399 466
2372.03589 5543.34863 23.11097 474
2331.34644 5540.16162 24.10546 475
2290.94019 5537.34033 24.66705 479
2253.17188 5538.59131 24.65258 495
2216.17920 5540.38086 24.70723 489
2176.97144 5541.38916 25.82298 493
2195.99121 5593.31592 120.55421 320
2140.11353 5544.96924 25.32577 491
2156.02148 5586.73584 120.45333 497
2103.14258 5545.24268 26.17635 494
2119.57104 5593.38086 120.31556 497
2127.68799 5617.25732 216.82555 416
2068.33716 5553.55029 26.34901 496
2081.05933 5594.65234 121.82233 497
2090.50464 5622.80566 217.82120 416
2031.46765 5556.65723 25.68340 496
2046.44543 5601.05322 121.66052 497
2054.73779 5629.24951 217.10301 416
1995.83203 5565.63965 25.69144 498
2011.05823 5612.68408 121.59199 497
2018.12195 5635.51123 216.89771 416
1960.63452 5568.94189 25.97519 498
1975.13232 5619.79443 121.07396 498
1981.40295 5639.36426 217.66312 402
1926.20203 5578.26221 26.66248 498
1939.89929 5625.81982 121.33295 498
1945.60913 5645.27393 217.95587 402
1890.10120 5582.74951 26.40489 447
1904.53833 5632.88916 121.98763 498
1909.48267 5649.72314 218.43408 434
1855.16162 5591.18115 26.29146 498
1928.98254 5846.72705 117.29252 274
1893.08350 5722.66992 217.43915 498
1819.84497 5599.04053 27.58669 498
1858.73389 5736.59277 216.85127 269
1783.14954 5603.05029 27.12311 498
1747.88574 5607.93066 27.89545 498
1713.14465 5613.74268 26.89532 498
1677.62854 5621.05664 28.06983 498
1643.86438 5626.87207 28.11060 498
10576.36914 42160.26953 -6213.54834 1000
1607.80444 5633.64453 28.25318 498
1572.57349 5640.58447 28.37615 498
1538.38293 5647.94092 28.53205 498
1514.69495 5707.16748 26.06298 499
1526.39246 5758.45361 120.68437 466
1491.45593 5764.66016 24.87382 433
1488.69104 5753.26855 121.15781 469
1460.16284 5791.97412 120.18990 260
950.28400 4461.79834 69.57229 463
666.81494 3214.74146 58.01364 283
668.92383 3226.08838 110.45094 303
637.09039 3138.47974 61.91258 315
643.26489 3187.02222 111.88169 421
611.90228 3089.72827 63.59467 337
622.96442 3182.87671 112.13448 479
588.52594 3055.06958 65.47564 345
603.93445 3185.37305 112.19019 479
565.38141 3022.23657 67.61839 346
584.64673 3188.64429 112.03635 479
543.63666 2989.96167 68.82568 389
564.76208 3191.03345 112.35759 479
522.04712 2964.65112 70.76649 396
545.47375 3194.02856 111.47403 478
501.96625 2943.23315 71.89101 499
525.75128 3197.05957 111.62626 478
485.09811 2957.89355 71.13519 369
506.79248 3200.33301 111.45087 478
470.12073 2998.96289 69.10280 283
487.12729 3202.92358 111.49403 478
455.23840 3047.08032 67.22523 322
467.22018 3206.00659 111.82151 478
439.96500 3098.96338 64.01900 314
448.01486 3208.65161 111.46956 476
426.45889 3176.12500 60.59765 291
429.36118 3225.10010 111.42076 400
27.99014 41035.30469 -8637.26562 1000
-5770.07471 65878.60938 10043.79785 1000
-5220.77637 59847.78906 11164.75781 1000
-5344.77295 17294.69336 -1570.10083 1000
-242.23941 991.22345 180.24638 342
-241.28259 989.49579 198.25961 409
-240.69115 988.31757 216.28749 409
-240.58537 987.62787 234.38472 461
-240.06984 987.01245 252.10670 461
-240.06335 986.35901 270.24219 492
-239.74763 986.03247 288.18216 492
-239.60553 985.70209 306.14816 498
-247.87259 987.39893 71.55434 408
-247.31151 986.74457 90.08413 459
-247.15985 985.93140 108.09030 460
-246.75336 985.58685 126.31297 491
-246.65950 984.90973 144.54192 491
-246.48715 984.87518 162.31281 498
-246.45514 984.44775 180.53084 499
-246.18401 984.32892 198.51950 481
-246.25366 984.37805 216.21967 481
-246.33008 984.73212 234.18973 441
-246.53999 985.01202 252.36533 440
-246.70113 985.53308 270.10208 381
-247.32162 986.37323 288.26822 381
-253.12799 983.50018 71.67077 479
-253.27043 983.49225 90.04970 439
-253.52345 984.01459 107.91680 439
-253.84448 984.48126 126.26478 380
-254.30933 985.75549 144.22252 309
-5679.28516 9615.21484 -2027.67371 1000
-716.82556 1546.04358 127.37494 360
-715.05011 1543.38452 156.76802 424
-714.22406 1542.37231 186.74797 471
-713.72986 1541.55530 216.35706 496
-713.41656 1540.81848 246.02150 497
-713.61829 1541.25085 275.39597 473
-714.13269 1541.59473 305.17474 427
-725.02313 1538.10669 97.47495 472
-725.27423 1539.16504 127.35713 364
131.60609 152.57281 166.40646 314
130.73729 151.89392 166.41541 314
-1182.01611 2068.79736 93.46051 465
-1183.41455 2070.77393 134.13062 415
-1184.95837 2073.08667 174.98399 414
-1186.41040 2075.14404 216.34035 348
129.87917 151.26936 166.41148 314
130.42909 148.62587 167.02855 412
129.86369 147.55730 167.19046 469
129.03392 146.98972 167.16019 441
127.76679 148.68097 169.82657 408
127.71152 146.94862 166.93562 440
127.00764 147.94371 169.84601 432
126.30611 147.10202 166.66895 430
125.56363 148.07936 169.60695 431
124.90575 147.20149 166.39442 429
124.06643 148.32565 169.31653 491
124.01783 146.52696 166.41592 314
123.20416 145.84236 166.39709 314
120.64680 149.21939 168.60336 491
122.40598 145.13643 166.38377 314
121.30942 144.83521 166.29265 423
116.14755 151.37955 167.44376 312
119.78431 144.97870 165.94615 422
115.31120 150.60123 167.44095 312
118.25558 145.12904 165.65027 421
114.44672 149.85323 167.43390 312
116.72216 145.26067 165.35272 420
110.98076 152.28052 166.36537 310
115.16421 145.43057 165.06938 419
110.12617 151.55313 166.40413 310
113.62354 145.61122 164.75122 418
109.25000 150.71762 166.40231 310
111.98299 145.73790 164.39825 417
108.42654 149.93456 166.38905 310
110.40201 145.91058 164.06361 416
107.60011 149.15694 166.40068 310
108.74654 146.10281 163.73376 415
106.73443 148.36172 166.37309 310
107.12888 146.18315 163.44334 312
105.91532 147.53308 166.40013 310
106.35878 145.30519 163.46075 312
105.09873 146.75754 166.36365 310
-37619.98828 42346.44922 -10112.15039 1000
105.57542 144.45436 163.47458 312
103.68546 146.61563 166.13126 412
104.82388 143.60983 163.45793 311
101.94556 146.74345 165.79541 411
93.47393 155.98813 166.34550 305
104.08443 142.70152 163.50139 311
100.14742 146.97177 165.47957 410
92.54820 155.11223 166.37564 305
103.36572 141.84334 163.51157 311
98.38666 147.10019 165.08937 409
91.71512 154.24342 166.33350 305
102.63394 140.90984 163.50752 311
96.56391 147.30299 164.73683 419
90.82809 153.32320 166.34311 305
101.89304 140.03755 163.55267 311
94.86769 147.37830 164.42497 418
89.95274 152.44577 166.34421 305
121.48876 118.28466 171.38939 316
93.08571 147.41388 164.07748 417
89.07146 151.57750 166.34077 305
120.85455 117.52966 171.36810 316
91.30407 147.49225 163.77292 415
88.23686 150.61447 166.31934 305
120.22469 116.80899 171.38712 316
89.53166 147.59756 163.41745 414
87.38104 149.69273 166.32906 305
119.62554 116.05323 171.37993 316
88.72301 146.66713 163.40373 303
86.51005 148.82361 166.32547 305
119.03251 115.29141 171.39911 316
87.96406 145.64380 163.47292 303
85.68240 147.85599 166.33853 305
118.41288 114.56036 171.38681 316
87.28303 144.62257 163.50450 303
83.99693 147.80545 166.01642 412
117.78381 113.80062 171.41199 316
86.58521 143.54675 163.54141 304
82.07439 147.84818 165.69933 411
117.18468 113.04738 171.39444 316
85.87577 142.54146 163.53696 304
80.11711 147.93723 165.35434 409
70.62516 156.88808 166.27570 301
116.59719 112.28796 171.42270 316
85.20967 141.50209 163.59550 304
78.14507 147.99126 164.96498 408
69.75478 155.86499 166.26399 301
115.98265 111.49384 171.41144 316
107.65374 119.20564 171.48889 312
76.20952 148.09200 164.61589 407
68.85687 154.81090 166.27441 301
115.41298 110.72845 171.44821 316
107.03304 118.33351 171.52200 312
74.15749 148.18895 164.24893 406
67.96858 153.76805 166.28271 301
114.84487 109.95127 171.43547 316
106.40067 117.54861 171.50993 312
72.09383 148.27133 163.86971 405
67.11114 152.71021 166.27928 301
114.27569 109.19579 171.42725 316
105.77234 116.67625 171.50282 312
70.02140 148.33528 163.48497 404
66.28773 151.69124 166.23598 301
113.66511 108.42097 171.46165 316
105.12611 115.83447 171.49936 312
68.75632 147.71840 163.32976 300
65.39109 150.62436 166.27684 301
113.11477 107.61176 171.44710 316
104.55497 115.00634 171.52434 312
68.01182 146.53764 163.33264 300
64.52139 149.55066 166.25305 301
112.55220 106.83573 171.45621 316
103.93087 114.17871 171.51289 312
67.34855 145.40291 163.40865 300
63.61726 148.59904 166.18623 401
-31931.74023 27440.20703 -8190.56738 1000
111.96746 106.01818 171.43944 316
103.35853 113.33629 171.53860 312
-95.59415 80.53203 -29.13173 300
61.37192 148.63591 165.79964 400
111.41792 105.23145 171.45107 316
102.72681 112.45877 171.52454 312
92.86807 120.68581 171.61632 308
59.09087 148.73897 165.43256 398
110.87005 104.41445 171.46407 316
102.14381 111.60339 171.52417 312
92.21017 119.77760 171.62415 308
56.85608 148.83031 164.98421 397
45.57746 158.09999 166.13107 297
110.35074 103.62518 171.49535 316
101.57866 110.75257 171.53334 312
91.57198 118.81968 171.63060 308
54.48090 148.95676 164.61649 396
44.70095 156.92117 166.16209 297
109.80027 102.83116 171.49406 316
100.97219 109.88331 171.54607 312
90.98866 117.92014 171.63939 308
52.11694 149.02895 164.15453 395
43.79177 155.69789 166.12071 297
109.24445 102.01237 171.47861 316
100.38925 108.98608 171.56129 312
90.31917 116.99863 171.65182 308
49.74086 149.12868 163.75473 394
42.94180 154.47523 166.14276 297
108.72945 101.17561 171.50748 316
99.84304 108.15151 171.53780 312
89.74039 116.05085 171.66281 308
47.25893 149.24622 163.27812 392
42.05990 153.26833 166.16258 297
108.19628 100.37714 171.48235 316
99.27319 107.26427 171.56450 312
89.10728 115.08259 171.66408 308
46.23585 148.16428 163.24951 296
41.24058 152.05104 166.16356 297
107.68956 99.55197 171.50790 316
98.70100 106.40368 171.57796 312
88.50946 114.16917 171.65720 308
45.56931 146.81323 163.24315 296
40.36917 150.81485 166.13588 297
107.19476 98.68816 171.50157 316
98.13650 105.48344 171.56519 312
87.91752 113.21110 171.66949 308
76.15092 122.00966 171.73021 304
39.49477 149.57010 166.14670 297
106.64751 97.87287 171.49178 316
97.61515 104.62524 171.56155 312
87.29530 112.24226 171.63924 308
75.54311 121.02940 171.76459 304
36.96476 149.63516 165.70570 388
106.16752 97.04371 171.52428 316
97.04517 103.73266 171.58519 312
86.74686 111.28182 171.66200 308
74.90440 119.98723 171.76045 304
34.29108 149.74524 165.23149 387
105.65231 96.18893 171.52429 316
96.53613 102.80151 171.60170 312
86.14248 110.33333 171.67473 308
74.25802 118.90939 171.75847 304
31.56012 149.83305 164.75787 385
105.17663 95.38964 171.50661 316
96.00334 101.93223 171.57765 312
85.56421 109.36854 171.70097 308
73.66223 117.90433 171.76593 304
28.77271 149.91583 164.27769 384
16.40994 158.75591 165.94072 291
104.67469 94.50983 171.51605 316
95.47009 101.02099 171.59415 312
84.98573 108.41360 171.66208 308
73.02562 116.84637 171.79726 304
25.91648 150.05600 163.85611 383
15.53079 157.41083 165.92365 291
104.20567 93.67812 171.50760 316
94.94826 100.09747 171.57991 312
84.45513 107.42226 171.70786 308
72.42881 115.80899 171.76274 304
23.01623 150.11899 163.29276 382
14.61540 156.05634 165.92232 291
103.70457 92.80566 171.52271 316
94.44372 99.20219 171.62485 312
83.88907 106.46399 171.68167 308
71.79742 114.75277 171.79652 304
21.32775 149.43607 163.12477 292
13.67104 154.68573 165.90240 291
103.23408 91.97848 171.52151 316
93.93683 98.28293 171.59694 312
83.34611 105.46191 171.70103 308
71.22243 113.67556 171.81520 304
57.16575 123.20851 171.92384 300
12.84205 153.24554 165.94748 291
102.79314 91.12492 171.54019 316
93.40399 97.39762 171.63922 312
82.76691 104.47087 171.72511 308
70.60313 112.65295 171.81010 304
56.52715 122.07060 171.94586 300
11.95159 151.84254 165.90826 291
102.32720 90.25903 171.54355 316
92.92268 96.47100 171.61197 312
82.23035 103.49639 171.70580 308
70.00346 111.56087 171.82289 304
55.87944 120.93340 171.94034 300
11.03935 150.51999 165.93311 291
101.84782 89.37091 171.54027 316
92.43661 95.52460 171.60104 312
81.72540 102.51020 171.72664 308
69.44860 110.47665 171.82611 304
55.26026 119.74854 171.93851 300
7.97003 150.51643 165.44398 379
101.38386 88.50509 171.55875 316
91.94984 94.62394 171.62422 312
81.20055 101.50819 171.72417 308
68.88499 109.44729 171.81270 304
54.58495 118.61912 171.95145 300
4.73338 150.65056 164.91650 377
100.95414 87.67610 171.57405 316
91.44448 93.66714 171.61481 312
80.66640 100.52733 171.72820 308
68.28828 108.33788 171.85251 304
53.99519 117.45170 171.92407 300
1.44858 150.75621 164.40067 376
100.51354 86.79411 171.57413 316
90.96165 92.77027 171.64307 312
80.17001 99.53365 171.70349 308
67.73251 107.28309 171.81328 304
53.36907 116.26962 171.92596 300
-1.85075 150.83971 163.88152 375
100.07803 85.91402 171.55359 316
90.51964 91.80667 171.65503 312
79.63165 98.51186 171.75917 308
67.20148 106.20322 171.84927 304
52.75626 115.11382 171.92688 300
-5.29555 150.86282 163.26877 373
-19.34691 159.62682 165.44461 286
99.66879 85.01421 171.57448 316
90.04840 90.87057 171.62384 312
79.15129 97.51057 171.75311 308
66.66700 105.13228 171.85934 304
52.18407 113.88393 171.93132 300
35.24390 124.22584 172.09232 296
-20.26145 157.99588 165.41161 286
99.24802 84.16432 171.57341 316
89.57719 89.91427 171.67175 312
78.65842 96.52074 171.75423 308
66.09618 104.04212 171.85374 304
51.58670 112.75917 171.94342 300
34.59366 122.95131 172.12788 296
-21.12353 156.34775 165.49203 286
98.78992 83.25637 171.55679 316
89.13276 88.99210 171.64908 312
78.13588 95.46954 171.72876 308
65.55164 102.91268 171.84448 304
51.02683 111.53306 171.99821 300
33.91941 121.64837 172.07573 296
-21.95568 154.69337 165.43716 286
98.36922 82.37653 171.59488 316
88.69247 88.06086 171.64442 312
77.67025 94.45932 171.73640 308
65.02518 101.84652 171.87297 304
50.45756 110.32881 171.99561 300
33.28542 120.37638 172.10364 296
-22.79867 153.13446 165.49393 287
97.95906 81.47050 171.57861 316
88.23664 87.11292 171.64912 312
77.20434 93.46169 171.74677 308
64.55000 100.72718 171.84479 304
49.87524 109.15910 172.00533 300
32.64342 119.05950 172.12587 296
-23.67440 151.48718 165.48799 287
97.57031 80.57386 171.56682 316
87.83086 86.12984 171.66780 312
76.74763 92.43961 171.76299 308
64.00645 99.63876 171.87582 304
49.28291 107.94421 171.95895 300
32.05721 117.76704 172.12814 296
-27.33759 151.47385 164.90027 366
97.18125 79.68864 171.60898 316
87.38723 85.18671 171.65294 312
76.27750 91.38269 171.77077 308
63.53497 98.49667 171.86003 304
48.75438 106.76540 171.98047 300
31.46465 116.40990 172.11526 296
-31.36543 151.51376 164.33568 365
96.79894 78.81470 171.60652 316
86.96917 84.22806 171.65436 312
75.81098 90.34667 171.76459 308
62.99605 97.41388 171.85266 304
48.20924 105.59225 171.98940 300
30.85811 115.09376 172.13080 296
-35.38013 151.65150 163.67580 363
96.39200 77.87766 171.58199 316
86.52330 83.27028 171.67511 312
75.31535 89.33557 171.75807 308
62.52271 96.30624 171.88075 304
47.64786 104.39040 171.98088 300
30.23648 113.80409 172.11588 296
9.53864 125.08913 172.32266 292
95.98954 77.00431 171.58022 316
86.11393 82.27377 171.70305 312
74.89049 88.31657 171.78285 308
62.02810 95.15817 171.88345 304
47.13910 103.15817 172.02061 300
29.68090 112.48457 172.17509 296
8.91209 123.61921 172.28789 292
95.61645 76.07020 171.61676 316
85.70290 81.33578 171.68925 312
74.44526 87.24911 171.79134 308
61.56746 94.03396 171.87021 304
46.62925 101.93544 171.99779 300
29.05761 111.18495 172.12312 296
8.26552 122.15294 172.33899 292
-62.05421 159.16695 164.93948 284
-4775.70752 2644.00537 1637.10999 1000
95.27576 75.16648 171.60292 316
85.32597 80.36684 171.70769 312
73.99775 86.21369 171.78279 308
61.10021 92.95406 171.89581 304
46.06381 100.72054 172.03966 300
28.52881 109.85590 172.15578 296
7.63119 120.67651 172.33412 292
-62.78294 157.26360 164.96066 284
94.88190 74.25766 171.61800 316
84.91678 79.39610 171.68816 312
73.60454 85.16737 171.78174 308
60.59484 91.83598 171.89297 304
45.58688 99.48331 172.04498 300
29.95612 107.50265 172.58711 276
12.25077 116.58456 173.29544 276
-63.55489 155.31235 164.97545 284
94.51729 73.34769 171.61981 316
84.51701 78.37735 171.69353 312
73.14164 84.10802 171.77136 308
