# .PCD v.7 - Point Cloud Data file format
VERSION .7
FIELDS x y z rgb
SIZE 4 4 4 4
TYPE F F F U
COUNT 1 1 1 1
WIDTH 1406
HEIGHT 1
VIEWPOINT 5469.009766 -3998.741211 152.987350 -0.046348 -0.141271 -0.009279 0.988842
POINTS 1406
DATA ascii
269.66104 2.14409 203.50679 314
399.42352 10.82074 171.79135 313
412.13797 11.64814 171.90288 309
426.69531 12.64654 172.01141 305
443.51590 13.75925 172.17093 301
463.19363 15.08475 172.38829 297
3756.41406 234.89066 -15.19757 486
3736.43604 232.90570 43.67301 388
3801.44629 237.70311 98.72650 499
269.71591 2.43856 203.50401 314
399.43234 11.90622 171.79636 313
412.11786 12.85089 171.91582 309
426.65771 13.86783 172.02005 305
443.49475 15.11053 172.22845 301
496.98981 19.04685 166.20796 483
3753.60815 256.10080 -15.00746 488
3735.36279 254.81136 43.74154 388
269.76785 2.73823 203.50046 314
399.45062 12.96870 171.77252 313
412.12158 14.02541 171.92154 309
426.68179 15.11822 172.06125 305
443.43396 16.50306 172.19717 301
496.00107 20.61007 166.40114 452
3751.01050 278.07117 -15.40173 488
3734.80688 277.04211 43.59682 387
269.80856 3.03835 203.50943 314
399.43448 14.06206 171.78665 313
412.13431 15.16025 171.90961 309
426.65289 16.39916 172.03801 305
443.45609 17.86236 172.20372 301
494.64990 22.24945 166.60403 453
3749.51904 299.30499 -15.74394 488
3734.12939 297.88165 43.78389 387
269.86789 3.32425 203.50566 314
399.42041 15.15785 171.79893 313
412.09805 16.31628 171.88306 309
426.58121 17.69760 172.04794 305
443.41571 19.22141 172.22231 301
493.41000 23.76385 166.81285 454
3747.22705 320.74304 -15.81091 483
3734.53369 320.02176 43.29631 387
269.90579 3.62063 203.50752 314
399.39844 16.27163 171.77783 313
412.03552 17.48985 171.87744 309
426.59225 18.94418 172.04390 305
443.32654 20.53761 172.18997 301
492.11697 25.33911 167.07593 455
3745.57104 342.42313 -14.87031 483
3735.21387 342.21970 42.95428 386
269.96063 3.92387 203.50937 314
399.33337 17.35894 171.76390 313
412.01648 18.66771 171.87312 309
426.53018 20.18880 172.01050 305
443.28824 21.89607 172.21677 301
490.92188 26.85597 167.26520 456
3745.51465 364.56973 -15.03948 482
3734.81104 363.20782 43.32448 386
270.00305 4.21957 203.50151 314
399.29892 18.44037 171.77776 313
411.96490 19.85294 171.92157 309
426.46561 21.42569 172.01649 305
443.22833 23.28944 172.19302 301
489.67535 28.43295 167.50136 456
3744.87622 386.49860 -15.87446 482
3734.35791 385.53397 42.71944 386
3867.87378 400.20923 156.67886 353
270.03821 4.52125 203.50400 314
399.27036 19.55064 171.78119 313
411.91296 21.02569 171.90639 309
426.38080 22.68406 172.00905 305
443.16351 24.66067 172.22627 301
488.46793 29.90065 167.70360 457
3745.68384 408.11026 -15.52589 482
3733.94531 407.61551 43.40497 386
270.08252 4.80801 203.50864 314
399.19067 20.62735 171.76511 313
411.85178 22.16257 171.88293 309
426.34348 23.97474 172.01378 305
443.04001 26.02408 172.17204 301
487.22186 31.43025 167.84323 458
3745.96021 430.32312 -15.57687 481
3733.53003 428.73044 42.92486 386
270.12488 5.11312 203.50156 314
399.15851 21.71365 171.75175 313
411.79135 23.35580 171.90265 309
426.24338 25.20438 172.00990 305
442.97971 27.38118 172.17546 301
485.99472 32.88378 168.06595 459
3745.21143 452.01474 -16.58384 461
3733.67627 451.16937 42.55228 386
270.15414 5.40305 203.50078 314
399.09674 22.80020 171.75462 313
411.69739 24.54114 171.89978 309
426.15524 26.44584 172.04372 305
442.87888 28.73452 172.18217 301
485.53226 34.51505 168.15193 294
3745.78247 474.83948 -16.23874 461
3733.11255 472.33572 42.69543 386
270.19730 5.69763 203.49802 314
399.02286 23.90877 171.77969 313
411.62341 25.65728 171.89870 309
426.09433 27.69429 172.00581 305
442.79633 30.09083 172.16599 301
485.50803 36.09511 168.10976 294
3745.51123 495.98364 -16.89590 461
3733.16260 494.90021 42.23218 386
270.22357 5.99541 203.50150 314
398.95676 24.97188 171.77934 313
411.54977 26.83690 171.90852 309
425.97131 28.97646 172.00627 305
477.88498 36.61279 165.07692 300
485.45245 37.77172 168.09209 294
3744.61206 518.30463 -16.57726 461
3732.47168 517.12445 42.82375 386
270.25650 6.28070 203.50902 314
398.85406 26.08284 171.76485 313
411.46194 27.98875 171.90199 309
425.85965 30.23641 172.00128 305
477.76718 38.20026 165.11057 300
485.41739 39.37766 168.06564 293
3745.03735 540.47772 -16.56027 461
3732.23657 538.29138 42.53398 386
270.28629 6.58601 203.50087 314
398.74594 27.16126 171.75204 313
411.35675 29.15515 171.88071 309
425.77847 31.46600 172.03033 305
477.60614 39.80458 165.08394 300
485.31622 40.97581 168.08601 293
3744.15991 563.05688 -17.14577 460
3732.33691 561.08795 42.53781 385
3895.12598 586.96460 155.93567 274
3916.22144 590.57697 216.96373 497
270.30511 6.87154 203.50510 314
398.67987 28.25518 171.77681 313
411.24307 30.30650 171.86671 309
425.60474 32.71305 172.04141 305
477.40512 41.34019 165.06528 300
485.21628 42.66091 168.06450 293
3744.62305 585.22174 -17.31987 460
3731.16895 582.74060 41.70929 385
270.33591 7.16204 203.49756 314
398.55667 29.33445 171.77190 313
411.13751 31.51449 171.90210 309
425.52765 33.97964 172.02499 305
476.54816 42.80452 165.23672 445
485.06546 44.29828 168.04639 293
65610.59375 11293.21094 -9621.26562 1000
3744.05908 607.04694 -17.74619 460
3731.57983 605.07166 41.34085 385
270.35742 7.45618 203.50734 314
398.45248 30.41785 171.78133 313
411.00476 32.62205 171.86879 309
425.38403 35.21458 172.02138 305
475.15814 44.09901 165.48302 446
484.96860 45.86253 167.99860 293
3743.74072 629.13623 -17.25746 460
3730.37817 626.81500 42.02802 385
270.38165 7.74834 203.50653 314
398.36804 31.50636 171.74310 313
410.89819 33.79239 171.88588 309
425.22928 36.46999 171.99710 305
473.74127 45.46581 165.70114 447
3743.99072 651.43579 -18.07966 460
3730.47681 648.83191 41.97988 385
270.40872 8.04058 203.50038 314
398.21091 32.57465 171.78293 313
410.72537 34.95910 171.89087 309
425.06467 37.72376 171.99271 305
472.31311 46.78289 165.95320 448
3743.59741 673.92523 -18.61416 459
3729.68555 670.89252 41.00323 385
270.41666 8.33119 203.50101 314
398.10605 33.65660 171.73708 313
410.62613 36.13112 171.87395 309
424.90912 38.93343 172.02364 305
470.94293 48.06562 166.21826 449
3742.91333 695.89789 -18.01320 459
3729.94507 693.98767 41.19350 385
270.43567 8.63076 203.50554 314
397.98279 34.69546 171.73747 313
410.44135 37.27972 171.88388 309
424.75842 40.17648 172.02536 305
469.54132 49.36520 166.46054 450
3742.68604 718.85297 -18.85360 459
3728.82861 716.37201 41.11147 384
270.45715 8.92412 203.50110 314
397.82410 35.78681 171.77342 313
410.31595 38.41320 171.88350 309
424.56567 41.42980 172.03711 305
468.19727 50.61153 166.65814 450
3742.94849 741.79065 -18.64989 459
3728.40991 738.49017 40.98633 384
270.47305 9.21085 203.49991 314
397.69135 36.88474 171.75346 313
410.13449 39.56140 171.87799 309
456.24918 49.58453 164.94559 304
466.83057 51.90823 166.91887 451
3742.91797 763.39246 -19.13416 458
3727.97412 760.20868 40.10899 384
3902.42383 797.98474 94.05653 494
270.52740 9.51611 203.48962 285
397.50171 37.95139 171.74330 313
409.98880 40.73688 171.85826 309
456.08362 51.00399 164.99133 304
465.48233 53.12534 167.09920 452
3727.45435 783.01965 39.96854 384
386.38983 36.48690 171.65564 316
397.33728 39.02343 171.72919 312
409.78381 41.89438 171.86839 309
455.79376 52.44913 164.97833 303
464.17279 54.35506 167.29214 453
3726.88013 805.56360 40.51562 384
386.23889 37.50520 171.65131 316
397.20746 40.09053 171.73491 312
409.62280 42.98624 171.88899 309
455.59454 53.88593 164.92743 303
462.88928 55.58257 167.52089 454
386.10663 38.50845 171.65337 316
397.01205 41.12110 171.72516 312
409.39786 44.18483 171.86884 309
455.30560 55.30168 164.95412 303
461.26147 56.76138 167.83284 422
385.91245 39.47749 171.61720 316
396.83487 42.21799 171.73933 312
409.20395 45.29086 171.88326 309
454.99200 56.71235 164.96820 303
460.26917 58.07800 167.93546 297
385.74469 40.48080 171.63763 316
396.65353 43.29790 171.72340 312
409.00845 46.41784 171.83635 309
454.75137 58.14037 164.94049 303
460.07797 59.54034 167.90907 297
385.60794 41.46861 171.62495 316
396.44836 44.33831 171.74347 312
408.78897 47.60128 171.86340 309
454.48776 59.54834 164.94643 303
459.80750 60.98561 167.91339 297
385.38455 42.49360 171.64104 316
396.24377 45.39588 171.73637 312
408.59097 48.71283 171.83214 309
454.17300 61.00927 164.94479 303
459.61523 62.46705 167.90718 297
385.23312 43.44918 171.62013 316
396.06100 46.43681 171.71057 312
408.37155 49.88054 171.85271 309
452.51004 61.99802 165.26283 427
459.34805 63.89783 167.88525 297
385.01251 44.47985 171.62489 316
395.85797 47.51424 171.72098 312
408.15201 51.01234 171.84090 308
450.81366 63.03580 165.59479 428
459.09534 65.37328 167.86656 297
384.84857 45.44506 171.60265 316
395.66177 48.58516 171.73100 312
436.63287 60.46516 164.84688 308
449.10791 64.08359 165.88899 429
458.80948 66.82467 167.85277 297
384.63980 46.41494 171.64461 316
395.43204 49.64038 171.72871 312
436.33383 61.72774 164.86436 308
447.46671 65.02045 166.15906 430
384.43018 47.40963 171.63200 316
395.16547 50.67944 171.73296 312
436.04813 63.05551 164.83885 308
445.84439 66.01803 166.49100 431
384.19766 48.39405 171.63959 316
394.95605 51.72404 171.74750 312
435.74878 64.38416 164.89375 308
444.23456 66.97446 166.71788 432
383.95557 49.39481 171.62743 316
394.72305 52.80658 171.74461 312
435.39813 65.64489 164.88762 308
442.66229 67.96518 167.01068 433
383.74600 50.37759 171.60326 316
394.48288 53.85350 171.72072 312
435.08405 66.96055 164.86102 308
441.08322 68.88332 167.29204 434
383.48810 51.36715 171.60535 316
394.18866 54.88793 171.72273 312
434.75037 68.21751 164.84163 308
439.54666 69.80252 167.57051 435
383.26013 52.32343 171.58821 316
393.93747 55.90849 171.68983 312
434.35641 69.52348 164.88979 308
437.93692 70.71266 167.84332 301
383.01340 53.30247 171.60712 316
393.65637 56.96591 171.68985 312
434.02249 70.82729 164.84073 308
437.60257 72.06726 167.82640 301
382.77368 54.26534 171.62590 316
393.40765 57.99317 171.71619 312
433.60178 72.09875 164.86156 308
437.27243 73.36747 167.84444 301
382.51181 55.26169 171.58971 316
393.11267 59.04911 171.68784 312
432.71872 73.18530 165.01598 424
436.93735 74.68864 167.83905 301
382.23547 56.23524 171.59242 316
418.81735 69.52383 164.80736 312
431.02997 73.96998 165.34384 425
436.61810 75.99946 167.82591 301
381.96445 57.20917 171.58221 316
418.41968 70.73952 164.77718 312
429.44818 74.78178 165.63211 426
436.25598 77.34370 167.80460 301
381.68445 58.14513 171.57124 316
418.06769 71.91233 164.77516 312
427.77847 75.56947 165.91309 427
435.86395 78.66064 167.78098 301
381.43665 59.09621 171.59193 316
417.66055 73.09093 164.80833 312
426.23172 76.32502 166.24701 428
435.48398 79.95290 167.80838 301
381.12366 60.06134 171.59885 316
417.26077 74.22224 164.80414 312
424.65402 77.11156 166.53300 429
380.85007 61.04089 171.60738 316
416.86502 75.43934 164.81131 312
423.08463 77.91052 166.79488 430
380.57397 62.01456 171.59018 316
416.47150 76.60464 164.81252 312
421.55975 78.64384 167.12120 431
380.26770 62.92600 171.58276 316
416.06946 77.76522 164.77997 312
420.03134 79.41486 167.36414 432
379.92157 63.90120 171.56422 316
415.62650 78.94315 164.80363 312
418.51205 80.15064 167.64961 433
379.60962 64.84879 171.56058 316
415.19104 80.09100 164.78674 312
417.49661 81.05125 167.80745 305
379.32114 65.77268 171.56007 316
414.76981 81.22984 164.82697 312
417.10263 82.23323 167.76466 305
402.36771 77.12148 164.69951 316
414.10056 82.29131 164.87759 435
416.70996 83.44413 167.75168 305
401.96097 78.17342 164.70325 316
412.65628 82.95271 165.16765 436
416.31775 84.62029 167.75504 305
401.53217 79.23417 164.72531 316
411.23865 83.66916 165.43655 437
415.88596 85.80943 167.75063 305
401.11188 80.33953 164.69806 316
409.78394 84.38099 165.67258 438
415.45966 86.98629 167.73125 305
400.69168 81.39243 164.73692 316
408.41034 85.03690 165.97748 439
415.05096 88.19055 167.73347 305
400.26157 82.45724 164.69154 316
407.05908 85.74142 166.21591 440
414.56155 89.32848 167.70116 305
399.78564 83.53680 164.70833 317
405.46078 86.29554 166.53296 421
414.16214 90.52330 167.74086 305
399.35849 84.59504 164.72218 317
403.89874 86.84306 166.83199 423
398.89767 85.61501 164.74681 317
402.31143 87.39564 167.14218 424
398.37555 86.69229 164.76122 317
400.78366 87.91953 167.40872 425
397.93884 87.73476 164.72815 317
399.29065 88.42897 167.72125 426
397.44928 88.75613 164.76495 317
398.82016 89.50336 167.73889 311
396.29001 89.45976 164.96367 427
398.30731 90.54398 167.74170 309
36823.04688 19536.83789 -5931.98730 1000
394.86353 89.97863 165.21690 428
397.85422 91.63964 167.71115 309
393.41876 90.48617 165.51634 429
397.40707 92.66698 167.67276 309
391.94281 90.97323 165.80899 430
396.95609 93.72388 167.68088 309
390.58386 91.44845 166.10938 431
396.45090 94.77182 167.69319 309
389.17053 91.91202 166.36649 432
396.00665 95.82848 167.66721 309
387.79977 92.41376 166.63068 433
395.49481 96.89060 167.66719 309
386.43094 92.90023 166.89203 434
394.96954 97.92641 167.67627 309
385.07950 93.36433 167.20203 435
383.72928 93.80787 167.46648 436
382.55075 94.38056 167.62720 315
382.07718 95.31168 167.64778 315
2800.64917 1604.15283 18.14382 493
2808.94043 1609.90283 67.06768 494
381.55814 96.25129 167.66605 315
381.03458 97.20428 167.64101 315
380.53049 98.13627 167.63637 315
379.97562 99.09078 167.63036 315
379.45377 100.05914 167.64471 315
378.93704 100.96814 167.60075 313
378.42276 101.91286 167.63733 313
377.86441 102.86018 167.60883 313
377.34122 103.77564 167.59152 313
376.77206 104.71141 167.59749 313
4064.60449 4495.21973 23.30465 309
4030.09106 4510.84033 23.68343 493
3904.20679 4415.93555 27.87035 405
3887.49048 4450.79053 28.56678 460
3873.61719 4491.41064 27.21062 447
3864.16235 4535.23193 26.22971 440
3856.83228 4583.76855 24.59776 418
3858.23853 4643.85205 23.05607 386
3863.14478 4709.89111 21.05641 385
3868.15942 4777.32275 19.34986 383
3874.40918 4845.79980 17.47886 382
3880.39307 4915.09375 16.33778 381
3885.38965 4987.14746 14.16677 357
2789.78052 3536.15845 1.50278 344
2765.01196 3547.80762 1.83008 438
2533.50757 4639.81006 53.48539 428
2510.50977 5590.01807 25.94705 270
2455.71655 5550.69922 28.73510 380
2411.09253 5540.27588 28.57203 409
2369.50806 5531.82959 30.23435 455
2328.56470 5526.62549 30.07413 457
2288.58203 5523.27881 30.55006 480
2249.65625 5522.58984 30.83613 483
2210.42163 5521.78076 31.64354 484
2174.06226 5523.82520 31.52045 489
2212.02319 5633.79248 125.83428 292
2191.43677 5576.24756 223.99202 413
2136.60303 5527.13867 32.64688 491
2151.33252 5570.32568 127.13830 497
2156.88428 5583.61279 223.54607 417
2099.50879 5531.30469 32.80920 494
2116.18066 5578.39502 128.45126 497
2120.98926 5590.67969 224.27179 417
2064.31909 5535.96582 33.20719 495
2078.14966 5578.29199 127.12737 495
2083.31006 5593.84033 224.42218 417
2085.74731 5600.30664 320.24924 374
2027.97778 5540.95605 32.35047 496
2042.48621 5586.42041 127.22063 497
2048.50415 5600.76270 223.94168 417
1992.12842 5548.17090 33.26621 497
2006.35815 5592.61084 128.33231 498
2005.70593 5588.13770 224.08995 474
1956.79456 5554.56836 33.45297 497
1972.62939 5604.35498 127.39088 498
1970.74927 5595.78516 223.72203 474
1922.79834 5562.59570 33.93974 497
1937.72009 5611.15137 127.65222 498
1934.50513 5602.58154 223.61586 474
1886.80518 5568.52588 33.80621 498
1902.16345 5619.33838 127.61036 498
1899.30408 5608.28857 224.16348 484
1851.47180 5576.48047 34.18399 498
1908.64563 5767.61670 125.06560 419
1865.71570 5620.00879 224.23537 461
1816.83350 5583.01465 32.96339 498
1782.27271 5589.77197 33.48930 498
1833.69104 5773.19336 322.38614 445
1746.47217 5596.22510 33.33141 498
1711.54285 5602.98096 34.16013 498
1677.34741 5609.63086 34.21285 498
1643.13586 5617.57031 33.39027 498
1607.72290 5623.82471 33.63389 498
1617.06128 5665.80322 128.36157 483
1572.72144 5631.49951 34.57703 482
1583.22986 5672.51025 127.75453 490
1538.13159 5637.97656 33.55320 482
1547.03015 5680.15039 129.06126 489
1514.49268 5696.40430 32.00940 499
1527.00012 5748.27002 128.18451 482
1491.87439 5761.68945 31.00512 483
1488.69617 5741.73291 128.25031 483
1452.90442 5750.79443 127.28281 494
922.87183 4458.03418 73.75000 439
678.81134 3446.91626 50.23227 258
648.28375 3215.35254 114.50710 298
622.18311 3169.87939 62.99979 307
621.15875 3160.50513 115.97295 320
596.20892 3114.18433 66.28484 318
601.02777 3158.80981 115.82637 306
572.57330 3073.52295 68.29387 340
581.85394 3161.22754 115.92597 328
549.56207 3040.43774 70.14019 348
563.13727 3171.81323 115.39831 476
527.44623 3009.43970 71.00808 349
578.92279 3519.18628 104.64940 493
506.58728 2981.00000 72.76624 371
556.95667 3522.41040 104.68388 493
485.78448 2956.08643 74.42973 380
536.12738 3529.53003 105.06862 492
467.13599 2953.10767 74.59856 350
498.02734 3323.73315 111.38657 472
452.45337 2993.00806 72.26271 342
467.47971 3190.17627 115.43312 489
437.67078 3042.48877 70.00809 320
446.75244 3185.57959 115.32810 489
421.56631 3096.23022 67.32168 312
427.74014 3183.30908 115.85544 314
407.33722 3178.76099 64.00284 277
407.89142 3180.27734 116.03123 302
-214.73593 1011.35260 418.61398 1000
-273.35062 992.96423 235.31430 349
-272.27826 991.30298 253.39163 415
-271.90744 990.20056 271.72958 465
-271.47269 989.16595 289.81577 465
-270.86191 988.40149 308.11172 493
-279.89594 991.46289 107.04833 349
-279.20477 990.19397 125.47710 415
-278.80127 989.15613 143.83386 464
-278.51016 988.32983 162.25706 465
-278.10928 987.66754 180.50023 493
-277.86356 987.11731 198.67056 494
-277.55402 986.92645 217.14679 498
-277.53207 986.44513 235.15198 498
-277.54987 986.47784 253.31783 478
-277.61923 986.57294 271.62015 478
-277.58316 986.68280 289.82269 435
-277.95618 987.18164 308.45526 435
-285.10889 986.35876 70.15540 491
-285.01254 986.05139 88.68214 496
-284.79007 985.78021 107.08959 496
-284.64194 985.78571 125.46117 477
-284.81714 985.80469 143.88603 477
-284.80762 986.20673 162.21552 435
-285.16492 986.58740 180.38216 374
-286.27661 988.23975 198.85220 301
-747.07263 1552.42590 187.40152 290
-744.43750 1548.57629 217.45520 428
-743.70178 1547.43994 247.59111 473
-742.99408 1545.97449 277.39465 497
-742.89850 1545.39148 307.25815 496
-355.28455 554.75067 -42.76654 496
-753.98053 1542.69324 127.04294 495
-754.11224 1542.90735 157.52943 470
-754.51025 1543.46216 187.53503 424
130.04729 152.37186 166.40974 314
129.19089 151.72552 166.38107 314
-1206.64697 2077.72266 93.35254 480
-1207.41101 2078.56445 134.50897 499
-1208.66467 2080.22437 176.11871 499
-1209.66040 2081.61523 218.00459 492
-1210.52405 2082.99048 259.49768 492
-1211.65320 2084.93872 300.51041 492
130.19202 148.41963 167.27356 412
129.49014 147.58676 167.28729 316
128.55205 147.08913 167.29701 441
127.61181 148.39505 170.07689 489
127.26199 147.06038 167.08064 440
126.60939 147.97951 169.96690 432
125.87785 147.09109 166.80963 430
125.17062 148.12689 169.73239 431
124.47800 147.22621 166.56152 429
123.70707 148.21059 169.47388 430
123.29659 146.98753 166.38614 314
122.50119 146.27492 166.40903 314
120.37999 148.97816 168.77704 491
121.68184 145.54863 166.38239 314
120.83449 144.86063 166.41499 423
119.36535 145.03413 166.10959 422
111.92213 154.33015 166.36652 310
117.84496 145.19897 165.78494 421
111.06317 153.53917 166.37909 310
116.29658 145.30531 165.49182 420
110.21842 152.78972 166.36938 310
114.74000 145.49379 165.15144 419
109.35016 151.99097 166.38960 310
113.12288 145.62903 164.85950 418
108.48746 151.17101 166.41449 310
111.54210 145.79028 164.52780 417
107.64335 150.37157 166.40729 310
109.89789 145.95909 164.17125 416
106.76492 149.62547 166.38103 310
108.25197 146.11118 163.85332 415
105.97089 148.76981 166.38658 310
106.58733 146.27391 163.53894 414
105.11497 147.96991 166.39680 310
105.56193 145.72534 163.43237 312
104.28286 147.16916 166.37874 310
104.78893 144.86559 163.45213 312
103.18803 146.62502 166.26083 412
104.02209 144.03380 163.48116 311
101.42051 146.79979 165.91721 411
103.31083 143.10229 163.49359 311
99.69924 147.01447 165.59883 410
91.70190 155.58853 166.37802 305
102.54752 142.22623 163.49142 311
97.91432 147.16824 165.26248 409
90.78825 154.71315 166.37938 305
101.83184 141.30110 163.54181 311
-64.39183 67.75531 -23.37024 419
89.94908 153.80766 166.34555 305
101.11227 140.42882 163.56747 311
94.35461 147.37469 164.56732 418
89.05667 152.93304 166.36728 305
100.35779 139.46643 163.56624 311
92.62550 147.47559 164.25157 417
88.16186 152.03540 166.37587 305
120.11216 117.85864 171.41130 315
90.83632 147.52078 163.90591 416
87.33915 151.11395 166.32527 305
119.47968 117.12556 171.40070 315
89.02900 147.58841 163.53281 414
86.49374 150.17020 166.33199 305
118.83843 116.34300 171.41234 315
87.78594 147.08453 163.37154 303
85.63924 149.24193 166.33237 305
118.24009 115.60619 171.38196 316
87.04736 146.07698 163.40189 303
84.77855 148.29506 166.34947 305
117.60182 114.83248 171.39693 316
86.33907 145.01080 163.46800 303
83.46626 147.81773 166.16367 412
117.03336 114.06875 171.43188 316
85.65985 143.98746 163.51186 303
81.58339 147.90981 165.80746 411
116.41610 113.35268 171.42686 316
84.94210 142.95445 163.55901 303
79.65364 147.94467 165.46469 409
115.79615 112.58157 171.40683 316
84.27952 141.93037 163.54691 304
77.69817 148.04967 165.10394 408
68.75500 156.38068 166.25914 301
115.19840 111.77541 171.42096 316
106.81113 119.48692 171.52267 312
75.71452 148.09723 164.75688 407
67.86237 155.29875 166.25832 301
114.60428 111.00919 171.44554 316
106.18864 118.65481 171.48926 312
73.65102 148.22003 164.35719 406
66.97250 154.23817 166.26129 301
114.04799 110.21725 171.43188 316
105.54107 117.84726 171.49193 312
71.64743 148.28149 163.95921 405
66.12023 153.19569 166.27415 301
113.45284 109.47382 171.43279 316
104.91029 117.00649 171.53195 312
69.50121 148.34468 163.60225 404
65.26999 152.11920 166.27499 301
112.89605 108.68801 171.45967 316
104.32094 116.15662 171.50851 312
67.71447 148.19336 163.27463 300
64.35625 151.09467 166.25388 301
112.32700 107.88224 171.47760 316
103.69596 115.30232 171.51471 312
67.00109 146.99939 163.31958 300
63.51616 150.00784 166.26472 301
111.72249 107.08641 171.46494 316
103.06454 114.44341 171.55356 312
66.30868 145.79480 163.40201 300
62.70552 148.96321 166.24933 301
111.18436 106.27565 171.46194 316
102.46723 113.58948 171.51518 312
65.67313 144.63557 163.38652 300
60.83326 148.72032 165.93437 400
110.61097 105.46650 171.47855 316
101.88957 112.75205 171.52881 312
65.01369 143.41896 163.46574 300
58.60856 148.75439 165.53963 398
110.08484 104.66877 171.49509 316
101.26913 111.89133 171.55679 312
91.30699 120.07155 171.63957 308
56.30947 148.84132 165.13910 397
109.52022 103.87164 171.49570 316
100.69093 111.04156 171.55194 312
90.66689 119.14232 171.64296 308
53.99820 148.91833 164.72333 396
43.51227 157.39120 166.11006 297
108.99299 103.04792 171.49832 316
100.11420 110.13406 171.57646 312
90.06087 118.23619 171.65698 308
51.58099 149.01408 164.31282 395
42.67862 156.22714 166.14577 297
108.44099 102.21230 171.48018 316
99.51597 109.29410 171.56903 312
89.41920 117.29750 171.66487 308
49.16074 149.16344 163.89519 394
41.80867 154.95857 166.14905 297
-1570.33582 1430.55090 754.93463 1000
107.91068 101.39963 171.48927 316
98.95582 108.38440 171.55785 312
88.81152 116.32416 171.67484 308
46.74073 149.24997 163.40327 392
40.93060 153.76311 166.12479 297
107.35936 100.57167 171.50778 316
98.38675 107.53281 171.54802 312
88.17655 115.41270 171.66911 308
45.16128 148.59801 163.19948 296
40.09016 152.51724 166.12604 297
106.85987 99.74265 171.50897 316
97.82156 106.63207 171.56871 312
87.60191 114.43467 171.67207 308
44.47945 147.30482 163.25627 296
39.20586 151.29846 166.11102 297
106.33232 98.92686 171.50624 316
97.26716 105.77386 171.57590 312
86.98163 113.48978 171.64012 308
43.81757 145.94199 163.29388 296
38.41134 150.04915 166.14368 297
105.81863 98.10699 171.53340 316
96.73115 104.85839 171.59268 312
86.38396 112.51303 171.65762 308
74.53490 121.31304 171.77118 304
36.40425 149.61815 165.87161 388
105.33736 97.27296 171.51976 316
96.16389 103.99023 171.60751 312
85.81375 111.57144 171.65727 308
73.90048 120.29758 171.74916 304
33.72728 149.71669 165.36855 387
104.81927 96.40217 171.50267 316
95.61971 103.07936 171.58286 312
85.20210 110.63618 171.70129 308
73.24109 119.26348 171.75409 304
31.05239 149.86327 164.95821 386
104.31498 95.58153 171.51056 316
95.11335 102.17669 171.57625 312
84.63692 109.63389 171.71011 308
72.64341 118.23685 171.78992 304
28.19957 149.92604 164.47110 384
15.06862 159.34882 165.95073 290
103.81004 94.72710 171.54315 316
94.58531 101.28100 171.62221 312
84.07424 108.65103 171.70233 308
72.03613 117.14130 171.79486 304
25.38479 150.04929 163.94073 383
14.20270 157.93811 165.94283 291
103.34964 93.87605 171.55040 316
94.03031 100.35411 171.58955 312
83.50160 107.68839 171.68498 308
71.42317 116.09824 171.78908 304
22.45247 150.15150 163.48146 382
13.30345 156.57700 165.89560 291
102.86871 93.03666 171.55228 316
93.51109 99.42738 171.59058 312
82.91340 106.68760 171.68146 308
70.78119 115.08392 171.78998 304
20.13636 149.87645 163.11200 292
12.38302 155.18832 165.93889 291
102.37958 92.19241 171.53174 316
93.00468 98.50591 171.61571 312
82.37865 105.72095 171.72113 308
70.21828 114.01125 171.77872 304
56.07738 123.55125 171.92917 300
11.46291 153.76810 165.91037 291
101.92120 91.33337 171.52745 316
92.48862 97.58826 171.64981 312
81.85349 104.75652 171.70897 308
69.59219 112.94237 171.79057 304
55.40710 122.41361 171.93938 300
10.63529 152.41382 165.88516 291
101.42420 90.43861 171.54097 316
92.00237 96.70212 171.60939 312
81.30345 103.72740 171.69383 308
69.01050 111.83344 171.79742 304
54.76586 121.27697 171.93359 300
9.72579 151.01727 165.88687 291
101.00779 89.59737 171.56435 316
91.50120 95.75884 171.65779 312
80.76288 102.78249 171.72195 308
68.43422 110.76633 171.83946 304
54.17625 120.06282 171.95872 300
7.33153 150.59016 165.53911 379
100.51076 88.71929 171.54158 316
91.01009 94.81158 171.65385 312
80.21162 101.75650 171.71614 308
67.83757 109.70106 171.84648 304
53.54716 118.93278 171.92432 300
4.13535 150.67844 165.09114 377
100.10191 87.85040 171.57719 316
90.56152 93.90920 171.65111 312
79.69527 100.77072 171.73090 308
67.27528 108.66033 171.86133 304
52.87438 117.72494 171.97070 300
0.91573 150.76151 164.54865 376
99.64623 86.96458 171.58846 316
90.04945 92.95683 171.64755 312
79.19913 99.74705 171.73309 308
66.74683 107.56958 171.86273 304
52.26015 116.57730 171.93494 300
-2.40866 150.84067 164.00536 375
99.22176 86.09785 171.55003 316
89.58675 91.99706 171.66786 312
78.68899 98.75018 171.72350 308
66.14581 106.47442 171.85139 304
51.67011 115.42239 171.95425 300
-5.82072 150.86554 163.41788 373
-20.87825 160.20554 165.41673 286
98.76598 85.18581 171.57823 316
89.12592 91.07648 171.65802 312
78.19078 97.71876 171.72643 308
65.62885 105.35462 171.82417 304
51.06984 114.24036 171.93564 300
-9.36699 150.98796 162.88425 372
-21.77875 158.55077 165.40634 286
98.33031 84.33974 171.57503 316
88.66350 90.13246 171.64261 312
77.66773 96.71294 171.73680 308
65.06443 104.28867 171.82361 304
50.49358 113.01318 171.99904 300
33.36229 123.26425 172.11429 296
-22.55828 156.91776 165.39711 286
97.91884 83.41058 171.58389 316
88.18230 89.18686 171.64626 312
77.17313 95.68614 171.74118 308
64.54057 103.18846 171.88161 304
49.91671 111.84125 171.98695 300
32.74997 121.96612 172.14359 296
-23.44697 155.28433 165.38881 286
97.47530 82.55270 171.57610 316
87.74859 88.24908 171.67256 312
76.71475 94.67190 171.78044 308
64.00291 102.07070 171.85379 304
49.33627 110.65845 171.98241 300
32.11838 120.67201 172.15677 296
-24.32197 153.64162 165.44531 287
97.09010 81.64381 171.57712 316
87.28242 87.25090 171.65050 312
76.20785 93.66497 171.73488 308
63.51250 100.96167 171.83885 304
48.77402 109.43851 171.96794 300
31.48654 119.37035 172.12523 296
-25.22471 152.02690 165.42390 287
96.67042 80.77592 171.59993 316
86.86393 86.29019 171.68466 312
75.72860 92.65656 171.77301 308
62.99090 99.87675 171.84279 304
48.18404 108.24957 171.99159 300
30.85681 118.09859 172.13347 296
-27.98147 151.42607 165.02361 366
96.28676 79.83350 171.61383 316
86.43636 85.34881 171.67223 312
75.28271 91.59772 171.76224 308
62.48173 98.78085 171.84625 304
47.66633 107.04491 172.01071 300
30.26177 116.72897 172.13350 296
-31.94591 151.54503 164.48601 365
95.87927 78.93021 171.61484 316
85.98871 84.40359 171.66434 312
74.82286 90.54330 171.74776 308
61.93835 97.61426 171.88252 304
47.08017 105.84272 171.98338 300
29.63796 115.43438 172.17006 296
-36.01340 151.63907 163.87430 363
95.47078 78.07207 171.59122 316
85.57462 83.41242 171.69919 312
74.36835 89.53064 171.78293 308
61.48095 96.52847 171.90167 304
46.53914 104.63474 172.03365 300
29.02157 114.12034 172.13857 296
8.25564 125.45228 172.33095 292
95.11999 77.15598 171.59695 316
85.16777 82.45053 171.70596 312
73.88010 88.50899 171.79263 308
60.96865 95.41246 171.89717 304
46.04279 103.42534 172.00600 300
28.46697 112.82965 172.17064 296
7.61716 123.93902 172.29398 292
94.72008 76.24086 171.62329 316
84.74982 81.50005 171.70744 312
73.45972 87.47019 171.80888 308
60.51735 94.29004 171.91708 304
45.48812 102.20155 172.04378 300
27.86680 111.46756 172.15996 296
6.95429 122.47702 172.35454 292
-63.65737 159.68333 164.97151 284
94.33269 75.33470 171.59074 316
84.34344 80.51357 171.69833 312
73.02514 86.37383 171.78896 308
59.99756 93.14357 171.92642 304
44.94601 101.00326 172.03661 300
27.31357 110.10510 172.17400 296
6.33966 121.01429 172.33194 292
-64.40489 157.79013 164.96690 284
93.98412 74.42648 171.61615 316
83.96067 79.52711 171.67787 312
72.60112 85.35287 171.78903 308
59.51697 92.03601 171.87581 304
44.44759 99.75960 172.04300 300
30.95486 106.65181 173.05833 276
13.35784 115.68340 173.79021 276
-65.14172 155.84961 165.03464 284
93.61536 73.48228 171.64427 316
83.56702 78.54179 171.71536 312
72.13845 84.31958 171.78532 308
59.08665 90.87714 171.91879 304
43.92148 98.48936 172.00235 300
37.52743 101.71294 174.51511 324
23.70546 108.75582 175.75401 276
-65.90874 153.87961 165.05142 283
93.23379 72.58102 171.61058 316
83.19111 77.54784 171.71405 312
71.74737 83.23112 171.79016 308
58.64399 89.73410 171.90074 304
46.17041 95.93716 172.66751 326
40.26074 98.87997 175.13484 325
33.22374 102.36578 177.63611 277
17.83659 110.00648 178.99055 277
92.91904 71.66387 171.62375 316
82.81422 76.56503 171.70543 312
71.29601 82.16639 171.80560 308
58.19536 88.59017 171.89731 304
48.63413 93.26094 173.27289 327
42.79526 96.08946 175.77303 326
36.87719 99.02556 178.43910 324
23.23908 105.64922 180.01685 288
-3.02364 118.50651 180.20935 284
92.54521 70.74295 171.61623 316
82.42228 75.61282 171.69945 312
70.92841 81.15424 171.82607 308
57.74947 87.47237 171.93553 304
51.00090 90.72777 173.90294 328
45.31536 93.41917 176.37343 328
39.57958 96.21201 178.98723 326
22.70853 104.34222 180.02077 288
-3.62019 117.00994 180.18369 284
92.20648 69.78189 171.65166 316
82.02930 74.60067 171.72673 312
70.50220 80.07749 171.79779 308
58.53707 85.70117 172.20375 332
53.29745 88.22995 174.51099 330
47.79533 90.81805 176.98245 329
42.17520 93.51051 179.57303 327
22.15842 102.93382 179.98331 288
-4.23430 115.47092 180.24989 284
91.88976 68.86535 171.64140 316
81.67273 73.59481 171.74275 312
70.11828 78.98840 171.83636 308
60.66018 83.41850 172.84328 333
55.54764 85.78302 175.14529 331
50.11961 88.30190 177.55130 330
43.09806 91.56691 179.86157 292
21.64939 101.60649 179.99966 288
-4.84269 113.89973 180.26422 284
91.52305 67.91871 171.62566 316
81.33806 72.61109 171.70949 312
69.71459 77.94875 171.80786 308
61.52821 81.68357 173.12131 389
57.72237 83.46407 175.71486 332
52.48090 85.87840 178.07368 330
42.66987 90.33463 179.82802 292
-9.28588 114.15851 175.06435 283
-9.35033 114.16003 179.64609 283
91.21114 66.98412 171.62617 316
80.98024 71.64352 171.72639 312
69.34379 76.87844 171.84132 308
62.35015 80.00919 173.42732 390
59.08683 81.49058 176.06395 388
54.70528 83.45701 178.63431 331
42.24833 89.10580 179.82788 292
3.64486 106.50008 177.25000 287
-16.43697 115.58437 178.73087 340
90.88850 66.06976 171.63960 316
80.64921 70.61949 171.73470 312
69.00582 75.80574 171.84187 308
63.10263 78.42046 173.67743 391
59.91822 79.83855 176.33675 389
56.60936 81.28540 179.11540 387
41.79710 87.87423 179.86093 292
10.46986 101.73499 178.43506 288
-21.24849 115.81619 178.14975 338
90.61401 65.14132 171.66287 316
80.27396 69.59482 171.71104 312
68.62644 74.70750 171.84839 308
63.85583 76.79031 173.99118 379
60.70406 78.13797 176.62750 390
57.44775 79.57085 179.32050 388
41.35586 86.61028 179.82358 292
16.82051 97.31646 179.55399 289
2.24027 103.67419 181.60376 287
-40.89017 122.54073 180.51373 280
90.26604 64.19550 171.63692 316
79.95784 68.59425 171.73860 312
68.49580 73.51218 171.88332 382
64.66426 75.19474 174.24339 380
61.50599 76.52682 176.85873 391
58.29243 77.92027 179.58072 389
28.64253 90.60208 177.63084 336
21.28986 93.80370 180.38417 318
9.11567 99.03254 182.66603 288
-41.47136 120.69093 180.54968 280
89.95988 63.24410 171.67110 316
79.64762 67.58229 171.72685 312
69.25155 71.99847 172.20410 383
65.49048 73.58357 174.50868 380
62.28392 74.91063 177.13248 392
58.54618 76.53595 179.72940 296
30.75493 88.24200 178.13878 337
24.25422 90.98625 180.90390 335
15.55680 94.63947 183.60506 290
0.97350 100.83397 185.93985 287
89.69308 62.30722 171.65862 316
79.32712 66.60612 171.75208 312
70.00615 70.42638 172.48260 384
66.29250 71.97639 174.79744 381
63.05524 73.36150 177.36885 393
58.16814 75.38358 179.71416 296
32.83297 85.89433 178.56525 338
26.42752 88.54304 181.33643 336
18.86065 91.65195 184.14890 318
7.84888 96.26144 186.83659 288
89.40744 61.33231 171.66499 316
78.99515 65.60639 171.72861 312
70.78056 68.91279 172.75880 385
67.07761 70.41823 175.08398 382
63.80915 71.74898 177.64211 394
57.79642 74.22579 179.72740 296
34.88893 83.54198 179.02499 339
28.62316 86.12589 181.73308 337
21.88829 88.84970 184.66096 319
13.16119 92.37431 187.52332 317
-0.34734 97.86624 190.20093 287
-48355.44141 19802.06055 1080.72595 1000
89.10137 60.37795 171.64577 316
78.67072 64.56052 171.74437 312
71.53043 67.45913 173.02405 386
67.86536 68.92261 175.33998 383
64.59348 70.22789 177.87834 395
57.45547 73.05315 179.72343 296
36.83734 81.29705 179.42621 341
30.72251 83.78794 182.18579 338
24.25539 86.33829 185.08411 336
16.38575 89.47383 188.03371 318
6.63519 93.44418 190.98642 289
-15.15978 102.17290 193.25845 269
88.85352 59.45654 171.67575 316
78.40587 63.55256 171.74300 312
72.25684 65.94353 173.25803 387
68.66418 67.36944 175.61131 384
65.34014 68.67132 178.10039 396
57.09232 71.91406 179.69914 296
38.76220 79.12605 179.81117 342
32.79241 81.45646 182.53955 339
26.46621 83.94282 185.44585 337
19.51974 86.71522 188.45515 319
10.72991 90.15347 191.52698 316
-1.50383 94.96777 194.52765 287
88.54880 58.47288 171.65897 316
78.07175 62.51404 171.77818 312
72.97659 64.50750 173.56581 387
69.42050 65.89840 175.83771 385
66.06934 67.17490 178.31546 397
56.76415 70.75022 179.70671 296
40.51304 77.02135 180.23155 374
34.80431 79.21630 182.93489 340
28.59802 81.66605 185.82005 338
22.12088 84.18443 188.82214 336
13.93009 87.32967 191.87311 318
4.79315 90.86057 195.13023 315
-15.95900 98.86782 197.85175 269
88.30218 57.51602 171.64931 316
77.80151 61.53348 171.75760 312
73.70794 63.07205 173.78729 388
70.16729 64.38806 176.08572 386
66.78395 65.71111 178.56477 398
56.43553 69.59097 179.71724 296
41.54322 75.26485 180.47649 375
36.75803 77.03564 183.33287 341
30.71640 79.38677 186.13979 339
24.33713 81.75719 189.13396 337
17.14202 84.52625 192.25731 319
8.23698 87.85733 195.48869 316
-2.63969 92.02349 198.87119 288
88.03551 56.56464 171.68623 316
77.74478 60.39330 171.83578 422
74.41038 61.63273 174.04800 389
70.92612 62.93937 176.36766 387
67.50439 64.18505 178.74194 399
56.12365 68.47528 179.71082 296
42.54037 73.49239 180.71698 376
38.00906 75.20853 183.55161 374
32.80958 77.13504 186.48076 340
26.55161 79.47105 189.44264 338
19.90254 81.88673 192.59038 335
11.50467 85.01636 195.83263 317
2.21417 88.52554 199.23100 315
-16.77278 95.59816 202.41493 269
87.77262 55.63047 171.66261 316
78.06378 59.18411 171.95360 422
75.13056 60.25921 174.27821 390
71.65501 61.49408 176.57977 388
68.21935 62.74399 178.95749 400
47.46919 70.36114 178.14693 390
43.49225 71.78683 180.92719 388
39.01403 73.41115 183.79483 375
34.31280 75.14870 186.75182 372
28.66019 77.19880 189.75990 339
22.21671 79.55737 192.87090 336
14.75431 82.30598 196.15074 318
5.68082 85.58369 199.46773 316
-4.04113 89.17439 203.16444 313
87.52617 54.66737 171.65903 316
78.38760 57.95830 172.11414 423
75.52328 58.94577 174.46906 419
72.40805 60.07661 176.79529 389
68.96133 61.29333 179.18852 401
48.26743 68.74213 178.32986 391
44.30302 70.15318 181.15106 389
40.09394 71.64874 184.04324 375
35.41506 73.31561 186.95863 373
30.60142 75.08202 190.05974 370
24.42677 77.22251 193.16069 337
17.75474 79.63922 196.39049 335
9.12988 82.73000 199.75197 317
-0.36382 86.13115 203.36435 314
87.29382 53.68715 171.67308 316
78.71624 56.71294 172.29707 424
75.84594 57.71487 174.63542 420
72.93597 58.73875 177.02321 418
69.65150 59.91098 179.41258 402
49.07033 67.14078 178.52728 392
45.16280 68.51311 181.33995 389
41.10894 69.92266 184.26857 387
36.48082 71.50056 187.20267 374
31.69733 73.23487 190.25470 371
26.64692 74.98503 193.40129 339
20.07970 77.28918 196.63756 336
12.41110 79.99406 199.98138 318
3.19137 83.24812 203.56740 316
87.03728 52.73358 171.69197 316
79.02458 55.50443 172.43941 424
76.21630 56.44434 174.77534 421
73.30235 57.47868 177.16177 418
70.29632 58.50133 179.62009 416
49.80842 65.54136 178.79718 393
45.96796 66.87899 181.56592 390
41.95981 68.23074 184.44972 388
37.58477 69.75928 187.38879 375
32.84938 71.37823 190.39290 372
27.92000 73.08620 193.61116 370
22.37495 74.99129 196.89360 337
15.57462 77.32943 200.28416 319
6.67080 80.38925 203.72781 317
86.78837 51.76159 171.66167 316
79.35252 54.28043 172.62715 425
76.55296 55.23233 174.89835 421
73.64036 56.20178 177.29712 419
70.11201 57.42079 179.62735 300
50.57988 63.97472 178.98347 394
46.74900 65.29163 181.77321 391
42.77769 66.60497 184.63937 389
38.64752 68.00963 187.58437 376
33.99100 69.58680 190.57240 373
29.10872 71.21438 193.74379 371
24.01138 72.97829 197.03830 368
17.99179 74.98320 200.48161 336
9.99767 77.67240 203.97186 318
86.57453 50.81203 171.69873 316
79.65584 53.08017 172.75175 426
76.91173 54.02238 175.07352 422
74.01933 54.96600 177.42972 420
69.86769 56.34573 179.60252 300
51.33865 62.42572 179.16267 394
47.56548 63.72165 181.94221 392
43.62403 65.02320 184.77992 390
39.54705 66.33669 187.73297 387
35.09222 67.83760 190.76646 374
30.24948 69.44081 193.94135 371
25.21700 71.09112 197.17726 369
19.99840 72.81300 200.61696 366
13.25247 75.05784 204.14726 319
86.37002 49.80893 171.69571 316
79.96675 51.89108 172.88261 427
77.22783 52.76834 175.19662 423
74.36183 53.73497 177.56612 420
69.61845 55.24888 179.62560 300
52.10326 60.94527 179.36058 395
48.32771 62.12373 182.10481 393
44.43681 63.37494 184.97520 390
40.45741 64.71100 187.91591 388
36.13922 66.08744 190.96909 375
31.39727 67.64221 194.06133 372
26.43205 69.22845 197.32713 370
21.24686 70.88440 200.70515 367
15.83727 72.66575 204.25861 364
86.12186 48.83950 171.69905 316
80.33122 50.71507 173.06482 427
77.58717 51.54860 175.35757 423
74.74097 52.45458 177.70183 421
69.36156 54.16190 179.64677 300
52.86793 59.40837 179.57161 396
49.12736 60.61575 182.33929 394
45.29136 61.83124 185.12489 391
41.29036 63.07341 188.07697 389
37.15895 64.36295 191.07721 386
32.51471 65.82612 194.23180 373
27.63676 67.40180 197.46542 371
22.49387 69.03204 200.85550 368
17.18744 70.74276 204.36653 365
85.91631 47.86587 171.71053 316
80.63350 49.52376 173.21341 428
77.89720 50.34977 175.49496 424
75.07092 51.26770 177.84776 422
69.12041 53.11732 179.61270 300
53.57019 57.92937 179.77971 397
49.91657 59.05769 182.48643 395
46.06205 60.27844 185.31419 392
42.13526 61.44675 188.25084 390
38.05465 62.75053 191.25356 387
33.62345 64.09151 194.37596 374
28.79849 65.60491 197.60617 372
23.72680 67.14796 200.97127 369
18.45743 68.83929 204.43242 366
85.71320 46.89093 171.68054 316
80.94176 48.37109 173.31837 429
78.24536 49.19403 175.62860 425
75.41177 50.03539 177.96323 422
68.88836 52.01746 179.62724 300
54.29919 56.47028 179.96983 398
50.67974 57.53032 182.67444 395
46.86284 58.68056 185.46968 393
42.99678 59.89723 188.37904 391
38.91998 61.12310 191.37212 388
34.73092 62.37386 194.47920 386
29.92834 63.83821 197.71970 372
24.98414 65.34657 201.05588 370
19.76718 66.93002 204.50807 367
13.86082 68.71572 208.14922 333
85.52300 45.95511 171.70532 316
81.26177 47.17895 173.48094 429
78.58048 47.99667 175.78008 425
75.79777 48.81619 178.10446 423
68.68316 50.95871 179.64348 300
54.98172 55.00673 180.11662 411
51.39746 56.04002 182.83025 396
47.65484 57.14868 185.65645 394
43.77981 58.30250 188.55405 391
39.80849 59.51058 191.51584 389
35.61934 60.74764 194.63626 386
31.07996 62.11806 197.85716 373
26.17951 63.57929 201.13748 371
21.02911 65.09207 204.59535 368
15.28654 66.76106 208.23726 333
85.33282 44.96585 171.68742 316
81.56794 46.04331 173.60065 430
78.89928 46.79507 175.87917 426
76.13147 47.59864 178.22777 424
68.42795 49.87482 179.62938 300
55.49953 53.59431 180.27676 411
52.10600 54.60075 183.00099 409
48.43658 55.65207 185.80656 395
44.62634 56.77997 188.65808 392
40.67716 57.93653 191.66536 390
36.56427 59.08881 194.72313 387
32.24902 60.38287 197.95377 374
27.35938 61.80788 201.27647 372
22.28126 63.23268 204.68295 369
16.77029 64.82138 208.32045 334
85.14511 43.98981 171.71680 316
81.89370 44.89992 173.73947 431
79.23104 45.62262 176.04292 427
76.46118 46.45102 178.34584 424
68.26035 48.77284 179.63832 300
56.02757 52.22522 180.43959 412
52.65045 53.19824 183.14735 410
49.15833 54.17545 185.93460 407
45.46599 55.25690 188.82347 393
41.52603 56.35263 191.81410 391
37.43689 57.48013 194.88799 388
33.21844 58.68494 198.06471 385
28.52740 60.01904 201.37065 372
23.52103 61.46088 204.77646 370
18.14822 62.94218 208.34695 338
84.98193 42.97016 171.70119 316
82.22102 43.75681 173.86061 431
79.57847 44.48427 176.15482 427
76.82972 45.23868 178.45770 425
68.05291 47.69847 179.62811 300
56.54943 50.85727 180.56581 413
53.21044 51.79894 183.25446 410
49.70905 52.77195 186.05484 408
46.13792 53.76213 188.95511 406
42.37862 54.76656 191.90584 391
38.32792 55.91348 194.96265 389
34.14586 57.07716 198.13176 386
29.68509 58.29948 201.45085 373
24.74484 59.69481 204.85730 371
19.52106 61.13176 208.38248 368
85.10815 41.94069 171.77254 434
82.54539 42.59616 174.00366 432
79.94132 43.32125 176.28609 430
77.15815 44.08346 178.58897 426
67.86230 46.61146 179.62144 300
57.06055 49.50802 180.72658 421
53.73657 50.42582 183.40477 411
50.31921 51.31924 186.20714 409
46.77713 52.28120 189.05878 406
43.07570 53.26539 192.02042 404
39.20257 54.32061 195.09175 390
35.04204 55.47112 198.24271 387
30.77668 56.64256 201.56349 385
25.91930 57.90282 204.90738 372
20.80068 59.30037 208.45084 369
85.38319 40.83570 171.94029 435
82.83833 41.51562 174.15732 433
80.26164 42.18554 176.39531 430
77.50476 42.90100 178.70593 426
60.54350 47.37098 178.20314 423
57.48875 48.15551 180.83263 421
54.24750 49.02180 183.53775 412
50.87295 49.94077 186.33215 409
47.36377 50.88345 189.16757 407
43.70242 51.80149 192.16496 404
39.93319 52.79487 195.20418 402
35.96453 53.84737 198.35811 388
31.68120 54.96778 201.60497 385
27.11945 56.19746 204.97321 372
22.09629 57.50871 208.49271 370
85.72150 39.71787 172.02591 435
83.14617 40.35187 174.27579 433
80.59738 41.03736 176.51961 431
77.85918 41.71532 178.83684 427
60.96581 46.10243 178.29880 424
57.95402 46.88450 180.97435 422
54.78278 47.67175 183.67035 420
51.44893 48.51944 186.45268 410
47.90920 49.45219 189.26807 408
44.30188 50.38095 192.24159 405
40.57487 51.34228 195.27551 403
36.76306 52.33700 198.42346 400
32.64826 53.34711 201.69173 386
28.29001 54.50822 205.07024 384
23.27790 55.76905 208.55103 371
86.00170 38.60476 172.18401 436
83.49638 39.26222 174.38860 434
80.91932 39.91848 176.62503 432
78.22673 40.56054 178.94507 428
61.37064 44.77247 178.41498 425
58.39776 45.55581 181.09459 423
55.26136 46.35378 183.79071 420
51.98173 47.18053 186.56288 411
48.53289 48.02514 189.39160 408
44.90561 48.93749 192.32146 406
41.22404 49.86540 195.40041 403
37.37397 50.79931 198.50162 401
33.41701 51.80618 201.77477 398
29.24655 52.84183 205.15427 384
24.50054 54.02195 208.59903 371
86.30074 37.54482 172.29767 437
83.80681 38.16133 174.48572 434
81.21329 38.77740 176.77974 432
78.56387 39.43728 179.08109 428
61.83671 43.49359 178.57979 426
58.81171 44.25116 181.19615 423
55.73883 45.00422 183.86876 421
52.55797 45.78214 186.66853 412
49.10412 46.60748 189.48994 409
45.51473 47.48910 192.42986 407
41.85264 48.39997 195.43944 404
38.07573 49.34197 198.58122 401
34.12006 50.27478 201.79814 399
30.07722 51.26982 205.17397 396
25.74318 52.32761 208.68225 372
-187.00627 104.29571 208.77440 485
86.61761 36.44861 172.43234 437
84.10204 37.06689 174.62793 435
81.58017 37.66020 176.86278 433
78.91000 38.27736 179.15596 429
62.24889 42.27197 178.66257 426
59.22868 42.95440 181.28957 424
56.19071 43.67104 183.99294 422
53.03114 44.42361 186.77141 419
49.68898 45.21922 189.63492 410
46.14480 46.05872 192.51135 407
42.47686 46.91473 195.52419 405
38.72640 47.83611 198.64209 402
34.82045 48.75351 201.89189 399
30.79535 49.70594 205.24333 397
26.54922 50.70037 208.67813 394
-186.99947 101.53400 208.75041 486
86.91243 35.38842 172.53461 438
84.44020 35.93266 174.73109 436
81.87174 36.53545 177.00990 433
79.24990 37.13149 179.30267 430
62.67561 40.99408 178.80939 427
59.71629 41.66178 181.40645 425
56.64493 42.38403 184.09233 422
53.50185 43.07653 186.86700 420
50.26257 43.83635 189.71065 411
46.73227 44.68534 192.60237 408
43.10297 45.50797 195.64601 405
39.33687 46.35085 198.74681 403
35.49368 47.24793 201.92116 400
31.45437 48.19789 205.25133 397
27.28862 49.15091 208.70007 395
-187.39018 98.87360 208.75056 485
87.21252 34.33008 172.68851 438
84.74530 34.85424 174.86836 436
82.20461 35.45543 177.09674 434
79.57194 36.03600 179.38316 430
63.05881 39.71463 178.94431 427
60.12398 40.37086 181.55463 425
57.09351 41.07489 184.21455 423
53.97483 41.78739 186.99300 420
50.75447 42.52711 189.80399 418
47.33755 43.27217 192.73241 409
43.71649 44.10188 195.68657 406
40.01319 44.89369 198.79164 404
36.18987 45.75582 201.99953 401
32.16599 46.69967 205.29756 398
28.04268 47.63431 208.77168 395
-187.85107 96.18256 208.83463 485
-195.94386 97.89457 216.09743 295
87.50490 33.24026 172.76949 439
85.04389 33.79172 174.97388 437
82.52630 34.31658 177.22778 435
79.94255 34.90948 179.48430 431
63.49198 38.49198 179.05890 428
60.56508 39.14731 181.66191 426
57.52544 39.76619 184.32938 423
